# .PCD v0.7 - Point Cloud Data file format
VERSION 0.7
FIELDS x y z normal_x normal_y normal_z curvature
SIZE 4 4 4 4 4 4 4
TYPE F F F F F F F
COUNT 1 1 1 1 1 1 1
WIDTH 570
HEIGHT 1
VIEWPOINT 0 0 0 1 0 0 0
POINTS 570
DATA ascii
-0.013705668 0.0063899546 0.011514709 -0.12072004 -0.71779662 0.68570745 0.0010436181
-0.01091991 0.0062392815 0.01178689 -0.084022097 -0.69776177 0.71138507 0.0010823348
-0.007685937 0.0061024493 0.0119016 -0.050119445 -0.71364367 0.69871366 0.0013812837
-0.005212096 0.006047802 0.011796201 -0.029498544 -0.71474093 0.69876695 0.001160456
-0.0021567622 0.006097517 0.011998761 -0.00049318816 -0.70077223 0.71338499 0.0008852738
0.0015132836 0.0060813474 0.011961401 0.018618807 -0.69329965 0.72040892 0.00083544885
0.0053169825 0.0060883961 0.01186489 0.047205437 -0.7083711 0.70425987 0.0011267074
0.0077643176 0.0061714142 0.011868413 0.053374439 -0.68245995 0.72897166 0.002126148
0.010664262 0.0062149358 0.011743964 0.076846056 -0.69320583 0.71663117 0.0017679628
0.013618832 0.0064602885 0.011613131 0.10256335 -0.70063102 0.70611393 0.001660725
0.016643414 0.0066795959 0.011320424 0.13150835 -0.69825369 0.70366699 0.0015751725
0.019635269 0.0069579333 0.010956015 0.1584903 -0.69675046 0.69958538 0.0014316678
0.022535002 0.0072895824 0.010518252 0.17673191 -0.70872164 0.68299311 0.00084322476
0.025413385 0.0078066043 0.010241117 0.18645036 -0.69546878 0.69394481 0.00053607562
0.02836409 0.0081677167 0.009815692 0.19675386 -0.69815856 0.68837684 0.00054837385
0.031246593 0.0084953336 0.0094223451 0.20449066 -0.70348334 0.68065763 0.00098452577
0.033553235 0.0087963194 0.0091523444 0.23029666 -0.71519768 0.65989077 0.0020280918
-0.036494341 0.011740199 0.0092999786 -0.36004657 -0.77667099 0.51686424 0.0012201556
-0.034273382 0.011248626 0.0099602873 -0.32289976 -0.77141261 0.54832315 0.0011231963
-0.03148628 0.010561027 0.010492157 -0.28408825 -0.77583587 0.56335825 0.0010309332
-0.028651699 0.0098468354 0.010896518 -0.26156566 -0.76843679 0.58402759 0.0012763467
-0.02582244 0.0093946038 0.011497744 -0.22378558 -0.72748601 0.64860165 0.00097326894
-0.023456622 0.0091109173 0.011863969 -0.20518596 -0.70559144 0.67826211 0.0011923306
0.023075027 0.0090503292 0.011903606 0.1724603 -0.64303172 0.74616855 0.0011189198
0.025965823 0.0093558123 0.011676298 0.18544209 -0.66038442 0.72767001 0.00071036542
0.028695844 0.0097760968 0.011236441 0.19539049 -0.65611482 0.72892797 0.00040961546
0.031576142 0.010264523 0.010862502 0.20120277 -0.630723 0.74947047 0.00040580952
0.034440283 0.010467232 0.010304547 0.21777444 -0.65538502 0.72321832 0.0013079825
0.037377592 0.010970332 0.0098909764 0.25429782 -0.68061185 0.68709546 0.0025076035
0.040058117 0.01157875 0.0094892932 0.29959214 -0.68176621 0.66741252 0.0020765311
-0.042477421 0.01475113 0.0093013197 -0.44170639 -0.74610746 0.49821606 0.00081766734
-0.040229451 0.01414762 0.010106942 -0.39811036 -0.73672754 0.54657167 0.0010448816
-0.037537843 0.013183271 0.010620424 -0.35446709 -0.74473798 0.56543654 0.00098017126
-0.034875087 0.012516871 0.011315189 -0.30644864 -0.73329473 0.60693341 0.0010272629
-0.032752007 0.012182269 0.011903516 -0.28188568 -0.71881276 0.63549089 0.0017029126
0.032854807 0.012165334 0.011864972 0.20918445 -0.60477501 0.76843286 0.00049448648
0.034825388 0.012372188 0.011693269 0.20899206 -0.60515732 0.76818419 0.00027778177
0.037626814 0.012810417 0.011321347 0.22157148 -0.58744371 0.77834177 0.00052861212
0.040603295 0.013341677 0.010809383 0.26402739 -0.5996601 0.75544506 0.0013041085
0.0433839 0.01374041 0.010083028 0.33786356 -0.65379524 0.67705244 0.002722257
0.045964699 0.014479227 0.0095244022 0.37518936 -0.66968441 0.64090222 0.0027930494
-0.045940094 0.017306449 0.0097691873 -0.47676772 -0.70115536 0.53016388 0.0010768293
-0.04349852 0.016329581 0.010481882 -0.43008247 -0.7153604 0.55071628 0.001267987
-0.041030571 0.015517678 0.011318495 -0.38964799 -0.69934595 0.59924102 0.0010160431
0.041547403 0.015187945 0.011874142 0.24945951 -0.56938112 0.78331029 0.00058009633
0.043770608 0.015699698 0.011508547 0.2789464 -0.57236451 0.7710951 0.0012001563
0.046623189 0.016279612 0.010788962 0.33294198 -0.57644862 0.74622828 0.0015571308
0.049227569 0.016867936 0.0099613918 0.405393 -0.63361454 0.65893024 0.0024169458
0.051449336 0.01761391 0.0093060676 0.44414347 -0.64300287 0.62392622 0.0025089353
-0.051276173 0.020743901 0.0094290078 -0.50237775 -0.67225909 0.54376864 0.0010169001
-0.049245358 0.019926563 0.010151767 -0.49393654 -0.6768741 0.54577303 0.0013806794
-0.046825387 0.018847052 0.010928689 -0.46295354 -0.6780656 0.57087737 0.0014625259
-0.044621069 0.018203007 0.011840204 -0.41618416 -0.64733607 0.63855046 0.0016731034
0.047539219 0.018248506 0.011815689 0.32287458 -0.55204874 0.76876146 0.0013218414
0.049798831 0.018889511 0.01131783 0.35925731 -0.52658159 0.77048427 0.0016093269
0.05240117 0.019471956 0.010339331 0.42220333 -0.57613915 0.69986278 0.0021997557
0.054767873 0.020375984 0.0095852083 0.4948397 -0.60193223 0.62674654 0.0022794411
-0.054547578 0.023572318 0.009556165 -0.54865491 -0.63109142 0.54836237 0.0010594251
-0.052394629 0.022549024 0.010405696 -0.51057076 -0.6457395 0.56774819 0.0014343692
-0.050191779 0.021613287 0.011289339 -0.48867524 -0.64015907 0.59278399 0.0010914041
0.053151544 0.021664826 0.011549068 0.38893217 -0.50708908 0.76915056 0.0021323848
0.055616762 0.022363691 0.010578749 0.45186946 -0.50725383 0.73383075 0.0014959626
0.057828877 0.023130774 0.009650954 0.53203613 -0.54779845 0.64564276 0.0020708211
-0.057564724 0.026382655 0.0095174555 -0.60161006 -0.57591075 0.55352694 0.0013267366
-0.05549084 0.025388177 0.010544523 -0.55518198 -0.56943429 0.60623229 0.0014488196
-0.053474613 0.024498641 0.011498066 -0.52453029 -0.58268386 0.62076366 0.00077200844
0.056369122 0.0247014 0.011656108 0.43114811 -0.43032363 0.79305297 0.0021298251
0.058634277 0.025330735 0.010598511 0.4907079 -0.45279157 0.74443638 0.0012333684
0.060775723 0.026146693 0.0095639667 0.57858866 -0.49619305 0.64732349 0.0016776304
-0.060395703 0.029429449 0.0094508082 -0.6317063 -0.50876576 0.58489698 0.0021397399
-0.058431644 0.028410316 0.010440125 -0.59462559 -0.49718434 0.631845 0.0011494907
-0.056441654 0.02750423 0.011585473 -0.56126553 -0.5228284 0.64158523 0.0010776322
-0.0067854305 0.029478818 0.011043716 0.1333836 0.6289376 0.76592839 0.0012555999
-0.0033033437 0.028926594 0.011013811 0.10252228 0.63079405 0.76914757 0.00082286599
0.0076202517 0.027772186 0.011607067 -0.028672105 0.54934591 0.83510298 0.0015496231
0.05931082 0.027830238 0.011573484 0.47632587 -0.35604015 0.8039583 0.001604334
0.061527018 0.028476657 0.010395418 0.54967308 -0.38555065 0.7410872 0.0022064652
0.063412145 0.029301286 0.009401775 0.62885159 -0.42183256 0.65314847 0.0019167538
-0.063075289 0.032928679 0.009102257 -0.67125052 -0.39695048 0.62598169 0.0016317663
-0.060980603 0.03142136 0.010208372 -0.64171213 -0.42728528 0.63689315 0.0016900221
-0.059333 0.030693779 0.01138843 -0.59851372 -0.41525346 0.68508816 0.0019861259
-0.018642459 0.032060146 0.011744929 0.21987192 0.66588438 0.71291959 0.0004227146
-0.016258765 0.031719748 0.011255844 0.21950126 0.66907114 0.71004438 0.00024101236
-0.013494316 0.03100759 0.011124413 0.2016135 0.65248293 0.7304917 0.00053236505
-0.010056593 0.030257801 0.010980204 0.16808611 0.6470539 0.7436856 0.00058580807
0.061955061 0.031237453 0.011354634 0.50976056 -0.29857865 0.80684268 0.0011597071
0.06410832 0.031569146 0.0099162646 0.61533093 -0.34148806 0.71046025 0.0018993164
-0.063738339 0.034984652 0.0096867885 -0.66490579 -0.34934977 0.66019326 0.0017782295
-0.061856933 0.034018323 0.010989388 -0.61346847 -0.34546936 0.71014601 0.001533385
-0.025529409 0.035094462 0.011293004 0.27846441 0.66696173 0.69110036 0.0003987978
-0.023041639 0.03439606 0.01082935 0.26727057 0.68200129 0.68076485 0.0003053064
-0.020434402 0.033244576 0.011151686 0.23100954 0.66496158 0.71025395 0.00043086766
0.062541917 0.033775218 0.011799295 0.48908824 -0.20338061 0.84819168 0.0021720182
0.064534798 0.034461249 0.010643297 0.58323288 -0.24932338 0.77309591 0.0020133907
0.066358313 0.034851566 0.009371805 0.67274594 -0.27457327 0.68703878 0.001629084
-0.064350069 0.037193622 0.010115696 -0.66154456 -0.28601778 0.69321907 0.0013405654
-0.062447559 0.036860891 0.011627386 -0.60565197 -0.2512399 0.75502598 0.0016486628
-0.034141589 0.038473394 0.011837281 0.30465072 0.66563302 0.68126398 0.00046724023
-0.031601924 0.038020112 0.010963279 0.29906946 0.66841239 0.68101573 0.00041405702
-0.028383464 0.036745075 0.010815461 0.29355282 0.6633172 0.68835825 0.00041670434
0.039884664 0.036675081 0.011923545 -0.20781204 0.44473395 0.87122095 0.00086178677
0.064826809 0.037275556 0.011164339 0.54002708 -0.13891479 0.83010447 0.0014016781
0.066805549 0.037584789 0.0097037302 0.65561831 -0.18427044 0.73226297 0.0027720153
-0.066245198 0.040196545 0.0093338443 -0.67475015 -0.23817441 0.6985594 0.002443013
-0.064555623 0.039985668 0.010733873 -0.6246711 -0.1940244 0.75639969 0.0023833956
-0.062849835 0.039734647 0.011772231 -0.513174 -0.0824553 0.85431474 0.0026797927
-0.039920688 0.041418608 0.011658113 0.30402318 0.6474548 0.69883633 0.0007630678
-0.037291698 0.040817518 0.01087599 0.31962219 0.67041022 0.66962069 0.00030346191
-0.034614395 0.039907396 0.010413207 0.31684187 0.67304784 0.66829473 0.00031994522
0.046268545 0.040927291 0.011296665 -0.21699533 0.47119763 0.85491866 0.00044737791
0.048515774 0.041845184 0.011497007 -0.2196676 0.46886548 0.85551822 0.00058350712
0.064947404 0.040374242 0.011416836 0.49684629 -0.029253861 0.86734533 0.0022388129
0.06730403 0.040541817 0.0098201372 0.65097427 -0.090342566 0.75370467 0.0028207083
-0.066745549 0.04332687 0.0095202066 -0.63019621 -0.084487468 0.77182549 0.0025094778
-0.064666227 0.0432937 0.010973079 -0.50546557 0.014582837 0.86272353 0.0036925168
-0.062905341 0.04437276 0.011932169 -0.389424 0.1081356 0.91468883 0.0057943254
-0.045573704 0.044365782 0.011348898 0.28433093 0.62517989 0.72684664 0.00085582078
-0.043298207 0.043718673 0.010892889 0.30720434 0.64883649 0.69615859 0.00041637005
-0.040903427 0.043052305 0.010351856 0.31170031 0.65369052 0.68958801 0.00047261358
-0.038648508 0.042185403 0.010099755 0.32289508 0.67924899 0.65905964 0.00013019179
0.050062664 0.042800646 0.011357883 -0.21098116 0.46493924 0.85983628 0.00062518602
0.053316642 0.043868061 0.011663088 -0.13014673 0.40356654 0.90564668 0.0010763886
0.055777788 0.044480711 0.011885434 -0.058379088 0.37957612 0.92331678 0.0020462738
0.062734686 0.044453561 0.011877892 0.20864609 0.1861331 0.96011519 0.0052955202
0.064723849 0.043461379 0.011399801 0.45602763 0.069980182 0.88720995 0.0034135911
0.067301467 0.043274112 0.0099413469 0.60406494 -0.0055939588 0.79691547 0.0038479369
-0.066836543 0.046070237 0.0095497556 -0.57244772 -0.00075303472 0.81994087 0.0026230011
-0.064971924 0.04631995 0.010561598 -0.46561623 0.087537192 0.88064677 0.0036303892
-0.061924133 0.046372235 0.011693966 -0.31588039 0.21814826 0.9233802 0.0047143172
-0.058515973 0.0476273 0.011836282 -0.0060397359 0.46311542 0.88627744 0.0029093947
-0.054599352 0.047309294 0.011637747 0.090038069 0.54109931 0.83612478 0.0029611257
-0.052568793 0.047184136 0.011350507 0.20577578 0.61846215 0.75839365 0.002505586
-0.049724631 0.046213515 0.011166295 0.2107683 0.59989804 0.77181542 0.0014849636
-0.046906009 0.045964956 0.010301947 0.30346972 0.68563342 0.66167438 0.0023768474
-0.044469021 0.045136247 0.0099642826 0.33932552 0.72922266 0.59421587 0.0030291837
0.055781744 0.046270557 0.010789448 -0.1104126 0.4385182 0.89191419 0.00079448748
0.058626719 0.046013519 0.011504322 -0.0080184937 0.36331183 0.93163306 0.0030114085
0.061966415 0.046402574 0.011383109 0.20071778 0.27619088 0.93991011 0.0033781554
0.064891689 0.046126258 0.010832695 0.40093896 0.16106576 0.90183467 0.0042999461
0.067307815 0.046204258 0.0097188856 0.59501499 0.071002774 0.80057216 0.0044410597
-0.066534035 0.048944116 0.0094135832 -0.37312815 0.24351273 0.89525247 0.0041663069
-0.064497486 0.049425118 0.010020077 -0.3029426 0.29200694 0.90717018 0.0042503783
-0.061631404 0.049322221 0.010666948 -0.16488104 0.40058786 0.90130103 0.003127587
-0.058534682 0.049077198 0.010867087 -0.034254231 0.46923167 0.88241053 0.0033547867
-0.055439465 0.049183287 0.010428667 0.15192093 0.62880212 0.7625798 0.0021188399
-0.05254782 0.048912864 0.0097728996 0.26391935 0.68597716 0.67807215 0.0014507518
-0.050785277 0.048480019 0.0095314756 0.3117556 0.67576563 0.66794413 0.0015853458
0.058285229 0.048654538 0.0098467711 -0.036736649 0.42090207 0.90636194 0.001578037
0.06189676 0.049038194 0.010178193 0.11081521 0.35043249 0.93000919 0.0032943231
0.064878009 0.04918595 0.0099311117 0.30057532 0.26405624 0.91647631 0.0053771343
0.066867247 0.049115881 0.0093523245 0.47474274 0.19505754 0.85823762 0.004709173
-0.064764425 0.051376991 0.0091272276 -0.22811055 0.38214463 0.89550602 0.0081189303
-0.061354544 0.051024336 0.0097169457 -0.017749941 0.53312117 0.84585273 0.0028135248
-0.057292894 0.051313438 0.0090127373 0.17787933 0.65385097 0.73541683 0.0026112481
0.064324707 0.051162541 0.0091486461 0.19974636 0.35839361 0.91195142 0.0037438874
-0.0071557835 0.0059726723 0.012055932 -0.055502061 -0.68856221 0.72305018 0.00090784917
-0.0039106859 0.005887819 0.01209424 -0.028804436 -0.71379519 0.69976199 0.00094052003
-0.0013649265 0.0058647748 0.012117933 -0.0055967909 -0.70678055 0.70741081 0.0010886424
0.0014883172 0.0059223431 0.012133224 0.018718252 -0.68539774 0.72792828 0.0015377002
0.0039910101 0.005902329 0.012091922 0.03472748 -0.69485718 0.71830875 0.0014116084
0.007618574 0.005994299 0.012016197 0.057138979 -0.70299846 0.70889235 0.001181771
-0.021788601 0.0087918267 0.012219476 -0.19726589 -0.71197665 0.67392534 0.00093648746
-0.019299602 0.0084764548 0.012495731 -0.17159168 -0.7033416 0.68983108 0.0010128146
-0.016406439 0.0081604254 0.012802534 -0.13901681 -0.68391806 0.71619171 0.0010792783
-0.013457787 0.00783817 0.012973237 -0.10363218 -0.67700094 0.72864956 0.0011016717
-0.010522481 0.0075997016 0.013094385 -0.069859698 -0.66017526 0.74785584 0.0011274976
-0.0075387224 0.0075362702 0.013258245 -0.037350293 -0.63663799 0.77025771 0.0016345284
-0.0045718695 0.0074237604 0.013277302 -0.017402913 -0.61951458 0.78479224 0.0012079737
-0.0014643087 0.0074137598 0.013295156 0.0039301696 -0.59939426 0.80044436 0.0011471807
0.001514241 0.0074162283 0.013248361 0.020102942 -0.5895136 0.80750829 0.0013896184
0.0045166286 0.0073906966 0.013120131 0.035669882 -0.58520097 0.81010336 0.0016643885
0.0075300578 0.0075224028 0.013043717 0.054111421 -0.58648455 0.80815089 0.0020374961
0.010508661 0.0076185125 0.012888682 0.077047832 -0.59495759 0.80005568 0.0018036648
0.013515189 0.007900062 0.012797738 0.092914902 -0.59866548 0.79559189 0.0016173148
0.016486553 0.0081800893 0.012630745 0.11282501 -0.61287999 0.78207976 0.0018984067
0.01929638 0.0084533133 0.012405646 0.13816965 -0.63050467 0.76378858 0.0019584082
0.021966316 0.0087394211 0.012154166 0.16071689 -0.66001129 0.73386317 0.0015388124
-0.030648967 0.011734235 0.012339687 -0.26549631 -0.70409912 0.65860158 0.0009840827
-0.028298477 0.011328559 0.01275745 -0.23530647 -0.69290221 0.68155515 0.0010245852
-0.025383405 0.010787904 0.013120811 -0.20764501 -0.69197297 0.69141662 0.0012732822
-0.022510588 0.010418092 0.01352981 -0.17272231 -0.64954072 0.74044836 0.0013029772
-0.019637045 0.010181819 0.013960633 -0.14966503 -0.62151694 0.76897144 0.0013865061
-0.01656775 0.0098548988 0.01422844 -0.11467323 -0.59193087 0.79778945 0.0012146201
-0.013618045 0.0097338082 0.014499732 -0.08202523 -0.58602107 0.80613345 0.0013730736
-0.010539417 0.0095315119 0.014595412 -0.052121058 -0.58221036 0.81136578 0.0011806852
-0.0074787308 0.0095022405 0.014720607 -0.022027755 -0.54746664 0.83653748 0.0013446579
-0.0044777496 0.009480428 0.014736327 -0.0030132935 -0.50023234 0.86588597 0.0019764572
-0.0014742446 0.0095086461 0.014720461 0.014922557 -0.48671255 0.87343472 0.0017547559
0.0016265046 0.009565278 0.014633629 0.030590603 -0.48559523 0.87364835 0.0018013422
0.004553718 0.0097563928 0.014615983 0.044440128 -0.47722617 0.8776561 0.0016956568
0.0075665936 0.009903484 0.014555195 0.055538774 -0.46197867 0.88515037 0.0016864057
0.010584854 0.009932139 0.014334274 0.068773672 -0.4770247 0.87619495 0.0012894925
0.013443046 0.010270161 0.014272507 0.083379984 -0.47654942 0.87518483 0.0013103861
0.01656956 0.010319744 0.013978682 0.099736296 -0.48968792 0.86617458 0.0011762012
0.019547846 0.010356684 0.01362963 0.12535588 -0.50174975 0.85588145 0.0012832478
0.022489065 0.010340543 0.013167166 0.15079133 -0.55006087 0.8213982 0.0026884058
0.02542234 0.010720287 0.012881771 0.16675483 -0.57361305 0.80197304 0.0021011778
0.028343042 0.011162702 0.012554977 0.18437131 -0.59592527 0.78158832 0.0015499479
0.030960277 0.011682488 0.012253627 0.19805492 -0.60538548 0.77089739 0.00053870369
-0.03697582 0.014454617 0.012465618 -0.33408731 -0.68212396 0.65045565 0.00085298566
-0.034434941 0.013891927 0.013023973 -0.29218096 -0.67854583 0.67394793 0.0013285571
-0.031591821 0.013319847 0.013551324 -0.24814647 -0.65385282 0.71477258 0.0010375172
-0.028590618 0.012909281 0.014149635 -0.21127674 -0.62470967 0.75173128 0.0012705766
-0.025592538 0.01251734 0.014621645 -0.18004642 -0.6311574 0.75446922 0.0011789025
-0.023428395 0.012195542 0.014782125 -0.15687744 -0.6151852 0.77261674 0.001487153
-0.020969264 0.012220737 0.014862581 -0.12877013 -0.61343116 0.77917939 0.00099098531
0.011401908 0.0120494 0.014964318 0.068168283 -0.30432689 0.9501254 0.0012738158
0.013403217 0.01226293 0.014894016 0.070970818 -0.31231028 0.94732547 0.0017777072
0.016926387 0.012212834 0.014899809 0.084869944 -0.36682707 0.92640978 0.0015016467
0.019708809 0.01259159 0.014775331 0.1036249 -0.37337863 0.92187321 0.0019972089
0.022708563 0.012876564 0.014515591 0.12509896 -0.42674026 0.89568019 0.0016172333
0.02571355 0.013178621 0.014255367 0.14027835 -0.44874832 0.88257968 0.001537931
0.028588727 0.013262104 0.013829102 0.15692277 -0.48135653 0.8623637 0.0015120726
0.031508911 0.013365087 0.013302124 0.19158655 -0.52714336 0.82789767 0.0017181466
0.034386232 0.013746812 0.012847892 0.19850171 -0.54798585 0.81259376 0.00070907135
0.037243027 0.014317411 0.012468874 0.21240152 -0.55437779 0.80470544 0.00046298894
0.039593212 0.014676092 0.012167387 0.23757377 -0.56647235 0.78909308 0.00058228464
-0.042681701 0.017519476 0.012501303 -0.39810699 -0.64646304 0.65084273 0.0012296085
-0.040253948 0.016618734 0.012902503 -0.36360252 -0.6523391 0.66501653 0.0012178108
-0.037699066 0.01619518 0.013765073 -0.31889063 -0.62823832 0.7096656 0.0012507254
-0.034627285 0.015548926 0.014460985 -0.26322353 -0.63123196 0.72956121 0.001032591
-0.032421045 0.015222404 0.014871202 -0.22643374 -0.60317898 0.7647894 0.0011313426
0.023980454 0.015098637 0.014920508 0.071742885 -0.21362495 0.97427785 0.0017284417
0.026049837 0.015299878 0.014948566 0.11029736 -0.32433483 0.93948996 0.0018210547
0.0288883 0.015445 0.014826906 0.12456528 -0.34484816 0.9303565 0.0023851807
0.031632654 0.015873512 0.014633062 0.14671075 -0.38336086 0.91187191 0.0025071246
0.034580272 0.016173812 0.014259691 0.17106672 -0.4474209 0.87781018 0.0016220723
0.037560094 0.016334852 0.013688105 0.20169005 -0.4793559 0.85413063 0.00093900599
0.040457249 0.016509777 0.013013315 0.22764415 -0.5057081 0.83212829 0.0004897436
0.043346286 0.017117916 0.012571006 0.25634491 -0.51547593 0.81766248 0.00093865016
0.045671221 0.017600939 0.01221297 0.29700428 -0.53796118 0.78891456 0.0015615668
-0.048224792 0.020909004 0.012176079 -0.44799784 -0.61353654 0.65028524 0.00098761113
-0.046146341 0.02016459 0.012764092 -0.42985901 -0.6171838 0.65901846 0.001119293
-0.04348724 0.019416587 0.013656548 -0.38056195 -0.58283579 0.7179659 0.0011277404
-0.040805943 0.018712465 0.014468086 -0.33224931 -0.55670381 0.76137459 0.0012987999
-0.038258262 0.018340487 0.01496142 -0.29579526 -0.5456211 0.78409362 0.0013018402
0.035322413 0.018266516 0.014887358 0.13905232 -0.33707219 0.93115348 0.0021249503
0.037936501 0.018480293 0.014717892 0.1746331 -0.36672676 0.91379148 0.0024129516
0.040630732 0.019061211 0.014370614 0.20997095 -0.41511253 0.88520831 0.0011350776
0.04347755 0.019386332 0.013763249 0.23579329 -0.43000224 0.87149274 0.00067814562
0.046434421 0.019517545 0.012958646 0.27597004 -0.46580645 0.84075254 0.00092051254
0.049181867 0.02016779 0.012429053 0.32309276 -0.4851189 0.81257045 0.0017420418
0.05136501 0.020851299 0.012069531 0.37768394 -0.51613599 0.76873827 0.0020632208
-0.051474292 0.023616644 0.012350187 -0.48664853 -0.58542871 0.64841837 0.001260833
-0.049242005 0.02269946 0.012961371 -0.4511261 -0.56900454 0.68754566 0.0014987601
-0.046743788 0.022224104 0.014083384 -0.40245199 -0.52664024 0.74878722 0.00085484481
-0.044530656 0.021535853 0.014765954 -0.36628848 -0.51919276 0.77218628 0.0024639764
-0.0032317424 0.023989804 0.014929542 0.090868369 0.50801575 0.85654128 0.0010702679
-0.00010309286 0.023202976 0.014981293 0.056966092 0.3798804 0.92327988 0.001301811
0.0018478613 0.023497522 0.014767587 0.044055667 0.39894852 0.91591442 0.0016190177
0.004074764 0.023649858 0.014580105 0.024851831 0.40050447 0.91595775 0.0014948039
0.0078988243 0.023603464 0.014590858 -0.011666068 0.3880738 0.92155445 0.0012803824
0.010326942 0.023616269 0.0146233 -0.023761103 0.37817049 0.92543095 0.0018682422
0.013276068 0.023479119 0.014801061 -0.044052452 0.36383423 0.93042147 0.002160494
0.015687728 0.023633927 0.014942822 -0.068547696 0.32679704 0.94260544 0.0026396278
0.018232994 0.02399007 0.014937501 -0.10433932 0.42189857 0.90061921 0.0025785747
0.04125683 0.021210957 0.014906364 0.15715733 -0.27565232 0.94832343 0.0024853786
0.043974802 0.021642886 0.01470437 0.21494791 -0.33890265 0.91593802 0.0019114744
0.046645816 0.02233506 0.014248072 0.25546852 -0.36836582 0.89389175 0.0008210261
0.049519513 0.022423191 0.01339829 0.30034649 -0.40145209 0.865233 0.00070928986
0.052264895 0.022789735 0.012599725 0.35027885 -0.42984191 0.83219033 0.0019525993
0.054289911 0.0235657 0.012163058 0.40360078 -0.45900926 0.79146498 0.0020066896
-0.05448271 0.026514292 0.012421217 -0.52404606 -0.52467197 0.67089117 0.0012113559
-0.05230993 0.02557444 0.013174661 -0.47205099 -0.51756805 0.71364635 0.0017406438
-0.049797058 0.024969554 0.014289126 -0.42790273 -0.49258989 0.75779581 0.0016350832
-0.047820866 0.024086755 0.014724672 -0.40702784 -0.49918982 0.76494306 0.0010449839
-0.015248126 0.02696633 0.014921611 0.18360859 0.51549876 0.83698803 0.00035549904
-0.012629641 0.026578482 0.014700154 0.1750993 0.52634853 0.83204412 0.0014190932
-0.010039349 0.026074125 0.014532581 0.15248634 0.51427394 0.84396106 0.0016492275
-0.0070744939 0.025561986 0.014382895 0.12062138 0.51270145 0.85005158 0.0013090714
-0.0043781879 0.024952469 0.014414638 0.09110529 0.45949024 0.88349789 0.001236116
-0.0016364711 0.025262224 0.013922833 0.062242433 0.47875601 0.87573886 0.0017250844
0.0013557776 0.025302555 0.013703766 0.065672979 0.5171172 0.85339141 0.00090866897
0.0047058258 0.024624882 0.013964691 0.02807482 0.46308589 0.88586867 0.0010703371
0.0071858037 0.024610136 0.0139599 -0.015002386 0.45646074 0.88961709 0.0012569329
0.01083004 0.024937283 0.013915087 -0.04124314 0.51762873 0.8546108 0.002087682
0.013415391 0.025341466 0.013789875 -0.04734746 0.44905767 0.89224738 0.00051079685
0.016544342 0.025174329 0.014173139 -0.072376773 0.43515086 0.89744377 0.00093413633
0.019623272 0.025481217 0.014422549 -0.093938492 0.40985751 0.90729946 0.002188036
0.022472665 0.025846731 0.014633849 -0.11419017 0.37545866 0.91977787 0.0025807694
0.025471184 0.026581794 0.014686677 -0.10049524 0.32704449 0.93965024 0.001911279
0.028210344 0.026881948 0.014928689 -0.096596725 0.27217427 0.95738715 0.0021504506
0.047437143 0.024444541 0.014838703 0.21336249 -0.26231253 0.94109964 0.0026097903
0.049717281 0.025166241 0.014426577 0.2728309 -0.30921632 0.91101515 0.0012204516
0.052525423 0.025473261 0.013621521 0.31387088 -0.33566323 0.88815272 0.00063107297
0.055238005 0.025622426 0.012659067 0.37728962 -0.36877319 0.84950507 0.0021354298
0.057251096 0.026533017 0.0121686 0.44988492 -0.40543878 0.79575312 0.0021281177
-0.057247743 0.029577566 0.01241278 -0.5460633 -0.43008691 0.71891594 0.0014444652
-0.055318188 0.028444579 0.013022877 -0.51910645 -0.45032158 0.7264564 0.0017297646
-0.053097904 0.028032551 0.014266968 -0.4541862 -0.41083035 0.79052722 0.001543057
-0.021304647 0.029526759 0.014801407 0.1954179 0.48119846 0.85455245 0.0010365768
-0.019185016 0.029092938 0.01452492 0.19530489 0.53658688 0.82093269 0.00067421835
-0.016860094 0.028392121 0.01439883 0.2011658 0.54246873 0.81563473 0.0012948771
-0.013549749 0.028173506 0.013735015 0.18210062 0.57245827 0.7994566 0.0010356198
-0.0099695697 0.028108105 0.012998103 0.15217963 0.59366167 0.79019439 0.0009778667
-0.0079221865 0.028004929 0.012756019 0.13338123 0.62892324 0.76594061 0.0012600545
-0.0043296609 0.027433833 0.012658986 0.11285283 0.59639347 0.79471952 0.0026723461
0.0046489039 0.027327815 0.012014252 0.046971306 0.54560363 0.83672601 0.0011710721
0.016478367 0.027411344 0.012710283 -0.096111819 0.44727036 0.88921976 0.0016061717
0.020272143 0.02767262 0.013206353 -0.12554477 0.43011001 0.8940044 0.0010121758
0.022893466 0.028180081 0.013306219 -0.13545707 0.43939486 0.88802224 0.00053556712
0.02573486 0.027803067 0.014123196 -0.12476383 0.39263543 0.9111923 0.001833362
0.028550664 0.028299369 0.01431301 -0.10404642 0.37698311 0.92035758 0.001412798
0.031302553 0.028758429 0.014538949 -0.1273585 0.3696529 0.9204002 0.0016543583
0.034377676 0.029339708 0.014764834 -0.11735597 0.30694309 0.94446468 0.0019512792
0.037400089 0.02996104 0.014915838 -0.12433352 0.3540962 0.92690724 0.0019960061
0.050444257 0.027587388 0.014840518 0.20806681 -0.16714869 0.96372688 0.0034429473
0.052765105 0.028300239 0.014451776 0.2913779 -0.24640234 0.92432934 0.0011980822
0.055582069 0.028439641 0.013516203 0.34230879 -0.27813801 0.89747643 0.00070736452
0.058191046 0.028730499 0.012533697 0.41896582 -0.31314221 0.85229665 0.0019090053
-0.060229756 0.032924965 0.012001589 -0.59790623 -0.35724685 0.71755338 0.0014313402
-0.058293305 0.031590641 0.012691477 -0.55429655 -0.36275184 0.74911046 0.0020319263
-0.055827133 0.031077495 0.014018319 -0.48535702 -0.32666883 0.81099695 0.0013727584
-0.053882841 0.030391356 0.014904514 -0.42155984 -0.28440189 0.86104751 0.0032483693
-0.02847553 0.032607969 0.014763164 0.24189842 0.58969676 0.77054709 0.00084914605
-0.025515616 0.031624209 0.0144618 0.21920849 0.51958549 0.82581991 0.0014511882
-0.022444732 0.031339567 0.013762055 0.24547723 0.63824081 0.72965038 0.0021518574
-0.019558132 0.030953595 0.013194909 0.22695222 0.64338768 0.73112583 0.0012156081
-0.016655685 0.030689327 0.012518676 0.21995977 0.64281899 0.73375851 0.00097346882
-0.014024598 0.030104345 0.012267299 0.19132096 0.64467555 0.74012828 0.00079469441
0.028812133 0.030873151 0.012732472 -0.15166499 0.45512143 0.87741792 0.00064530567
0.032259278 0.030514987 0.01383865 -0.12604327 0.37355083 0.91900647 0.001299036
0.034553081 0.031199005 0.013915114 -0.12878178 0.35551274 0.92575699 0.001453076
0.037518725 0.031283233 0.014442835 -0.14707609 0.36249194 0.92030877 0.0012895844
0.040647604 0.031958289 0.014703444 -0.12378815 0.29537377 0.94732821 0.0021095816
0.043193921 0.032344349 0.014932612 -0.11296039 0.24685438 0.96244633 0.0021007436
0.045213066 0.03291047 0.01497191 -0.065100536 0.25925946 0.96361119 0.0012880908
0.050420653 0.031674255 0.014904741 0.17942306 -0.096059874 0.97907096 0.00096771156
0.053386848 0.03092481 0.01478849 0.23354062 -0.12127434 0.96475458 0.0023625297
0.055615604 0.03122551 0.014204935 0.30633664 -0.18171971 0.93441731 0.0018834694
0.058583606 0.031335756 0.013141403 0.38006896 -0.22816062 0.89637625 0.0017352526
0.060710676 0.031853225 0.012337832 0.47266999 -0.26647612 0.8399843 0.001837649
-0.060603704 0.035015386 0.012421382 -0.58541477 -0.30673137 0.75047004 0.0014950354
-0.058449391 0.034191664 0.013577321 -0.5040639 -0.23169896 0.83200675 0.0025888651
-0.056399789 0.033773646 0.01462031 -0.44226733 -0.20051582 0.87418127 0.0033989081
-0.034284458 0.035341244 0.014582611 0.22821085 0.52922988 0.81721205 0.00082323211
-0.030775471 0.033896141 0.014461987 0.23903605 0.52866894 0.81447583 0.0006432166
-0.028451532 0.034320571 0.013317668 0.28020668 0.63257533 0.72203368 0.0014162465
-0.02561466 0.033539146 0.012985586 0.25973845 0.64661378 0.71723533 0.0014765869
0.035337128 0.033581261 0.012577729 -0.18386617 0.46122488 0.86802357 0.00067869318
0.037888188 0.033918854 0.013127671 -0.17771035 0.43942937 0.88052309 0.0012794604
0.041034322 0.033771332 0.014021124 -0.12575024 0.30165082 0.94508922 0.0011626988
0.043670069 0.03413685 0.014381014 -0.149754 0.34598655 0.92621106 0.0016184147
0.046246409 0.034368295 0.014680901 -0.085022226 0.23974656 0.96710533 0.002566416
0.049753744 0.035113055 0.014792892 -0.032421805 0.18170559 0.98281837 0.0025372731
0.05295939 0.034353107 0.014795442 0.12485949 0.02959286 0.99173295 0.002856801
0.055611942 0.034292776 0.014509872 0.25930652 -0.084215917 0.9621163 0.0021895764
0.058644392 0.034289472 0.013657331 0.35976648 -0.14161912 0.92223221 0.0019718588
0.061275706 0.034581747 0.012638997 0.4380073 -0.17453876 0.88186496 0.0019542926
-0.061308213 0.037721805 0.01262022 -0.5219447 -0.14427435 0.84068942 0.0040813969
-0.058579404 0.037331741 0.01405225 -0.41404465 -0.053320806 0.90869349 0.0029517706
-0.056596618 0.036960889 0.014861737 -0.32721597 -0.017285869 0.9447915 0.0030817923
-0.042627506 0.038580932 0.014833852 0.17945956 0.4938162 0.85084653 0.0010967776
-0.040581368 0.03840968 0.014360392 0.20110869 0.52190125 0.82895982 0.0011138865
-0.037684806 0.037237991 0.014282996 0.23279122 0.51977903 0.82197201 0.0007604264
-0.034656707 0.037067294 0.013417738 0.3005805 0.62850493 0.71737921 0.0016767837
-0.031638343 0.036548913 0.012606258 0.29875782 0.63938266 0.70847279 0.0010249126
-0.029880686 0.036217973 0.012139172 0.29776695 0.65363848 0.69576693 0.00031087152
0.041547559 0.036754414 0.012479725 -0.20419714 0.41947165 0.8845039 0.0014872689
0.043668404 0.036765233 0.013160259 -0.16533211 0.37474737 0.91226625 0.0015154334
0.046578009 0.037255339 0.013625995 -0.15056325 0.37366685 0.91526157 0.0013568876
0.049494091 0.037042618 0.014182944 -0.046606142 0.2471896 0.96784562 0.0021331154
0.052891701 0.037252273 0.014405012 0.024429757 0.19175033 0.9811396 0.0028206445
0.055672854 0.037165839 0.014314266 0.15356483 0.089358523 0.98408991 0.0036466853
0.058610607 0.037327245 0.013863448 0.30360946 -0.022920821 0.95252085 0.0022261722
0.061543591 0.037162393 0.012827255 0.40233469 -0.097292483 0.91030824 0.0021369685
0.06330397 0.037563507 0.012137067 0.48676732 -0.099032395 0.86789989 0.0023393293
-0.063018106 0.041915745 0.012063454 -0.49602085 0.056473807 0.86647218 0.0068053482
-0.061526909 0.040369682 0.012760838 -0.47864088 -0.040305737 0.87708509 0.0040007597
-0.058498777 0.040400803 0.014026375 -0.364429 0.045480296 0.93011993 0.0031533474
-0.056137577 0.04000188 0.014724948 -0.25779951 0.12368641 0.95824897 0.0042480621
-0.053041432 0.041141398 0.01482572 -0.015837049 0.33679482 0.94144487 0.0036102054
-0.049395762 0.041172445 0.014617067 0.10222595 0.44614485 0.88910329 0.0020798726
-0.04646454 0.040866487 0.014255742 0.17283912 0.5083555 0.84362394 0.0012837609
-0.043666266 0.040200491 0.013987454 0.20754033 0.53259414 0.82053065 0.00078688189
-0.040584553 0.040131927 0.013125435 0.28894314 0.6293087 0.72144473 0.0015800766
-0.03801199 0.039260894 0.01285918 0.28924805 0.6424318 0.70965976 0.0010470251
0.046979088 0.039536875 0.012515078 -0.17704529 0.42683056 0.88683182 0.0018719346
0.05002575 0.040398233 0.012818743 -0.14169869 0.39284134 0.90862375 0.001638089
0.052574307 0.040421452 0.01328963 -0.096961811 0.35557479 0.92960471 0.0025270979
0.055908315 0.039929893 0.013711283 0.096788138 0.1907475 0.97685587 0.0026991812
0.058586042 0.040287726 0.013464576 0.19663364 0.13040461 0.97176635 0.0030616
0.061718021 0.040584378 0.012791123 0.35754606 0.027576048 0.93348825 0.0028560283
0.063328668 0.040204182 0.012237615 0.45085576 0.00060464517 0.89259666 0.0029016337
-0.061588433 0.043128613 0.012576221 -0.41029149 0.081062131 0.90834457 0.002651179
-0.058936357 0.043168593 0.01344268 -0.28331673 0.1748191 0.942958 0.0046098977
-0.055405721 0.043161854 0.013957521 -0.058899682 0.37499538 0.92515361 0.005007335
-0.05249656 0.043322839 0.013805225 0.02647787 0.43027273 0.90231055 0.0027014436
-0.049819864 0.043388128 0.013364519 0.14196812 0.51667118 0.84433162 0.0022837939
-0.047279596 0.043178797 0.012883989 0.19689813 0.57102799 0.79696816 0.0013437533
-0.044111416 0.042452291 0.012487467 0.27805918 0.63781124 0.71824783 0.0010288078
0.05263193 0.042302094 0.012377789 -0.17699006 0.40961319 0.89492548 0.0013272543
0.055835284 0.0428629 0.01267092 -0.058628127 0.35983947 0.9311704 0.0021506087
0.05888886 0.042827353 0.012801762 0.14299935 0.21042426 0.96709508 0.0023114108
0.061389081 0.043213584 0.01241478 0.23867775 0.17109665 0.95590734 0.0041857078
0.063142158 0.042745661 0.012178897 0.40058357 0.049718395 0.91491038 0.0020961785
-0.060862869 0.045743532 0.012306575 -0.21263294 0.32808164 0.92040735 0.0060098432
-0.058520343 0.046093166 0.01252676 -0.078063503 0.3994287 0.91343468 0.0046649119
-0.055766702 0.046092685 0.012545507 0.018121831 0.45583913 0.88987768 0.0022375945
-0.052135967 0.045439672 0.012488307 0.13237092 0.53369421 0.83525348 0.0028933531
-0.02167364 0.011829664 0.015030202 -0.14524949 -0.60840815 0.78021932 0.0011831216
-0.019155985 0.011714655 0.015219706 -0.11898407 -0.57933843 0.80635583 0.0014152832
-0.016376838 0.011433046 0.0153496 -0.087608375 -0.54839176 0.83161974 0.0015017309
-0.013457354 0.011127409 0.015442387 -0.05461305 -0.5218361 0.85129571 0.0018200655
-0.010385095 0.011013172 0.015528125 -0.025905367 -0.49306029 0.86960942 0.0018987524
-0.0074167848 0.01095668 0.015553465 -0.0046934211 -0.46924302 0.88305658 0.0018968091
-0.0044994107 0.010890723 0.015506485 0.010531602 -0.4493506 0.89329338 0.0020321629
-0.0014676038 0.010915335 0.015454822 0.024537444 -0.43680996 0.89921904 0.0017923339
0.0014809775 0.0109968 0.015390234 0.037815586 -0.41557667 0.90877175 0.0019184496
0.0044923089 0.011144214 0.015304917 0.04554031 -0.42056391 0.90611923 0.0018628511
0.0074562426 0.01141344 0.01525794 0.052408699 -0.41304126 0.90920305 0.0017508552
0.010340642 0.011518095 0.015168482 0.063561976 -0.40824005 0.91065907 0.00221548
0.012941237 0.011772349 0.015095389 0.071254075 -0.4024162 0.91267961 0.00090324768
0.015281999 0.011946629 0.015061237 0.065681241 -0.31267005 0.94758826 0.0015413604
-0.030562855 0.014738226 0.015206906 -0.21514584 -0.60540867 0.76628494 0.0012422188
-0.028206786 0.014385749 0.015392213 -0.18662007 -0.58146703 0.79187691 0.0016773454
-0.025504492 0.013985948 0.015665187 -0.14362046 -0.53710139 0.83120114 0.0021869526
-0.02248688 0.013508517 0.015850209 -0.11463118 -0.50247419 0.85695946 0.0022219869
-0.019403471 0.013321222 0.016113587 -0.091135122 -0.47728544 0.87400967 0.0020501425
-0.016565258 0.013235167 0.016312404 -0.053774893 -0.42491618 0.90363407 0.0023102204
-0.013471609 0.013373723 0.016535956 -0.021184796 -0.37584117 0.92644185 0.0024320297
-0.010476174 0.013443122 0.016585052 0.00069221132 -0.35055554 0.93654162 0.0023069375
-0.0075505823 0.013385904 0.016524605 0.016555022 -0.32508916 0.94553846 0.0023128465
-0.0046096104 0.013359973 0.016431585 0.028407969 -0.29951033 0.95367008 0.0023830195
-0.0014783271 0.013230978 0.016283723 0.035538904 -0.28771499 0.9570564 0.0023032245
0.0015923351 0.013314068 0.016166329 0.04110783 -0.27006522 0.96196407 0.0020174826
0.0045308815 0.013276698 0.016010141 0.044504236 -0.26902112 0.96210557 0.0016397625
0.0074598454 0.01336025 0.015879031 0.046625569 -0.26781085 0.96234262 0.0014700729
0.010484616 0.013257049 0.0156898 0.052319497 -0.27848804 0.95901358 0.001439293
0.013522765 0.013459608 0.015556561 0.063571006 -0.2961041 0.9530378 0.0013120418
0.016509924 0.013628666 0.015405034 0.071531035 -0.30306974 0.95027995 0.0011768576
0.019423151 0.01401535 0.015299338 0.079356179 -0.32126448 0.94365871 0.0015879388
0.022162365 0.014312589 0.015194956 0.091394253 -0.35516268 0.93032604 0.002035992
0.024885122 0.014699877 0.0150851 0.10922036 -0.38352951 0.91704744 0.0019885108
-0.036954612 0.017627465 0.015258857 -0.28401017 -0.56776899 0.77264261 0.001669245
-0.034288231 0.01702065 0.015651278 -0.22907367 -0.54043627 0.80960101 0.0020933184
-0.031443812 0.016481014 0.016019383 -0.18897834 -0.50831538 0.84018016 0.0020594147
-0.028571432 0.01633505 0.016504409 -0.14426434 -0.45821589 0.87705529 0.0019581791
-0.025467182 0.016308224 0.01692608 -0.10311195 -0.40791726 0.90717781 0.0023337645
-0.022636693 0.016365979 0.01722897 -0.055846654 -0.33730847 0.93973619 0.00305779
-0.019539768 0.016333895 0.017354742 -0.030769216 -0.29795286 0.95408463 0.0036726124
-0.016553666 0.016203102 0.017357195 -0.016670015 -0.27917343 0.96009594 0.0041922233
-0.013734671 0.016185272 0.017304605 0.0075803506 -0.23864754 0.97107673 0.0040029637
-0.010587395 0.016360443 0.017233334 0.04058918 -0.15318653 0.9873634 0.0046657035
-0.0075671123 0.016294155 0.017083995 0.045086533 -0.1303156 0.99044693 0.004273287
-0.0045204666 0.016109494 0.016900621 0.049476195 -0.1569646 0.98636413 0.00380392
-0.0015286597 0.016201271 0.016752681 0.044673845 -0.14246781 0.98879069 0.0033977188
0.0015527837 0.016239047 0.016596999 0.045021914 -0.11636098 0.99218607 0.0036835191
0.0044194604 0.016294071 0.016465211 0.045087278 -0.11937258 0.99182528 0.0033953434
0.0074212351 0.016346818 0.01634982 0.041228354 -0.12496682 0.99130398 0.0024247374
0.01045307 0.016301055 0.016234769 0.043271799 -0.12706468 0.99095011 0.0028923054
0.01347963 0.016292747 0.016124297 0.048409179 -0.13999519 0.98896813 0.0022600438
0.016552763 0.016140364 0.015956618 0.04967282 -0.17076562 0.9840588 0.0018435222
0.01950229 0.016264938 0.015819285 0.056459758 -0.18823841 0.98049909 0.0015425178
0.022538766 0.016403843 0.015657322 0.060344316 -0.1994272 0.97805285 0.0013909093
0.02541027 0.016342441 0.01542753 0.075358309 -0.24542804 0.96648139 0.0013128275
0.028396616 0.016797937 0.015291469 0.088696882 -0.28230911 0.95521444 0.00171018
0.031142466 0.017455326 0.015239205 0.096622713 -0.30473915 0.94752204 0.0022248344
0.033735245 0.017630406 0.015095743 0.12669627 -0.37101498 0.91994339 0.0026093654
-0.042697441 0.020777863 0.015205208 -0.34977549 -0.52984613 0.77260607 0.0017517676
-0.040188774 0.020022897 0.015641371 -0.30247843 -0.51406431 0.80264854 0.0026350566
-0.037417866 0.019361611 0.016162857 -0.24876615 -0.47676966 0.84309322 0.0020060909
-0.034630723 0.019451406 0.016901581 -0.19501998 -0.42058861 0.88604319 0.0020226878
-0.031511515 0.019321643 0.017440611 -0.12180161 -0.35334182 0.92753112 0.0032947755
-0.028570216 0.018980255 0.017640635 -0.084100634 -0.28566387 0.95463246 0.0033075395
-0.025707085 0.018737223 0.017770024 -0.052134216 -0.23420976 0.97078723 0.003350216
-0.022454765 0.018913286 0.017869217 -0.0067503848 -0.16650663 0.98601717 0.0025787461
-0.019462632 0.019248024 0.017822122 0.013859347 -0.11855837 0.9928503 0.0023560028
-0.016672036 0.019194039 0.017686838 0.033333294 -0.080817498 0.99617141 0.002222389
-0.013535121 0.019242236 0.017495703 0.063935943 -0.036833849 0.99727404 0.0035385084
-0.010458772 0.019134287 0.01726429 0.054077465 0.012522601 0.99845821 0.0030060208
-0.0071581658 0.018754028 0.017001612 0.057943322 -0.0087753711 0.99828136 0.0031164987
-0.0043130489 0.018813288 0.016811566 0.056601044 0.040239975 0.99758559 0.0027724549
-0.0013524161 0.019060805 0.016538011 0.050804742 0.13404334 0.98967224 0.003246322
0.00096145587 0.018840346 0.016475767 0.05378671 0.027469186 0.99817455 0.0015207097
0.004457375 0.019476259 0.016173059 0.043335687 0.12022258 0.99180067 0.0024270143
0.0075266091 0.019467918 0.016007856 0.029083842 0.083732389 0.99606383 0.0017828286
0.010807997 0.019099493 0.016038531 0.016138008 0.06241753 0.99791962 0.0020804019
0.013575832 0.018912945 0.01610329 0.026991887 -0.038597908 0.99889022 0.0016080834
0.016745647 0.01891005 0.016081108 0.031199005 -0.052604575 0.99812794 0.0017709181
0.019565489 0.019202951 0.016040403 0.035510976 -0.067722298 0.99707204 0.0020701052
0.022426512 0.019307012 0.015987387 0.041991342 -0.078607641 0.99602085 0.0021053269
0.025529226 0.019424159 0.015894726 0.049316484 -0.10115509 0.99364758 0.0019105687
0.0285371 0.019291621 0.015752273 0.040711597 -0.12375506 0.99147731 0.0017652721
0.031671342 0.019261794 0.015573569 0.072700135 -0.20884149 0.97524351 0.0016756753
0.034433447 0.019334197 0.015392008 0.08449363 -0.23703349 0.96782023 0.0018348712
0.037489746 0.020010797 0.015278533 0.11720828 -0.27576092 0.95405352 0.0027820994
0.039899744 0.020582937 0.015173282 0.16346073 -0.33464736 0.92805803 0.0026156218
-0.04575675 0.023319699 0.015383925 -0.37286869 -0.48212847 0.79279321 0.0023219562
-0.043325074 0.022505306 0.015914971 -0.32616547 -0.44909084 0.83182538 0.0021239168
-0.040418837 0.02229758 0.01671748 -0.26091385 -0.39357182 0.88149029 0.0018351686
-0.037603166 0.022329798 0.017463645 -0.17763239 -0.2927095 0.93955725 0.0040726373
-0.034794081 0.021857163 0.01778597 -0.14271334 -0.25679028 0.95587218 0.0032441607
-0.032276474 0.021312082 0.017932348 -0.078900717 -0.16774552 0.98266786 0.0033077416
-0.029236589 0.021595769 0.017921768 -0.042524245 -0.14451967 0.98858774 0.0026062429
-0.024821261 0.022800963 0.017903429 0.040105704 0.016140416 0.99906504 0.0024593249
-0.022480151 0.022571817 0.017905029 0.052838642 0.035279974 0.99797964 0.0016906332
-0.019614842 0.02247438 0.017588545 0.089296311 0.14465979 0.98544395 0.0016896527
-0.01659476 0.022206822 0.017298445 0.10641927 0.18765898 0.97645229 0.0027180547
-0.013411089 0.022046847 0.016951157 0.10663884 0.2037861 0.97319031 0.0028520722
-0.010563108 0.022366308 0.016498772 0.11325324 0.28541818 0.95168811 0.0027466081
-0.0079891384 0.021845285 0.016364077 0.093182862 0.24668278 0.96460593 0.0021134624
-0.0050397436 0.022803089 0.015662005 0.085065633 0.31630301 0.94483668 0.0019245552
-0.0015224253 0.022245614 0.015545425 0.053389411 0.37775952 0.9243632 0.0014882386
0.001543185 0.022052661 0.01543099 0.049418706 0.37626871 0.92519164 0.001359771
0.0045703845 0.02203767 0.015323147 0.027174778 0.37164503 0.92797709 0.001325818
0.0077608959 0.021798117 0.015377231 0.011945721 0.28609565 0.95812654 0.0012675809
0.01029496 0.021680171 0.015454351 -0.01008535 0.25958836 0.96566665 0.001117453
0.01352215 0.022060197 0.015417229 -0.021748325 0.32606891 0.94509578 0.0023905216
0.016526343 0.022256516 0.015476956 -0.03134416 0.27737623 0.96025002 0.0022764606
0.019989347 0.022281427 0.015651762 -0.013095242 0.11927447 0.9927749 0.0020125727
0.022580709 0.022212936 0.015787907 -0.0080463523 0.083748452 0.99645442 0.0026311721
0.025645856 0.022178764 0.015866959 0.018753203 -0.020552592 0.99961287 0.0015361712
0.028490651 0.022164805 0.01586761 0.022639742 -0.040751893 0.99891275 0.0016367631
0.031631544 0.022421464 0.015847828 0.033139013 -0.056769561 0.99783719 0.0016522536
0.034638029 0.022400158 0.015802689 0.049669374 -0.097690903 0.99397659 0.0023375149
0.037552722 0.022350293 0.015694907 0.047064394 -0.11937118 0.99173355 0.0021320782
0.040665917 0.022257412 0.015427759 0.11667756 -0.21196902 0.97028631 0.0022108089
0.043235175 0.022894377 0.015245212 0.15513001 -0.25118676 0.95542651 0.0030045621
0.045369685 0.023683161 0.015131731 0.19494365 -0.26944247 0.94307882 0.0017218629
-0.04893107 0.026050717 0.015416973 -0.39219919 -0.42965442 0.81337374 0.0024474629
-0.046445869 0.025300566 0.016066758 -0.33097836 -0.38923842 0.85962021 0.0022184378
-0.043549936 0.025441308 0.017071869 -0.23256506 -0.26729751 0.93512863 0.0029236937
-0.04072744 0.025310701 0.017661281 -0.17444649 -0.19342458 0.96548194 0.0031689322
-0.038431015 0.024552196 0.017878206 -0.13120638 -0.16766606 0.97707373 0.0025071367
-0.033951327 0.026032478 0.017916281 -0.021230895 -0.030554663 0.99930757 0.0020725233
-0.030925609 0.025857462 0.017930739 0.037288945 0.066794552 0.99706972 0.0020468412
-0.028545197 0.025532275 0.017820656 0.061645776 0.10320953 0.99274749 0.0019742765
-0.025744455 0.025272828 0.017664535 0.10071132 0.2003843 0.97452724 0.0015466559
-0.022616701 0.025093639 0.017298691 0.1085564 0.20070256 0.97361904 0.0019303497
-0.019812772 0.025066694 0.016877815 0.13189758 0.30136761 0.94434136 0.0019592813
-0.016438417 0.025253493 0.016182397 0.14855276 0.41075188 0.89956379 0.001720048
-0.013051849 0.024850398 0.015823105 0.13085112 0.38243058 0.91467202 0.0016015284
-0.011215102 0.024859477 0.015469687 0.1279421 0.46997845 0.87335622 0.0015275973
-0.008124603 0.024402682 0.015241447 0.11941127 0.50163186 0.85680014 0.0016326294
0.019059414 0.024131702 0.015037527 -0.081713609 0.39900491 0.91330063 0.0018843557
0.022756528 0.024534605 0.015205255 -0.07298512 0.32960185 0.94129473 0.0016770825
0.025622575 0.024751367 0.015369051 -0.046233229 0.20453565 0.97776675 0.0016148705
0.028561899 0.02498048 0.015537255 -0.050136037 0.15660657 0.98638773 0.0024480009
0.031562131 0.025465261 0.015587712 -0.026518701 0.095981821 0.99502981 0.0019613411
0.03479562 0.025161309 0.015731774 0.019348344 -0.0099105686 0.99976367 0.0014918696
0.037837107 0.025072636 0.015793595 0.036162712 -0.047269519 0.9982273 0.0020002932
0.040604535 0.025277091 0.015771458 0.062674843 -0.083001383 0.99457657 0.0022807347
0.043599866 0.025277529 0.015592183 0.10879382 -0.1472756 0.98309398 0.0024058374
0.046378992 0.025555976 0.015311725 0.15062754 -0.1659371 0.97456467 0.0036042279
0.048680361 0.026535017 0.015148265 0.21245629 -0.20118107 0.95623666 0.002657857
-0.051856201 0.029004788 0.015385216 -0.40057898 -0.33896306 0.85125822 0.0027932667
-0.049485732 0.028418005 0.01614598 -0.33002329 -0.28584626 0.89965355 0.0044831797
-0.046627909 0.02836065 0.017017752 -0.22819613 -0.21125188 0.95042056 0.0047599697
-0.043519355 0.028506311 0.017647468 -0.17522921 -0.12275261 0.97684515 0.0041528018
-0.040934734 0.028149491 0.017913328 -0.12061092 -0.054279298 0.99121475 0.0020813744
-0.037682217 0.028936589 0.017878432 -0.019321179 0.064091004 0.99775696 0.0013522899
-0.034239985 0.028747991 0.017756425 0.059672117 0.17270476 0.98316443 0.0019097324
-0.031800911 0.028409619 0.017559445 0.089531809 0.21897408 0.97161436 0.0016061163
-0.028839204 0.027865 0.017294681 0.11759883 0.23484336 0.96489334 0.0016098318
-0.025612358 0.028335411 0.016489716 0.15960461 0.41282552 0.89671701 0.0020271293
-0.022730777 0.02831994 0.015859339 0.17591393 0.4521679 0.87441325 0.0013922388
-0.019844979 0.027855102 0.015474002 0.17646968 0.48451212 0.85680014 0.001047546
-0.017263919 0.027359534 0.015193819 0.18244961 0.51959914 0.83470291 0.00090565335
0.032191496 0.027434809 0.015176433 -0.088785142 0.30916798 0.94685388 0.0017502049
0.034873351 0.027780673 0.015305621 -0.057294209 0.20769885 0.9765135 0.0020457392
0.037843224 0.028130023 0.015445985 -0.044693876 0.13893469 0.9892925 0.0023461785
0.040298965 0.02791681 0.015613344 0.017649224 0.021843307 0.9996056 0.0013898447
0.043597568 0.028067993 0.015658552 0.048202839 -0.015034818 0.9987244 0.0023371682
0.046700571 0.028246542 0.015553862 0.10676341 -0.067158937 0.99201375 0.0024017401
0.049547739 0.028609391 0.015255208 0.14899731 -0.11749045 0.98183286 0.0026301732
0.05131489 0.029364053 0.015097795 0.20342307 -0.13932942 0.96912664 0.0023046155
-0.054318823 0.031847745 0.015166356 -0.43741366 -0.25640577 0.8619312 0.0036392217
-0.052831113 0.031701602 0.015749734 -0.35502815 -0.21501438 0.90979332 0.003249831
-0.049659889 0.031317774 0.016691696 -0.27628046 -0.14802139 0.94960982 0.0036293296
