# .PCD v0.7 - Point Cloud Data file format
VERSION 0.7
FIELDS x y z normal_x normal_y normal_z curvature
SIZE 4 4 4 4 4 4 4
TYPE F F F F F F F
COUNT 1 1 1 1 1 1 1
WIDTH 557
HEIGHT 1
VIEWPOINT 0 0 0 1 0 0 0
POINTS 557
DATA ascii
0.013589903 0.0015547372 -0.0045288652 0.1043772 -0.94581604 -0.30746952 0.0019500653
0.016561126 0.0019065259 -0.0044343038 0.12440603 -0.9485153 -0.29127643 0.0017653033
0.019495053 0.0023918131 -0.0045623169 0.16718969 -0.94605827 -0.2775273 0.0017081028
0.022161791 0.0027221388 -0.0038116041 0.20353791 -0.9432373 -0.26244199 0.0015784566
-0.024367584 0.0058936817 -0.0033933555 -0.36741209 -0.88680118 -0.28034255 0.0026298473
-0.022312738 0.0054077911 -0.0043092673 -0.32320562 -0.89434296 -0.30933619 0.0022567967
-0.01947839 0.0044813403 -0.0045054504 -0.2809976 -0.90131408 -0.32965603 0.0022866956
-0.016576491 0.0037186437 -0.0046050511 -0.24970299 -0.90919721 -0.33317986 0.0021582711
-0.013977505 0.0032797884 -0.0053247269 -0.22094381 -0.90596235 -0.36113173 0.0020723215
-0.011418677 0.0030276335 -0.0059365206 -0.16624936 -0.88666058 -0.43150225 0.00094409613
0.020672791 0.0031134514 -0.0058993828 0.17092003 -0.90030926 -0.40028688 0.0011085656
0.022860879 0.0032596223 -0.0050985101 0.20884554 -0.92958206 -0.30374464 0.0020362034
0.025514552 0.0036778345 -0.0045484672 0.24045806 -0.92772394 -0.28549647 0.0015634027
0.028443867 0.0044848802 -0.0045065316 0.26457718 -0.91944808 -0.29088524 0.001911018
0.031402212 0.0053355671 -0.0044209594 0.28603545 -0.92013979 -0.26744437 0.0019015926
0.033498246 0.0058353096 -0.0037981675 0.32515484 -0.91235077 -0.24877776 0.0016424819
-0.030839892 0.0086635444 -0.0040358324 -0.35802093 -0.88123828 -0.30861008 0.0019832354
-0.028538495 0.007893567 -0.0045785462 -0.34616029 -0.88311452 -0.31667283 0.001958525
-0.025567956 0.0067361612 -0.0045749801 -0.36072817 -0.88494676 -0.29452375 0.0015396961
-0.023341035 0.0062434189 -0.0054996144 -0.32827297 -0.88406879 -0.33265489 0.0023498742
0.032701418 0.006146342 -0.0057192687 0.30585974 -0.89173949 -0.3335425 0.0019328051
0.034640867 0.0065750568 -0.0047583333 0.33276027 -0.89822966 -0.2871483 0.001891627
0.037485819 0.0075912904 -0.0045535755 0.34292117 -0.89410537 -0.28806368 0.0014745756
0.039950527 0.0085112154 -0.0042160791 0.38140318 -0.8874256 -0.25885779 0.001589931
-0.036946744 0.011483737 -0.0043383595 -0.4253127 -0.85534954 -0.29578084 0.0020019205
-0.03445008 0.010364439 -0.0045413747 -0.38941929 -0.86824048 -0.30742657 0.0016848734
-0.031912941 0.0094228769 -0.0049011349 -0.37467822 -0.87251365 -0.31358594 0.0020394286
0.041218448 0.0093250228 -0.0048879879 0.42087469 -0.86829859 -0.26252985 0.0014715354
0.043542366 0.010313581 -0.0045585735 0.42449689 -0.86753333 -0.25920698 0.0011154324
0.045932364 0.011422985 -0.0042820503 0.44761875 -0.85393757 -0.26538277 0.0019101691
-0.042752299 0.014561151 -0.0042603859 -0.48958263 -0.81678498 -0.30523947 0.0021542043
-0.040446218 0.013414172 -0.0045639868 -0.45497191 -0.84023494 -0.2949675 0.0020350798
-0.038304247 0.012406965 -0.0048999744 -0.43907651 -0.84477156 -0.30589679 0.0021201272
0.047258735 0.012365435 -0.004778848 0.48316139 -0.83400863 -0.26642948 0.0017579524
0.049495835 0.013566931 -0.0045407652 0.49738926 -0.81799603 -0.28894019 0.001787569
0.051536202 0.014623173 -0.0040835072 0.51502806 -0.8105287 -0.27890733 0.0017549499
-0.048092283 0.017825861 -0.0033417081 -0.56263667 -0.79555202 -0.22480436 0.00053024397
-0.046272393 0.017030487 -0.0043470752 -0.5493837 -0.77978849 -0.30017892 0.0020418691
-0.044090662 0.015691509 -0.0048097898 -0.52843118 -0.79257995 -0.30426553 0.0019155008
0.050952617 0.015039952 -0.0057661361 0.52360249 -0.77608132 -0.35148007 0.0040068687
0.052921012 0.015817011 -0.0047048451 0.54681957 -0.79470903 -0.26348808 0.0012295748
0.055166584 0.017258106 -0.0043463665 0.55670863 -0.78087229 -0.28339717 0.0018993547
-0.051491465 0.02055411 -0.0040135933 -0.56710744 -0.76738858 -0.29917219 0.0017213838
-0.049551088 0.019481324 -0.0046543889 -0.57103121 -0.7664848 -0.29398045 0.0017202286
-0.047527924 0.018280922 -0.005306277 -0.54942524 -0.7741971 -0.31424642 0.0021445937
0.056332219 0.01833662 -0.0049813166 0.58982533 -0.75614733 -0.28345597 0.0018358808
0.058294337 0.019733673 -0.0045144078 0.62285697 -0.7192778 -0.30771515 0.002387203
0.060192 0.020682774 -0.0033268174 0.6381076 -0.71038365 -0.2969408 0.001726269
-0.054870244 0.023350671 -0.004236191 -0.59136307 -0.74425608 -0.31043938 0.0018709433
-0.052745163 0.021873385 -0.0046400493 -0.58733147 -0.7560699 -0.28879082 0.0016294601
0.059591599 0.021346306 -0.0052627032 0.63788795 -0.69666094 -0.32827201 0.0016162402
0.061072659 0.022328755 -0.0046113725 0.65380979 -0.67896473 -0.33397573 0.0023759578
0.063199721 0.023789013 -0.0036456515 0.69954067 -0.64717388 -0.30299968 0.0019006167
-0.05816704 0.026166355 -0.004378445 -0.62370259 -0.7035104 -0.34068781 0.0017580232
-0.056283712 0.024734771 -0.0047099018 -0.60030663 -0.73780584 -0.3086656 0.0019867122
0.062651373 0.024315555 -0.0053293407 0.6979773 -0.62317926 -0.35281053 0.0028253645
0.064195298 0.025624508 -0.004403946 0.73265928 -0.605057 -0.31163508 0.0016548472
-0.060940903 0.029119449 -0.0048016515 -0.6786738 -0.63357228 -0.37146729 0.0016051031
-0.059461985 0.027675567 -0.0051167435 -0.65621233 -0.67677784 -0.3337023 0.0019988774
0.065551318 0.02770119 -0.0049223993 0.76483923 -0.55454534 -0.3278726 0.0018702201
0.066650361 0.02877631 -0.0041307621 0.7832461 -0.52705818 -0.32975039 0.0021983651
-0.063765384 0.032281194 -0.0047949492 -0.71089792 -0.57644963 -0.40290207 0.0017316527
-0.062449463 0.030568182 -0.004853528 -0.70692474 -0.62059218 -0.33929756 0.0024350302
0.067941859 0.031301185 -0.0045533939 0.82251412 -0.43904147 -0.36154267 0.0024799029
0.069207825 0.032408748 -0.0036238078 0.8415246 -0.41159099 -0.34989893 0.0022266593
-0.066418327 0.035279755 -0.0041969921 -0.74431896 -0.51180834 -0.42900071 0.0016032495
-0.065305904 0.03401047 -0.0047486057 -0.74851817 -0.57022941 -0.33846566 0.0020223276
0.068785094 0.033716485 -0.0057650711 0.80931121 -0.31930771 -0.49300918 0.0015747134
0.069555648 0.034379601 -0.0042344648 0.87438107 -0.38027179 -0.30141526 0.0039621694
-0.069123387 0.038741942 -0.0035357219 -0.8133716 -0.48869371 -0.31560272 0.0015861597
-0.067733318 0.037363872 -0.0045879404 -0.7762593 -0.51432705 -0.36453962 0.0033602014
0.070706449 0.037505407 -0.0045899111 0.89139313 -0.24961273 -0.37830129 0.0027548827
-0.069809534 0.040459469 -0.0041095302 -0.84481508 -0.4196049 -0.33199272 0.00214302
-0.068614215 0.039825175 -0.0053794067 -0.7715444 -0.42301086 -0.47516432 0.0038178007
0.0713204 0.040392131 -0.0046950509 0.8790043 -0.13666458 -0.45680875 0.0030541196
0.072109565 0.041493341 -0.0032853228 0.91429019 -0.16418213 -0.37029418 0.0034693347
-0.071318641 0.043750808 -0.0037939232 -0.88383693 -0.3602508 -0.29841506 0.0055112345
0.041813903 0.043500867 -0.0039259042 -0.45915756 0.75590956 -0.4666639 0.0017502441
0.071518324 0.043417279 -0.005001755 0.87028301 -0.042737894 -0.49069446 0.0034206011
0.072282508 0.043628123 -0.0034766763 0.93669605 -0.067858644 -0.34350514 0.0016051998
-0.072361529 0.046862643 -0.0037418636 -0.84600663 -0.2872234 -0.44919437 0.0033300584
-0.071368761 0.046271171 -0.0050829719 -0.83350879 -0.23376574 -0.50061631 0.0075445301
0.045828901 0.045950495 -0.0042670034 -0.47564581 0.74520934 -0.46735874 0.0011038048
0.049438659 0.047677569 -0.0056766523 -0.44374001 0.7343632 -0.51362002 0.0016878702
0.071472548 0.0466143 -0.0050938535 0.85373962 0.016967539 -0.52042371 0.0038626676
0.072294109 0.046392512 -0.003616553 0.89383966 -0.0097306091 -0.44828117 0.0040496718
-0.072838843 0.049584366 -0.0041505843 -0.79453415 -0.23299812 -0.56073827 0.0076914397
-0.071674846 0.049223866 -0.0055903117 -0.77154571 -0.1359096 -0.62148684 0.0073703523
0.049925454 0.048624381 -0.0042567798 -0.4604288 0.74637961 -0.48054439 0.00066994014
0.071261883 0.049647614 -0.0051815179 0.82339466 0.052486502 -0.56503677 0.0051067756
0.072271876 0.049557216 -0.0036696463 0.86987168 0.0069007184 -0.4932299 0.0044508544
-0.073513791 0.052519463 -0.0043726629 -0.70418799 -0.12412778 -0.69907916 0.0080565121
-0.071814053 0.052152462 -0.0058004614 -0.66859555 -0.056236226 -0.74149674 0.008519806
0.053925041 0.051024072 -0.0047212266 -0.42224002 0.71257973 -0.56030667 0.0016725318
0.055068552 0.051451974 -0.0050050123 -0.42753208 0.70841521 -0.56157303 0.001601125
0.071125351 0.052564196 -0.0050366241 0.7698608 0.080025643 -0.63317478 0.0058612842
0.072312489 0.052462768 -0.0035295954 0.82714963 0.024044797 -0.56146717 0.0060095438
-0.075279959 0.055187471 -0.0032530024 -0.8599543 -0.069783442 -0.50557792 0.034505367
-0.072953075 0.055822428 -0.0049663149 -0.38690457 0.2126514 -0.8972649 0.014670093
-0.070956126 0.055906486 -0.0058058864 -0.23724709 0.26158977 -0.93556648 0.010481765
-0.066305786 0.056834441 -0.0059344969 -0.16609481 0.34013826 -0.92559087 0.0069214492
-0.064579286 0.05645613 -0.0055031939 0.23892528 0.64353514 -0.72717071 0.0092660654
-0.062702976 0.055800181 -0.0053983363 0.18244906 0.6796003 -0.71053207 0.0093308846
0.059099395 0.054466657 -0.0042879847 -0.41962624 0.69854558 -0.57961023 0.0029827687
0.061678547 0.055767782 -0.0048435498 -0.47851562 0.61693174 -0.62483448 0.0046193982
0.06335967 0.056510765 -0.0053280895 -0.42805454 0.61744142 -0.65995109 0.0042234943
0.067607924 0.056743249 -0.0059550209 0.27439758 0.2593461 -0.92598355 0.0045081805
0.070794195 0.055529635 -0.0049397945 0.55098438 0.12939872 -0.82442236 0.010775014
0.072238892 0.05553377 -0.0034788894 0.7712056 0.029625334 -0.6358965 0.0064954148
-0.073645987 0.057283562 -0.0044765268 -0.53020614 0.12735328 -0.83824974 0.022247499
-0.070545018 0.057912275 -0.0053176153 -0.13326856 0.32510546 -0.93624038 0.014077766
-0.06820029 0.057640307 -0.0053941188 -0.079711296 0.43490893 -0.8969394 0.0078606429
-0.064669207 0.057974361 -0.0040365043 0.21454898 0.69467211 -0.68658537 0.0067672017
-0.062380135 0.057330377 -0.0033143547 0.22819126 0.69563597 -0.68118972 0.0074828328
0.0628649 0.058280248 -0.0030500162 -0.55452549 0.53285462 -0.63919282 0.017434753
0.064547807 0.058552723 -0.0044540856 -0.47132763 0.52218491 -0.71075541 0.01055276
0.067673355 0.05864881 -0.0054653385 0.059877329 0.31260151 -0.94799525 0.010290977
0.070346445 0.058868788 -0.004813117 0.21339902 0.20614898 -0.9549678 0.027068706
0.07236331 0.058636989 -0.0032488497 0.84620285 -0.0055669537 -0.53283185 0.020635774
0.065251157 0.061220597 -0.0035427022 -0.60697424 0.32540265 -0.72504854 0.0092475135
0.06766513 0.061485082 -0.0045976373 -0.074621752 0.25333232 -0.96449697 0.023375405
0.070255518 0.0616391 -0.0045969291 0.15733239 0.15624182 -0.97510767 0.027119525
0.072286204 0.061160214 -0.0035727965 0.43623585 0.10623095 -0.89353973 0.023476001
0.065813497 0.063767806 -0.0030251257 -0.81826717 0.20950219 -0.53530157 0.02246758
0.067687973 0.064331464 -0.0039623496 -0.21533173 0.1465428 -0.96548301 0.019689396
0.070324689 0.06461259 -0.0043702573 0.04640368 0.090252407 -0.99483728 0.027402863
0.07271032 0.065178148 -0.0034898587 0.39528483 -0.056284089 -0.91683263 0.019503485
0.068032488 0.067227289 -0.0037582165 -0.33779553 0.093468249 -0.93656707 0.020443078
0.070402682 0.06748759 -0.0044124108 -0.1180336 -6.7210822e-05 -0.99300957 0.023722615
0.072633222 0.067583203 -0.0038869088 0.25415355 -0.089028195 -0.96305758 0.014488024
0.068136007 0.069709636 -0.0034902808 -0.45933115 0.039796837 -0.88737315 0.016322045
0.070526533 0.070622407 -0.0044442853 -0.15621927 -0.064839527 -0.98559189 0.031391278
0.073235527 0.070640355 -0.00408981 0.26523039 -0.1517234 -0.9521727 0.021844136
0.068415575 0.073260121 -0.0036285555 -0.79802018 0.080195606 -0.59727079 0.030907016
0.070570007 0.073545173 -0.0046844869 -0.18022093 -0.17739643 -0.96749723 0.026565567
0.073477715 0.073444709 -0.0047065355 0.18897523 -0.1240087 -0.97412026 0.036917318
0.075704038 0.073280737 -0.0033114473 0.33998272 -0.014251308 -0.94032365 0.055303603
0.068557046 0.075717688 -0.0034788183 -0.78432208 0.26521879 -0.56080115 0.042642742
0.070446983 0.075593039 -0.0046708034 -0.18383922 -0.12472833 -0.97501075 0.034522027
0.072695509 0.075283974 -0.0052581476 0.12358842 -0.058953494 -0.9905808 0.060950913
-0.015828585 0.0027319931 -0.001380243 -0.24639316 -0.95576656 -0.1606257 0.0010947967
-0.013457917 0.0021036742 -0.0015276602 -0.21856314 -0.96129709 -0.16774407 0.0012805514
-0.010458087 0.0014966317 -0.0015024903 -0.15285525 -0.97401732 -0.16710928 0.0026121752
-0.007500866 0.0010735777 -0.0015164319 -0.1330042 -0.9756586 -0.17435637 0.0036841705
-0.004492077 0.00066448346 -0.0015325645 -0.09745647 -0.97929209 -0.17745194 0.0043243784
-0.001414765 0.00046535968 -0.0015158543 -0.053929467 -0.99092525 -0.12312099 0.003953075
0.0015329206 0.00034949137 -0.0015110845 -0.025560712 -0.9946171 -0.10041581 0.0031375068
0.0045136381 0.00029278695 -0.0014842716 0.011918539 -0.99734485 -0.07184267 0.0051728054
0.0075007365 0.00042941084 -0.0015264624 0.043829661 -0.9920398 -0.11805069 0.0014842615
0.010472301 0.00058285962 -0.0015414339 0.077406719 -0.9859218 -0.14821039 0.0033648133
0.013440169 0.00088091288 -0.0015436626 0.11433794 -0.98573732 -0.12348559 0.004609609
0.016489957 0.0012791957 -0.0014490761 0.13994491 -0.97924042 -0.14664118 0.0032895112
0.019468898 0.0017510769 -0.0015831174 0.17566469 -0.97634804 -0.12604164 0.0024338793
0.02248399 0.0023812475 -0.0015049456 0.19203088 -0.97534424 -0.10875557 0.0018465122
0.02472513 0.0028361033 -0.0012129727 0.21344616 -0.97111881 -0.10662559 0.0020829753
-0.024783731 0.0056668431 -0.0013584761 -0.349518 -0.91878259 -0.18350971 0.00057356991
-0.022479104 0.0047922116 -0.0014200023 -0.32523197 -0.92685783 -0.18750662 0.0002800815
-0.019542407 0.0037769435 -0.0015282523 -0.29725638 -0.9386571 -0.17481868 0.00048088268
-0.017272005 0.0031862149 -0.0018474875 -0.27634108 -0.94585353 -0.17028418 0.00071826088
0.026065774 0.0032115355 -0.0018081696 0.25998595 -0.96004122 -0.10357695 0.0016761482
0.028486431 0.0038851176 -0.0014780123 0.28310964 -0.95381427 -0.10043541 0.0015091292
0.031560514 0.0047996901 -0.0014520782 0.29458627 -0.95022374 -0.10145863 0.001350097
0.033995006 0.0056315758 -0.0014569798 0.32217115 -0.94206965 -0.093330227 0.0017707214
-0.03311152 0.008895657 -0.00058369857 -0.35482728 -0.90803295 -0.2226516 0.0037477897
-0.03138018 0.0083462885 -0.0015710066 -0.38573536 -0.89967304 -0.20444223 0.00043649203
-0.028504202 0.0071398932 -0.0015716596 -0.35623938 -0.90962696 -0.21371093 0.00086892466
-0.026255801 0.0062671825 -0.0016754112 -0.35641679 -0.91206062 -0.20276219 0.00094517629
0.035427075 0.0062163728 -0.0018032977 0.36881369 -0.92462867 -0.095070206 0.0016677254
0.037451882 0.006968196 -0.0016067004 0.37428632 -0.9223001 -0.096292295 0.0015747125
0.040516108 0.008249837 -0.0015281538 0.39063653 -0.91540432 -0.097149082 0.0018245085
0.04220707 0.0089420341 -0.00058632175 0.41948685 -0.90030211 -0.11613296 0.0020838052
-0.039278492 0.011883019 -0.00098174741 -0.44080731 -0.8613959 -0.25236094 0.0027999256
-0.037568524 0.011132617 -0.0015130426 -0.43249863 -0.8702634 -0.23576808 0.0020976479
-0.034622375 0.0097235786 -0.0016054226 -0.39280581 -0.88696808 -0.24288096 0.0017546579
-0.032864034 0.0091035087 -0.0019998783 -0.38317829 -0.89525032 -0.22737935 0.0012798032
0.041830461 0.0090424772 -0.0027234363 0.41432157 -0.90267926 -0.11622354 0.002448203
0.043572053 0.0096964696 -0.001559843 0.44404212 -0.88867933 -0.11434916 0.0015647797
0.046399966 0.011119281 -0.001466169 0.4579784 -0.88321888 -0.10089618 0.0016209511
0.048164595 0.011901164 -0.00038265911 0.48305961 -0.86844301 -0.11162512 0.0017581771
-0.043204855 0.014175738 -0.0013842789 -0.51308656 -0.83239543 -0.20942809 0.0017574521
-0.040623233 0.012764716 -0.0016193715 -0.46090668 -0.85307634 -0.24459299 0.0019855739
0.047699746 0.012063789 -0.0022709025 0.47583973 -0.86829275 -0.14015815 0.0031047598
0.049476761 0.012888615 -0.001532828 0.50682479 -0.8559581 -0.10229594 0.0017602142
0.051895324 0.014323845 -0.0014636164 0.52905792 -0.84238297 -0.10241469 0.0016927342
-0.048345383 0.0177585 -0.001651329 -0.5746932 -0.78774786 -0.22176792 0.0014693813
-0.046512276 0.016471671 -0.001507136 -0.54665095 -0.80409348 -0.23368025 0.0016196467
-0.04467231 0.015264292 -0.0020520804 -0.55399305 -0.80089009 -0.22730325 0.0014311635
0.053405762 0.01541252 -0.0018670526 0.5603978 -0.81755644 -0.13249813 0.0014136002
0.055446249 0.016801961 -0.0016409812 0.57000268 -0.80858153 -0.14592052 0.001687821
0.057147186 0.017861946 -0.00072586094 0.59229171 -0.79442966 -0.134432 0.0017971746
-0.051771123 0.020277224 -0.0015086787 -0.59438056 -0.77980983 -0.19649026 0.0012837885
-0.049941629 0.018937031 -0.001644407 -0.57566512 -0.78551888 -0.22708972 0.0013280014
0.056851674 0.018099936 -0.0029162061 0.59984034 -0.76414448 -0.23722306 0.0025562879
0.058590081 0.019147838 -0.0016260314 0.6225571 -0.7672016 -0.15435155 0.0018328158
0.060411729 0.020669788 -0.0013592272 0.66005409 -0.7418682 -0.11815335 0.0028589284
-0.055222005 0.022892833 -0.0012637821 -0.60595512 -0.76992989 -0.20006579 0.0014170179
-0.053279247 0.021454675 -0.0018728363 -0.60126019 -0.7705074 -0.21167095 0.0015943133
0.06180815 0.022021618 -0.0015460926 0.69611818 -0.70678771 -0.12597883 0.0025013869
0.063352868 0.023561614 -0.0013313389 0.73352808 -0.6681813 -0.12438009 0.0028114815
-0.060153142 0.02683562 -0.0010239284 -0.6787883 -0.71064693 -0.18500651 0.00075105607
-0.058405563 0.025555773 -0.0016752883 -0.63910222 -0.74009967 -0.20928653 0.00085281377
-0.056815527 0.02419496 -0.0021849505 -0.62942666 -0.75187999 -0.1962104 0.0011337241
0.06484665 0.025305141 -0.0014962214 0.76574838 -0.62511915 -0.1511803 0.0024299452
0.066214323 0.026696129 -0.0012286736 0.79447532 -0.59119195 -0.13892825 0.0030881274
-0.063326724 0.029926717 -0.00057916495 -0.73510468 -0.65470535 -0.1760173 0.0011456374
-0.06159728 0.028431656 -0.0015057509 -0.71170247 -0.67915976 -0.17950389 0.00079957338
0.0671767 0.028416805 -0.0014874263 0.82386869 -0.55396903 -0.11982778 0.0031661275
-0.064404547 0.031491205 -0.0015260191 -0.75378102 -0.6334511 -0.17479676 0.0014246022
-0.062886313 0.030101161 -0.0023338627 -0.73508829 -0.65946269 -0.15733473 0.00095082197
0.068566471 0.030683355 -0.0016095836 0.85765541 -0.49611408 -0.13526987 0.0029765563
0.069374874 0.03214556 -0.0015779398 0.88424784 -0.44638741 -0.13727355 0.0035913712
-0.066988371 0.03469348 -0.0013535817 -0.8036744 -0.57295078 -0.16073221 0.0024818687
-0.06579382 0.033336267 -0.0020455299 -0.77749467 -0.60911071 -0.15648054 0.0016902834
0.070403427 0.034425773 -0.0014597808 0.92042011 -0.36881915 -0.12961194 0.0034716059
-0.069447681 0.038333416 -0.0013923394 -0.84406304 -0.50924194 -0.16801833 0.0051513314
-0.068482995 0.036851488 -0.0015456239 -0.81582582 -0.56108832 -0.14002915 0.0023146393
0.071466565 0.037467495 -0.0013216871 0.94992024 -0.30049711 -0.08574903 0.0056329127
0.072125658 0.038602002 -0.00088287814 0.95659298 -0.24042869 -0.16469356 0.0063363053
-0.070628025 0.040325005 -0.001432796 -0.88153303 -0.46021214 -0.10537701 0.0022209673
0.071957201 0.039749183 -0.0029310249 0.95168155 -0.19623721 -0.23620605 0.002606109
0.072422914 0.040544521 -0.0013848643 0.97212386 -0.1660704 -0.16551717 0.0036984589
-0.072234362 0.043902338 -0.0012860217 -0.93440747 -0.34443995 -0.09079583 0.0059120851
-0.071576297 0.04255867 -0.0017878944 -0.90352964 -0.40459123 -0.14120916 0.0034512086
0.072808713 0.043467142 -0.0014774199 0.98234916 -0.057966132 -0.17784855 0.0038621488
-0.073125258 0.046369731 -0.0012884815 -0.93880033 -0.33322781 -0.087253287 0.00615359
0.07291434 0.046495669 -0.0015788418 0.98353338 -0.019266525 -0.17969674 0.0057860753
-0.075286075 0.05083961 -0.00017240114 -0.93191755 -0.34914547 0.098118551 0.0073469579
-0.0742383 0.049327888 -0.0011858967 -0.93385953 -0.35071319 -0.070047118 0.0097174374
0.07303118 0.049420699 -0.0015364214 0.97567528 -0.0331969 -0.21669284 0.0083997035
-0.075616375 0.052469961 -0.0012382178 -0.93402982 -0.35452408 -0.043599937 0.011853573
-0.074807897 0.051273622 -0.0021136829 -0.92255443 -0.37963134 -0.069089383 0.0097764926
0.073115066 0.052512456 -0.001637643 0.96653181 -0.023774916 -0.25544298 0.010583091
-0.076019041 0.055164114 -0.0017291793 -0.96489346 0.01842759 -0.26199454 0.041813914
0.058988906 0.055218767 -0.0026698287 -0.45836237 0.70984292 -0.53481489 0.0028778436
0.06127445 0.056893047 -0.0029153947 -0.53134054 0.64749128 -0.54628962 0.0044755195
0.073166147 0.055461623 -0.0016590232 0.9444741 -0.024271712 -0.32768834 0.013806501
-0.061816365 0.057338994 -0.0027331861 0.22819126 0.69563597 -0.68118972 0.0074828328
0.062051274 0.058351494 -0.0012712483 -0.59071815 0.62838966 -0.50614083 0.0073160739
0.063282438 0.059642613 -0.0020697962 -0.76758707 0.4949944 -0.40717408 0.014157684
0.07332506 0.05849779 -0.001563867 0.91826302 -0.078333221 -0.38814551 0.018284472
0.064182632 0.061543904 -0.0016568465 -0.82678151 0.42877957 -0.36411598 0.01266792
0.073613599 0.061403763 -0.0016464994 0.87448597 -0.1129217 -0.4717235 0.01954646
0.065199092 0.064465605 -0.0016327712 -0.88715559 0.23187983 -0.39898208 0.017962677
0.06616506 0.065384082 -0.0028366253 -0.86744761 0.25382948 -0.42790803 0.01712686
0.074024431 0.064550072 -0.0016465675 0.87835699 -0.17129533 -0.4462589 0.0093770763
0.06569463 0.067140616 -0.0012073454 -0.92952508 0.21574222 -0.29906255 0.022983734
0.066602513 0.067094028 -0.0025311033 -0.60162634 0.1989176 -0.77361327 0.022878293
0.074400455 0.067188077 -0.0021192629 0.82534999 -0.23597044 -0.51294768 0.01107695
0.075205363 0.068399765 -0.00042375931 0.95048654 -0.28034538 0.13409665 0.030642092
0.065992326 0.069260716 -0.00037172867 -0.91665959 0.22999258 -0.32686183 0.024112424
0.067252159 0.070448607 -0.0022374606 -0.59469426 0.11110907 -0.79623705 0.015822798
0.074671403 0.069648683 -0.0026142076 0.83904618 -0.31025025 -0.44692981 0.019170791
0.075799197 0.071008131 -0.0011670198 0.95534033 -0.29544908 -0.0058936845 0.01940649
0.067235157 0.073482193 -0.0017609391 -0.89299464 0.15215641 -0.42356703 0.027758354
0.076615676 0.073057741 -0.0013258822 0.97190595 -0.22233346 0.077244163 0.041885462
0.067610227 0.076004989 -0.0016693742 -0.85684615 0.20631661 -0.47249141 0.027711106
-0.018354669 0.0028536012 0.0023339351 -0.24952669 -0.96836358 0.0029016309 0.0073513961
-0.016389096 0.0025226187 0.0015530192 -0.22377977 -0.97463894 -0.001216011 0.0070252693
-0.013512249 0.0018698312 0.0014910903 -0.20064875 -0.97947609 0.019148167 0.0023043377
-0.010505688 0.0013665446 0.0015336233 -0.1524379 -0.98391688 0.093114555 0.0051667192
-0.0074754376 0.00099094317 0.0014846738 -0.12213128 -0.98506212 0.12139417 0.0057803518
-0.0044716182 0.00059846981 0.0014570848 -0.085617237 -0.99204344 0.092301115 0.002756608
-0.0015488891 0.00042708206 0.0014547128 -0.041945715 -0.99025494 0.13279951 0.0043660593
0.0014282087 0.000328703 0.0014961801 -0.012069061 -0.99168056 0.12815611 0.0032664214
0.0045069973 0.00027839912 0.0014544865 0.021177826 -0.98626643 0.16379873 0.0050124512
0.0075177331 0.00040559671 0.0014528235 0.050889552 -0.98737037 0.15003327 0.0074473098
0.010509446 0.00054851 0.0014001797 0.07348346 -0.97960597 0.1870088 0.0064114532
0.013535802 0.00086987059 0.001481373 0.10865365 -0.98029125 0.16499525 0.0052546165
0.016454764 0.001255741 0.001457523 0.13892369 -0.98228502 0.12576243 0.0055551562
0.01946158 0.0017213272 0.001452459 0.17925818 -0.97492379 0.1318716 0.0034472505
0.022495463 0.002362106 0.0014443683 0.19878705 -0.97171509 0.12748869 0.0031230228
0.024808558 0.0028351974 0.0012880117 0.21066861 -0.97208238 0.10331759 0.0030737023
-0.027715452 0.0057880706 0.0022261534 -0.34767777 -0.93442148 -0.077309564 0.008934279
-0.025434241 0.0052899704 0.0015854832 -0.30766168 -0.94455117 -0.11474948 0.0044289459
-0.022438684 0.0043062372 0.0015224166 -0.32094556 -0.94534725 -0.057554651 0.0025717746
-0.019647906 0.0034365922 0.001360553 -0.29779744 -0.95248592 -0.063932173 0.0027308923
-0.017762654 0.0030625258 0.00066618371 -0.24441014 -0.96714699 -0.06993103 0.0023085624
0.026187403 0.0032144224 0.0016107204 0.27029565 -0.95698625 0.10544057 0.0025601599
0.02846951 0.0038594585 0.0014599602 0.27982661 -0.95468462 0.10136233 0.002408982
0.031299181 0.0047026877 0.001464486 0.29243007 -0.95131111 0.097425252 0.0017531017
0.034010354 0.0056081279 0.0013175608 0.32392061 -0.94183552 0.089561626 0.0023958765
-0.036191896 0.0089066438 0.0022482374 -0.4001067 -0.90824461 -0.1225009 0.014303296
-0.034348603 0.0084545473 0.0019330838 -0.36448789 -0.91931796 -0.1483344 0.0092589119
-0.031535193 0.007672634 0.0013986515 -0.36190411 -0.91872883 -0.15799583 0.004350015
-0.028722262 0.006666495 0.0012075856 -0.37107724 -0.91818118 -0.13872646 0.0046179555
-0.026666747 0.0061748158 0.00067779917 -0.33565685 -0.93071783 -0.14525437 0.0038045503
0.035549294 0.0062081902 0.0014370872 0.36171442 -0.92787117 0.090651661 0.0023413475
0.03750436 0.0069701374 0.0015252813 0.36778438 -0.92599607 0.085240275 0.0021164671
0.040399712 0.0081758648 0.0014611419 0.39969683 -0.91353279 0.075500771 0.0022670561
0.042189319 0.0089328876 0.00065982086 0.42106286 -0.90398699 0.074253701 0.0024027613
-0.04214545 0.01186439 0.0023860638 -0.44142336 -0.88581961 -0.14307007 0.012422801
-0.040187474 0.011286892 0.001837609 -0.42932305 -0.87949407 -0.20535809 0.0066691507
-0.037597854 0.010326051 0.0013793599 -0.44873366 -0.86697465 -0.21677922 0.0050333855
-0.034920234 0.0094644399 0.00075165764 -0.38462117 -0.89130384 -0.24009165 0.0041598794
0.041975215 0.0091172336 0.0026046596 0.42219764 -0.90605927 0.028385557 0.0009510474
0.043655992 0.009706568 0.001381636 0.43774492 -0.89501101 0.085642532 0.0018843909
0.046247587 0.011027244 0.0014823101 0.45803633 -0.88455796 0.088090882 0.0018641833
0.048103776 0.011986458 0.00056681212 0.48112962 -0.87547892 0.045286898 0.0022309138
-0.045825195 0.014492896 0.0020801958 -0.56422079 -0.8075785 -0.17167388 0.006995732
-0.043491181 0.013451793 0.0014236494 -0.52026612 -0.82053143 -0.23675169 0.005816868
-0.041008215 0.012561812 0.00079311786 -0.45114633 -0.85679907 -0.24972437 0.0042407778
0.047878202 0.012153292 0.0026227869 0.48108494 -0.86847639 0.11960808 0.00094459951
0.049597163 0.012953691 0.0015193461 0.51310742 -0.85666221 0.053391214 0.0020380949
0.05194119 0.014321875 0.0014061744 0.52859837 -0.84390825 0.091665909 0.0023281595
-0.051076729 0.017736174 0.002919687 -0.53964895 -0.83507085 -0.10693736 0.010344393
-0.049066838 0.017039908 0.0017660623 -0.56210977 -0.79810721 -0.21692751 0.0060827597
-0.046740849 0.015914923 0.0011840394 -0.55601043 -0.80199772 -0.21829365 0.0037080136
-0.044799395 0.01513133 0.00048582687 -0.57125086 -0.79388684 -0.20836554 0.0071282433
0.053407893 0.015349939 0.0015755618 0.56205648 -0.82192749 0.092345521 0.0021939613
0.055388074 0.016716853 0.0014939085 0.56751579 -0.8157531 0.11168158 0.0025259708
0.057157401 0.017851474 0.00080915273 0.59556645 -0.79750055 0.096402705 0.0032157975
-0.054466322 0.020645134 0.0024831651 -0.63581675 -0.74620831 -0.19725676 0.0072492934
-0.052306179 0.019650867 0.0016415482 -0.59637243 -0.76239145 -0.25119537 0.0055786422
-0.050126608 0.018613027 0.00091529026 -0.58912545 -0.76782048 -0.25175995 0.004131251
0.05860012 0.019131504 0.001578535 0.62344402 -0.77347594 0.11424799 0.002837352
0.060420707 0.020641483 0.001382174 0.66474682 -0.73822635 0.11460166 0.0040008714
-0.057452694 0.023509977 0.0022989959 -0.6452716 -0.74113828 -0.18530716 0.0038990586
-0.055630971 0.022447141 0.0015173225 -0.63079435 -0.74093831 -0.23045376 0.0040850355
-0.053566113 0.021338912 0.00091542053 -0.59248126 -0.77068043 -0.23455845 0.004012268
0.061874729 0.022062708 0.0016063775 0.69476187 -0.70879316 0.12213971 0.0039179251
0.063402563 0.023536898 0.0011098478 0.73027915 -0.67389488 0.1120627 0.0029014791
-0.060481802 0.026386302 0.0020266613 -0.71645284 -0.68805689 -0.11520875 0.0044326405
-0.058732551 0.025274521 0.0014016802 -0.64106882 -0.7420541 -0.19592461 0.0019902017
-0.056821808 0.02408383 0.00052871194 -0.61437744 -0.75864023 -0.21680753 0.0026466602
0.06489183 0.025339538 0.0016098786 0.76363593 -0.63132858 0.13522018 0.0031188293
0.066178374 0.026579222 0.00095415179 0.79602772 -0.58976585 0.1360742 0.0032538571
-0.063237727 0.029632678 0.001798061 -0.7623266 -0.64079916 -0.090744928 0.00080890633
-0.061768048 0.028156105 0.0013868078 -0.73037499 -0.6703437 -0.13111709 0.0010784315
0.065805137 0.027005486 0.0028583065 0.76598299 -0.6214633 0.16447946 0.0057935589
0.067227647 0.028444471 0.001519218 0.82688344 -0.5503251 0.11578465 0.0034002503
-0.06462498 0.031391844 0.0014588381 -0.7929762 -0.6081019 -0.037427712 0.001817967
0.068654284 0.030773252 0.0016175 0.86078119 -0.49331355 0.12528981 0.0036758899
0.069585383 0.032368407 0.00099552702 0.8926264 -0.43214512 0.12833002 0.0038466807
-0.066988245 0.034506701 0.0015163939 -0.82096893 -0.57036775 0.026278593 0.0019084162
-0.065830432 0.033184491 0.0014787874 -0.80870897 -0.58819884 -0.0034660222 0.0011634487
0.070385635 0.034331169 0.001598245 0.91491073 -0.37819371 0.14109558 0.0032433174
-0.069472432 0.038214289 0.0014204333 -0.86269563 -0.49571314 0.10012372 0.0042280359
-0.068473987 0.036654051 0.0015515347 -0.83933324 -0.54155481 0.047309212 0.0016379324
0.071380869 0.037192471 0.0016231827 0.9360109 -0.29877877 0.18605082 0.0047368156
0.072133362 0.038542397 0.00078205223 0.97118282 -0.2162659 0.10016529 0.0080632847
-0.070661724 0.04035192 0.0015107063 -0.90153885 -0.41788572 0.11224654 0.0043578823
0.072415605 0.040373825 0.0014813975 0.9806481 -0.15357761 0.12142149 0.0033008428
-0.072495274 0.044510052 0.00089686841 -0.92655808 -0.3481141 0.14250162 0.0076431949
-0.07175754 0.042811781 0.001576256 -0.91086692 -0.3831692 0.15330634 0.0051830634
0.072665825 0.042912558 0.00072217232 0.97364092 -0.10479973 0.20258425 0.0039966544
-0.073071636 0.04658559 0.0015192905 -0.92723268 -0.28697723 0.24059017 0.0056590075
0.072978437 0.046524394 0.0015182426 0.98897004 -0.025943745 0.14582597 0.0055565019
-0.075236566 0.050830029 0.00063906971 -0.93194479 -0.34907997 0.098092295 0.0073731025
-0.074117124 0.049509905 0.0016224333 -0.90172046 -0.35066387 0.25285396 0.009758302
0.073067501 0.049492467 0.0015885743 0.98840886 -0.022306342 0.15016794 0.006417769
-0.075617716 0.052567445 0.0013236798 -0.9140833 -0.33387253 0.23017569 0.011747953
-0.074715793 0.051449679 0.0023628229 -0.87747276 -0.37131172 0.3035937 0.0086950772
0.073294714 0.052369475 0.001005698 0.99565631 -0.034973606 0.086286247 0.017157027
-0.07616818 0.054743495 0.0016245366 -0.91793936 -0.3021735 0.2570574 0.0236171
0.073341265 0.055486105 0.0012350481 0.99909884 -0.036213666 -0.022137806 0.019902535
0.073223576 0.058613613 0.0014249701 0.87071049 -0.079923511 0.48525813 0.018924993
0.064028352 0.061686061 0.00058823451 -0.86135679 0.43311757 -0.26546866 0.0089798467
0.073516577 0.061601087 0.0014045435 0.9585163 -0.087317616 0.27133399 0.0070944848
0.064866595 0.064130723 0.00061788806 -0.93688941 0.2931715 -0.19049586 0.0086197192
0.074039295 0.064551376 0.0012086491 0.95108712 -0.13070123 0.27991146 0.015600646
0.065616846 0.067209207 0.0004044332 -0.96476322 0.22188403 -0.14141914 0.0083126659
0.066127114 0.067482136 0.0013123201 -0.96472877 0.22197688 -0.14150847 0.0084396815
0.074171275 0.067022137 0.0021201633 0.9010424 -0.20663446 0.38134593 0.02176713
0.075188689 0.06817624 0.00056513643 0.94621742 -0.23373815 0.223694 0.018871637
0.067219652 0.070780315 0.0017547029 -0.9025448 0.12340039 0.41253498 0.010605099
0.074681401 0.069656737 0.0024878527 0.92151892 -0.3136211 0.2290078 0.021921979
0.075747646 0.070698857 0.0012428595 0.93454707 -0.28569439 0.21213324 0.021324139
0.067523442 0.073848888 0.0016023021 -0.90141124 0.087732926 0.42398202 0.015419593
0.076610461 0.072906494 0.0014652535 0.9440695 -0.24958296 0.21550204 0.027676113
0.067635879 0.075718656 0.0016527217 -0.93252635 0.083890766 0.35122204 0.024127122
-0.018307179 0.0028846757 0.0033439258 -0.21238792 -0.9629522 0.16617583 0.008838933
-0.016131485 0.0025906344 0.0039828462 -0.19453979 -0.9574424 0.21320973 0.005762836
-0.013461555 0.0022054652 0.0043322411 -0.16840638 -0.95237309 0.25421411 0.00402528
-0.010529111 0.001772707 0.0044551347 -0.13849637 -0.94933844 0.28209105 0.0035467402
-0.0075464547 0.0013609704 0.0042655342 -0.099029727 -0.95030844 0.29513896 0.0033798299
-0.0046669017 0.0011331828 0.004338522 -0.072522737 -0.94201791 0.32763183 0.0042002248
-0.0015038279 0.0010002013 0.0044055115 -0.021597037 -0.94431478 0.32833385 0.0027658353
0.0014967495 0.00097436924 0.0043932167 0.0020870818 -0.93829376 0.345833 0.0026042685
0.0044781589 0.0010376011 0.0043788278 0.032351363 -0.93347752 0.3571738 0.0020265139
0.0074716485 0.0012551321 0.0044266242 0.050362464 -0.92752832 0.37034422 0.0022044657
0.010285233 0.0013732897 0.0044153691 0.078779936 -0.92348069 0.37546936 0.0023201262
0.013253994 0.0015972486 0.0042983186 0.095941328 -0.93096656 0.35227343 0.0046652849
0.016515234 0.0019891034 0.0043156021 0.11558413 -0.92042327 0.37344509 0.0030438174
0.019587224 0.0023869188 0.0041694301 0.14732528 -0.93599743 0.3196936 0.0051086834
0.022403002 0.0027973477 0.0037303977 0.20399879 -0.94275016 0.26383102 0.0035810599
0.024219038 0.0029475943 0.0031347934 0.1938509 -0.96567363 0.1729053 0.003897398
-0.027588245 0.0057960069 0.0036771742 -0.31184459 -0.93979585 0.13977383 0.015288196
-0.02515802 0.0052122609 0.0039984807 -0.28560099 -0.93562669 0.20744832 0.0085783126
-0.022824274 0.004637314 0.0044779582 -0.30457705 -0.92235488 0.23768525 0.006503826
-0.019322859 0.0035463732 0.0044288277 -0.28612128 -0.92544699 0.24835961 0.0051986617
-0.016537394 0.0032489749 0.0054109483 -0.20964614 -0.92718142 0.31045607 0.0035603801
-0.014299667 0.0031223146 0.0058163875 -0.17563215 -0.89640939 0.40694427 0.0004920268
0.020403206 0.0031709815 0.0057494147 0.17207278 -0.87061679 0.46088755 0.0030822605
0.022662506 0.0033419596 0.0050132577 0.18609263 -0.90862936 0.3738479 0.0042205346
0.025404202 0.0037050641 0.0043886905 0.23922297 -0.92980719 0.27969784 0.0022880984
0.028635288 0.0046088821 0.0043912288 0.25967598 -0.92768955 0.26825443 0.002001992
0.031779621 0.0054927231 0.0043442724 0.29254478 -0.92134166 0.25602198 0.0023535478
0.033324651 0.005840275 0.0037892989 0.32129195 -0.91123945 0.25770915 0.0028536448
-0.036154192 0.0088397032 0.0035231533 -0.34801432 -0.93288088 0.092840239 0.029337684
-0.034047794 0.0083351573 0.0038029775 -0.3494924 -0.93615162 0.038407996 0.014802487
-0.03152157 0.0075099287 0.0041870344 -0.35211533 -0.9215762 0.16343842 0.010120836
-0.029135235 0.006831801 0.0047721439 -0.34401599 -0.92009246 0.18730402 0.0082441196
-0.026485665 0.0061974176 0.0056198426 -0.28625596 -0.89572293 0.34020287 0.0046657845
0.03261587 0.0061456505 0.0054914756 0.30605549 -0.89157712 0.33379671 0.0031691645
0.034726072 0.0065381564 0.0042666043 0.34188655 -0.90885985 0.23892961 0.0023381866
0.037534542 0.007637152 0.0045631044 0.34508419 -0.88222027 0.32031909 0.0028081085
0.039977107 0.0085414452 0.004214244 0.39383894 -0.87724352 0.27447182 0.0025732717
-0.042470008 0.011907469 0.0035705138 -0.42429081 -0.90530556 -0.019980999 0.020068007
-0.039987583 0.011141974 0.004123826 -0.4458665 -0.89506102 -0.008294112 0.014253949
-0.037363309 0.0099076368 0.0041090245 -0.45740125 -0.88780087 0.050927613 0.0057018758
-0.035226785 0.0093175918 0.0053990046 -0.36479294 -0.88161534 0.29946706 0.0036030659
0.041109599 0.0093319891 0.004956957 0.39751527 -0.86386997 0.30937082 0.0026295262
0.043433104 0.010155124 0.0040212385 0.42643213 -0.88119906 0.20406808 0.0018492866
0.045994852 0.011441946 0.0041746497 0.44799778 -0.84698421 0.28620914 0.0020900462
-0.045950472 0.014499862 0.0041756998 -0.51154864 -0.85484135 0.08697331 0.020047443
-0.04370404 0.013200632 0.0044791084 -0.52749133 -0.82404381 0.20665123 0.0097257756
-0.041608777 0.012330383 0.00536652 -0.45630848 -0.85952395 0.23021956 0.014055436
0.047268361 0.012429627 0.0048833112 0.47442311 -0.83042353 0.29209515 0.0020411075
0.049601458 0.013632189 0.0044979351 0.49065414 -0.8218528 0.28951079 0.0024355163
0.051651593 0.014677165 0.0039850995 0.51176566 -0.8061645 0.29697609 0.0024557614
-0.051205967 0.017759867 0.0039072069 -0.573955 -0.81783462 0.041500077 0.027199907
-0.04942406 0.016869528 0.0043898951 -0.54934007 -0.81893432 0.16604841 0.015495783
-0.047260463 0.015582299 0.0047813067 -0.57620192 -0.80457157 0.1437218 0.014875216
0.050965909 0.015048923 0.0058650016 0.51895326 -0.7720719 0.36686859 0.0049415976
0.052822009 0.015779112 0.0047047464 0.541924 -0.78757203 0.29334059 0.0023030452
0.055068616 0.01717772 0.0042838985 0.55112869 -0.77682233 0.30463785 0.0023062644
-0.054510448 0.020537976 0.0041846139 -0.62369037 -0.77891517 0.065585248 0.02522262
-0.052537352 0.019195031 0.0045072371 -0.59814501 -0.77417547 0.20706242 0.013049597
-0.050651927 0.018418552 0.0053503565 -0.60004324 -0.77330154 0.2048243 0.010005443
0.056390189 0.018428419 0.0050313175 0.57011378 -0.75883359 0.31486788 0.0027112397
0.058316089 0.01970502 0.0044192132 0.61414737 -0.73196173 0.29505089 0.0018960987
0.060256105 0.020841967 0.0032641785 0.64813834 -0.71496606 0.26218355 0.0045922464
-0.057733554 0.023318741 0.0042956956 -0.63727158 -0.76875883 0.053803455 0.020055462
-0.055974439 0.021923088 0.0046616942 -0.64838767 -0.74684548 0.14769971 0.01389128
0.059720322 0.021317279 0.0052747787 0.64540321 -0.68768889 0.3324737 0.0027529844
0.061428227 0.02257048 0.0044843499 0.68756843 -0.66301429 0.2960771 0.0026064781
0.063099168 0.023670714 0.0036615678 0.70062095 -0.64163703 0.31214136 0.0021721355
-0.060572725 0.026065169 0.004281831 -0.7366814 -0.66525608 0.12138722 0.015585681
-0.059247542 0.024884054 0.0041118758 -0.68894696 -0.72465712 -0.014970755 0.0087279649
0.06272997 0.024323799 0.0052206386 0.69881046 -0.62994701 0.3388668 0.00248121
0.064216167 0.025589697 0.0044250749 0.72994089 -0.61304593 0.30225995 0.0018522197
-0.063515142 0.029552616 0.0042588785 -0.77103901 -0.60899925 0.18606113 0.012399074
-0.062126603 0.027992368 0.0045258175 -0.76033068 -0.6339047 0.14164104 0.011676335
0.065541185 0.027661519 0.0049893139 0.76625836 -0.54195708 0.34515327 0.0030144132
0.066788308 0.028962497 0.0042593377 0.78188044 -0.50238901 0.36914527 0.0033662075
-0.064795934 0.031492084 0.0044499757 -0.80389535 -0.56005907 0.20021519 0.0095405253
0.068085358 0.031402893 0.0045704935 0.83156377 -0.42811838 0.35385925 0.0029186753
0.069169581 0.032492284 0.0038732004 0.84069073 -0.40293971 0.36177158 0.0031797446
-0.066920087 0.034729026 0.0043381648 -0.83098817 -0.48634878 0.27004367 0.0067392308
-0.065796793 0.033312812 0.0051816069 -0.82240844 -0.52159876 0.22711033 0.0087160245
0.068698704 0.03369936 0.0055949609 0.83003402 -0.34568971 0.43765539 0.0023506524
0.069667384 0.034597103 0.004372797 0.86656523 -0.33648354 0.36856958 0.0035640809
-0.069197163 0.038455561 0.0036823265 -0.84155172 -0.41415969 0.34678885 0.0056642406
-0.068218932 0.037262909 0.0046572797 -0.84317088 -0.41661289 0.33984786 0.0052941008
0.070618883 0.037502456 0.0044677686 0.88777661 -0.26153463 0.3787511 0.0023674874
-0.069892779 0.040364671 0.0041890703 -0.84989935 -0.35753298 0.38709337 0.0053089769
-0.068765856 0.039724652 0.0053178505 -0.83485019 -0.36349711 0.41339451 0.005101549
0.071197048 0.040274732 0.004632622 0.91317225 -0.17664798 0.36730373 0.0039766887
0.072115012 0.041396316 0.0033745815 0.96282578 -0.17766488 0.20347407 0.0035727096
-0.072107673 0.04458259 0.0034296627 -0.89319998 -0.3337419 0.30134723 0.0095092999
-0.070842341 0.043191403 0.0044393493 -0.85432041 -0.28768101 0.43286985 0.0049609048
0.071535647 0.04300826 0.004722394 0.92353082 -0.079556912 0.37518197 0.0036458776
0.072428167 0.043482155 0.0032240595 0.97419584 -0.080349743 0.21091805 0.0050089178
-0.072429419 0.047121756 0.0036778925 -0.85201877 -0.2811324 0.44162038 0.0041064918
-0.071470864 0.046221949 0.0048756078 -0.84265214 -0.24060799 0.4817107 0.0030741524
0.071473546 0.046264052 0.0051253382 0.88473278 -0.020055279 0.46566692 0.0020773937
0.072443105 0.046333052 0.0035234378 0.94489771 -0.024939265 0.32641453 0.00075683848
-0.072939925 0.049737006 0.0041027693 -0.84283215 -0.31328487 0.43759182 0.0076053347
-0.071582347 0.048715644 0.0059419493 -0.67752326 -0.14727117 0.72060633 0.0049497206
0.071384475 0.050323907 0.0051610256 0.85285485 0.011434038 0.5220229 0.0045343968
0.072156489 0.048651062 0.003756196 0.90403819 -0.038684446 0.42569757 0.0060638529
-0.075573459 0.05391977 0.0030355386 -0.84845215 -0.32316557 0.41915753 0.027439866
-0.073873632 0.052258596 0.0040198057 -0.82217979 -0.29718432 0.48549131 0.0061609135
0.072648026 0.05234516 0.0032233817 0.98513675 -0.032034133 0.16875851 0.0074526658
-0.075256065 0.055043317 0.0033488057 -0.8487305 -0.31609407 0.4239589 0.021926871
-0.073492862 0.055020034 0.0052540228 -0.67133164 -0.18014488 0.7189309 0.0090751313
0.072154313 0.054390833 0.004051744 0.98249549 -0.055291198 0.1778921 0.0073997541
0.071579024 0.059475921 0.003793658 0.49346939 0.047386952 0.86847138 0.016157722
0.07214433 0.059627265 0.0031968949 0.42343932 0.015558174 0.90579087 0.018274961
0.071113832 0.061771262 0.0038145487 0.4933556 0.047358047 0.8685376 0.016167201
0.070776865 0.064484067 0.003699451 0.35520315 -0.011503886 0.93471837 0.017594645
0.072353847 0.065012686 0.0032429071 0.46238142 0.015137831 0.88655192 0.025518043
0.068891719 0.066500269 0.0035557519 0.089172609 0.078936525 0.99288332 0.013967334
0.070597276 0.067622423 0.0036311662 0.0070276004 0.005235713 0.99996161 0.021751463
0.072658978 0.067912921 0.0034659144 0.5208801 -0.11110175 0.84636897 0.027192228
0.068639897 0.069844842 0.0031478556 -0.1921304 -0.010959974 0.98130822 0.015073015
0.070621446 0.070583619 0.0038935826 -0.068276085 -0.13557267 0.98841208 0.031993203
0.073281042 0.07081075 0.0038165026 0.35546789 -0.209261 0.91096234 0.027061872
0.068782188 0.073809259 0.0032825721 -0.38013998 -0.047065005 0.92373079 0.02010498
0.070509695 0.073495917 0.0043904539 -0.33327979 -0.12849052 0.93403149 0.025614306
0.073596127 0.073326349 0.0044933637 0.24116054 -0.22490339 0.94406569 0.055472802
0.075507656 0.073120758 0.0033979085 0.89288586 -0.23891227 0.38167503 0.05391176
0.068719648 0.075518772 0.0035424503 -0.38013422 -0.047072325 0.92373276 0.020107368
0.070463464 0.075130865 0.0047886255 -0.33327401 -0.12846832 0.93403655 0.025613973
-0.015054448 0.0029916468 0.0060634636 -0.22835417 -0.90143937 0.36777914 0.0084241722
-0.013178169 0.0028150147 0.0063996534 -0.15771732 -0.89713907 0.41263402 0.00027086327
-0.010468761 0.0027061459 0.006633684 -0.11549651 -0.89518911 0.43046135 0.0023553083
-0.0074046869 0.0025082813 0.0069626081 -0.080335692 -0.89212435 0.44459009 0.0024626628
-0.0042976481 0.002356167 0.0071170651 -0.056502093 -0.89042377 0.45161158 0.0020413247
-0.0014855303 0.0022333744 0.0070765852 -0.021070516 -0.87224358 0.48861757 0.0014752592
0.0014091637 0.0022874938 0.0071750409 0.0020837174 -0.86919624 0.49446276 0.0018517714
0.0045395833 0.0023133347 0.007065732 0.038308289 -0.87298977 0.48623177 0.001715416
0.0076100766 0.0024561838 0.0069038211 0.063376479 -0.87456197 0.48075441 0.00081463344
0.010628789 0.0025023709 0.0066264742 0.083564579 -0.87396437 0.47875184 0.0013087128
0.013586011 0.0027078846 0.0064379917 0.10276684 -0.85669267 0.50548655 0.00060570065
0.016523875 0.0028590434 0.0062120566 0.11149372 -0.84622878 0.52102399 0.00086217572
0.018465335 0.0029433775 0.0060823783 0.16034995 -0.83746457 0.52243763 0.0019758849
-0.024349742 0.0058282563 0.006289361 -0.28063822 -0.85678571 0.43262047 0.0010040388
-0.022711024 0.0055886544 0.0067796488 -0.27449474 -0.87985992 0.38794214 0.001682493
-0.019214654 0.0047353893 0.0071482975 -0.23428021 -0.86859035 0.43665043 0.00097297161
-0.016243653 0.0040298514 0.0071581244 -0.18598029 -0.88695061 0.42276448 0.0018736743
-0.013515572 0.0035967249 0.0073861317 -0.16072212 -0.88316095 0.44067574 0.0016814115
-0.010549917 0.0033075872 0.0077544674 -0.11835247 -0.8626743 0.49171707 0.0013191793
-0.0078287991 0.0032978775 0.0082903877 -0.080494002 -0.84996468 0.52065432 0.0017683276
-0.0047768652 0.0033050338 0.008628902 -0.040765289 -0.85097671 0.52361894 0.0023126313
-0.0015916553 0.0031894406 0.0089191301 -0.012653837 -0.84498245 0.53464431 0.0022518777
0.0021811675 0.0030686846 0.008520986 0.013471737 -0.85551399 0.51760441 0.0019915728
0.0043912795 0.0031371631 0.0085339788 0.036286935 -0.86139339 0.50664061 0.001820491
0.0071971384 0.0033798933 0.0084824897 0.06561166 -0.83627564 0.54436958 0.00062439608
0.010241701 0.0033915218 0.0081156846 0.086704366 -0.85431033 0.51248044 0.00055924669
0.013750833 0.0036539386 0.0077831657 0.11246068 -0.85275054 0.51006782 0.00095729326
0.016635662 0.0040176152 0.0077242642 0.11919701 -0.8470099 0.51804078 0.0010086577
0.019511519 0.0040676473 0.0073212381 0.15130225 -0.81233472 0.56322289 0.0010631712
0.022554548 0.0046736682 0.0073668184 0.16266143 -0.79697603 0.58169621 0.0015949655
0.025491456 0.0050502932 0.0070802444 0.19816843 -0.80393982 0.56072277 0.0030746758
0.028308732 0.0054683769 0.006626701 0.22273828 -0.82197237 0.52416521 0.0033373404
0.030543257 0.0058913673 0.0062867277 0.25871155 -0.84277582 0.47201407 0.0025110436
-0.033443753 0.0088393157 0.0064172447 -0.35695142 -0.84264022 0.40316635 0.0011529266
-0.031289786 0.008516538 0.0069903801 -0.31158718 -0.84467387 0.43524647 0.0010698029
-0.028831145 0.0078467457 0.0073171505 -0.29388121 -0.87827969 0.37717196 0.0026138395
-0.025538176 0.0067704013 0.0074727912 -0.27253118 -0.84580362 0.45863169 0.00094135513
-0.023023769 0.0063997116 0.0080748089 -0.26985133 -0.86664432 0.41965204 0.001471946
-0.020993756 0.0060832766 0.0082022045 -0.23113817 -0.84527242 0.48175699 0.0013289924
0.023803981 0.0060254852 0.0088103646 0.15831028 -0.76024079 0.63005704 0.0016161265
0.026347745 0.0063934699 0.0084862467 0.1866765 -0.74543083 0.63990998 0.0018284995
0.028710708 0.0065059466 0.0079326937 0.20728028 -0.79116845 0.5754019 0.0042319898
0.03158756 0.0069292262 0.007391992 0.26402855 -0.80915809 0.52493054 0.0025196602
0.034422629 0.0078347391 0.0073031727 0.27492884 -0.80746073 0.52193999 0.0024578955
0.037291199 0.0085520353 0.0068094907 0.32164302 -0.81649953 0.47945213 0.0020768584
-0.039521102 0.011815418 0.0064860936 -0.39934123 -0.81235641 0.42497492 0.0011185526
-0.03730737 0.011163116 0.0072881319 -0.37265739 -0.81416768 0.44526115 0.00096346019
-0.034582853 0.01002974 0.0074829813 -0.35856074 -0.82400787 0.43868583 0.001009949
-0.03201405 0.0095050875 0.0082892003 -0.30982777 -0.82336569 0.47547415 0.00075218338
-0.029529061 0.0092446283 0.0088500362 -0.28396702 -0.78620893 0.54885179 0.00053944351
0.035327666 0.0092183249 0.0087554064 0.27375835 -0.75716853 0.59308702 0.001808167
0.037765983 0.0096198888 0.0081346678 0.31055525 -0.80777717 0.50105035 0.0031633205
0.040458061 0.010373473 0.0075102011 0.36350599 -0.8046217 0.46951821 0.0016546744
0.043188017 0.011260685 0.0069485428 0.39169127 -0.7961812 0.46116531 0.0017258801
0.045196261 0.011861692 0.0062493323 0.44865173 -0.79083318 0.41628671 0.0024236378
-0.045465041 0.014914925 0.0064167245 -0.51216805 -0.78701103 0.3439441 0.0045884284
-0.043257378 0.014193096 0.0072104083 -0.46735868 -0.7713086 0.43204039 0.0011398594
-0.040715709 0.012912866 0.0075311423 -0.40857905 -0.79741114 0.44407052 0.0011286901
-0.037962951 0.012303989 0.0086814919 -0.36356035 -0.77943319 0.5102036 0.00036505502
0.043781776 0.012466593 0.0083575603 0.39144924 -0.76449788 0.51216257 0.0023566049
0.046537522 0.013380887 0.0074865371 0.42549679 -0.76218718 0.48787615 0.0020614648
0.049071945 0.014443466 0.0069043129 0.45677733 -0.75229895 0.47476393 0.0022041984
-0.048729613 0.017566096 0.0069892621 -0.5116694 -0.74224293 0.43274683 0.001146198
