# .PCD v0.7 - Point Cloud Data file format
VERSION 0.7
FIELDS x y z normal_x normal_y normal_z curvature
SIZE 4 4 4 4 4 4 4
TYPE F F F F F F F
COUNT 1 1 1 1 1 1 1
WIDTH 560
HEIGHT 1
VIEWPOINT 0 0 0 1 0 0 0
POINTS 560
DATA ascii
-0.040735811 -0.013563029 0.0017876819 -0.86781061 -0.047388833 -0.49463034 0.005059408
-0.040623434 -0.010670878 0.0014946011 -0.86723006 -0.024030078 -0.49732745 0.003426821
-0.040439919 -0.0074112657 0.0010151414 -0.87816852 -0.067923136 -0.47350448 0.0047954251
-0.042360425 -0.0038748987 0.0027831187 -0.85689813 -0.046102185 -0.51342016 0.0063113184
-0.040193528 -0.0046641557 0.0003719228 -0.92972583 -0.11815295 -0.34878328 0.019954329
-0.042387642 -0.001597514 0.0028579095 -0.85414338 -0.0035808065 -0.52002537 0.0065677362
-0.040159047 -0.0015500057 0.00028275454 -0.9185611 -0.040796578 -0.39316812 0.019432511
-0.042471066 0.001723803 0.0029620631 -0.86639941 0.0074266111 -0.49929649 0.0071213301
-0.040160209 0.0015907757 0.00028380571 -0.93325645 0.035076406 -0.35749403 0.021515448
-0.042492017 0.0042003668 0.0029035083 -0.86982894 0.034159523 -0.4921695 0.0077882353
-0.04016161 0.0045878533 0.00028803409 -0.92873347 0.097118862 -0.35780182 0.020290542
-0.040371969 0.0075066257 0.00083697872 -0.88170254 0.07399901 -0.46596649 0.0054100738
-0.040532622 0.010534761 0.0012552731 -0.87925041 0.05045709 -0.47368005 0.0041588624
-0.040666427 0.013469926 0.0016040817 -0.87277865 0.053045351 -0.48522532 0.0055306675
-0.040753573 0.016549401 0.0018316784 -0.89680994 0.030928822 -0.44133359 0.0075204833
-0.040743127 0.019506689 0.0018049683 -0.94167095 0.0079087997 -0.33644202 0.006181784
-0.040678948 0.022590395 0.0016379929 -0.94488579 -0.012633956 -0.32715639 0.0018959048
-0.040571049 0.025539741 0.0013564262 -0.95003092 -0.020379517 -0.31148997 0.0025467942
-0.04058373 0.028482383 0.0013890229 -0.96306819 -0.023193065 -0.26825711 0.0032300227
-0.040557884 0.031466715 0.0013265449 -0.97049874 -0.038147699 -0.2380694 0.0066348044
-0.040580239 0.034410503 0.0014163058 -0.97168553 -0.061738044 -0.22806934 0.015802626
-0.042521201 0.038006794 0.0021636817 -0.80600047 -0.50080514 -0.31552732 0.017266873
-0.04065688 0.036606804 0.00085868814 -0.88476533 -0.18081112 -0.42953178 0.044270422
-0.048662506 0.041076519 0.0023430688 -0.37606293 -0.82915163 -0.4136233 0.016668711
-0.046215493 0.040570855 0.0017456145 -0.39939412 -0.84927005 -0.34528941 0.0159427
-0.043614585 0.039814625 0.0013128528 -0.5552814 -0.75857139 -0.34092829 0.016240867
-0.052218676 0.044098046 0.0011926263 -0.92322731 -0.35503107 -0.1469841 0.024964802
-0.049850192 0.04274039 0.001170916 -0.41835326 -0.85470313 -0.30734858 0.02102506
-0.047312208 0.042631269 0.0014865039 -0.37020174 -0.82367694 -0.42954269 0.021367138
0.022101056 0.042773064 0.0023170947 0.46084356 -0.83646518 0.2965624 0.0012816379
0.025465144 0.044147696 0.0012669269 0.48285374 -0.81610721 0.3175236 0.0021267994
-0.05252986 0.045997936 0.0013824677 -0.98261243 -0.15281813 -0.10544867 0.011355915
0.026860096 0.045034822 0.0017419204 0.46540192 -0.8203212 0.33237669 0.002576916
0.02875424 0.04620197 0.0016385957 0.49177292 -0.78516757 0.37639254 0.0017574345
0.03092945 0.047451567 0.0013445134 0.50873125 -0.71097225 0.48550075 0.0022096077
-0.052673824 0.049472407 0.0013501756 -0.98899156 -0.034835607 -0.1438131 0.00093912042
0.032282334 0.04894124 0.0019258404 0.53038472 -0.66273898 0.5286485 0.001995635
0.034243535 0.049844764 0.0010863276 0.54705143 -0.58795077 0.59585959 0.0026650238
-0.05263792 0.052561309 0.0014294656 -0.984433 0.10424411 -0.14150925 0.00090635568
0.034978285 0.052029286 0.0022742143 0.5614382 -0.44124565 0.70006388 0.0035352001
0.037290547 0.052854635 0.00095246977 0.57525074 -0.45238096 0.68149692 0.0017152329
-0.052287787 0.055187542 0.0013346736 -0.96734107 0.22232756 -0.1217443 0.015424754
0.03748719 0.055451158 0.0019698378 0.58679187 -0.27049747 0.76322109 0.0022956745
0.03959145 0.055701733 0.00047186791 0.59309578 -0.27703655 0.75596839 0.003272654
-0.051818058 0.057458803 0.001507936 -0.93571162 0.34370464 -0.079441473 0.018631898
-0.048815861 0.058396034 0.0016819676 -0.39758077 0.85517532 -0.33257306 0.015179588
-0.046317775 0.059502583 0.0012799164 -0.17794858 0.95829451 -0.22362019 0.052624598
-0.043810394 0.059932847 0.0007331915 -0.15600428 0.94403768 -0.2906124 0.051928859
0.03716547 0.058652904 0.0025629262 0.52875406 0.03377315 0.84810287 0.000691475
0.040127609 0.058688391 0.00059049414 0.61172718 -0.060850129 0.78872502 0.0029763025
-0.043773439 0.060410172 0.002072463 -0.24104966 0.93053794 -0.27567059 0.060510125
-0.040440168 0.061161522 0.0019306061 -0.36519167 0.89441323 -0.25818619 0.04694663
0.036979724 0.062105853 0.0023633521 0.52552354 0.10461341 0.8443228 0.00018154552
0.040033661 0.061417915 0.00049277471 0.58779502 0.078536317 0.80518883 0.00061462098
0.035415649 0.065603331 0.0028759339 0.5114181 0.13165644 0.84918678 8.6007931e-05
0.037724495 0.063945338 0.0016435767 0.52547961 0.1317551 0.84054255 0.00017046224
0.039407555 0.064521782 0.00048887252 0.58348161 0.13115074 0.80146664 0.0004044263
0.035378575 0.06754683 0.0025076489 0.51257867 0.15937762 0.84371907 0.00011665369
0.037201505 0.067598529 0.0013566955 0.53628355 0.16624296 0.82750422 0.00029197434
0.039362822 0.066749662 0.00012732977 0.59023738 0.16596037 0.78998542 0.00046395976
-0.0053176004 0.071524531 0.00046082202 -0.44305176 0.74571824 -0.49760374 0.0038129126
0.034790114 0.070679411 0.0022036601 0.48654872 0.22135791 0.84514552 0.00041000303
0.037225042 0.070955351 0.00062405621 0.50512254 0.24587075 0.82728398 0.0021761556
-0.0040878141 0.073121011 0.0015909227 -0.43586105 0.77177691 -0.46301794 0.0017063075
-0.0016256442 0.074201487 0.0011265395 -0.43069232 0.82002056 -0.3769224 0.0026821769
0.03169293 0.074118629 0.0026910529 0.38995248 0.43233684 0.81303251 0.0044218665
0.034186095 0.073627666 0.0016384664 0.45820877 0.37150976 0.80748081 0.0030922922
0.036694363 0.07342577 0.00026170517 0.49246502 0.39484668 0.77561224 0.0036504052
-0.00031096858 0.075240955 0.0021484436 -0.39583588 0.8658886 -0.30586103 0.0032034081
0.001568784 0.075690985 0.0011589562 -0.37565929 0.89532316 -0.23932539 0.0068017654
0.0042804214 0.076726012 0.0016779641 -0.26677874 0.95691609 -0.1146329 0.0034285064
0.0074423915 0.077481687 0.0014803594 -0.19511726 0.98073679 -0.0091935955 0.0041498146
0.020522876 0.077989846 0.0029916225 0.11533297 0.83603889 0.53641158 0.0023121242
0.02363839 0.077675581 0.0026352224 0.15787792 0.78736418 0.59592962 0.0033221443
0.025953012 0.077412188 0.0022628058 0.18415053 0.79709196 0.57509398 0.0027507136
0.028866295 0.07672897 0.0019892626 0.25383487 0.66053843 0.70658106 0.0045307633
0.03142482 0.076336637 0.0013017748 0.31584048 0.58817649 0.74450874 0.003960147
0.034144238 0.075870395 0.00042519736 0.39657116 0.54732758 0.73699659 0.0030182456
0.010935247 0.078073159 0.002057791 -0.080401599 0.96825987 0.23666096 0.0029885003
0.013660372 0.078477629 0.0012670353 -0.11538362 0.98111534 0.15523964 0.0037766646
0.016523454 0.078501031 0.0020369776 -0.011076643 0.93535119 0.35354698 0.0031979005
0.019427739 0.078701437 0.0014865024 0.075642087 0.91678816 0.39214513 0.0037548165
0.022433378 0.078693718 0.0011465565 0.092364937 0.87693018 0.47165897 0.0037782961
0.025512971 0.078645214 0.00066738157 0.13243391 0.82981545 0.54209554 0.0038885633
0.028183289 0.078263491 0.00054097298 0.17472281 0.77291363 0.6099807 0.0033684308
-0.00022679041 -0.075309366 0.0048399549 -0.43443397 -0.85990721 -0.26800507 0.016677728
0.0019538493 -0.075842567 0.004323035 -0.23904899 -0.96456438 -0.11167457 0.017107746
0.0045208889 -0.076351061 0.0047064587 -0.16795468 -0.98461169 0.048281327 0.0032435325
0.0072685075 -0.076764822 0.0044595096 -0.11609396 -0.98020864 0.16035351 0.0053732935
0.010402162 -0.077046841 0.0044692392 -0.010913554 -0.95174032 0.30671045 0.0036599792
0.013729626 -0.077118605 0.0044113025 -0.0013393721 -0.93175876 0.36307561 0.0033198842
0.01639864 -0.076982677 0.0044372454 0.086001508 -0.8827458 0.46191296 0.0020632937
0.019445766 -0.076561868 0.0045665265 0.12241179 -0.85358131 0.5063737 0.0013539117
0.02242741 -0.076167487 0.0042564217 0.21278843 -0.74773341 0.62897998 0.0033427305
0.025478236 -0.075681776 0.0037705232 0.24708642 -0.6956625 0.67453837 0.0030504605
0.027789097 -0.075371668 0.0032321415 0.29161727 -0.64831817 0.70330852 0.0041396543
-0.0039999019 -0.072355673 0.0039361604 -0.43977252 -0.8037585 -0.40071499 0.0099123679
-0.0020561318 -0.074806012 0.0054275454 -0.40321481 -0.86603796 -0.29562825 0.014944635
0.023247415 -0.074499935 0.0057766605 0.28180146 -0.65991294 0.69649321 0.001780234
0.025593307 -0.073846497 0.0052875523 0.33709359 -0.54663295 0.76652485 0.0049545672
0.028370889 -0.073557839 0.0042488207 0.359148 -0.47476166 0.80350119 0.0033020875
0.030808108 -0.073144317 0.0033496595 0.37837377 -0.43957007 0.81462353 0.0035866499
-0.010519972 -0.069572836 0.0045107929 -0.38924462 -0.8099336 -0.43874392 0.0037258822
-0.0074303504 -0.070834532 0.0041726986 -0.38989219 -0.81795776 -0.42300031 0.0050689713
-0.0050318786 -0.071926966 0.0040407116 -0.38820809 -0.81249499 -0.43490955 0.0086529357
0.0268772 -0.071998671 0.0059057488 0.38465208 -0.47722748 0.79012454 0.0033572866
0.028854787 -0.070688605 0.0053518927 0.44542116 -0.29381379 0.84573835 0.0017685663
0.031553887 -0.070610821 0.003915817 0.44993597 -0.28704864 0.84567171 0.0012787953
0.03327617 -0.069495901 0.0032654647 0.47350073 -0.24945807 0.84472942 0.0008615664
-0.020711398 -0.066362835 0.003673079 0.21998256 0.74336952 0.63167202 0.0002729047
-0.017272409 -0.067566939 0.0036627576 0.20514378 0.78385794 0.58607405 0.0029989854
-0.012287454 -0.068987772 0.0048620882 -0.29432386 -0.82663375 -0.47963551 0.0033362461
0.029550225 -0.068085946 0.0056833471 0.48254046 -0.18483664 0.85614848 0.00010069812
0.031312279 -0.067718141 0.0047372803 0.4854975 -0.1815507 0.85517919 0.00016992766
0.034122504 -0.066703066 0.0032931049 0.50508475 -0.15720008 0.84863269 0.00010473933
-0.027138058 -0.064749256 0.0037640522 0.17343803 0.79902363 0.57574344 0.00016588325
-0.025250144 -0.065034032 0.0035852666 0.18861596 0.78983814 0.58359218 0.00021337313
-0.022916568 -0.065830387 0.0037425545 0.20275576 0.77057171 0.60424274 0.00032080524
0.031629916 -0.064431235 0.0051611578 0.49992338 -0.13861036 0.85490572 0.00012648941
0.033824511 -0.064841993 0.00379581 0.50599444 -0.14461853 0.85032642 0.00014703296
-0.043782156 -0.060642194 0.0041301032 -0.14630215 -0.97854048 -0.14510089 0.031709768
-0.040286407 -0.06081105 0.0042436789 -0.27715495 -0.95162106 -0.13267457 0.027952416
-0.037061736 -0.062022954 0.0042842501 -0.21304677 -0.94570416 -0.24546836 0.01966157
-0.035288729 -0.061627563 0.0043642502 -0.22380652 -0.95527577 -0.19328439 0.005247118
0.031872027 -0.061143253 0.0054724775 0.50599164 -0.1082528 0.85571826 0.00011363333
0.034709364 -0.061228562 0.0037833191 0.51192272 -0.10902338 0.85208505 7.260334e-05
-0.052035604 -0.057589073 0.0049835886 -0.9350391 -0.35318679 0.030999199 0.020438332
-0.049010206 -0.058734346 0.0044648857 -0.28709838 -0.94636238 -0.14823245 0.028922552
-0.046473201 -0.059763748 0.0037402527 -0.26215795 -0.96500838 0.0056683989 0.023159044
-0.04311024 -0.059770335 0.0048793149 -0.3224726 -0.94582546 0.037757598 0.057719741
-0.041097511 -0.059668701 0.0031530224 -0.1177748 -0.9657194 -0.23133335 0.037433375
0.032243595 -0.058043577 0.0055677146 0.51696807 -0.071779139 0.85298985 0.00021216551
0.034038581 -0.058936339 0.0044049378 0.52218544 -0.063389115 0.85047281 0.0004197862
-0.05261099 -0.055527065 0.0048397458 -0.96241385 -0.26717645 0.048748478 0.019140637
0.032125667 -0.055674784 0.0056823166 0.53353256 -0.0029465198 0.84577441 0.00098117115
0.034382116 -0.055647053 0.0042525814 0.55411589 0.1376522 0.82097954 0.0028461099
-0.053111494 -0.052452888 0.0048776786 -0.99330992 -0.11205805 0.027900649 0.0062020659
0.031921122 -0.052306328 0.0051026088 0.56836343 0.26197687 0.77995586 0.0021344009
0.034151036 -0.053038787 0.00375203 0.55815572 0.32902244 0.76171285 0.0031943743
-0.053253915 -0.049507577 0.0049092472 -0.99939781 -0.010939112 0.032930017 0.0060963719
0.029195983 -0.048925608 0.0053391643 0.55766714 0.46786276 0.68564701 0.003379425
0.031101972 -0.049828574 0.0043766429 0.5735876 0.49344745 0.65384012 0.0038711159
0.03320292 -0.050915208 0.0034200943 0.51455188 0.50986892 0.68939829 0.0029043381
-0.053156558 -0.046530623 0.004803854 -0.99309528 0.10538875 0.05152487 0.0062145847
0.026241258 -0.045713942 0.004779865 0.52411139 0.69925272 0.48616135 0.0016916631
0.028314706 -0.04705086 0.0043422473 0.54024863 0.63816881 0.54851812 0.0026286265
-0.052707031 -0.043391854 0.0048419405 -0.94519496 0.32649043 -0.0032520026 0.028512955
0.020014416 -0.042054266 0.005568258 0.50073344 0.80463618 0.31910288 0.0012122054
0.022500766 -0.04327523 0.0048861885 0.49256697 0.7872963 0.3708671 0.0048338091
0.024933739 -0.04426232 0.003850996 0.48784903 0.77183819 0.40776122 0.0040975725
-0.052147955 -0.041417081 0.0050829942 -0.84752876 0.52742684 -0.059294384 0.025922664
-0.049086545 -0.039873458 0.0046838643 -0.58896101 0.77674955 -0.22312553 0.015276191
-0.04654441 -0.039346218 0.0044011953 -0.33477983 0.88498974 -0.32359797 0.0053377342
-0.044970352 -0.039287049 0.0034989519 -0.44396788 0.84963459 -0.28462902 0.006691427
0.019412458 -0.041290261 0.0040620118 0.50070822 0.80465686 0.31909037 0.0012093441
-0.045451839 -0.038795728 0.0055962321 -0.34760472 0.87581241 -0.33484867 0.005752421
-0.043047957 -0.037120625 0.0039039652 -0.68721473 -0.67345971 -0.27237457 0.015402794
-0.041571613 -0.036627654 0.0039641755 -0.79604465 0.50787562 -0.32920408 0.018289698
-0.042174637 -0.034400929 0.0055422494 -0.92390424 0.14491755 -0.35411841 0.0086454954
-0.04157671 -0.034371689 0.0039820508 -0.94657296 0.11033551 -0.30302754 0.010311386
-0.042173751 -0.031440079 0.0055399104 -0.93485284 0.00020192696 -0.35503536 3.9320286e-05
-0.041567929 -0.031469684 0.0039588176 -0.93747759 0.0080953036 -0.34795165 0.00020935695
-0.042172603 -0.028478742 0.0055371122 -0.93378973 3.6993337e-05 -0.35782233 2.0674597e-05
-0.041584611 -0.02849705 0.0040024659 -0.93445462 0.0017226085 -0.35607818 1.4075598e-05
-0.042171236 -0.025516715 0.0055338563 -0.91529745 -0.043236859 -0.40045115 0.0029196204
-0.041565508 -0.025527693 0.0039526909 -0.93380064 7.207484e-06 -0.35779378 0
-0.042165034 -0.022991737 0.0055174157 -0.89684391 -0.057897545 -0.43854168 0.0049419082
-0.041573562 -0.022483103 0.0039739334 -0.91108239 -0.022425817 -0.41161388 0.0027465513
-0.042077027 -0.020509746 0.0051842183 -0.88517648 -0.041386712 -0.46341106 0.005056791
-0.041496113 -0.019496629 0.003772018 -0.87552774 -0.071902938 -0.4777877 0.0062047523
-0.043476976 -0.015472088 0.0055880276 -0.84596908 -0.080275737 -0.52715468 0.0027193329
-0.041511059 -0.017057385 0.0038113871 -0.85460955 -0.086087316 -0.51208544 0.0039264765
-0.04347739 -0.013498328 0.0055887429 -0.87461936 -0.063046761 -0.48069337 0.0052840197
-0.043296918 -0.010424037 0.0051172487 -0.85654664 -0.011687281 -0.51593727 0.0028957303
-0.043163374 -0.0074285013 0.0047691334 -0.87959909 -0.032598991 -0.47459742 0.0043309638
-0.043077171 -0.0045814351 0.0045447797 -0.90635121 -0.007203707 -0.42246369 0.0020301016
-0.043048896 -0.0015975118 0.0044707269 -0.91148037 -0.024761515 -0.41059774 0.0022660075
-0.043012328 0.0015084748 0.0043752897 -0.89971656 -0.00097919139 -0.43647346 0.0058439905
-0.042994037 0.0045518419 0.0043272427 -0.89113796 0.041816097 -0.45180145 0.005219406
-0.043143112 0.0074553406 0.0047156592 -0.8884396 0.033924326 -0.45773816 0.0042859884
-0.04329735 0.010471447 0.0051176283 -0.869757 0.0019020473 -0.49347663 0.0045958101
-0.043451078 0.013467635 0.0055177398 -0.86340111 0.034253862 -0.50335389 0.005525575
-0.041267358 0.014166014 0.0030530752 -0.84674364 0.075758912 -0.52657938 0.0048341677
-0.043476872 0.015664021 0.0055850279 -0.85063785 0.062936783 -0.52197158 0.0044694003
-0.041441374 0.016409602 0.0036261287 -0.8545388 0.054864593 -0.51648158 0.0049561029
-0.041601188 0.019641589 0.0040422874 -0.85908824 0.051611438 -0.50921863 0.0043325787
-0.042364754 0.023864448 0.0059117051 -0.908665 0.097621448 -0.40595329 0.0065209586
-0.041675076 0.022446664 0.0042352686 -0.89420074 0.0585256 -0.44382393 0.0050772252
-0.042178288 0.025972322 0.0055485675 -0.92899305 0.017465897 -0.36968467 0.00077533053
-0.041622676 0.025407352 0.0040991404 -0.93372595 1.186943e-05 -0.35798854 1.0292288e-05
-0.042174537 0.028525198 0.0055388948 -0.93373263 4.9077193e-05 -0.35797128 0
-0.041585758 0.028541911 0.0040036142 -0.93369794 0.0001324583 -0.35806167 4.2976808e-06
-0.042175509 0.031486508 0.0055416236 -0.93367106 5.1126419e-05 -0.35813171 0
-0.041568995 0.031514712 0.0039599556 -0.93342072 0.00073736662 -0.35878298 1.6973234e-05
-0.042175937 0.034447826 0.0055436306 -0.92286623 -0.066492498 -0.3793371 0.0043238061
-0.041587971 0.034482665 0.0040090247 -0.94224042 -0.10028293 -0.31957227 0.011376953
-0.043208309 0.037827309 0.0045987815 -0.71141207 -0.58517921 -0.38917643 0.029787341
-0.041637585 0.036801819 0.0039585228 -0.84461129 -0.39349258 -0.36303636 0.013583942
-0.052018773 0.04160719 0.0053017191 -0.8210364 -0.56883961 -0.048174106 0.031720992
-0.049274012 0.040239066 0.0048836498 -0.66611964 -0.73020858 -0.15192118 0.015829904
-0.046630815 0.039995898 0.0044460604 -0.41379899 -0.84060347 -0.34950849 0.018157978
-0.044342868 0.039238371 0.0042347265 -0.5267278 -0.7979306 -0.29302663 0.0055581164
0.017633026 0.041050117 0.0037764832 0.47306356 -0.83026516 0.29473832 0.0010923987
0.018448079 0.0415719 0.0048083211 0.47306314 -0.83026481 0.29473996 0.0010917779
-0.052587643 0.043434009 0.0048710681 -0.9027217 -0.42714471 -0.051388953 0.038280532
-0.049495433 0.042085785 0.0030423119 -0.40817451 -0.80928671 -0.42243168 0.02272057
0.019815464 0.042445309 0.0053011375 0.47805405 -0.82534564 0.30044788 0.0011437135
0.022230737 0.043666296 0.0048796297 0.48919258 -0.77925789 0.39172408 0.0025177619
0.024698785 0.04459548 0.0036630826 0.49435988 -0.7916978 0.35891917 0.004885097
-0.053101555 0.046515752 0.0047704317 -0.99332738 -0.11111817 0.03087802 0.0061898339
0.02368208 0.045138586 0.0059014079 0.51100278 -0.75663084 0.40790436 0.0032123744
0.02607074 0.046262529 0.0048714071 0.53480351 -0.68462658 0.49524918 0.005428581
0.028120853 0.047131564 0.0039090915 0.53440136 -0.65995795 0.52808207 0.0024111497
-0.053261999 0.049537849 0.0048983372 -0.99957114 -0.017664364 0.023356725 0.0058548297
0.028981764 0.049116056 0.0051776003 0.58516121 -0.5319649 0.61204553 0.005753695
0.031129951 0.049897566 0.0039409627 0.56628925 -0.51101673 0.64666712 0.0029795296
-0.053161498 0.052493829 0.0048013902 -0.99453694 0.094448693 0.044449147 0.0060497955
0.031747103 0.052398261 0.0050238343 0.55752909 -0.32774508 0.76272178 0.0024076302
0.033906568 0.052983444 0.0036501649 0.56249845 -0.37669903 0.73599821 0.0026572791
-0.05269146 0.0555823 0.0049394388 -0.97035027 0.2375657 0.044530496 0.019208359
0.032313429 0.055758052 0.0055101933 0.53889507 -0.014721144 0.84224427 0.0012032915
0.034396287 0.055673491 0.0041509713 0.55827969 -0.17489731 0.81100851 0.0029153978
-0.052154526 0.057861015 0.0049540843 -0.89404178 0.44793957 -0.0062727192 0.018009881
-0.048871975 0.059262402 0.0044005211 -0.45499247 0.863289 -0.21843518 0.01156853
-0.04257872 0.058590285 0.0043822532 -0.22751963 0.90936422 -0.3482694 0.065483838
0.032270245 0.058216132 0.0055734222 0.51872879 0.059422951 0.85287124 0.00036655646
0.033904154 0.059135694 0.0045211511 0.52371842 0.047629334 0.85055888 0.00052020891
0.036290634 0.058063708 0.0030951898 0.50071609 0.088737652 0.86105114 0.00026176748
-0.048985757 0.060143445 0.0059162471 -0.48400784 0.86496449 -0.13256316 0.025902053
-0.046454892 0.060506005 0.0045109806 -0.13942181 0.93859518 -0.31559578 0.050509427
-0.043542318 0.061305828 0.0044281203 -0.2709246 0.88774192 -0.37217495 0.064287417
-0.040701412 0.062266536 0.0048832376 -0.39535794 0.78750437 -0.47278863 0.043911401
-0.038137548 0.062303603 0.0033815769 -0.33965799 0.82537931 -0.45097831 0.035362009
0.031618003 0.061304644 0.0056923376 0.50697041 0.10742491 0.85524321 0.00010662737
0.034602989 0.061330907 0.0038963 0.51017582 0.097329684 0.8545453 0.00014983772
-0.036992304 0.063366413 0.0051379902 -0.25155073 0.89736199 -0.36257926 7.5057105e-05
-0.033821046 0.063946962 0.0045191068 -0.25140038 0.89738715 -0.36262134 0.00010843902
-0.030078333 0.065405793 0.0054994603 -0.26154491 0.8989619 -0.35137144 0.00012001711
0.031629644 0.064541161 0.0052272892 0.49924916 0.13500769 0.85587573 6.0242157e-05
0.034074143 0.064568669 0.0037637306 0.50633717 0.12787084 0.85280222 0.00010230389
-0.020040169 0.068441607 0.0055311578 -0.27869037 0.91337317 -0.29678476 0.0013356851
0.029581763 0.067946196 0.0057819644 0.48842722 0.17555997 0.85476172 0.00011345305
0.031367864 0.067861468 0.0047691194 0.49065968 0.17585534 0.85342133 0.00010389551
0.034111351 0.067128979 0.003313195 0.50258553 0.14571287 0.85215932 0.00014083429
-0.016765755 0.069678821 0.0056575616 -0.31205994 0.89863116 -0.30835155 0.002153001
-0.013354405 0.07047879 0.004792098 -0.3180984 0.89303613 -0.31827655 0.0023929258
-0.010533381 0.071126416 0.0038391252 -0.32206896 0.86935747 -0.37481886 0.0011764936
-0.0084330328 0.071799561 0.0032342502 -0.35969195 0.85621846 -0.3708258 0.0021255715
0.028898375 0.070627272 0.0055116368 0.44395578 0.27770275 0.85192984 0.0021506962
0.031558387 0.070634976 0.004029538 0.45715272 0.25795791 0.85115749 0.00086692011
0.033352908 0.069794625 0.0032187116 0.48562372 0.21702442 0.84679985 0.00045292595
-0.010117802 0.072135143 0.0052302908 -0.32917532 0.90951586 -0.25382003 0.008217629
-0.0073040021 0.07302504 0.0046160179 -0.33209851 0.88207209 -0.33415473 0.0042775511
-0.0044814353 0.074122027 0.0043064523 -0.30785674 0.93432844 -0.17959553 0.0045308699
-0.0027860946 0.074457802 0.0030071619 -0.42037371 0.86099666 -0.28630522 0.011557266
0.023674484 0.074851021 0.0057941256 0.29169029 0.65332258 0.69863176 0.0020422519
0.025794312 0.073938355 0.005536234 0.36391711 0.48954079 0.79241037 0.0043609943
0.028504677 0.073588684 0.0044869483 0.38116917 0.4640685 0.79959399 0.0036011888
0.0312257 0.072835907 0.0035272404 0.42739707 0.38407916 0.81842226 0.0040704594
-0.0016503651 0.07533332 0.0047926842 -0.30382705 0.9456234 -0.11612752 0.003680733
0.0010913662 0.076120704 0.004416639 -0.26017573 0.96447718 -0.04574208 0.0033897327
0.0043137856 0.076838993 0.0042884932 -0.21095981 0.97711313 0.02731191 0.0061705406
0.0072095259 0.077245586 0.0046857884 -0.11475801 0.97850144 0.17136368 0.0052068871
0.010872025 0.077713534 0.004058674 -0.014722033 0.94830304 0.31702462 0.0032917764
0.013708971 0.077418953 0.00504361 0.0072425185 0.92402786 0.38225648 0.0035755606
0.016519453 0.077276044 0.0049669575 0.10555454 0.86114758 0.49727565 0.003045043
0.019366186 0.077172637 0.0044871131 0.13424869 0.83968908 0.52621257 0.0039487272
0.022305578 0.076501325 0.0045514326 0.2082683 0.75270933 0.62454218 0.0033547692
0.025244061 0.075971365 0.0040914118 0.27849028 0.64991933 0.70714068 0.0025481456
0.027622443 0.075666338 0.0034664292 0.28720966 0.64237666 0.71053702 0.0039281938
0.011895773 0.078014269 0.0030354222 -0.11911122 0.97048813 0.20967901 0.0078749228
0.013441576 0.078111455 0.0032334446 0.03873428 0.9221074 0.38499039 0.0025541072
0.017518561 0.078072481 0.0031015268 0.051572487 0.91723812 0.39498681 0.0072179711
-0.00077175786 -0.075107321 0.0075309831 -0.20393564 -0.967664 0.14844739 0.0027328765
0.0008965031 -0.075459108 0.0078781368 -0.15251571 -0.94936949 0.27465707 0.002109282
0.0043542893 -0.075927228 0.0076906551 -0.090013534 -0.97405952 0.20761906 0.0027650588
0.0077584945 -0.07592842 0.0079318359 0.063537613 -0.92005795 0.3865959 0.0037901565
0.010727205 -0.075933404 0.0076061375 0.082948394 -0.89856642 0.43092686 0.0041817343
0.013534429 -0.075866945 0.0072036469 0.10175533 -0.87170196 0.47935539 0.0042066467
0.016326826 -0.07554847 0.007017497 0.15355709 -0.81308049 0.56153399 0.0044302465
0.019162567 -0.075315952 0.0064415839 0.20940492 -0.75820214 0.61747801 0.0040962514
0.021155808 -0.075086713 0.0060263732 0.26822376 -0.70365006 0.65797621 0.0018816956
-0.010094169 -0.07262706 0.0086110765 -0.27113533 -0.95640665 -0.10849901 0.059964344
-0.007313251 -0.073361762 0.0079508405 -0.30626032 -0.93287045 -0.18962416 0.033386521
-0.0045916201 -0.074077956 0.0076811658 -0.33619174 -0.92823571 -0.15922824 0.030244898
-0.0022472523 -0.074701294 0.0075867395 -0.35681617 -0.93386322 -0.024117934 0.025477184
0.013964535 -0.074839294 0.0087362183 0.18493442 -0.75378734 0.63055837 0.0034015295
0.016833663 -0.074398085 0.0083098868 0.2254494 -0.72917831 0.64612037 0.0035227132
0.019552736 -0.073763959 0.0078991307 0.27371541 -0.64429134 0.71412081 0.0036567643
0.022399142 -0.073254712 0.0071329982 0.3310762 -0.54520297 0.77015734 0.0027261178
0.024607599 -0.073067233 0.0063141184 0.34254915 -0.53055006 0.77535588 0.0031992653
0.022821227 -0.070705906 0.0084563848 0.40684709 -0.39320755 0.82453829 0.0042771064
0.025251936 -0.07069888 0.0072449939 0.40733528 -0.3930797 0.82435811 0.0028291212
0.027560305 -0.070024967 0.0062616719 0.43451399 -0.31320572 0.84445232 0.0017794515
0.023725377 -0.067913353 0.0088908169 0.47152042 -0.18439244 0.86236179 0.00031077876
0.02562739 -0.067605801 0.0079423254 0.46125212 -0.21527082 0.86075836 0.00043966365
0.02834544 -0.067320779 0.0064979671 0.4764348 -0.19273947 0.85782367 0.00030105337
0.026174245 -0.064889967 0.0081625702 0.48583841 -0.14746822 0.8615185 7.2587623e-05
0.028187454 -0.064336859 0.0071396516 0.48557058 -0.1488464 0.86143255 0.00015724047
0.030353023 -0.063255526 0.006086831 0.50134069 -0.13295794 0.8549735 0.00016044875
-0.049022332 -0.060238324 0.0082980394 -0.43404621 -0.84310871 -0.31744558 0.037710384
-0.04315329 -0.060260855 0.006269963 -0.29839051 -0.94780397 0.11238654 0.043424889
-0.040699404 -0.060959153 0.0062122513 -0.29794917 -0.94956893 0.097699225 0.037540432
0.026403155 -0.061569676 0.008590281 0.49161983 -0.11856986 0.86269993 0.00010061795
0.028466657 -0.061558079 0.0074478043 0.49740782 -0.11958394 0.85923517 0.00014594026
0.030583432 -0.061635114 0.0062267687 0.50372422 -0.10903123 0.8569563 6.9077032e-05
-0.05135617 -0.057698611 0.0072185104 -0.89092678 -0.44680309 0.081342556 0.015942339
-0.050433327 -0.058722839 0.007830699 -0.81382728 -0.58032697 -0.030096978 0.037397761
-0.045853738 -0.058601622 0.0065340297 -0.094735965 -0.99534094 -0.017931232 0.039874062
-0.043259341 -0.058877356 0.0076690414 -0.25696835 -0.91610831 -0.30775458 0.077370673
0.026726425 -0.058907785 0.0087708589 0.49362481 -0.10091881 0.86379969 0.00010916557
0.028753597 -0.058228761 0.0076176161 0.50156367 -0.075158723 0.86184978 0.0001877898
0.030399736 -0.058896691 0.0065861149 0.50340009 -0.069023617 0.86129206 0.00022894327
-0.051916655 -0.055500779 0.0071787904 -0.96342587 -0.23539424 0.12806299 0.010020149
0.026706964 -0.054284975 0.0089755449 0.50005603 -0.059041984 0.86397803 9.5279058e-05
0.027953517 -0.055895496 0.0082436837 0.51353127 -0.021837695 0.85779297 0.00057766039
0.030784704 -0.055601954 0.0065461006 0.52946228 0.056718066 0.84643531 0.0020716498
-0.052407548 -0.052562345 0.0072056479 -0.98240763 -0.1461805 0.11621726 0.0048652221
0.026837476 -0.053069524 0.0088345055 0.52832019 0.05973269 0.84694141 0.0013326664
0.028575335 -0.052564796 0.0075989254 0.5705021 0.24726485 0.78319061 0.0031702195
0.030398523 -0.052728288 0.0063458965 0.57442784 0.2598131 0.77622789 0.0038660485
-0.052545648 -0.049514387 0.0073976289 -0.98603493 -0.0078047141 0.16635549 0.0045940396
0.025922686 -0.049298704 0.0082815103 0.55707693 0.37672856 0.74009526 0.0023064932
0.028004594 -0.049777467 0.0068788351 0.57235622 0.41184333 0.70907933 0.0026965817
-0.052456796 -0.046474259 0.0072389287 -0.98225808 0.11845688 0.14538576 0.0035215474
0.023081427 -0.046047326 0.0082736034 0.56410968 0.57185435 0.59561974 0.0057778349
0.02524736 -0.046847835 0.0070154592 0.56215054 0.5685488 0.60061568 0.0032560313
-0.05200493 -0.043516204 0.0072508529 -0.95448726 0.2616533 0.14314906 0.012804165
0.017930139 -0.042282693 0.008837455 0.50762701 0.73217893 0.45412433 0.0019647502
0.019999975 -0.043120962 0.0077299457 0.52291375 0.74734938 0.40991491 0.0026365486
0.022004278 -0.04436269 0.0073996084 0.5200271 0.6810168 0.51554626 0.0027000976
-0.051461238 -0.041196261 0.0072499155 -0.87170929 0.48524487 0.068267077 0.023200916
-0.050155241 -0.039883964 0.0076028039 -0.7647621 0.63726789 -0.095018618 0.02226617
0.014319967 -0.039895091 0.0084842499 0.54967999 0.71271169 0.43576822 0.0022385446
0.016579704 -0.040901158 0.0076202075 0.50123876 0.78463811 0.36483258 0.00082872383
0.018655322 -0.041641526 0.0064888047 0.50830019 0.76820314 0.38922352 0.0019005961
-0.048984401 -0.038724449 0.0075424174 -0.60270566 0.77070451 -0.20678627 0.014320947
-0.046360727 -0.038357709 0.0076868129 -0.3748036 0.88822812 -0.26565611 0.0053519006
-0.043831769 -0.037012413 0.0072865817 -0.71665061 0.60787839 -0.34190023 0.02148002
-0.042978022 -0.034396924 0.007639139 -0.92223471 0.096740656 -0.37433201 0.0053124269
-0.042964354 -0.031536624 0.0076035215 -0.93380284 2.7812181e-05 -0.35778797 2.4780625e-06
-0.042951442 -0.028541502 0.0075698229 -0.93379718 3.1176314e-06 -0.35780281 2.8391225e-06
-0.042960718 -0.025500713 0.0075938865 -0.92322522 -0.067183718 -0.3783406 0.0027045796
-0.043863833 -0.022337765 0.0079251742 -0.89822966 -0.17970292 -0.40111145 0.0066364552
-0.044311553 -0.019379318 0.0077667627 -0.90656847 -0.09607885 -0.41097733 0.0032669762
-0.044280648 -0.016480681 0.0076857582 -0.88944417 -0.056270983 -0.45356661 0.0065009138
-0.044267606 -0.013486469 0.0076513952 -0.94345427 0.0021377683 -0.33149585 0.0017205322
-0.044266596 -0.010493151 0.0076490082 -0.93380344 -1.0159303e-05 -0.35778648 2.3999619e-06
-0.044253718 -0.0074499222 0.0076153362 -0.9337945 -1.4043129e-05 -0.3578099 0
-0.044251166 -0.0045349547 0.0076083606 -0.93377972 -3.9920116e-05 -0.35784841 6.59135e-06
-0.0441311 -0.0014301501 0.0072946968 -0.93376517 -5.6046872e-05 -0.35788628 0
-0.044069439 0.0015708427 0.0071333172 -0.93375951 -4.5019606e-05 -0.35790119 0
-0.044083744 0.0044772192 0.0071701258 -0.93375641 -4.5277218e-05 -0.35790929 0
-0.044184785 0.007521525 0.0074332245 -0.93375748 -6.0266437e-05 -0.3579064 9.0309152e-07
-0.044268224 0.010543615 0.0076503726 -0.9337545 -6.8032052e-05 -0.35791415 1.9678284e-05
-0.044269368 0.013537072 0.0076529454 -0.91858542 0.0079698386 -0.3951422 0.0030105275
-0.044282943 0.01653127 0.0076878257 -0.88798892 0.048446309 -0.45730582 0.0065834317
-0.044297736 0.019445915 0.0077259401 -0.87910044 0.07834281 -0.47015399 0.0041916696
-0.044010557 0.022365443 0.0078712441 -0.89372849 0.17660126 -0.41238502 0.0080848355
-0.042944282 0.02563055 0.0075466628 -0.92564428 0.0716125 -0.37155661 0.004695788
-0.042952493 0.028452849 0.007567998 -0.93375748 7.9272586e-06 -0.35790637 0
-0.042977471 0.031497352 0.0076330863 -0.93373811 1.2584436e-05 -0.35795698 0
-0.042955887 0.034488212 0.0075772591 -0.93720776 -0.066886783 -0.34229773 0.003108057
-0.048891511 0.038776033 0.0086687878 -0.75649965 -0.64901531 -0.080544583 0.014019921
-0.046177149 0.038666867 0.0080521554 -0.41484562 -0.85906398 -0.29985356 0.0035341135
-0.043526586 0.036724791 0.0079277148 -0.87451816 -0.31716177 -0.36691463 0.013636535
-0.051371098 0.041443139 0.0073506013 -0.8309105 -0.55638903 0.0043551666 0.028605884
-0.049665999 0.039973464 0.0075052162 -0.68105268 -0.72593731 -0.095823757 0.014100221
-0.046761174 0.039275344 0.0066238157 -0.40542722 -0.86481601 -0.29617912 0.0039206175
0.016278427 0.041271642 0.0075913835 0.5076676 -0.79397267 0.33448622 0.002776124
-0.051904023 0.043496143 0.0072505008 -0.94330198 -0.30309895 0.13532345 0.018609365
0.017370248 0.042367347 0.0086815311 0.52948707 -0.73701817 0.42005676 0.0027991019
0.019550961 0.043390863 0.0076729073 0.51569545 -0.75737315 0.40055478 0.0017963554
0.021560427 0.04437954 0.0070760385 0.52372593 -0.69898015 0.48696816 0.0024324988
-0.052392393 0.046435848 0.0072562867 -0.97958589 -0.14417388 0.14009063 0.0040467666
0.022747904 0.046249986 0.0081928363 0.54514503 -0.60777229 0.57743382 0.0045488304
0.02496629 0.047051109 0.0069321762 0.5518896 -0.5902769 0.58905959 0.0034005276
-0.05255286 0.04944421 0.0072906525 -0.98407787 -0.03459812 0.17433748 0.0044708145
0.025875721 0.049313404 0.0079706591 0.56544393 -0.44559872 0.69405687 0.0047574211
0.02785283 0.049948927 0.0067654224 0.5747174 -0.44620961 0.6860007 0.0027378134
-0.052459765 0.0524715 0.0072791073 -0.98588616 0.11597051 0.12074492 0.0054862443
0.026714439 0.052525647 0.0087436391 0.55179423 -0.21619996 0.80546921 0.0026377516
0.027855726 0.053142563 0.0080249868 0.54431635 -0.11716012 0.83065826 0.0016973633
0.030580532 0.053238131 0.0062329029 0.54266602 -0.3030405 0.78337735 0.0037878549
-0.052030191 0.055411711 0.0072350553 -0.97230113 0.21207313 0.098262422 0.0084477542
0.026716636 0.055285424 0.0089737345 0.5042057 0.061009582 0.86142588 0.00013217698
0.02847453 0.055584431 0.0079852678 0.52733982 -0.044038087 0.84851247 0.0011687826
0.030670658 0.055540778 0.0065892264 0.53168589 -0.084396221 0.84272623 0.0024057657
-0.051449891 0.057886373 0.0071593053 -0.91690558 0.39722684 0.038666241 0.014679176
-0.050331354 0.059255991 0.0078020403 -0.81023979 0.58546239 -0.027297158 0.024946485
0.026657581 0.059150193 0.0088313334 0.49847126 0.085810147 0.8626489 0.00013130516
0.028626727 0.058543965 0.0077227894 0.50440705 0.071112722 0.86053264 0.00031424759
0.030785546 0.058479559 0.0064821402 0.5121876 0.045815647 0.85765076 0.00050335232
-0.048785396 0.060505178 0.0075612986 -0.51828378 0.83932024 -0.1640837 0.030670242
-0.046585273 0.06146019 0.0076288758 -0.41887754 0.88490146 -0.20369355 0.027474897
-0.043548722 0.062268998 0.0071922615 -0.27863386 0.9108277 -0.30455881 0.00016452298
-0.0414798 0.062824219 0.0068967645 -0.28463089 0.90696973 -0.31046942 0.00015668302
0.026531316 0.061906494 0.0085510137 0.4927395 0.12346181 0.8613739 0.00010223482
0.028547904 0.061605688 0.007427576 0.50108355 0.11214618 0.85810173 8.9965877e-05
0.030672794 0.061422843 0.0062652673 0.50110918 0.10573025 0.8589009 9.1775735e-05
-0.042135648 0.063030288 0.0081226081 -0.28467327 0.90696293 -0.3104504 0.00014714016
-0.040678207 0.063537136 0.0082374858 -0.28861722 0.9042756 -0.31462017 0.00010471672
-0.037784327 0.064066395 0.0073255673 -0.26229191 0.90018952 -0.34765181 0.00013894733
-0.034536257 0.065112703 0.0076548634 -0.25281584 0.9006393 -0.35345879 0.00022369174
-0.03248845 0.065622889 0.0074829832 -0.25212747 0.89983678 -0.35598522 0.00016298918
0.026003914 0.064696267 0.0084143765 0.48650864 0.14480036 0.86159283 7.322662e-05
0.028284369 0.064732738 0.0070966296 0.49105933 0.14457807 0.85904473 9.7447664e-05
0.03014775 0.064281903 0.0061162114 0.49811372 0.13559705 0.85644388 9.8964636e-05
-0.030674621 0.066201143 0.0076807793 -0.26155716 0.89892828 -0.35144836 0.0001751923
-0.028436229 0.066790015 0.0075445883 -0.26703933 0.90736651 -0.32461676 0.00031405609
-0.025541481 0.06767226 0.0075677997 -0.2818749 0.907556 -0.31126964 0.00043787042
-0.02273423 0.068583339 0.0076817167 -0.25954741 0.93618238 -0.23706071 0.0055009834
0.025841445 0.067374639 0.0079789022 0.47551379 0.17870453 0.86136597 0.00023650861
0.028364725 0.066876851 0.0066893902 0.4867658 0.17369716 0.85608894 0.00012711817
-0.021518456 0.069413401 0.0087398393 -0.25956458 0.93617725 -0.23706219 0.005495877
-0.019302761 0.069705851 0.0076616937 -0.27950835 0.93836677 -0.20332968 0.0095241731
-0.016210271 0.070861913 0.0078246612 -0.29160705 0.9238348 -0.24798106 0.0039873654
-0.013553704 0.071589015 0.0072191749 -0.32820454 0.90661347 -0.26520526 0.0055334391
0.023066895 0.070792504 0.0085193329 0.41664192 0.33854684 0.84367979 0.0027522603
0.025503963 0.070725039 0.0073124496 0.4375017 0.35507092 0.82614583 0.0025226339
0.027579166 0.069743313 0.00647585 0.45220453 0.27610025 0.84810358 0.0013792665
-0.012890327 0.072118923 0.0080597838 -0.29302636 0.93724501 -0.18896411 0.0069217426
-0.010337386 0.072896697 0.0077820346 -0.27605629 0.94561797 -0.17204551 0.0092852144
-0.0072489702 0.073806122 0.0074867806 -0.28956816 0.95534033 -0.058950081 0.0046671629
-0.0044830623 0.074584462 0.0076606008 -0.24935934 0.96676481 0.056442361 0.0044109966
-0.0029571252 0.074896008 0.0086081484 -0.26449081 0.9625181 0.060030017 0.0048861532
0.016959254 0.074526481 0.0087066833 0.24007772 0.69544238 0.67729056 0.0049006441
0.019571414 0.074007928 0.0081622526 0.2973333 0.61119956 0.73350394 0.0050453842
0.022388432 0.073419139 0.0074242372 0.32257572 0.49969235 0.80389833 0.0023833073
0.02498056 0.072749272 0.0066597508 0.39753294 0.46914554 0.78858733 0.0030840728
-0.0017355813 0.075386755 0.0075149098 -0.22633623 0.94941288 0.2176858 0.0037532868
0.0011284975 0.076017305 0.0080376724 -0.17398049 0.94531578 0.27587825 0.003625663
0.0044570747 0.076500624 0.0073872507 -0.093653552 0.96809298 0.23243299 0.0045063775
0.0074998885 0.076455206 0.0080333604 0.032055933 0.91571957 0.40053722 0.0030430099
0.010680959 0.076317251 0.0079283696 0.0936305 0.9005661 0.42451635 0.0053629111
0.013364367 0.076273173 0.0074252896 0.13182701 0.85668957 0.49870288 0.0044736303
0.016345248 0.075855397 0.0072955154 0.17513607 0.79292274 0.58361018 0.0030611581
0.019543286 0.07561484 0.0065910043 0.21854079 0.73712921 0.63943762 0.0030711591
0.021758577 0.075139791 0.0062965374 0.26483262 0.69266176 0.67088246 0.0047723264
0.0016534772 -0.075156115 0.0097700302 -0.12173015 -0.91631168 0.38151622 0.0027981277
0.0047963122 -0.075307012 0.0098678842 -0.016364178 -0.90888423 0.41672739 0.0040641711
0.0068524927 -0.075447038 0.0093002059 0.072630376 -0.87766308 0.47374299 0.0025065774
0.0099596158 -0.075154096 0.0093276585 0.12570849 -0.83199823 0.54034823 0.0022248474
-0.012217283 -0.072035164 0.0095653581 -0.18577613 -0.93578529 0.29965493 0.0024196792
-0.011122424 -0.072216935 0.010138704 -0.17716797 -0.90743351 0.3810195 0.0037205676
-0.0077864775 -0.072819471 0.010791489 -0.20002477 -0.89967507 0.38803971 0.0036306176
-0.0044740671 -0.073534116 0.010788679 -0.18046626 -0.90398526 0.38761127 0.0026129857
-0.0015709858 -0.074222684 0.010543356 -0.16623698 -0.90832984 0.38379961 0.0027970443
0.0011514896 -0.074389108 0.011410673 -0.11641659 -0.90003532 0.4199805 0.0031710379
0.0046379622 -0.074616686 0.011440969 0.022462877 -0.87742704 0.47918394 0.0023589199
0.0077900328 -0.074478514 0.010996807 0.13118838 -0.84625864 0.51636803 0.0021367306
0.010689182 -0.073975146 0.010864849 0.17535694 -0.77738506 0.60408813 0.0046918988
0.013369311 -0.073514879 0.010459527 0.2461658 -0.69767338 0.67279589 0.0036127195
0.016285969 -0.072937526 0.0099577531 0.28977409 -0.617127 0.73156345 0.002869515
0.019023322 -0.0723406 0.0093171606 0.33577672 -0.55837107 0.75860119 0.002774056
-0.022124667 -0.069366828 0.01149645 -0.16094236 -0.97140419 0.17456077 0.0037022906
-0.019525694 -0.070048578 0.011198833 -0.1388876 -0.94731182 0.28863561 0.0027705126
-0.016376005 -0.070843376 0.010959166 -0.12625653 -0.9165467 0.37947518 0.0023824538
-0.01416908 -0.071296707 0.011258546 -0.16045777 -0.88403809 0.43901023 0.0047758925
-0.011124169 -0.071841054 0.011693235 -0.18808982 -0.89837664 0.3969152 0.0033023849
0.014630377 -0.071509719 0.011777073 0.33273482 -0.51056355 0.79285079 0.0067824177
0.016768262 -0.070907354 0.011207578 0.36850417 -0.43663943 0.8207013 0.0029456301
0.01956624 -0.07044512 0.010175349 0.38673949 -0.41901791 0.82149655 0.0037127552
0.021602932 -0.07005772 0.0093953488 0.39919499 -0.3767885 0.83586711 0.0030112742
-0.033916969 -0.066323161 0.011996076 -0.25130332 -0.96600908 -0.060606703 0.00061586994
-0.031150224 -0.067000151 0.01175048 -0.22876939 -0.97267526 -0.039589502 0.00043218062
-0.027821276 -0.067902543 0.011741703 -0.22933339 -0.97329652 0.010004035 0.00053028972
-0.025105059 -0.068615139 0.011580343 -0.22536075 -0.97198659 0.066743203 0.00043727871
0.017871834 -0.068299972 0.011865696 0.42035893 -0.30177334 0.85570508 0.0027542762
0.019604532 -0.067386411 0.011212372 0.44895169 -0.23130488 0.8630994 0.00049627281
0.022446299 -0.067588136 0.0096788732 0.45464492 -0.22602263 0.86151719 0.0006418727
0.02411647 -0.066172265 0.0091333399 0.46203491 -0.19577247 0.86498374 0.00096214301
-0.043679126 -0.063177496 0.011753002 -0.36473781 -0.93109667 -0.0050410531 0.0026214763
-0.040930338 -0.064079098 0.011563298 -0.34285834 -0.93812972 -0.048587929 0.00116032
-0.037681915 -0.065222077 0.011754828 -0.30517241 -0.9510541 -0.04864094 0.0014015109
0.020251386 -0.064627223 0.011452626 0.46761632 -0.15953737 0.86941516 9.5694406e-05
0.022816161 -0.064394929 0.01012935 0.47058576 -0.16116545 0.86751068 8.3017396e-05
0.024544874 -0.064300358 0.009237797 0.47736955 -0.16126709 0.8637774 0.00012677131
-0.048930604 -0.060699452 0.010498573 -0.69602227 -0.71529311 -0.062520325 0.013678029
-0.046537537 -0.062132914 0.011505914 -0.47461709 -0.87675112 -0.07775747 0.0056784758
-0.043972317 -0.062887512 0.011004846 -0.26273867 -0.84446228 -0.46674609 0.039051924
0.020566544 -0.061801329 0.011840411 0.46982086 -0.1355938 0.8722859 8.1118655e-05
0.022431105 -0.061617315 0.010790501 0.47775894 -0.12976329 0.8688544 5.5681241e-05
0.024779387 -0.061449926 0.0095046284 0.48477241 -0.12456267 0.8657251 7.7826036e-05
-0.051225021 -0.057751443 0.010239013 -0.87978947 -0.43400458 -0.19393438 0.019892327
-0.050537363 -0.059090961 0.010650123 -0.75972122 -0.63924885 -0.11909904 0.013193598
0.020948306 -0.059897568 0.011922588 0.4790253 -0.10092522 0.87197983 6.7685054e-05
0.022261275 -0.058660537 0.011290348 0.48413694 -0.098746218 0.86940253 0.00010841562
0.025263879 -0.058350217 0.0096806828 0.4909102 -0.087153934 0.86683989 0.00018703513
-0.051799893 -0.055471748 0.010380723 -0.95865935 -0.24444368 -0.14566904 0.0080417981
0.022754498 -0.055541884 0.011285696 0.48865414 -0.064863257 0.87006313 0.00025047999
0.025482414 -0.055455383 0.0097310068 0.50067234 -0.053696431 0.8639698 0.00028193658
-0.05230147 -0.052725852 0.0099957651 -0.98064166 -0.1503011 -0.12550448 0.006659966
0.022768911 -0.052573204 0.011384297 0.53592646 0.099099241 0.83842838 0.0016906951
0.024752567 -0.052792393 0.010141787 0.51310182 0.032108605 0.85772693 0.0015803159
-0.052487858 -0.049565785 0.01039496 -0.99718249 -0.0084399674 -0.074537531 0.011579181
0.020982958 -0.049007766 0.011846274 0.53389657 0.24336022 0.80977172 0.0033878163
0.022622086 -0.049496651 0.010786138 0.5447861 0.26948723 0.79409367 0.0021102496
0.02472798 -0.04978193 0.0094152279 0.54274946 0.34818879 0.76432168 0.0039242459
-0.052351486 -0.046167668 0.010020886 -0.98199451 0.15363863 -0.10991769 0.0082743224
0.019961137 -0.046174869 0.011073136 0.56168973 0.49057224 0.6662159 0.0056022801
0.021955807 -0.046988174 0.010014039 0.56631452 0.48521009 0.66622752 0.001766191
-0.051884204 -0.043219302 0.01005927 -0.96715307 0.22938319 -0.10953711 0.0099090021
0.016904203 -0.042820089 0.010747904 0.5033586 0.7180264 0.48069558 0.0019374122
0.018919906 -0.044069409 0.010145428 0.55670756 0.58890021 0.58589524 0.001550713
-0.051296305 -0.040889457 0.010017852 -0.83652198 0.50448078 -0.21384591 0.01838751
-0.050699834 -0.039557599 0.010531262 -0.80474073 0.55829769 -0.20173283 0.026584744
0.014005303 -0.040752888 0.010845388 0.55290502 0.69616997 0.45786831 0.0036242525
0.015789829 -0.041526176 0.010133382 0.53265917 0.72021639 0.44448021 0.0020940967
-0.049022656 -0.038261682 0.010341792 -0.44641042 0.88422281 -0.13735986 0.015879916
-0.045777153 -0.036640223 0.010690063 -0.58815634 0.77440923 -0.23315758 0.030846836
-0.04460679 -0.03674626 0.0097763333 -0.639624 0.73059499 -0.23898143 0.014766956
-0.044137418 -0.034409322 0.0106651 -0.91379154 0.19977821 -0.35365748 0.019472411
-0.044148412 -0.031525008 0.010693553 -0.93380129 -3.2745244e-05 -0.35779208 0
-0.044123754 -0.028499927 0.010629395 -0.93380398 -1.9506881e-05 -0.35778505 0
-0.044135675 -0.025521286 0.01066022 -0.93645823 -0.09567894 -0.33747843 0.008471366
-0.045442741 -0.021876413 0.010911783 -0.96241009 -0.1529779 -0.22442041 0.0092576835
-0.044412434 -0.022889717 0.01036339 -0.93986309 -0.17706947 -0.29206803 0.0074420525
-0.045549609 -0.019471601 0.010997621 -0.9789319 -0.076557815 -0.18929148 0.010507064
-0.044974159 -0.019301727 0.0095989583 -0.95944113 -0.047676541 -0.27784836 0.007162543
-0.045472715 -0.016404044 0.010797063 -0.97833443 0.019833179 -0.20607853 0.0052891737
-0.044995837 -0.017291766 0.0096557699 -0.97200561 -0.0091513945 -0.23477955 0.006472582
-0.045441248 -0.013492934 0.010714673 -0.97313297 0.0046751336 -0.23019643 0.005065938
-0.045428813 -0.010469267 0.010681884 -0.97558576 0.0061526783 -0.21953247 0.0045744209
-0.04546877 -0.0075552734 0.010785555 -0.97797644 -0.0035252094 -0.20868544 0.005388706
-0.044993505 -0.0065801321 0.0094377548 -0.9674629 0.0082869334 -0.25287741 0.0045408076
-0.045449808 -0.004505482 0.010735685 -0.99068695 0.027413867 -0.13337131 0.0086842515
-0.044862352 -0.0040274933 0.0092030764 -0.97988993 0.0075130383 -0.19939743 0.011301977
-0.045442082 -0.0015078499 0.010715054 -0.99141675 -0.031392284 -0.1269148 0.0082110204
-0.044856563 -0.0015127481 0.0091874078 -0.97641373 -0.023927281 -0.21457803 0.0092459507
-0.045432754 0.0014925239 0.010690349 -0.98269391 -0.029007221 -0.18295111 0.007127333
-0.044855595 0.0014257657 0.0091838911 -0.96121109 -0.0069318544 -0.27572665 0.0063353614
-0.045458812 0.0044909725 0.010757653 -0.98134053 -0.01261351 -0.19186389 0.0085224323
-0.044855416 0.0045047933 0.0091835149 -0.96144223 -0.0078149857 -0.274896 0.0062125889
-0.045433015 0.0074897767 0.010689994 -0.98242563 0.018837379 -0.18570147 0.0075346138
-0.04485701 0.0074423989 0.0091871414 -0.95873004 0.0062756375 -0.28424889 0.0060635218
-0.045487918 0.010571239 0.01083272 -0.97905761 -0.018663671 -0.20272629 0.0075699999
-0.044904977 0.010512408 0.0094272485 -0.96927083 -0.0080034491 -0.24586585 0.010352782
-0.045531347 0.013545457 0.010945747 -0.95196921 -0.0045330166 -0.30616012 0.00156694
-0.044938155 0.013538961 0.0095147835 -0.94307852 -0.00073898671 -0.33256951 0.00041558451
-0.045549713 0.016517606 0.010993041 -0.95161253 0.0011914802 -0.30729806 0.00127036
-0.044971436 0.016551621 0.0096021416 -0.94645619 -0.00027347269 -0.32283232 0.00082767959
-0.045485813 0.019553125 0.010826096 -0.95812619 0.10315484 -0.26712027 0.010263043
-0.044995211 0.018734787 0.0096651502 -0.95719439 0.068221234 -0.28129148 0.007421359
-0.045359209 0.022188518 0.010590553 -0.92697769 0.18637583 -0.32554021 0.01035727
-0.04438512 0.023422439 0.010952035 -0.91679841 0.19214629 -0.35008648 0.009470731
-0.043979086 0.025422532 0.0102479 -0.94271857 0.11735001 -0.31226704 0.0095847454
-0.044077739 0.028606683 0.010504272 -0.91218936 -0.0039716419 -0.40974963 0.002644046
-0.044139754 0.031532496 0.010665762 -0.92541516 -0.0013645244 -0.37895256 0.00084105134
-0.044140905 0.034462504 0.010668253 -0.89733106 -0.13313322 -0.42079985 0.013583661
-0.048945874 0.038549427 0.01087821 -0.5546217 -0.82051587 -0.13837808 0.0065177642
-0.04640248 0.03791976 0.010374447 -0.54669172 -0.7782895 -0.30885857 0.023132671
-0.044190448 0.036423355 0.010598797 -0.79433465 -0.43260735 -0.42647788 0.063174523
-0.051251385 0.041214336 0.010054197 -0.8155793 -0.56011868 -0.14524966 0.017055351
-0.049952958 0.039592434 0.010178994 -0.75138092 -0.64811897 -0.12397002 0.019010702
0.013809769 0.041099045 0.01068158 0.55582362 -0.69254917 0.45982146 0.0021721893
0.015848346 0.041691519 0.0092866011 0.53063923 -0.70459235 0.47113872 0.0014860519
-0.051831584 0.043439571 0.010121121 -0.95656788 -0.2692247 -0.11178531 0.01375753
0.016698049 0.043153256 0.010628092 0.54037464 -0.68288457 0.49159333 0.0019078383
0.018753948 0.044184677 0.0098131476 0.54945809 -0.6186192 0.56161028 0.0020449474
