# .PCD v0.7 - Point Cloud Data file format
VERSION 0.7
FIELDS x y z normal_x normal_y normal_z curvature
SIZE 4 4 4 4 4 4 4
TYPE F F F F F F F
COUNT 1 1 1 1 1 1 1
WIDTH 558
HEIGHT 1
VIEWPOINT 0 0 0 1 0 0 0
POINTS 558
DATA ascii
0.06888409 0.033437695 -0.0056719221 0.83390617 -0.34199342 -0.43317547 0.0024020039
0.069790021 0.034584608 -0.0047209356 0.84747678 -0.33550182 -0.41136563 0.0031728395
-0.069174767 0.038711268 -0.0034501648 -0.81172305 -0.47144035 -0.3447457 0.0027577179
-0.067814648 0.037410114 -0.0045896024 -0.78507996 -0.49460191 -0.37285173 0.0038052832
0.02832309 0.036474101 -0.0050967536 -0.28172454 0.88570058 -0.36900651 0.0041384101
0.031486966 0.037668712 -0.0049140179 -0.35542196 0.88331622 -0.30565953 0.0025368654
0.034038093 0.038857091 -0.0047114505 -0.40922281 0.85946256 -0.30636725 0.0017891596
0.070705563 0.037703536 -0.0049699917 0.84976923 -0.25652009 -0.46053195 0.0041006007
-0.069814384 0.040591743 -0.0042929803 -0.83239847 -0.39976948 -0.38379318 0.0035206496
-0.068690754 0.039628442 -0.005448781 -0.80193037 -0.40642983 -0.43786135 0.0053131976
0.034913596 0.039670676 -0.003395864 -0.43937799 0.87336218 -0.2102036 0.0040473025
0.037510078 0.040602598 -0.0046805432 -0.4657594 0.82519382 -0.31956744 0.0030108292
0.039688915 0.041808538 -0.0049262685 -0.48929542 0.81028652 -0.32253021 0.0026464097
0.071307741 0.04033928 -0.0050048819 0.8640992 -0.18192479 -0.46929312 0.0050986079
0.072037101 0.040731482 -0.0034952017 0.90963507 -0.1477623 -0.38824013 0.0063908361
-0.072112292 0.04476288 -0.0033082564 -0.8650316 -0.32495898 -0.3822591 0.012600681
-0.070856437 0.043461513 -0.0045299898 -0.84078699 -0.3024238 -0.44901794 0.0040031164
0.041440256 0.04319483 -0.004100835 -0.47430193 0.79553741 -0.37703845 0.0018612139
0.04318615 0.044105995 -0.0046420838 -0.52346313 0.81253207 -0.25647238 0.0019015825
0.071518674 0.043029461 -0.005301524 0.8798914 -0.0053693596 -0.47514459 0.0079722749
0.072220609 0.042052612 -0.0035429422 0.90963829 -0.14772111 -0.38824832 0.0063945828
-0.072478101 0.046831965 -0.0037024959 -0.8471607 -0.27390116 -0.45529869 0.0042813853
-0.071444936 0.04623026 -0.0051016742 -0.82128483 -0.2203759 -0.52623731 0.0056917616
0.044733465 0.045450311 -0.0037655383 -0.52034533 0.80762696 -0.27745166 0.0017752054
0.046157502 0.046124943 -0.0043779081 -0.49537379 0.76935983 -0.40334889 0.0022235331
0.048923913 0.04741469 -0.0055495547 -0.47345373 0.76193261 -0.44192794 0.0029369295
0.071366861 0.047673997 -0.0054248073 0.66913223 0.10237812 -0.73605764 0.001025642
-0.072921731 0.049629528 -0.0041900571 -0.80174816 -0.22864729 -0.55219591 0.0066228132
-0.071695693 0.049108423 -0.0056177867 -0.71437943 -0.13940015 -0.68573296 0.0050255749
0.049893327 0.04855169 -0.0043706773 -0.47628143 0.77256781 -0.41987497 0.0014302095
0.052362107 0.049872085 -0.0048684981 -0.44520462 0.75510108 -0.48126417 0.0016903616
0.054589741 0.050911628 -0.0055243014 -0.45885134 0.77727818 -0.43045801 0.0029932794
0.070903912 0.049650945 -0.0059129442 0.67618191 0.095500492 -0.73051876 0.0025319692
0.072285771 0.049824405 -0.0039428207 0.73433173 0.065868475 -0.6755873 0.0019755145
-0.075079106 0.053386819 -0.0032549682 -0.82578844 -0.27524999 -0.49225083 0.012945859
-0.073607974 0.052457243 -0.0043526934 -0.73937994 -0.20267569 -0.64205903 0.0071985316
-0.071831599 0.052026443 -0.0058133509 -0.64300305 -0.063855305 -0.76319689 0.007207986
0.05392506 0.05102409 -0.0047212094 -0.42226812 0.71257204 -0.56029534 0.0016650629
0.055514645 0.051815551 -0.0048022298 -0.42145672 0.73951459 -0.52487361 0.0024901815
0.058487888 0.05330345 -0.0052376939 -0.42070577 0.72586447 -0.54417592 0.0027549369
0.060375582 0.053992148 -0.0059583653 -0.39219603 0.63736665 -0.66328436 0.0030278445
0.071288444 0.052836552 -0.0050771302 0.51782078 0.14531752 -0.84305662 0.0071110646
0.07205151 0.051908601 -0.0042763581 0.71882045 0.086483136 -0.68979549 0.0015043837
-0.075251579 0.055234019 -0.0034156565 -0.85397375 -0.092805162 -0.51197255 0.031320434
-0.073617198 0.055229273 -0.0048352629 -0.66255808 -0.030556694 -0.74838692 0.011266792
-0.07156118 0.056217842 -0.0058522653 -0.50307584 0.057204429 -0.86234701 0.0088325767
-0.066674434 0.056882605 -0.0059403614 -0.10545614 0.38312805 -0.91765571 0.0055826381
-0.063528232 0.056053627 -0.0057404512 0.01650561 0.51807028 -0.85517883 0.0041609169
0.05900839 0.0544606 -0.0041321064 -0.46127954 0.69462782 -0.55200857 0.0032372412
0.06153569 0.055664416 -0.0047579291 -0.44046178 0.66336578 -0.60492915 0.0053848415
0.063694313 0.056492418 -0.0054679513 -0.37254581 0.59497446 -0.71219033 0.0097338492
0.070917197 0.05557375 -0.0051405076 0.54089832 0.15371121 -0.82692307 0.0058167353
0.072112039 0.05592142 -0.0039427956 0.63511652 0.09824957 -0.76614231 0.0070088538
-0.073241554 0.05748301 -0.0047215708 -0.60280156 0.059615511 -0.79566097 0.015584487
-0.070582353 0.057968423 -0.0053869635 -0.24650234 0.32775724 -0.91203719 0.01597725
-0.068331964 0.057635289 -0.0055757887 -0.12457116 0.39454487 -0.91039348 0.0063134134
-0.065445855 0.057546556 -0.0051082568 0.0077061537 0.50801784 -0.86131209 0.0054651247
0.062747143 0.057691962 -0.0035410889 -0.52152908 0.56509268 -0.63927901 0.013538337
0.064663723 0.05854715 -0.0044951071 -0.48420599 0.49646139 -0.7204656 0.015755557
0.067750059 0.059008379 -0.005490764 4.2594696e-05 0.31878543 -0.94782692 0.012019045
0.070236661 0.058929961 -0.005024734 0.15808064 0.2657246 -0.95099992 0.013354981
0.072194219 0.059366465 -0.0037380301 0.45321563 0.11796018 -0.88356155 0.0091467677
0.065336369 0.061201852 -0.0035676204 -0.64074707 0.31731719 -0.69910878 0.013943474
0.067350678 0.061613906 -0.0046148612 -0.35683367 0.247575 -0.90076435 0.027129745
0.070201874 0.061639849 -0.0047724554 0.083463818 0.18287653 -0.97958666 0.022927336
0.072358668 0.061155949 -0.0036540299 0.28451365 0.10285497 -0.95313841 0.01789937
0.065860473 0.063530467 -0.0031002585 -0.81991726 0.23347299 -0.52271032 0.023678849
0.067719102 0.064435966 -0.0040836148 -0.31063533 0.18316723 -0.93271405 0.018184779
0.070268184 0.064718269 -0.0045233783 0.020767709 0.11700067 -0.99291468 0.025463574
0.0726244 0.064986899 -0.0036318589 0.14855936 0.00039434253 -0.9889034 0.017759338
0.067949757 0.067464888 -0.003805341 -0.43842369 0.12471782 -0.89007312 0.019310161
0.070386589 0.067515679 -0.0045495853 -0.044519119 5.9653703e-05 -0.99900854 0.026613407
0.07282088 0.067567348 -0.0039238264 0.34130827 -0.089713372 -0.93566024 0.016937325
0.068248942 0.070412293 -0.0036050007 -0.61966407 0.081670448 -0.78060645 0.025648782
0.070380107 0.070598058 -0.0045726425 -0.29764616 -0.015954468 -0.95454293 0.029529076
0.073124841 0.07060425 -0.0042598713 0.16257796 -0.1429006 -0.97629285 0.01862663
0.075311601 0.071607068 -0.0030719843 0.7185055 -0.2410482 -0.65241516 0.018004367
0.068448707 0.073262632 -0.0035421995 -0.71414548 0.071947962 -0.69629002 0.025582399
0.07043045 0.073494598 -0.0047593666 -0.37618473 -0.06581451 -0.92420423 0.03180626
0.073357977 0.073493958 -0.0049136821 0.034715481 -0.076237142 -0.99648517 0.042035416
0.075652421 0.073073924 -0.0034488039 0.35448927 -0.23167881 -0.90590417 0.048261333
0.068574399 0.075661026 -0.0034157673 -0.6761747 0.14428486 -0.72247469 0.048805684
0.069993466 0.075661197 -0.0045552589 -0.46901581 0.05595798 -0.88141531 0.028735841
0.072395176 0.075250588 -0.0054460862 -0.21436085 -0.066911653 -0.97446001 0.063208766
-0.015987022 0.0027192875 -0.0013629742 -0.24565725 -0.95814675 -0.14699438 0.00079591578
-0.013512976 0.0020631962 -0.0015345025 -0.21630484 -0.96349186 -0.15778337 0.0011593065
-0.010484259 0.0014569578 -0.0015192128 -0.15401566 -0.97573376 -0.15563668 0.0025028884
-0.0074765347 0.0010287069 -0.0015217788 -0.13198686 -0.97871006 -0.15718186 0.0039168443
-0.004528753 0.00062733417 -0.0015477175 -0.097299725 -0.98494309 -0.14289822 0.0043627569
-0.0015167305 0.0004361796 -0.001534551 -0.054661375 -0.99255764 -0.10881848 0.0025939876
0.0014743743 0.00031918913 -0.0015038772 -0.027163895 -0.99783885 -0.059831575 0.0046358989
0.0044425516 0.00027050762 -0.0015718039 0.013428653 -0.99540913 -0.094763666 0.0028044877
0.0074817371 0.00040468655 -0.0015376991 0.04609412 -0.99350423 -0.10404142 0.0017290097
0.010461147 0.00055789918 -0.0015332672 0.07885965 -0.99108988 -0.1073404 0.0026012463
0.013493168 0.00087635586 -0.0015819985 0.11544246 -0.9847486 -0.13016649 0.0040722932
0.016458323 0.0012706452 -0.0015266873 0.14245543 -0.9808858 -0.13255 0.0033326009
0.019458545 0.0017408399 -0.0015775767 0.17370613 -0.97745961 -0.11999543 0.0024082779
0.022619033 0.0024002967 -0.0014603127 0.20190966 -0.97267252 -0.11463244 0.0021268025
0.024703162 0.0028278697 -0.0012352869 0.22192895 -0.97108746 -0.087958559 0.0019395538
-0.024895361 0.0056526288 -0.0014164629 -0.35221592 -0.91849011 -0.17977725 0.00053009804
-0.022504462 0.0047493177 -0.0015304409 -0.32553819 -0.9278459 -0.1820077 0.00026810003
-0.019531462 0.0037132998 -0.0015322524 -0.29107457 -0.94127375 -0.17111188 0.00041691249
-0.017413745 0.003161218 -0.0018399741 -0.27376148 -0.94794142 -0.16267063 0.00057783839
0.0260185 0.0032057364 -0.0018722011 0.2660571 -0.95915484 -0.096102387 0.0019465797
0.028516842 0.0038836247 -0.0014358702 0.28124282 -0.95505553 -0.093655176 0.0016217156
0.031392809 0.0047707399 -0.0016406405 0.28552657 -0.95462298 -0.084672615 0.0022573576
0.033921137 0.0055983597 -0.001439763 0.32351336 -0.94301331 -0.07787773 0.0018597262
-0.033172496 0.0089242104 -0.00083260506 -0.36748487 -0.90064007 -0.23195358 0.0024916606
-0.031476054 0.0083066402 -0.0014954958 -0.38699082 -0.89884609 -0.20570338 0.0004744367
-0.028490739 0.0070591792 -0.0015317436 -0.35490191 -0.91063219 -0.21164528 0.00091978227
-0.026357708 0.0062383949 -0.0016544354 -0.35351098 -0.91358596 -0.20097426 0.0010059183
0.035434239 0.0062178439 -0.0018310081 0.36720163 -0.92664671 -0.080552749 0.0017065887
0.037523109 0.006984049 -0.0015382296 0.37637785 -0.92332679 -0.076205306 0.0015040868
0.040422279 0.0082054241 -0.0015033315 0.39647788 -0.91395903 -0.086510815 0.0019327896
0.042167623 0.008916799 -0.00095383264 0.41934931 -0.90335977 -0.089929081 0.0021651776
-0.039219242 0.011886116 -0.0011477465 -0.45990562 -0.85480034 -0.24042314 0.0020860774
-0.037533492 0.01103356 -0.0015146382 -0.42584336 -0.87612849 -0.22595622 0.0015424808
-0.034602094 0.0096321581 -0.001530204 -0.38934824 -0.8889522 -0.24118838 0.0018927295
-0.032875363 0.0090606147 -0.0022208861 -0.38386002 -0.89568835 -0.22448578 0.0013348634
0.04184806 0.0090512475 -0.0026210225 0.42424753 -0.90108013 -0.089825898 0.0021184338
0.043615986 0.009726244 -0.0016129473 0.44335666 -0.89099985 -0.097745165 0.0016242785
0.046389643 0.011117044 -0.0013982455 0.46671948 -0.8811931 -0.075309969 0.0018992706
0.048082184 0.011920855 -0.00047629108 0.46817312 -0.8826732 -0.041254584 0.003767424
-0.043308239 0.014162801 -0.0014654837 -0.51265043 -0.83340645 -0.20645408 0.0026322252
-0.040679604 0.012702469 -0.0015602275 -0.45627472 -0.85755301 -0.23752092 0.0019073779
0.047729142 0.01206991 -0.0025832613 0.46672812 -0.87826788 -0.1039728 0.0028954842
0.049584638 0.012964288 -0.0015605 0.50823027 -0.85812271 -0.072989218 0.0017643876
0.051870607 0.014311502 -0.0013775579 0.53024477 -0.84442753 -0.076044329 0.0017679458
-0.048427422 0.01769937 -0.0014150023 -0.57516569 -0.78716302 -0.22261806 0.0019194833
-0.046488222 0.016356926 -0.0015176005 -0.55149871 -0.80023867 -0.23551506 0.0029680382
-0.044734392 0.015165642 -0.0017789168 -0.55547917 -0.79830337 -0.23271157 0.0028524229
0.053390689 0.015400673 -0.0017153552 0.56083822 -0.82426405 -0.077776574 0.0018376177
0.055581689 0.016897121 -0.0016063793 0.56852704 -0.8152312 -0.110341 0.0022659034
0.057118751 0.017792132 -0.00072749605 0.59460288 -0.79646015 -0.10999411 0.0021291252
-0.051951915 0.020311197 -0.0014745585 -0.59359819 -0.78127056 -0.19302176 0.0014979676
-0.04995219 0.018821413 -0.0015574939 -0.58072001 -0.78050059 -0.23148024 0.0019799678
0.056833874 0.018058879 -0.0024286406 0.60263366 -0.78666669 -0.1341202 0.0034229658
0.058417045 0.019024717 -0.0015819843 0.6087867 -0.78738683 -0.096956953 0.0031674101
0.060338337 0.02056101 -0.0013482078 0.65270936 -0.74644256 -0.12959151 0.0030844477
-0.057127744 0.02396268 -0.00033875028 -0.6079098 -0.76831645 -0.20033865 0.0015408166
-0.05533142 0.022896314 -0.0014801655 -0.60738677 -0.7724874 -0.18532278 0.0012143907
-0.053405557 0.021419281 -0.0016290642 -0.60129011 -0.76630139 -0.22634575 0.002848427
0.061999738 0.022146616 -0.0014261525 0.69535446 -0.70436752 -0.14264882 0.0030616794
0.063464016 0.023603918 -0.0013231821 0.72908366 -0.67274934 -0.12587817 0.0025422319
-0.060143001 0.026806489 -0.0011742222 -0.68338865 -0.70712298 -0.18154053 0.00066302263
-0.058508471 0.025517853 -0.0015230948 -0.64114106 -0.74474174 -0.18519671 0.00078024063
-0.056786407 0.024149099 -0.0019799406 -0.62934005 -0.75139165 -0.19834736 0.0012431943
0.064826325 0.025209863 -0.0016000664 0.76788205 -0.62962854 -0.11800456 0.002362988
0.066206798 0.026783232 -0.0014367062 0.79704249 -0.59441507 -0.10674284 0.0031137199
-0.06312108 0.029880246 -0.00099653436 -0.7354238 -0.65824318 -0.16083466 0.00082046213
-0.061589781 0.028452441 -0.0015217863 -0.71351987 -0.67754906 -0.17837213 0.00069701142
-0.059916943 0.027107602 -0.0027092963 -0.66851056 -0.70539182 -0.23561816 0.0015165772
0.067224786 0.028394431 -0.001533591 0.81524587 -0.5607388 -0.14472805 0.0023797634
-0.06439586 0.031511854 -0.0015258075 -0.75604862 -0.63516426 -0.1579773 0.0013465742
-0.062827148 0.030091923 -0.002536172 -0.73203021 -0.65651691 -0.1819814 0.0014677229
0.068654589 0.030806292 -0.0019364459 0.83768862 -0.52112567 -0.16341928 0.0055452688
0.069373362 0.031759717 -0.0014382559 0.87553394 -0.45494401 -0.16268447 0.005681579
-0.06696976 0.034726579 -0.0014823138 -0.80735511 -0.57208031 -0.14457507 0.0023962616
-0.065771468 0.033278413 -0.0018706698 -0.78028286 -0.6086058 -0.14407445 0.0016312589
0.070623077 0.034265146 -0.0017399682 0.91579711 -0.37292978 -0.14912784 0.0047298702
-0.069428973 0.038324784 -0.0014195043 -0.85021991 -0.50387549 -0.15243234 0.0049080751
-0.068447538 0.036871713 -0.0016613185 -0.81984973 -0.5583759 -0.12673926 0.0023154744
0.03074643 0.038078934 -0.0017150542 -0.32998794 0.91046846 -0.24930964 0.0028772936
0.07162597 0.03711528 -0.001669055 0.94671762 -0.27703863 -0.16424195 0.0027450267
-0.07064154 0.040422618 -0.001519958 -0.88685322 -0.44493926 -0.12458105 0.0038353491
0.034236848 0.039580896 -0.001785568 -0.43836555 0.89075416 -0.11996952 0.0018961001
0.037033916 0.041048788 -0.0013803019 -0.47700852 0.87162924 -0.1128071 0.0022974678
-0.07230515 0.044140529 -0.0013186337 -0.93218738 -0.33303836 -0.14181733 0.0069352821
-0.071647957 0.042789489 -0.0018266803 -0.90297526 -0.40328932 -0.14830218 0.0049791359
0.038963944 0.042004384 -0.0029273462 -0.47731331 0.86902803 -0.13023953 0.002478603
0.040489316 0.043130349 -0.0015564245 -0.51730025 0.84998465 -0.099632449 0.0024994747
0.042715754 0.044587642 -0.0013413955 -0.56963611 0.81846541 -0.075027764 0.0023818384
0.072946832 0.042410009 -0.00023597156 0.92930847 -0.17650053 -0.32439697 0.011062229
-0.073090546 0.04648063 -0.001541519 -0.93229443 -0.30146754 -0.19986071 0.0095732426
0.044297926 0.045633297 -0.0014069036 -0.53913933 0.83810341 -0.083135046 0.0029373281
0.046612196 0.047160458 -0.0015801229 -0.53689897 0.83403069 -0.1270133 0.0025592372
-0.075076371 0.050760247 -0.0007437226 -0.9133724 -0.38757104 -0.12465764 0.022324273
-0.074176088 0.049492549 -0.0015991147 -0.90605187 -0.33652824 -0.25655165 0.015954014
0.049173113 0.048880279 -0.001575143 -0.56040508 0.81946558 -0.12009349 0.0026727484
0.05144861 0.050354432 -0.0018793681 -0.54021502 0.82015896 -0.18843308 0.0060076788
-0.075600006 0.052597705 -0.0013819189 -0.91089988 -0.30118746 -0.28204176 0.016228529
-0.07478863 0.051494468 -0.0024367839 -0.88585019 -0.33786169 -0.317992 0.01405137
0.053238768 0.051595967 -0.0016665173 -0.56188345 0.80917138 -0.17183931 0.0053216214
0.05574058 0.053229488 -0.0015291781 -0.54433888 0.81786966 -0.18650608 0.0038595209
-0.076104738 0.054970894 -0.0017397929 -0.93463922 -0.1515937 -0.32166579 0.028241277
0.056848839 0.054134831 -0.00059927505 -0.55854821 0.80617523 -0.19520628 0.0049758288
0.058812208 0.055224046 -0.0021801863 -0.52301121 0.73219627 -0.43628868 0.0058944677
0.060848139 0.056736186 -0.0022134425 -0.59051579 0.70216715 -0.39780936 0.0072032167
-0.075691916 0.057146665 -0.0017216863 -0.95306557 0.14603347 -0.26521721 0.045551252
-0.07492546 0.057589151 -0.0023386374 -0.85784841 0.1154668 -0.500763 0.043560274
0.06221512 0.058385562 -0.0015704312 -0.67282879 0.60976595 -0.41891158 0.013753586
0.063357152 0.059486479 -0.0023017579 -0.74215508 0.5177024 -0.42566428 0.018471848
0.073357761 0.058616351 -0.0019103664 0.61810499 0.06100231 -0.78372508 0.0095643569
0.064307801 0.061563056 -0.0018083109 -0.82341093 0.40384489 -0.39862716 0.018118011
0.073764235 0.061482042 -0.0017215792 0.6431331 -0.057893604 -0.7635628 0.0081714448
0.065230213 0.064438231 -0.0016049106 -0.89771152 0.25197911 -0.36141464 0.025185311
0.066139683 0.065468334 -0.0026902703 -0.83077985 0.22953601 -0.50706822 0.03402165
0.074017234 0.064820156 -0.0021133001 0.57524067 -0.045298733 -0.81672901 0.0088360254
0.065705173 0.067171745 -0.00107704 -0.91851538 0.22010113 -0.3284584 0.024388624
0.066427022 0.067771606 -0.0023307784 -0.87998557 0.22846192 -0.41644996 0.020083895
0.074497193 0.067625105 -0.0024822527 0.66018397 -0.17805484 -0.72969425 0.022780756
0.0754489 0.068557635 -0.00098965957 0.77733839 -0.21913053 -0.58968377 0.010985903
0.065991297 0.06925977 -0.00037254352 -0.9166196 0.23022634 -0.32680953 0.024118222
0.066941515 0.070713669 -0.0018474697 -0.82589495 0.1696391 -0.53769898 0.012962912
0.074682273 0.069621429 -0.0027930513 0.66542709 -0.24107313 -0.7064634 0.0044098813
0.075732149 0.070839681 -0.0020165055 0.75895953 -0.28545463 -0.58523166 0.012929993
0.067411289 0.073524967 -0.0019260348 -0.79649353 0.14551385 -0.58687621 0.023120016
0.076610923 0.072840028 -0.0020341678 0.71845722 -0.24097924 -0.65249395 0.018067837
0.067675576 0.076003551 -0.0017121151 -0.87342393 0.26082975 -0.41121599 0.036999069
-0.018507205 0.0028773781 0.0022045418 -0.24585836 -0.9692046 0.014006341 0.0075921789
-0.016450562 0.0025027297 0.0014654244 -0.22027221 -0.97537053 0.011505285 0.0066741328
-0.013526514 0.0018475601 0.0014493178 -0.19566828 -0.97972602 0.043021686 0.0030753261
-0.010492623 0.0013513337 0.0014514999 -0.14909451 -0.98293334 0.10776364 0.0049355468
-0.00749578 0.00099044829 0.0014423704 -0.12070816 -0.98399401 0.13109283 0.0051117819
-0.0045640371 0.00062342436 0.001492647 -0.084850773 -0.98697084 0.13670671 0.0052059963
-0.0015142359 0.00044536649 0.0014781165 -0.044848718 -0.98855674 0.14402866 0.0046034972
0.0014990392 0.00033977916 0.0014118074 -0.015436073 -0.99280769 0.118721 0.0045785713
0.0045058988 0.00030753287 0.0014092069 0.021653738 -0.99032861 0.13704148 0.0037340994
0.0075814179 0.00044632875 0.0014164066 0.048301492 -0.98498988 0.16571659 0.0054282728
0.010477521 0.00059251167 0.0014818213 0.073071845 -0.97593695 0.20544471 0.0059775072
0.013476048 0.0008937738 0.0014003431 0.11367412 -0.97994709 0.16365163 0.0050089001
0.016465103 0.0012928948 0.0014409267 0.13147202 -0.97756529 0.1645637 0.0050609349
0.019409126 0.0017457213 0.0014092154 0.17147838 -0.97364634 0.15035969 0.0036550807
0.022517467 0.0024133495 0.0014342543 0.19372578 -0.97222 0.13137211 0.0028233896
0.024724489 0.0028367827 0.0010668243 0.2185185 -0.9686901 0.1178524 0.0031675131
-0.027688975 0.0057271211 0.0021111597 -0.33004069 -0.94274455 -0.048017412 0.012770195
-0.025420131 0.0052180998 0.0015134496 -0.30862522 -0.94807518 -0.076836728 0.0081740133
-0.022510022 0.0042676963 0.0014381912 -0.32238629 -0.94601691 -0.033452529 0.0032462946
-0.019735323 0.0034139408 0.0012906633 -0.30432409 -0.95155716 -0.043884259 0.0034995268
-0.017766422 0.003103019 0.00041079536 -0.23860948 -0.96868497 -0.068665676 0.0023754842
0.026004739 0.0032265454 0.0017006855 0.25407058 -0.95795238 0.13332433 0.0030994453
0.028510198 0.0039282548 0.0015345134 0.28289089 -0.95184571 0.11816315 0.0023200344
0.031443089 0.0048057199 0.001519841 0.292992 -0.9475773 0.12748693 0.0022746692
0.033875711 0.0055987211 0.0012720593 0.32074842 -0.9404285 0.11275923 0.0027803318
-0.036201786 0.008912948 0.0021838234 -0.40497541 -0.90670735 -0.11779951 0.015892208
-0.034320805 0.0083875507 0.0018128661 -0.36714092 -0.92350042 -0.11115102 0.011627845
-0.031496171 0.0075361379 0.0014148833 -0.38273817 -0.91304761 -0.14090975 0.0042990521
-0.028769262 0.0065860823 0.0011592448 -0.36993688 -0.91948509 -0.13301826 0.0054590818
-0.026584616 0.0061375238 0.00040932905 -0.30896991 -0.9415943 -0.13393199 0.0045632445
0.035380762 0.0062095611 0.0015179869 0.36414355 -0.9246313 0.11160823 0.0024025091
0.037488695 0.0070089125 0.0014758043 0.37300095 -0.92122114 0.11055281 0.0021834874
0.040446758 0.0082543315 0.0014224992 0.3953746 -0.91263419 0.10381547 0.0025116452
0.042188872 0.0089459093 0.0007648156 0.42098925 -0.90157121 0.09968666 0.0025991257
-0.04225558 0.011888187 0.0023710357 -0.45109698 -0.88288897 -0.13045511 0.015892174
-0.040261414 0.011242256 0.00175545 -0.43398994 -0.88855028 -0.14876558 0.014098738
-0.037568584 0.010166659 0.0013541337 -0.45121634 -0.8717491 -0.19093779 0.0066888467
-0.034923431 0.0094477162 0.00057703914 -0.38950756 -0.89841175 -0.20283024 0.0056935572
0.041861098 0.0090637635 0.0023639426 0.43148521 -0.89684975 0.0973702 0.0025895773
0.043637253 0.0097668143 0.0014427162 0.43801427 -0.89293438 0.10397924 0.0022813226
0.046436232 0.01119459 0.0013944182 0.46873114 -0.87483764 0.12227119 0.0022876379
0.048059598 0.011917803 0.00072743191 0.48432717 -0.87392002 0.04112244 0.0018673398
-0.045885216 0.014398321 0.0020339133 -0.54743606 -0.8231675 -0.1506951 0.0093878647
-0.043564629 0.013339318 0.0013910275 -0.53443301 -0.815763 -0.22116064 0.0099667357
-0.041014057 0.012535607 0.00059896888 -0.44466057 -0.86174858 -0.24426711 0.0066348244
0.047774658 0.012077153 0.002020411 0.48314476 -0.86736476 0.11937135 0.0025082643
0.049483489 0.012948802 0.0014335819 0.50980902 -0.85370386 0.10622828 0.0021564118
0.051694389 0.014246632 0.0012843739 0.53128666 -0.84009588 0.10942342 0.0029760739
-0.051232986 0.017863892 0.0026413526 -0.55391824 -0.82135582 -0.13619524 0.014905413
-0.049266011 0.016979672 0.001763102 -0.54819238 -0.81716257 -0.17813022 0.0087844282
-0.046863738 0.015876951 0.001068774 -0.55650884 -0.80614316 -0.20107464 0.0063318629
-0.044860262 0.015105141 0.00035830319 -0.54331636 -0.80383015 -0.2422072 0.00717026
0.053328462 0.015407039 0.001556581 0.55725592 -0.82485187 0.09531644 0.0023421072
0.055454917 0.016858561 0.0014463036 0.5731827 -0.81043738 0.12104905 0.0022266628
0.057098158 0.01783192 0.00074206264 0.60266966 -0.79541987 0.064003892 0.0021019885
-0.054498803 0.020567806 0.0023550873 -0.62251168 -0.75914121 -0.19022062 0.0077823061
-0.052406058 0.019585274 0.0015475085 -0.59261727 -0.76499581 -0.25216284 0.0074233473
-0.050175622 0.018618129 0.00069219567 -0.57211292 -0.78188676 -0.247669 0.0046936702
0.056945533 0.018056363 0.0017914514 0.60133976 -0.78713238 0.13716099 0.003134198
0.058556356 0.019208776 0.0015506948 0.6270014 -0.77147359 0.10815576 0.0035135814
0.060301684 0.020618331 0.0010834798 0.65613621 -0.74250144 0.1348213 0.0026150201
-0.057587434 0.023452945 0.0022165447 -0.67140162 -0.73196399 -0.1159675 0.00744315
-0.0556642 0.022361578 0.0013727496 -0.62971741 -0.74458337 -0.22147593 0.0056657982
-0.053591777 0.02132461 0.00058954797 -0.59001321 -0.76661468 -0.25335035 0.0050222715
0.061734915 0.021965692 0.0011984332 0.68233567 -0.72386056 0.10219526 0.002481234
0.063363105 0.023578232 0.0011180658 0.73051763 -0.67205197 0.12120332 0.0035313594
-0.060464013 0.026425513 0.001886955 -0.71785617 -0.68466246 -0.12617356 0.0020990542
-0.058750238 0.025117485 0.0013106932 -0.66056901 -0.73033017 -0.17397247 0.0021869254
-0.056869429 0.02408536 0.00064241624 -0.62122411 -0.75403798 -0.21332428 0.0031241488
0.064763173 0.025263727 0.0015187794 0.75689423 -0.63793123 0.14196786 0.0026030792
0.066189148 0.026830439 0.0011296207 0.793715 -0.58779371 0.15657286 0.0030825629
-0.063291624 0.029650187 0.001976965 -0.76778376 -0.63650095 -0.073311463 0.0014433172
-0.061835527 0.02823195 0.0013907369 -0.74210638 -0.6599158 -0.11742786 0.00070798182
0.065801904 0.027131386 0.0025776809 0.77641028 -0.59727275 0.20112753 0.0034437673
0.067076541 0.028316421 0.001426436 0.83231157 -0.53473556 0.14599803 0.0031558729
-0.066086955 0.032928579 0.0013062439 -0.80567205 -0.59236181 0.00040505404 0.0023192307
-0.06461934 0.03143378 0.0014618342 -0.78723657 -0.61426967 -0.054142032 0.0009538075
0.068494327 0.030548846 0.0012079787 0.86943042 -0.47175068 0.14677194 0.0063620885
0.069425918 0.03177819 0.0016434615 0.89218199 -0.43258882 0.12991622 0.0032022216
-0.067008682 0.034615446 0.0014624702 -0.82335496 -0.56690365 0.026584884 0.0016954154
-0.065878876 0.033173315 0.0013109145 -0.80887955 -0.58796304 -0.0036357993 0.0012349294
0.07064347 0.034421764 0.0014436392 0.91572797 -0.37897995 0.13347852 0.0027921714
-0.06945134 0.038300294 0.0013366387 -0.86330622 -0.49545798 0.096040472 0.0034725342
-0.06849996 0.036810622 0.0015191534 -0.8414821 -0.53718489 0.057794929 0.0018161765
0.07184457 0.037681691 0.00091098191 0.95642531 -0.29196352 0.0028367317 0.0074006533
-0.070619367 0.040433187 0.0014233656 -0.89749527 -0.42417678 0.12073198 0.0039910604
0.034992233 0.040074695 0.00061739172 -0.43551052 0.8925249 -0.11717504 0.0019721305
0.037420597 0.041284595 0.0010427041 -0.47758287 0.8747828 -0.081667781 0.0020659384
-0.072280504 0.044199895 0.00095927127 -0.93523538 -0.32499394 0.14040594 0.0063301995
-0.071656302 0.042849559 0.0016383361 -0.91259748 -0.37554494 0.16165388 0.005093155
0.038603913 0.042032398 0.00059508556 -0.49798372 0.86557168 -0.052895449 0.0016016538
0.040409133 0.042979032 0.0018364126 -0.53346062 0.84582281 0.0018674012 0.00061558827
0.042742509 0.044434231 0.0021657387 -0.5373925 0.84300536 0.023480713 0.00026093991
-0.072961912 0.046545643 0.0014390791 -0.93001008 -0.30522242 0.20474501 0.0070679635
0.043794822 0.045292269 0.00097046734 -0.55747187 0.82792872 -0.061312176 0.0024218853
0.046431798 0.046981454 0.0014795751 -0.56018168 0.82564145 -0.067176551 0.0020334173
-0.075058855 0.050822534 0.0003009926 -0.95677668 -0.27601373 0.091623351 0.020384252
-0.074076779 0.049553346 0.0013774129 -0.91104519 -0.35925937 0.20231044 0.010426496
0.049510434 0.049103305 0.0011457606 -0.55404574 0.82511079 -0.11056955 0.0031514599
0.051665716 0.050466675 0.0017823034 -0.56236339 0.8217001 -0.092500895 0.0022919963
-0.075558588 0.052645445 0.0011494971 -0.93498689 -0.32612109 0.13944337 0.013618669
-0.07470078 0.051537547 0.0021440322 -0.89721107 -0.34213394 0.27920732 0.0096766585
0.052672446 0.051316906 0.00051959604 -0.56344533 0.82036161 -0.097653754 0.0028131048
0.055323407 0.052968021 0.0011950348 -0.56356156 0.81971985 -0.10226358 0.0027726865
-0.076125145 0.055001933 0.0013805662 -0.96586615 -0.13472019 0.22125342 0.024087729
0.058610376 0.055303298 0.00086761301 -0.61404473 0.76584858 -0.19085366 0.0047036451
-0.075588703 0.057262193 0.0011360003 -0.97965693 0.068544857 0.18861024 0.027949879
-0.074569464 0.057707623 0.0029288786 -0.83523345 -0.046382934 0.54793596 0.033845127
0.061857969 0.058043025 0.001096826 -0.72318494 0.67619669 -0.14057586 0.012304502
0.063410662 0.059667926 0.0014619661 -0.81157362 0.5533126 -0.18759915 0.01564081
0.064249329 0.061980262 0.00066014682 -0.86543345 0.42151374 -0.27083406 0.010813973
0.065090597 0.064692415 0.0005961805 -0.92898124 0.27689123 -0.24561164 0.012678042
0.06619034 0.0657271 0.0020549425 -0.9671641 0.2503511 -0.043795511 0.010579515
0.0656363 0.06715937 0.00049133151 -0.97323936 0.21541639 -0.080005303 0.010094265
0.066225052 0.067985386 0.0012557283 -0.97322333 0.21548763 -0.080008842 0.010145254
0.066443317 0.070092596 0.00057991449 -0.93842173 0.1932653 -0.28637937 0.01401594
0.075890787 0.070195027 0.00077784114 0.85558867 -0.31683198 -0.40937212 0.020295028
0.067155458 0.07375735 0.00058294623 -0.95405966 0.2115701 -0.21215144 0.022858979
0.076956987 0.072754242 0.00083184132 0.84616321 -0.23273124 -0.47942045 0.029548839
0.067541532 0.075790487 0.00084989192 -0.9096961 0.26444486 -0.32019061 0.036141891
-0.018308103 0.0029240851 0.0033112529 -0.24211381 -0.94790047 0.20703986 0.0065141553
-0.016286388 0.0026394825 0.0038704278 -0.19954005 -0.95241457 0.23041303 0.005795347
-0.013444767 0.0022692617 0.0043452 -0.15867727 -0.94740921 0.27791622 0.0035580883
-0.010497428 0.0018027304 0.0043518324 -0.13726918 -0.94510019 0.29655144 0.0035206384
-0.0075589656 0.0014668776 0.0043784468 -0.10208806 -0.94847947 0.29994121 0.0036809498
-0.0046103415 0.001219872 0.0044040675 -0.068724535 -0.94763368 0.31187701 0.0038672665
-0.001550598 0.0010535256 0.0043241517 -0.026968885 -0.94623554 0.32235223 0.0033618163
0.001396336 0.0010419444 0.004334115 -0.004039627 -0.94429779 0.32906729 0.0027133876
0.0044394839 0.0011431918 0.0044351723 0.035707098 -0.93047673 0.36460662 0.0024815891
0.0074522351 0.0013786154 0.0045075971 0.050142784 -0.92311287 0.38124567 0.0019441575
0.010418219 0.0015125717 0.0044741775 0.072191283 -0.92379814 0.37601241 0.0021975185
0.013437557 0.0017464551 0.0043129413 0.10205117 -0.92428231 0.36781478 0.0031841241
0.016553588 0.002161212 0.0044407975 0.11565139 -0.92437255 0.36353838 0.0026798525
0.019341923 0.0024105022 0.0040864055 0.137906 -0.92486954 0.3543984 0.0040544793
0.02208752 0.0027582883 0.0035634574 0.20874168 -0.93213266 0.29589805 0.0030853539
-0.027553031 0.0058152783 0.003500063 -0.31576979 -0.93877423 0.13781299 0.0141091
-0.025299242 0.0053745382 0.0042148959 -0.27793294 -0.92648441 0.25373203 0.0069332197
-0.022462675 0.0045786607 0.0044523268 -0.27787414 -0.92213631 0.2691665 0.0053063873
-0.019552281 0.0037123095 0.0045139114 -0.28229937 -0.91828912 0.27758262 0.0047411909
-0.016829934 0.0033475419 0.0052795317 -0.22072402 -0.91985446 0.32426658 0.0041788258
-0.014553145 0.0030780195 0.0057914853 -0.16821131 -0.89646268 0.40995073 0.0011690093
0.019972295 0.0032392868 0.0055798339 0.15516868 -0.88064653 0.44764316 0.004453592
0.022669246 0.0034446113 0.0049302098 0.19899464 -0.89763242 0.39326468 0.0046841288
0.025422497 0.0038189963 0.0043607359 0.22795387 -0.91735786 0.32633057 0.003263446
0.028411342 0.0046209353 0.0043266532 0.2535668 -0.91092682 0.32544768 0.0033258849
0.031393755 0.005453486 0.0042738528 0.28741851 -0.91203219 0.29255411 0.0024955957
0.033348154 0.0058415416 0.0034994299 0.32480812 -0.91307056 0.24658027 0.00333735
-0.036109693 0.0089509655 0.0032794394 -0.34041372 -0.93064862 0.13420704 0.024883332
-0.034180965 0.0085160593 0.004123461 -0.36243957 -0.91719687 0.1654918 0.014548733
-0.031453591 0.0076230685 0.0044415626 -0.33251432 -0.90678078 0.25919661 0.0060851513
-0.028646966 0.0066392948 0.0045956285 -0.34015307 -0.90426528 0.25807017 0.0078615742
-0.026284635 0.0061913528 0.0054805838 -0.29628786 -0.90539169 0.30410424 0.0049695177
0.032211848 0.0062231855 0.0054654055 0.27539587 -0.87202215 0.40464124 0.0030901679
0.034661051 0.0066574374 0.0043537826 0.33632788 -0.89610636 0.28961498 0.0023894722
0.037396654 0.0077204322 0.0044495757 0.34836239 -0.88216114 0.31691545 0.0026007914
0.039713297 0.0085898805 0.0042088013 0.37564769 -0.87217975 0.31335485 0.0023073787
-0.042214163 0.011900951 0.0031937975 -0.45331588 -0.88879853 0.067393191 0.021311847
-0.04027953 0.011357333 0.0042092465 -0.4339565 -0.88917756 0.1450693 0.022196487
-0.037524331 0.010136334 0.0044515422 -0.44116965 -0.8700099 0.22011854 0.0062960666
-0.035200018 0.0093529867 0.0052217213 -0.3769742 -0.88519531 0.27261677 0.0054023298
0.041137684 0.0094143124 0.0046335715 0.39971608 -0.86020339 0.31666589 0.0024300136
0.043518357 0.010416158 0.0043083802 0.42524043 -0.85574883 0.29472765 0.0020419455
0.046150837 0.011645217 0.0039643953 0.45804092 -0.84377724 0.27971163 0.0027207015
-0.045857042 0.014502591 0.0040303469 -0.52375174 -0.84649491 0.095552757 0.019974226
-0.043569088 0.01323684 0.0044768946 -0.52070498 -0.82318413 0.22635008 0.0074595027
-0.041397497 0.012300522 0.0052442309 -0.44418505 -0.8561998 0.26385888 0.0068030288
0.046980776 0.01251867 0.0050052726 0.46273449 -0.83079278 0.30928987 0.0020223926
0.04933428 0.013673902 0.0044531031 0.48641059 -0.80927616 0.32935822 0.0023315619
0.051452219 0.014697106 0.0038577281 0.50012976 -0.80473155 0.31980824 0.0020430491
-0.051170111 0.017857525 0.0035421588 -0.56597435 -0.82368618 0.034842916 0.02369784
-0.049390394 0.016935324 0.0043055429 -0.56919456 -0.81162465 0.13146505 0.020655215
-0.047105473 0.01558866 0.004738654 -0.57068187 -0.80417275 0.16621782 0.011919525
0.052153371 0.015704289 0.0050942474 0.51965702 -0.78835839 0.32931384 0.0020949144
0.05519766 0.01742067 0.0041132746 0.56075704 -0.78530568 0.26238617 0.0021941219
-0.054512337 0.020569203 0.0039670053 -0.61491126 -0.78501695 0.075049661 0.024452269
-0.052553367 0.019312581 0.0044613867 -0.60265195 -0.77340728 0.19660072 0.012706655
-0.050631523 0.018300362 0.0053935354 -0.54504585 -0.80196851 0.24448252 0.0091144964
0.055954725 0.018400516 0.0051277922 0.56890875 -0.76850289 0.29282427 0.0020142177
0.058298785 0.019901991 0.0043845652 0.60386711 -0.71954238 0.34293327 0.0024277105
0.060059827 0.020770598 0.0037331129 0.63837165 -0.70404959 0.31112027 0.0018893313
-0.057708737 0.023361092 0.0041433815 -0.65760857 -0.74925518 0.078534447 0.019209754
-0.055866521 0.021942854 0.0046134125 -0.64514124 -0.74568802 0.16656008 0.011866144
-0.053940374 0.021122281 0.0059630293 -0.58905685 -0.73831195 0.32849282 0.0020013782
0.059622675 0.021517474 0.005339934 0.6259588 -0.67287838 0.39422107 0.0039500366
0.061295267 0.022689214 0.0044563934 0.67465228 -0.65173787 0.34652865 0.003104852
0.063181393 0.023698162 0.0030438195 0.71135509 -0.66214573 0.23566291 0.0043575978
-0.060647443 0.026247585 0.0041371989 -0.73934615 -0.66014892 0.13255501 0.014203082
-0.059102271 0.024831302 0.0045907465 -0.69692701 -0.70655614 0.12276415 0.01234137
0.062797256 0.024697065 0.0053312737 0.69768137 -0.61846608 0.36158046 0.0024290981
0.063881107 0.025439657 0.0043148366 0.71464819 -0.5978319 0.36314595 0.0031587647
-0.063395537 0.029505009 0.0041037616 -0.78696597 -0.58142513 0.2064691 0.012404355
-0.062067945 0.028070807 0.0045022615 -0.75562531 -0.63870674 0.14520341 0.0094521819
0.065573789 0.028085912 0.0051367152 0.75048071 -0.54662496 0.37145633 0.0029242176
0.066456325 0.028927743 0.0045496058 0.77694762 -0.52284175 0.35069779 0.002719461
-0.066075213 0.032906439 0.0034087871 -0.81701595 -0.54235554 0.19579411 0.010093664
-0.06468384 0.031472698 0.0044086645 -0.79265893 -0.56837809 0.22054054 0.0093171522
0.067740701 0.031188846 0.0046492671 0.81848645 -0.47212049 0.32738683 0.0042273542
0.069302276 0.032570235 0.0034321111 0.85136843 -0.45522377 0.26065925 0.0050572399
-0.066830941 0.034726899 0.0042248727 -0.83272386 -0.49815002 0.24169715 0.0068705133
-0.06575866 0.03344316 0.0050544031 -0.80523616 -0.54382211 0.23633075 0.0089355949
0.069539763 0.035213336 0.0048416802 0.84246737 -0.37756968 0.38430455 0.0083750701
-0.069169573 0.03852341 0.0035728151 -0.84471935 -0.41906962 0.33291101 0.0054285098
-0.068174385 0.037323657 0.0044897869 -0.84529203 -0.43965364 0.3036218 0.0049919286
-0.069789059 0.040473472 0.0041602761 -0.86127996 -0.37163958 0.34652704 0.0044713672
-0.068778127 0.039646752 0.0055116639 -0.82025427 -0.32237586 0.47250047 0.0046507516
-0.07207597 0.044780988 0.0031893461 -0.85894215 -0.30750763 0.40946001 0.011983216
-0.070817329 0.043352652 0.0042912527 -0.86061156 -0.29071522 0.41812968 0.0036081551
-0.072346866 0.047074921 0.0035766102 -0.84420377 -0.26137868 0.46797565 0.0040362533
-0.071392998 0.046228033 0.0047499528 -0.82347035 -0.22335571 0.52154464 0.0046808566
-0.072851822 0.049635865 0.0039537465 -0.82013249 -0.27773738 0.50024456 0.0060567292
-0.071667396 0.048819616 0.0052093132 -0.74980289 -0.20957103 0.62759501 0.004536632
-0.075045176 0.053422775 0.0032095425 -0.77647156 -0.25969702 0.57415104 0.010619119
-0.073756568 0.052407552 0.0039731427 -0.79082948 -0.26605725 0.55118257 0.0060750446
-0.071791358 0.052169837 0.0057985438 -0.59989125 -0.078404292 0.79623061 0.0043719183
-0.075145684 0.05542627 0.003296755 -0.87304413 -0.13038066 0.46988809 0.023521513
-0.074185669 0.054944359 0.004112985 -0.83641469 -0.17879163 0.51811588 0.01094148
-0.071459703 0.055504024 0.0057952385 -0.53754598 0.010669126 0.84316695 0.0040383902
-0.073476017 0.057310712 0.0044326098 -0.62788129 0.029717516 0.77774155 0.011932434
0.070037931 0.074753284 0.0036981828 -0.93616921 0.32799301 0.12652218 0.049118087
0.069267005 0.075597882 0.0031713194 -0.93615222 0.32805222 0.12649454 0.049057029
-0.012486345 0.0029077437 0.0062822695 -0.15694711 -0.87235022 0.46300396 0.00097803643
-0.010444936 0.0027363505 0.0064930376 -0.1236432 -0.89289981 0.43294612 0.0011297882
-0.0075779906 0.0025685846 0.0068288525 -0.088611178 -0.88404512 0.45892516 0.0015965835
-0.004503204 0.0023907246 0.0069538956 -0.049176592 -0.87516266 0.48132309 0.0016437672
-0.001562415 0.0023407156 0.007050449 -0.017714832 -0.87073171 0.49143925 0.0018137927
0.0014915362 0.0023761382 0.0071065146 0.0062340535 -0.86761069 0.49720493 0.0017716121
0.0044325525 0.0024043326 0.0070079407 0.044682302 -0.86513287 0.49954829 0.0014527527
0.007375923 0.0025495461 0.0068632988 0.060247112 -0.86549747 0.49727702 0.0014215349
0.010368373 0.0025781633 0.0065639149 0.081816599 -0.8650105 0.49503824 0.0011474162
0.01311583 0.0028445062 0.0063695302 0.1087875 -0.84297651 0.52683562 0.00059550325
0.015424398 0.0029561154 0.0061294595 0.12230186 -0.83668798 0.53384966 0.00036795551
-0.024359504 0.0059166038 0.0062746154 -0.28154111 -0.85562527 0.43432716 0.00084326247
-0.022273578 0.0055555576 0.0068223937 -0.2558085 -0.85761976 0.44615042 0.00083865592
-0.019469285 0.0049779764 0.007268637 -0.22445571 -0.84800375 0.48011377 0.0010222869
-0.016510233 0.0043296418 0.0073960875 -0.19454385 -0.85627007 0.47849157 0.001324592
-0.013461915 0.0037289998 0.0074179675 -0.1632652 -0.86819935 0.4685877 0.0011087976
-0.010665412 0.0035295575 0.0078631928 -0.11813541 -0.8526274 0.50898963 0.0014209292
-0.007638461 0.0034416686 0.0082886694 -0.078216501 -0.83583665 0.54337752 0.0013859917
-0.004580481 0.0033652168 0.0085099936 -0.039683156 -0.81119353 0.58342981 0.0010538285
-0.0014562968 0.0033337856 0.0085837701 -0.011434915 -0.80067223 0.59899348 0.00098295405
0.0014627906 0.0032665203 0.0085565913 0.0048975246 -0.80499512 0.59326118 0.0012111957
0.0045716907 0.0032836709 0.0084881214 0.042514142 -0.80614698 0.59018606 0.0012544708
0.0074373628 0.0034382769 0.0083072027 0.061178353 -0.84247237 0.5352546 0.0014909446
0.010376754 0.003521705 0.0080654481 0.086659715 -0.83124638 0.54910797 0.00094624737
0.013606109 0.0037841282 0.0077733481 0.11569843 -0.83129847 0.5436514 0.00072078605
0.016553419 0.0040011094 0.0074603013 0.12176858 -0.82867861 0.54631871 0.0005017214
0.019414384 0.0045225029 0.0075239455 0.14948338 -0.79978007 0.58138335 0.00098553591
0.022387553 0.0047894744 0.0071674171 0.17299096 -0.80577397 0.56639421 0.0024792661
0.02532926 0.0052884873 0.0070294389 0.19115888 -0.79616225 0.57409412 0.0021830192
0.028089564 0.0055616796 0.006458119 0.21959737 -0.80809444 0.54658979 0.0024540478
0.030396437 0.0059316149 0.0060351985 0.28038067 -0.81947535 0.49984697 0.0070526064
-0.033189736 0.0089632552 0.0063284836 -0.34608912 -0.84863514 0.40005094 0.0033038598
-0.031232908 0.0085152192 0.0067799874 -0.31255406 -0.84274858 0.4382748 0.00098213472
-0.028475111 0.0078333477 0.0073473505 -0.28245282 -0.83675873 0.46910042 0.00085387588
-0.025558194 0.0069294139 0.0074731507 -0.27083895 -0.84355301 0.46375066 0.0010227895
-0.022826387 0.0066317539 0.0083207553 -0.24571992 -0.83191597 0.49753153 0.0010215241
-0.020602545 0.0062129572 0.0087142885 -0.22691011 -0.80250937 0.55180663 0.00065314648
0.022794945 0.0061750649 0.0087047275 0.16417836 -0.75397134 0.63606036 0.00061387662
0.025460657 0.006532921 0.0084479284 0.17924142 -0.72380948 0.66631258 0.0003322211
0.028698185 0.0067197364 0.0077482793 0.19757821 -0.78631777 0.58537787 0.0029065344
0.031548899 0.0072106328 0.0073726224 0.24674273 -0.78462738 0.5687511 0.002928254
0.034469292 0.0080792727 0.0072145727 0.27608389 -0.78818506 0.55003822 0.0030082492
0.037100673 0.008613294 0.0066013695 0.31685036 -0.79880542 0.51138604 0.00245392
-0.039342206 0.011812758 0.00639098 -0.40854999 -0.8188771 0.40314654 0.0018597847
-0.037320342 0.011241526 0.0071578883 -0.3739396 -0.81222647 0.44772458 0.001088616
-0.034576412 0.010133422 0.007410537 -0.35037345 -0.824507 0.44432706 0.0010005363
-0.03172804 0.0095076123 0.0081942203 -0.30358884 -0.82617056 0.47463241 0.00098274904
-0.029465768 0.0091179116 0.0088327592 -0.28414211 -0.78783375 0.546426 0.00047601585
0.03507752 0.0092819342 0.0085063362 0.25536528 -0.72760504 0.63669413 0.0021594656
0.037696678 0.0097503494 0.007899927 0.30834234 -0.77427405 0.55265248 0.003806286
0.040472012 0.01057569 0.0073361276 0.34251457 -0.78264827 0.51975518 0.0024993438
0.043256473 0.01143868 0.0067275888 0.38720915 -0.79531884 0.4664087 0.0032115763
0.045028482 0.01197023 0.0065475423 0.40027046 -0.76694214 0.50158083 0.0025011096
-0.045124777 0.014860267 0.0061887475 -0.50184697 -0.79051995 0.35103816 0.0048310547
-0.0431423 0.014209531 0.0070928 -0.46331012 -0.76812696 0.44195554 0.0011457141
-0.040601756 0.01299281 0.0075005931 -0.41753897 -0.79333061 0.44304362 0.0011262073
-0.038186569 0.012342409 0.0083290683 -0.37037471 -0.78526479 0.49616721 0.00061678607
0.041761488 0.012240069 0.0087790135 0.30335781 -0.68562806 0.66173118 0.0029337204
0.04368595 0.012465137 0.0079480363 0.36844522 -0.74832934 0.55158979 0.0029437961
0.04653997 0.013626586 0.0073695923 0.41731721 -0.75606686 0.5041917 0.0026275585
0.049096569 0.014618807 0.0066720601 0.43768686 -0.7638967 0.47422791 0.0029513242
-0.048650708 0.017533289 0.0067494567 -0.51840281 -0.7431553 0.42305881 0.0020366525
-0.046466392 0.016444223 0.0073591103 -0.4932729 -0.7579053 0.42692074 0.00096545188
-0.044162691 0.015489434 0.0081572235 -0.46022314 -0.75064021 0.47406119 0.00098792766
0.04742071 0.015239912 0.00885408 0.41071633 -0.70818406 0.5742712 0.0024209628
0.049419206 0.015731573 0.0080104461 0.42351243 -0.73569423 0.52857476 0.0037739547
0.051910631 0.016797984 0.007198181 0.48973194 -0.71771097 0.49502873 0.0036694254
0.054390393 0.017776987 0.0061969389 0.50845939 -0.70379686 0.49612403 0.0019671679
-0.052075233 0.020229006 0.0070547052 -0.54494417 -0.71588069 0.43652117 0.0011662535
-0.049827069 0.018958861 0.0076833447 -0.52794564 -0.72712702 0.43881616 0.0011457888
-0.047804117 0.018127503 0.0086173583 -0.49898762 -0.7172296 0.48640829 0.0011006189
0.053119078 0.018552389 0.0084141679 0.45519802 -0.63952738 0.61951542 0.0023988604
0.055366009 0.019403251 0.0074043204 0.51087606 -0.68906492 0.51399916 0.0027142849
0.057786159 0.020570191 0.0064142705 0.56771958 -0.6506831 0.50428766 0.001867076
-0.057190616 0.023814807 0.006221002 -0.62505794 -0.69527471 0.35481772 0.0088774348
-0.055282041 0.022856576 0.0072526834 -0.58663714 -0.68693829 0.42892039 0.0015021631
-0.053154632 0.021577306 0.0079367859 -0.55249375 -0.70643669 0.44237739 0.0013487278
0.056438871 0.021180883 0.0085321516 0.51618737 -0.61316842 0.59797579 0.0021984419
0.058562804 0.022301201 0.0076125395 0.56725317 -0.61511123 0.54759663 0.0031247041
0.060709856 0.02342435 0.0065406775 0.61336505 -0.60404843 0.50883096 0.0021371853
-0.060207367 0.02681065 0.0062207957 -0.67813975 -0.62026566 0.39420441 0.0069844425
-0.05832481 0.025676394 0.0072672293 -0.64198923 -0.63013089 0.4367893 0.0016275238
-0.056439009 0.024526177 0.0081861466 -0.59929347 -0.63961917 0.48138842 0.0014413545
0.059531014 0.024412924 0.0087251449 0.56563979 -0.5291779 0.63247311 0.0030523061
0.061535381 0.025286803 0.0075221797 0.62687933 -0.5468806 0.55492693 0.0028807204
0.063506238 0.026096892 0.0061843675 0.6892032 -0.55618364 0.4643907 0.00150655
-0.061129738 0.028749829 0.0071969009 -0.69239634 -0.55533117 0.46064588 0.0025242167
-0.059439834 0.027611965 0.008185205 -0.64307755 -0.57507944 0.50570238 0.0020776966
0.06266091 0.027485346 0.0083094323 0.62526661 -0.4990606 0.59998339 0.0027062166
0.064385161 0.028519444 0.007276264 0.68199563 -0.47799572 0.553536 0.0017727141
-0.063731864 0.031951573 0.0069028246 -0.71732539 -0.49254787 0.49278891 0.0026194809
-0.062326174 0.03094464 0.0078518027 -0.71092421 -0.50018489 0.49437019 0.0034788586
0.064661071 0.030916415 0.0083645433 0.6165396 -0.38456118 0.68701637 0.0027971363
0.066898108 0.03186705 0.0066536656 0.76234776 -0.42626813 0.48695114 0.0025294572
-0.066255115 0.035472929 0.0064138994 -0.74768102 -0.41539082 0.51809609 0.0029859878
-0.064756788 0.034399308 0.0075684786 -0.73647892 -0.41724792 0.53244996 0.0030307763
-0.062921025 0.033103041 0.0087861931 -0.69518894 -0.37788498 0.61148614 0.001735032
0.065973438 0.034539692 0.008915347 0.68665546 -0.30015811 0.66212493 0.004546748
0.067441508 0.034322023 0.0071964716 0.72292471 -0.33402658 0.60481918 0.0043058698
-0.066870622 0.037605323 0.0070025711 -0.7485314 -0.35618281 0.55931616 0.0030622354
-0.06553755 0.037114866 0.008353685 -0.70229852 -0.31240529 0.63967156 0.0013967101
-0.069165036 0.041451648 0.0062413081 -0.75920683 -0.29492447 0.58019346 0.0035511095
-0.067672156 0.040318578 0.0073474357 -0.74810797 -0.27195859 0.60528749 0.0021736554
-0.065938123 0.039222416 0.0088123791 -0.71344221 -0.2491399 0.65492719 0.0021904658
-0.069452874 0.043412033 0.0063832314 -0.76564473 -0.22475336 0.60272211 0.0029898505
-0.068143882 0.043034878 0.0076786978 -0.72275281 -0.19105336 0.6641739 0.0019906717
-0.070046335 0.046294115 0.0064157047 -0.76714748 -0.1822204 0.61504519 0.0032345962
-0.068443172 0.04619411 0.0078747533 -0.67577493 -0.10358741 0.72979301 0.0025826441
-0.070461579 0.049525522 0.00649253 -0.70633394 -0.13721552 0.69445252 0.0044760848
-0.067858934 0.049231607 0.008283115 -0.55622953 0.0036896272 0.83102047 0.0022478316
-0.065947562 0.050006613 0.0088992529 -0.50342369 0.055136278 0.8622787 0.00258446
-0.070416637 0.052308954 0.0066268854 -0.58462995 -0.042870115 0.8101666 0.004661106
-0.068200886 0.051848337 0.0076397075 -0.51493657 0.020709749 0.85697812 0.00199792
-0.070445307 0.054486889 0.0063569578 -0.52141684 0.010415946 0.85323846 0.0024469101
-0.068489939 0.05440155 0.0069565563 -0.41980466 0.096484758 0.90247148 0.0016108535
-0.018509133 0.0058733956 0.0091467192 -0.21443257 -0.78836793 0.57662338 0.00066465343
-0.016233826 0.0056321817 0.0094622588 -0.1719238 -0.79121059 0.58687991 0.00076079869
-0.013474991 0.0053584026 0.0098241922 -0.13853221 -0.78248167 0.6070677 0.00098881568
-0.010520264 0.0051098936 0.010080755 -0.10332544 -0.77667475 0.62136954 0.00092328433
-0.0075495569 0.0048683397 0.010169092 -0.070923917 -0.76892424 0.63539374 0.0011435568
-0.0046049068 0.0047364607 0.010232892 -0.033563811 -0.75771922 0.65171713 0.0011084585
-0.0014700873 0.0048041833 0.010372792 -0.0074081887 -0.75238591 0.65868092 0.00084767584
0.00144777 0.0047734831 0.010323931 0.0079235043 -0.74943477 0.66203076 0.00077090901
0.0044545145 0.0048044049 0.01028556 0.041718051 -0.73927367 0.67211157 0.0011162233
0.0074427756 0.0049243197 0.010151499 0.06276083 -0.73805892 0.6718111 0.00092186808
0.010534985 0.0049434546 0.0099290516 0.085600898 -0.76397902 0.63953775 0.0010346889
0.013527553 0.005332429 0.009919418 0.1157386 -0.74369389 0.65842533 0.0014554053
0.016252872 0.0054469728 0.0095163165 0.13117969 -0.75806576 0.63884902 0.0011785426
0.018998582 0.0057796957 0.0092702238 0.1522148 -0.74045658 0.65464091 0.00067501032
