# .PCD v0.7 - Point Cloud Data file format
VERSION 0.7
FIELDS x y z normal_x normal_y normal_z curvature
SIZE 4 4 4 4 4 4 4
TYPE F F F F F F F
COUNT 1 1 1 1 1 1 1
WIDTH 554
HEIGHT 1
VIEWPOINT 0 0 0 1 0 0 0
POINTS 554
DATA ascii
-0.03163667 0.031635653 -0.01570089 0.1078229 0.2486912 -0.96256268 0.0012111905
-0.028797165 0.030305583 -0.015726002 0.10076385 0.23407514 -0.96698266 0.0010863343
0.034705631 0.030552605 -0.015362038 -0.21102399 0.53561199 -0.81767273 0.0033139554
0.037518177 0.031169794 -0.015668212 -0.21903808 0.50023341 -0.83772838 0.0016985226
0.040580284 0.031343933 -0.016191054 -0.14537613 0.38485536 -0.91145605 0.0031075526
0.043523438 0.031670567 -0.016487006 -0.075638071 0.31014863 -0.94767439 0.0034754626
0.046520077 0.031374991 -0.016761716 -0.0077677229 0.22668554 -0.97393709 0.0036074682
0.050243177 0.031662326 -0.016553953 0.17907856 0.011733704 -0.98376477 0.0032257994
0.052524693 0.031348132 -0.016166432 0.24789718 -0.064809218 -0.96661615 0.0024847568
0.054731406 0.031160358 -0.015604616 0.29710102 -0.098426342 -0.94975954 0.0021694419
-0.052042991 0.034585986 -0.015207265 -0.29437816 -0.13886082 -0.94554704 0.0027511946
-0.049969245 0.03434005 -0.015704123 -0.21171847 -0.10276939 -0.97191238 0.0029868784
-0.046807874 0.03420553 -0.016167257 -0.17625865 -0.060295969 -0.98249543 0.002306957
-0.043473132 0.034371566 -0.016256709 -0.010898257 0.20062599 -0.97960728 0.0055602412
-0.040495984 0.03413726 -0.016150571 0.053735163 0.2755689 -0.95977831 0.0029564961
-0.037576482 0.034411646 -0.015631288 0.091086321 0.26956993 -0.95866328 0.0020195027
-0.035217371 0.033821344 -0.015454596 0.095725864 0.24446888 -0.96492052 0.001140515
0.041275244 0.03329099 -0.015374063 -0.2093309 0.50338674 -0.83832121 0.0017571852
0.043674514 0.033980053 -0.015571836 -0.16680419 0.42827094 -0.88812184 0.0032431674
0.046590481 0.034432676 -0.015821483 -0.095382892 0.34803218 -0.93261766 0.0033645814
0.049573984 0.034444183 -0.016031014 0.010449959 0.25595105 -0.96663326 0.0033864563
0.05245265 0.034366444 -0.015940765 0.10296854 0.1692058 -0.98018718 0.0042964495
0.056178741 0.034094691 -0.015247554 0.32038471 -0.067341514 -0.94489086 0.0028442014
-0.052533951 0.036863972 -0.015189588 -0.28010571 -0.060631163 -0.95805252 0.0021128117
-0.049585469 0.0371494 -0.015626157 -0.14748672 0.051443834 -0.98772526 0.0019694378
-0.046671472 0.037386779 -0.015589478 0.039726183 0.2299614 -0.97238863 0.0043517277
-0.043758783 0.036754113 -0.015613741 0.068376824 0.31850317 -0.94545245 0.0020342981
-0.041222595 0.036172971 -0.015500221 0.056807123 0.27570075 -0.95956349 0.0030140937
0.047101002 0.036224503 -0.015168947 -0.17094925 0.47305721 -0.86428773 0.0024751152
0.049484525 0.036617983 -0.015261568 -0.085313551 0.3924295 -0.91581696 0.0033298971
0.052627835 0.036877718 -0.015345889 0.019652041 0.31396833 -0.94923007 0.0030338806
0.054877628 0.036709912 -0.01523634 0.12034798 0.25958732 -0.95819145 0.0079621607
-0.051622659 0.039135844 -0.015095189 -0.082160205 0.2306143 -0.96957046 0.0015204744
-0.049812529 0.03925078 -0.015083782 -0.032330289 0.23042986 -0.9725517 0.0037719607
-0.04799553 0.039160699 -0.015086517 0.019726956 0.3447642 -0.93848205 0.0049369726
-0.0014214645 0.0058780336 -0.012092952 -0.049633216 -0.70885283 -0.70360804 0.00099178962
0.0015033114 0.0058924914 -0.012171037 -0.03957577 -0.67405814 -0.73761731 0.0023470141
0.0044284291 0.0057968423 -0.012182719 -0.0078864051 -0.69521612 -0.71875745 0.0013219578
0.0072596767 0.0058879876 -0.012240934 0.01649105 -0.69382644 -0.71995342 0.0016514073
0.010447882 0.0058130231 -0.012124656 0.033780161 -0.72239339 -0.69065666 0.0010662101
0.012691531 0.0058545368 -0.012071284 0.060717598 -0.73613727 -0.67410332 0.0011435081
-0.018372277 0.0089257164 -0.012126007 -0.18739954 -0.63405496 -0.75023711 0.0015324977
-0.016229216 0.0087169157 -0.012298283 -0.17288703 -0.65482062 -0.73574448 0.0010225367
-0.013342883 0.008286301 -0.01253387 -0.15204072 -0.65339631 -0.7415908 0.0012842236
-0.010440302 0.0080133537 -0.012826912 -0.11677657 -0.63545591 -0.76325554 0.0012376826
-0.0074653919 0.0078273369 -0.013022405 -0.088214248 -0.60999036 -0.78748333 0.0011624745
-0.0045254524 0.0075191888 -0.013102029 -0.066318773 -0.60458475 -0.79377514 0.0016528266
-0.0015154778 0.0073547643 -0.013185765 -0.051330961 -0.59623319 -0.80116862 0.00197687
0.0014392254 0.0074587348 -0.013418935 -0.039318137 -0.58942527 -0.80686551 0.0017891666
0.0044055409 0.0073990845 -0.013481817 -0.015217422 -0.58230567 -0.81282753 0.0012190184
0.0074862107 0.007431678 -0.013514197 0.0024379606 -0.59234303 -0.80568218 0.0013632985
0.010495528 0.0073980405 -0.013466579 0.022336422 -0.61388922 -0.78907615 0.001613187
0.01350511 0.0074903765 -0.013376298 0.043191928 -0.65078771 -0.75803018 0.0014667618
0.016470289 0.0075156041 -0.013203256 0.068965852 -0.66312242 -0.745327 0.0013835048
0.01943749 0.0077204467 -0.013028301 0.10496066 -0.67709422 -0.72837269 0.0012294886
0.02244282 0.0080756722 -0.012898925 0.13394599 -0.67692155 -0.7237649 0.0011553545
0.02538041 0.0083404072 -0.01254407 0.16923828 -0.71503091 -0.67829877 0.0010284897
0.028079936 0.0087496573 -0.012239911 0.19749878 -0.71106529 -0.67481869 0.0011274348
-0.025045224 0.011619615 -0.012341182 -0.23784593 -0.66664308 -0.70641094 0.0011207137
-0.022356184 0.011141614 -0.012709331 -0.21864693 -0.64184594 -0.73500156 0.0013446821
-0.019458944 0.010618404 -0.013086895 -0.19841288 -0.60422659 -0.77171403 0.0015730452
-0.016483493 0.010440887 -0.01357723 -0.15682235 -0.57183009 -0.80524343 0.00095583638
-0.013534654 0.010298884 -0.013973102 -0.1286644 -0.54348642 -0.82949859 0.0012107458
-0.010566022 0.010108623 -0.014298546 -0.10338026 -0.52127057 -0.84710652 0.0017571469
-0.0076061669 0.0099758208 -0.014480442 -0.073482163 -0.49864197 -0.86368781 0.0017107768
-0.0045575667 0.0098225782 -0.014634195 -0.057895783 -0.48711947 -0.87141418 0.0019721494
-0.0015579701 0.0096359001 -0.014694736 -0.044866156 -0.47672147 -0.87790865 0.0021468969
0.0014834859 0.0093887271 -0.014692109 -0.035766393 -0.49310663 -0.86923343 0.00162355
0.0045495746 0.0092890682 -0.01473967 -0.020492563 -0.47064453 -0.88208491 0.0020069999
0.0076604947 0.0092968494 -0.014794343 -0.0078953626 -0.52386916 -0.85176218 0.0013916072
0.010484365 0.0092976941 -0.014828592 0.0096698916 -0.53495336 -0.84482628 0.0017833115
0.013596765 0.0093950527 -0.014822092 0.03247869 -0.55198991 -0.83321804 0.0017547049
0.016590495 0.0094330283 -0.014711681 0.054252774 -0.55037946 -0.83315003 0.0019714888
0.019675856 0.0095725181 -0.014502108 0.077683531 -0.55279922 -0.82968569 0.0019141544
0.022661334 0.009826052 -0.014348157 0.10900186 -0.57868105 -0.80823684 0.001625896
0.025645582 0.010096706 -0.014060234 0.14483792 -0.59826642 -0.78809851 0.0013327397
0.028520517 0.010364085 -0.01364926 0.1778221 -0.64136869 -0.74634141 0.001527573
0.031375643 0.010706964 -0.013220966 0.22044104 -0.66496241 -0.71360397 0.0016483185
0.034252558 0.011314805 -0.012836161 0.25448805 -0.66619796 -0.7010107 0.0016452103
0.036653306 0.011702485 -0.012372822 0.28267345 -0.68936431 -0.6669876 0.0012537075
-0.033467147 0.014759652 -0.012162502 -0.30885985 -0.62135553 -0.72008544 0.001907043
-0.031275462 0.014313262 -0.012554441 -0.26529109 -0.65111232 -0.71110713 0.0014716821
-0.028383672 0.013702889 -0.012987553 -0.24546841 -0.62710238 -0.7392481 0.0011865826
-0.025505597 0.013434465 -0.013633101 -0.2205634 -0.5809446 -0.78348911 0.0015421513
-0.022610756 0.013241097 -0.014201243 -0.18349281 -0.52853221 -0.82884508 0.00093525712
-0.019662121 0.012728397 -0.014507838 -0.16689888 -0.51702541 -0.83954126 0.0014200195
-0.016908646 0.012280052 -0.014716861 -0.12410729 -0.47156665 -0.87305343 0.0022248207
-0.014714418 0.012103127 -0.014917028 -0.11542458 -0.50005281 -0.85826826 0.00073839957
0.029101107 0.012086896 -0.014862174 0.15033661 -0.58969766 -0.79350841 0.001195002
0.031678099 0.012618785 -0.014713771 0.18501094 -0.56135112 -0.80663246 0.0023597886
0.034718107 0.012948155 -0.014160641 0.22320655 -0.60075253 -0.76764262 0.0011718507
0.037696879 0.013461326 -0.013565596 0.27353099 -0.62238145 -0.73336357 0.0014001677
0.040487465 0.014025734 -0.01292478 0.31039709 -0.66292685 -0.68130869 0.0017456366
0.042831037 0.014474258 -0.0123698 0.35292056 -0.67169452 -0.6513629 0.0016003558
-0.039307732 0.017844632 -0.012277451 -0.37230512 -0.61503345 -0.69507039 0.0017553013
-0.037258908 0.017287904 -0.012661484 -0.31956238 -0.61361867 -0.72204709 0.0015870263
-0.034473613 0.016571814 -0.013196551 -0.29840547 -0.58856648 -0.75136125 0.0012192123
-0.031616718 0.016286848 -0.013980702 -0.23353174 -0.53992039 -0.80867106 0.00080438034
-0.028680163 0.015892068 -0.014501373 -0.20736147 -0.50901449 -0.83540738 0.0016418068
-0.026045168 0.015391584 -0.014800143 -0.17548826 -0.47188908 -0.86401653 0.002559158
0.038430203 0.015242677 -0.014779048 0.24726985 -0.58050907 -0.77580076 0.00084065518
0.040667813 0.0158481 -0.014423709 0.28349012 -0.55440152 -0.78247821 0.0021158822
0.043829959 0.016618909 -0.013678034 0.32929164 -0.59237331 -0.73529643 0.0009603058
0.045789421 0.016561067 -0.012635454 0.36805016 -0.64196604 -0.67262071 0.0016685057
0.048217002 0.017559024 -0.012296805 0.41693136 -0.63811702 -0.64728272 0.001090894
-0.042865723 0.020447651 -0.012471014 -0.39784551 -0.59856206 -0.69530022 0.0014572815
-0.040401209 0.019672599 -0.013119437 -0.37040743 -0.55949223 -0.74146265 0.0018771352
-0.037622128 0.019292749 -0.014028914 -0.28655958 -0.51621062 -0.80709994 0.00057541014
-0.034810219 0.018706828 -0.014573681 -0.25029072 -0.4839929 -0.83851379 0.0018084225
-0.032641832 0.018138191 -0.014861858 -0.23016362 -0.48898897 -0.84137654 0.0023174505
0.044267818 0.0184756 -0.014874997 0.30254492 -0.53140008 -0.79125249 0.0016383287
0.046763435 0.019088984 -0.014238756 0.35891911 -0.50723141 -0.78351349 0.0010059719
0.049397513 0.019536551 -0.013199989 0.40985832 -0.55695647 -0.72236806 0.002056736
0.051771775 0.020520899 -0.012540981 0.45231506 -0.57579488 -0.681081 0.0014323784
-0.048200175 0.023891693 -0.01227588 -0.44052088 -0.59162223 -0.67522186 0.0014872769
-0.046207767 0.023092883 -0.012687054 -0.41803849 -0.56065559 -0.71477902 0.0013371952
-0.043595035 0.022453627 -0.013553093 -0.36717635 -0.50296044 -0.78243989 0.0012313428
-0.040823318 0.021910151 -0.014412362 -0.31718975 -0.46971691 -0.8238669 0.0014006059
-0.03869576 0.021310797 -0.01479147 -0.26578435 -0.49152657 -0.82931322 0.0020262436
-0.0012155792 0.023679296 -0.01490294 0.040749945 0.4037441 -0.91396403 0.0024182766
0.0015678466 0.023682175 -0.014826165 0.014549734 0.43315011 -0.90120435 0.0031191395
0.0043716361 0.023627983 -0.014859461 -0.023070136 0.4382602 -0.89855206 0.0025949988
0.0072356416 0.023558833 -0.014963023 -0.048231773 0.41637561 -0.90791249 0.0022396108
0.049898591 0.021920316 -0.014516436 0.37481225 -0.43378213 -0.81935877 0.0011123754
0.052509665 0.022567622 -0.013557183 0.43448952 -0.46585539 -0.77084213 0.0011553336
0.054750986 0.023298834 -0.012700234 0.48894265 -0.49200064 -0.7203266 0.0019534675
-0.051444415 0.026598608 -0.012242385 -0.46208087 -0.54362941 -0.70067704 0.0017523583
-0.049315155 0.025775513 -0.012878741 -0.42617378 -0.52385199 -0.73753309 0.0014925686
-0.046644468 0.025333574 -0.013926517 -0.36562917 -0.45267341 -0.81326634 0.00082649384
-0.044188112 0.024630064 -0.014618582 -0.31220549 -0.42550105 -0.84939772 0.0024713911
-0.0093541993 0.026293105 -0.01406261 0.095398322 0.44068083 -0.89258033 0.0016189469
-0.0084717693 0.024909513 -0.014824241 0.10436143 0.45866117 -0.88246167 0.001177149
-0.0051449235 0.025478924 -0.014061251 0.069163404 0.46235186 -0.88399506 0.00045899436
-0.0015973639 0.025220389 -0.013935201 0.027021525 0.48437911 -0.87444085 0.00070161023
0.0012470842 0.025631383 -0.013526015 0.0060699969 0.49041519 -0.87146777 0.00070130825
0.0039245989 0.025505388 -0.013574414 -0.007237765 0.4924874 -0.8702895 0.00062168419
0.0072391341 0.0249718 -0.014056188 -0.024320882 0.53429115 -0.84495056 0.0010610151
0.010381827 0.025280695 -0.014076615 -0.081533581 0.56080902 -0.82392085 0.0016292334
0.013989419 0.025719559 -0.014150878 -0.12690504 0.55004126 -0.82543916 0.001723588
0.016667714 0.025826188 -0.014535772 -0.12968431 0.52297169 -0.84242666 0.0013460075
0.019304799 0.026565826 -0.01448021 -0.14601232 0.54817879 -0.82351714 0.0043366761
0.053058259 0.025056109 -0.014615197 0.39532515 -0.35264659 -0.84815001 0.001242029
0.055585749 0.025606107 -0.013482049 0.46189094 -0.41233972 -0.78525966 0.0010836762
0.05781883 0.026342098 -0.012531194 0.50715661 -0.45303056 -0.73318177 0.0019582021
-0.054535583 0.029610062 -0.012350165 -0.48050323 -0.48549968 -0.73034704 0.0020764861
-0.05241568 0.028599204 -0.012936174 -0.43857411 -0.46913892 -0.76652545 0.0017952452
-0.049740732 0.028319953 -0.014148175 -0.37638193 -0.40254921 -0.83444035 0.0013974709
-0.047519814 0.027470896 -0.014697161 -0.32074711 -0.35931203 -0.8763653 0.0029532693
-0.018884327 0.028127119 -0.014761609 0.12745976 0.33007208 -0.9353109 0.0011280086
-0.017436879 0.027358994 -0.01494162 0.11987765 0.32322869 -0.93869728 0.0010316522
-0.0099917166 0.027476318 -0.013381612 0.09539137 0.44069934 -0.89257187 0.0016147217
0.011665644 0.027130572 -0.012831542 -0.094077915 0.62738574 -0.77300489 0.00080794567
0.012918911 0.027097492 -0.01297108 -0.097379953 0.6181286 -0.78002191 0.001056532
0.016413508 0.027550591 -0.01318243 -0.12721857 0.62078071 -0.77359343 0.0014393979
0.019782092 0.027966043 -0.013493632 -0.17728326 0.63438445 -0.75241417 0.0017823066
0.022505661 0.028151549 -0.014015618 -0.19338764 0.61450046 -0.76484662 0.0015508729
0.025299503 0.029096128 -0.013983392 -0.22456697 0.5787217 -0.78399676 0.0022370189
0.028602432 0.029421244 -0.014644914 -0.20023464 0.56393027 -0.80117959 0.0029514336
0.055916488 0.028339576 -0.014513704 0.41612431 -0.28271848 -0.86424005 0.0014152846
0.058389131 0.028387532 -0.013201879 0.49912491 -0.34409684 -0.79528087 0.0010937362
0.060316145 0.028805491 -0.012082852 0.56402785 -0.38260934 -0.73176682 0.0014816732
-0.057275638 0.032573905 -0.012207731 -0.51788306 -0.41005805 -0.75076598 0.0023044015
-0.055400535 0.031573299 -0.01288109 -0.45546812 -0.38578525 -0.80232072 0.0028517686
-0.052671283 0.03131878 -0.014165282 -0.386417 -0.31263232 -0.86772287 0.001976735
-0.050548881 0.030454651 -0.014732979 -0.33282569 -0.2845751 -0.89902395 0.0034992781
0.023387484 0.030093683 -0.012622513 -0.19288838 0.66067708 -0.7254653 0.00086875126
0.025376502 0.030840315 -0.01249392 -0.21641146 0.65054923 -0.72797793 0.0010648831
0.028443022 0.030920247 -0.013367206 -0.20356193 0.64419943 -0.73727179 0.0020247321
0.031531297 0.031528968 -0.013787265 -0.23159951 0.62614155 -0.74451894 0.0018652623
0.034069803 0.031949688 -0.014234331 -0.25353616 0.57539093 -0.77758908 0.0031655987
0.037172195 0.032616731 -0.014731997 -0.2330635 0.57856876 -0.78162622 0.002029021
0.056573614 0.031181868 -0.014922923 0.38167503 -0.16059153 -0.91023874 0.002304587
0.058393642 0.031173399 -0.014059909 0.4443135 -0.21384424 -0.86997479 0.0029735644
0.061074741 0.031292874 -0.012546465 0.54737043 -0.28794053 -0.7857964 0.00094654039
-0.058131572 0.034673017 -0.012630231 -0.48421806 -0.31459612 -0.81643254 0.0027292827
-0.055572394 0.034395769 -0.013822491 -0.38837233 -0.22298194 -0.89411741 0.0017861327
-0.053363215 0.034166913 -0.014714065 -0.36327782 -0.19846383 -0.91029745 0.0025250481
0.032839172 0.033755198 -0.012205047 -0.26550975 0.67849594 -0.68494374 0.00054429413
0.035076924 0.033604942 -0.013202985 -0.26638582 0.64973754 -0.71195495 0.001788071
0.037659779 0.034298047 -0.013579806 -0.28271255 0.61131454 -0.73916727 0.0020620239
0.040466972 0.034727853 -0.014226899 -0.25404578 0.55969799 -0.78879595 0.0024267226
0.043350101 0.035396114 -0.014695143 -0.22676376 0.47963151 -0.84766257 0.0016786646
0.058191299 0.03441947 -0.014599657 0.35573253 -0.011737626 -0.93451411 0.0053184503
0.061333328 0.034578022 -0.013247788 0.49293366 -0.18691744 -0.84975189 0.0035722798
0.063279435 0.03503862 -0.012160862 0.57800514 -0.24575931 -0.77814674 0.0033682089
-0.060471356 0.037884396 -0.012260862 -0.49826977 -0.2365399 -0.83413196 0.0029357008
-0.058563177 0.037440985 -0.01314479 -0.43612912 -0.19546695 -0.87839854 0.0017052529
-0.055548966 0.037448358 -0.014388151 -0.34505743 -0.093296409 -0.9339332 0.0028618046
-0.053456876 0.037684951 -0.014927926 -0.17566563 0.050471433 -0.98315525 0.0025928819
-0.043015286 0.038532346 -0.01467656 0.11129453 0.36002737 -0.92627954 0.00042999341
-0.040817048 0.037772123 -0.014662684 0.11176325 0.36001593 -0.92622757 0.0003665988
0.04098092 0.03660398 -0.012994143 -0.31451383 0.60752213 -0.72938186 0.0020311822
0.043489214 0.037279632 -0.013463172 -0.2746745 0.5654605 -0.77769423 0.001519965
0.046225265 0.037593808 -0.014121071 -0.22947867 0.52591115 -0.81899756 0.0018322044
0.049595531 0.038163148 -0.014587693 -0.15093693 0.44793645 -0.88123268 0.0026724623
0.052599855 0.038476717 -0.014758924 -0.055843882 0.3651703 -0.92926431 0.0031610215
0.05588907 0.037971009 -0.014809147 0.091234773 0.23077534 -0.96872032 0.0083130142
0.058416858 0.037484292 -0.014462579 0.25045544 0.12512264 -0.96000856 0.005455276
0.061506011 0.037491873 -0.013394791 0.39734364 0.0123089 -0.91758734 0.0033545282
-0.060877632 0.040423807 -0.012500562 -0.44713014 -0.10624895 -0.88813615 0.0025406042
-0.058606911 0.040335178 -0.013435404 -0.39380723 -0.072061606 -0.91636401 0.0022891019
-0.056201797 0.039772201 -0.014195815 -0.32070896 -0.039681528 -0.94634622 0.0028796878
-0.0530378 0.040021069 -0.014749348 -0.20766784 0.069946744 -0.97569537 0.0024751902
-0.049643863 0.040483873 -0.01466212 0.01392968 0.35707155 -0.93397319 0.0050166892
-0.046357989 0.039842065 -0.01458851 0.077078909 0.3763313 -0.92327332 0.0015698251
-0.044580638 0.039073799 -0.014686368 0.11177275 0.3845444 -0.91631466 0.00082865468
0.04438417 0.03952105 -0.01203193 -0.32744077 0.62770432 -0.70623642 0.0015674065
0.046860166 0.040067632 -0.012607162 -0.29155916 0.59008509 -0.75285649 0.0023200377
0.049394842 0.040351138 -0.013242369 -0.23517844 0.51892775 -0.82183039 0.0024327494
0.052225154 0.040625434 -0.013683746 -0.14584421 0.47841772 -0.86593646 0.0018359097
0.055313054 0.040618785 -0.013997466 -0.0062818867 0.35752916 -0.93388087 0.0043771463
0.05842346 0.040481456 -0.013865625 0.15599118 0.26805449 -0.9506911 0.0059927264
0.061420806 0.040378444 -0.013164744 0.33779684 0.13874948 -0.93093604 0.0082745673
0.06334307 0.040700071 -0.012445405 0.38754517 0.096762761 -0.91675824 0.0036743835
-0.061092619 0.043075595 -0.012421408 -0.4285787 -0.023478944 -0.90319937 0.0023815678
-0.058625691 0.043399032 -0.01307166 -0.21638665 0.18355647 -0.95889723 0.0051405807
-0.055597331 0.043387979 -0.013557261 -0.078549676 0.32547033 -0.94228399 0.0070319274
-0.052921403 0.043058734 -0.013758724 0.017614819 0.39043465 -0.92046213 0.0028166811
-0.049791027 0.043666888 -0.01308116 0.053973977 0.41967279 -0.90606928 0.00088094472
-0.047505669 0.042546146 -0.013358824 0.074361943 0.41624641 -0.90620595 0.00077078852
0.04994455 0.042222045 -0.012103 -0.27639177 0.56726712 -0.77576774 0.0016710694
0.052329272 0.042719401 -0.012454624 -0.19721858 0.54591274 -0.81429976 0.0026961458
0.055345993 0.043433376 -0.012636414 -0.10007223 0.46837541 -0.87784398 0.0034148602
0.058321919 0.04345556 -0.012822888 0.00081177877 0.40994877 -0.91210818 0.0069680922
0.061341554 0.043122351 -0.012623155 0.23519011 0.25755927 -0.93720269 0.01093436
-0.060594033 0.045503478 -0.012171919 -0.2260462 0.30166495 -0.92622966 0.0054812953
-0.05868876 0.045878045 -0.012374961 -0.10823271 0.35467282 -0.92870498 0.0051463898
-0.055806428 0.045650382 -0.012644653 0.0057210377 0.41328496 -0.91058379 0.0028342754
-0.051795196 0.04570663 -0.012195028 0.065790273 0.43502536 -0.89801145 0.00061042421
-0.015709789 0.0058343657 -0.0092529729 -0.21400262 -0.770459 -0.60049629 0.00093576481
-0.01328292 0.0054599624 -0.0096158674 -0.18695548 -0.76510245 -0.61617035 0.0011809701
-0.010402782 0.0051197223 -0.0099512441 -0.14306468 -0.77138513 -0.62007862 0.0011802857
-0.0074716434 0.0049321107 -0.010218902 -0.11178791 -0.7671966 -0.63159543 0.0014360383
-0.0045078266 0.0046927896 -0.010415449 -0.084643863 -0.7548368 -0.65042824 0.0013674834
-0.0015003732 0.0045339502 -0.010509307 -0.057525966 -0.7593292 -0.64815879 0.0017915001
0.0015151041 0.0043581827 -0.010498525 -0.036637221 -0.75577462 -0.65380603 0.0021377727
0.0044808681 0.004289594 -0.010536733 -0.0044539948 -0.77127129 -0.63649106 0.0011504688
0.0075094178 0.0043792478 -0.010568828 0.019584531 -0.7775588 -0.62850517 0.0011828374
0.010476875 0.0044252835 -0.010526746 0.046037469 -0.77677554 -0.62809259 0.0013650828
0.013408354 0.0046415296 -0.010480973 0.074332625 -0.78162605 -0.61930227 0.0021357315
0.016402425 0.004853291 -0.010362853 0.098493308 -0.79294372 -0.60128134 0.0017427673
0.019387526 0.005124684 -0.010165843 0.13914497 -0.79890364 -0.58514249 0.0014311653
0.022354707 0.005379058 -0.0097242668 0.16364871 -0.80649513 -0.56814146 0.0013544877
0.025101637 0.0057242108 -0.0094165867 0.2031814 -0.81226045 -0.54676348 0.0010452912
-0.024640208 0.0088166716 -0.0093887309 -0.27959406 -0.75380528 -0.59464675 0.0012401165
-0.022291325 0.0083388658 -0.0098809311 -0.27531222 -0.74175239 -0.61156076 0.0013252393
-0.019389236 0.0077468134 -0.01036331 -0.23179173 -0.73861486 -0.63302499 0.0015680772
-0.016564691 0.007181881 -0.010608226 -0.2025588 -0.74024493 -0.64109856 0.0013680477
-0.013629641 0.0068633561 -0.011101287 -0.16965309 -0.70370525 -0.68993968 0.0013236956
-0.010647955 0.0065194457 -0.011457433 -0.12819445 -0.69339538 -0.70906198 0.001295689
-0.0075984932 0.0063196146 -0.011716384 -0.09885677 -0.72218722 -0.68459684 0.001332798
-0.0054061245 0.0061979368 -0.011915208 -0.075744003 -0.66595417 -0.74213725 0.0023718206
0.014615061 0.0060735829 -0.011945078 0.054551147 -0.7109201 -0.70115393 0.0026533995
0.016839473 0.0061367969 -0.011851624 0.081204869 -0.70242965 -0.70710564 0.001083108
0.019713229 0.0062881024 -0.011563867 0.12007578 -0.71567112 -0.68803829 0.0013013786
0.022566611 0.0065413918 -0.011245877 0.15041754 -0.74584579 -0.6489135 0.0012793882
0.02557935 0.006875318 -0.010824166 0.19219907 -0.78518939 -0.58867401 0.0011753469
0.028505808 0.0074500157 -0.010510288 0.22220817 -0.79438961 -0.56530404 0.0013155168
0.031247223 0.008063524 -0.010277997 0.25431371 -0.78256804 -0.56825334 0.0013866696
0.034069601 0.0086404486 -0.0097054793 0.29589388 -0.78824413 -0.53955352 0.0012414859
0.036108475 0.0089644883 -0.0092168991 0.32404563 -0.78303224 -0.53090018 0.0021516006
-0.031145761 0.011549074 -0.0096245259 -0.31790218 -0.74585539 -0.58535278 0.00089722272
-0.028343489 0.010926474 -0.010244885 -0.29278833 -0.73676509 -0.60946882 0.001661017
-0.025594292 0.010232736 -0.010671481 -0.26890171 -0.73562294 -0.62173206 0.0012354612
-0.022699332 0.0097005302 -0.011232649 -0.24436264 -0.7055158 -0.66523248 0.0014532674
-0.020230973 0.009243723 -0.01168115 -0.2181436 -0.70236748 -0.6775642 0.0010571308
0.032175984 0.0093276864 -0.011548801 0.23367421 -0.7417236 -0.62868309 0.0014254274
0.034652907 0.0098577263 -0.011050302 0.2745319 -0.75964355 -0.58955401 0.0018976656
0.037369046 0.01046909 -0.010498996 0.31225523 -0.76790464 -0.55930233 0.0012544912
0.040157568 0.011226253 -0.0098529216 0.35490978 -0.77008224 -0.53010601 0.00097662548
0.042233694 0.011752329 -0.0092079006 0.38031468 -0.77108538 -0.51067406 0.0019298709
-0.039095111 0.01487607 -0.0091610355 -0.39563844 -0.7272194 -0.56091189 0.0011480255
-0.037085298 0.014390443 -0.0097598583 -0.38106006 -0.71949553 -0.58061981 0.0012312962
-0.034456179 0.013636221 -0.010420106 -0.32937795 -0.71443969 -0.61732173 0.0011458468
-0.031674396 0.012864123 -0.010920207 -0.29649088 -0.72996694 -0.61582577 0.0013503442
-0.028972672 0.012374531 -0.011572972 -0.26646391 -0.68751341 -0.67551643 0.0013438623
0.040768627 0.012575376 -0.011234774 0.3307752 -0.72725964 -0.60139942 0.001308532
0.043408711 0.013268582 -0.010499011 0.3776879 -0.74104607 -0.55515993 0.0012350744
0.046078932 0.014387877 -0.010036861 0.4217388 -0.7216118 -0.54901069 0.0012567915
-0.042741667 0.01744437 -0.0095713595 -0.4633126 -0.68229651 -0.56551999 0.0011001376
-0.04040888 0.016659744 -0.01036017 -0.39273968 -0.69133431 -0.60647541 0.001622409
-0.037758123 0.015880749 -0.011052891 -0.35266843 -0.69516271 -0.62639743 0.0013234663
-0.035443641 0.015311814 -0.011698887 -0.32991022 -0.66956377 -0.665465 0.0010714893
0.044747036 0.015078591 -0.011852099 0.36687088 -0.6707837 -0.64455801 0.0030144621
0.047010124 0.015759647 -0.011029552 0.40916491 -0.70095557 -0.58416206 0.0013542528
0.049028125 0.016709559 -0.010697346 0.44930136 -0.70410186 -0.54988086 0.0028298532
0.051752396 0.017643502 -0.0096920002 0.48408073 -0.66754508 -0.56572908 0.0014504524
-0.048218735 0.020878226 -0.0091791619 -0.49481508 -0.67944992 -0.54176188 0.00059418147
-0.04617824 0.020119874 -0.0099430764 -0.4811317 -0.65986389 -0.57714111 0.001465808
-0.043675136 0.019169968 -0.010745753 -0.42649919 -0.65547323 -0.6232602 0.0011490759
-0.041354768 0.018468617 -0.011623244 -0.40494186 -0.6311838 -0.66153532 0.001042189
0.050522763 0.018479459 -0.011614281 0.43452328 -0.62204164 -0.65134764 0.0019271459
0.052614979 0.01922382 -0.010711156 0.47461575 -0.65853149 -0.58401722 0.001597336
0.054954022 0.02018984 -0.0098512955 0.52431536 -0.6331538 -0.56939417 0.0013960015
-0.051466018 0.023600226 -0.0094426507 -0.51791984 -0.63617283 -0.57187694 0.0014512105
-0.049301907 0.022752514 -0.010279692 -0.47556347 -0.63612908 -0.60760111 0.0018671388
-0.046884563 0.021848937 -0.011206466 -0.44159901 -0.60344839 -0.66395807 0.0011280318
-0.044844743 0.021082724 -0.011880635 -0.43010917 -0.60146785 -0.67323291 0.0024412908
0.053846013 0.021044672 -0.011642126 0.48453471 -0.58987248 -0.64596951 0.0011301055
0.055741385 0.022007659 -0.010954401 0.52464992 -0.56725687 -0.63479304 0.0020005307
0.057860531 0.022982672 -0.0099557871 0.56310701 -0.56900573 -0.59928536 0.0015097565
-0.05469254 0.026377114 -0.009569414 -0.53285706 -0.6319887 -0.56271982 0.001194239
-0.052498639 0.025442362 -0.010476547 -0.48783758 -0.59568673 -0.63810015 0.0020198766
-0.050184786 0.024621107 -0.011465042 -0.45707083 -0.58257538 -0.67208046 0.0006388069
0.058622278 0.024989907 -0.01103333 0.53978109 -0.50972801 -0.6699357 0.0022933111
0.060810618 0.025796022 -0.0097544137 0.59925956 -0.51012951 -0.61697316 0.0015191189
-0.0577555 0.029214824 -0.0096051628 -0.58341199 -0.56789446 -0.58062583 0.0012756159
-0.055595916 0.028354948 -0.010658654 -0.50945324 -0.53734308 -0.67210108 0.0017718398
-0.05343188 0.027481223 -0.011579576 -0.49115056 -0.55728912 -0.6694774 0.0012889144
0.011201099 0.027920619 -0.011966963 -0.094077915 0.62738574 -0.77300489 0.00080794567
0.016488075 0.029389355 -0.011347899 -0.12941402 0.65148711 -0.74754041 0.00045247102
0.019325251 0.029730385 -0.01170476 -0.18536025 0.66250271 -0.7257629 0.00060058368
0.059731081 0.027248271 -0.011744282 0.56272119 -0.38796508 -0.72995061 0.0015754618
0.061580971 0.028248645 -0.010777626 0.58531719 -0.39711455 -0.70689732 0.0012099515
0.063434005 0.029003084 -0.0095295869 0.6268959 -0.43669611 -0.64521158 0.0015533287
-0.060585648 0.032279115 -0.0094691357 -0.6100567 -0.50653201 -0.60930794 0.0017559547
-0.058526438 0.031412467 -0.010581712 -0.54903835 -0.45196041 -0.70305669 0.0011377094
-0.0565493 0.0306319 -0.011658851 -0.52050835 -0.45736229 -0.72103453 0.0014835611
0.020956926 0.030941181 -0.010898172 -0.19799376 0.67801768 -0.70787752 0.00033711694
0.023012698 0.031140637 -0.011342857 -0.21410048 0.67728394 -0.70388031 0.00030203661
0.025785141 0.032457206 -0.010849327 -0.21522783 0.68099439 -0.69994551 0.00036793118
0.028590593 0.032385483 -0.011966606 -0.23906395 0.67726761 -0.69581395 0.00047406007
0.062430937 0.031005576 -0.011453822 0.5888567 -0.30297679 -0.74930155 0.0016612015
0.064136274 0.031407941 -0.010234237 0.63593572 -0.35929573 -0.68300247 0.0014748762
-0.063284464 0.035690144 -0.0092172781 -0.6244067 -0.42481837 -0.65547359 0.0028138401
-0.061365247 0.034544293 -0.010239384 -0.59272164 -0.38399452 -0.70797533 0.002326234
-0.059323061 0.033876851 -0.011510052 -0.54341179 -0.35139859 -0.76237953 0.0017735368
0.028948382 0.033541773 -0.010799087 -0.24304083 0.67514122 -0.69650233 0.0004713418
0.031732261 0.034465902 -0.010889869 -0.26550487 0.67849445 -0.68494701 0.00054150826
0.034529202 0.035122804 -0.01142607 -0.27915308 0.66604042 -0.69171071 0.0007084778
0.036565013 0.035857189 -0.011658951 -0.30599135 0.65655488 -0.68942368 0.00098270609
0.064530179 0.033725183 -0.010862193 0.6120854 -0.24858493 -0.75070435 0.0033115721
0.066618063 0.034307223 -0.0091078496 0.7154209 -0.30992267 -0.62619561 0.0075599235
-0.063961238 0.037765771 -0.009749053 -0.62642801 -0.34064701 -0.70110452 0.0025934668
-0.061849762 0.037259456 -0.011155733 -0.54161853 -0.27789238 -0.79336327 0.0013266803
-0.059955135 0.036202487 -0.011977507 -0.54353917 -0.2849724 -0.78952891 0.0017535555
0.034887075 0.036383376 -0.010156679 -0.30410427 0.66719675 -0.6799773 0.00058734335
0.037811484 0.037331868 -0.01062355 -0.31301218 0.65572721 -0.68705547 0.00060531578
0.040312033 0.038104787 -0.011256767 -0.33493415 0.63583064 -0.69536942 0.00067517505
0.0428444 0.038784973 -0.011988116 -0.32507354 0.62084526 -0.71335715 0.0013704891
0.065450408 0.037923425 -0.011132634 0.50803572 -0.051390875 -0.85980153 0.0027397198
0.067201309 0.037865922 -0.009660108 0.50803548 -0.05139685 -0.85980135 0.0027392898
-0.06622187 0.041231524 -0.0092048971 -0.64407915 -0.26803887 -0.7164616 0.0027530056
-0.064520903 0.040496852 -0.01026244 -0.58011973 -0.22686781 -0.78229928 0.0039361734
-0.062432159 0.040257245 -0.011643521 -0.49603674 -0.1500825 -0.85523266 0.0025442999
0.041269336 0.039425604 -0.010370311 -0.3686654 0.69203073 -0.62062812 0.0025403888
0.043557875 0.040964045 -0.010082045 -0.39794683 0.68362284 -0.61179918 0.0023103547
0.045889158 0.041313365 -0.011162379 -0.32428852 0.63852215 -0.6979444 0.0010399518
0.065327071 0.039635353 -0.01137441 0.47293162 -0.021832855 -0.88082862 0.0066322875
0.06620694 0.041285716 -0.010770172 0.48447579 0.067349322 -0.8722083 0.0048108716
-0.066609658 0.043463338 -0.0094220461 -0.60347778 -0.1292232 -0.78683919 0.0040294616
-0.064641096 0.043401524 -0.01070716 -0.50839764 -0.057951782 -0.8591702 0.002212093
-0.062458877 0.043196205 -0.011843257 -0.46704617 -0.044903848 -0.88309199 0.002328492
0.044797938 0.042244002 -0.0094526038 -0.3719877 0.7048701 -0.60397303 0.0019975561
0.046628434 0.042725421 -0.0100557 -0.36662892 0.70221728 -0.61030662 0.0023323749
0.049324736 0.04355723 -0.010686601 -0.34216258 0.65488243 -0.67383522 0.0024026032
0.05227223 0.044479262 -0.011126314 -0.26722795 0.59841162 -0.75530976 0.0026687055
0.054546382 0.044680923 -0.011707582 -0.16851318 0.53215647 -0.82970643 0.0023405415
0.064268135 0.043315899 -0.011650559 0.397407 0.14007474 -0.90688854 0.0054537198
-0.066776715 0.046466824 -0.0094886553 -0.56511086 -0.019554229 -0.82478321 0.0032954852
-0.064663999 0.046406429 -0.010606769 -0.48131692 0.023472426 -0.87623239 0.0032524096
-0.06172936 0.046584174 -0.011590576 -0.27468285 0.27565059 -0.92117649 0.0095479833
-0.058699332 0.047467433 -0.011724056 -0.075079322 0.38937163 -0.91801572 0.0017610497
-0.056057308 0.047209889 -0.011799676 0.0112752 0.40704429 -0.9133389 0.0025170788
-0.052704737 0.046585668 -0.011800108 0.049079902 0.45308891 -0.89011323 0.00058999029
0.052845538 0.046307653 -0.0097940825 -0.35886455 0.62804979 -0.69048512 0.00088666542
0.055182099 0.046531543 -0.010520593 -0.27161339 0.60277015 -0.75026286 0.0021907231
0.058357816 0.046434589 -0.011308379 -0.08035361 0.48755887 -0.86938465 0.0040812171
0.061580338 0.046262406 -0.011445091 0.11377407 0.40310568 -0.90805358 0.006157178
0.06408716 0.045832098 -0.011090473 0.21986668 0.28214028 -0.93383914 0.0094471341
0.066664889 0.046747822 -0.0097958501 0.29127255 0.28086463 -0.91448098 0.0050162943
-0.066751197 0.048881073 -0.0092606358 -0.48325008 0.11319924 -0.86813319 0.0039965161
-0.065107152 0.049210735 -0.0098283477 -0.3850221 0.17429121 -0.90630049 0.0039264103
-0.06168652 0.049243212 -0.01054704 -0.17324108 0.37613851 -0.91022384 0.0030236912
-0.058656517 0.049282275 -0.010682655 -0.07531102 0.4300653 -0.89965117 0.0010499816
-0.056708023 0.048446387 -0.011085537 -0.0312647 0.41923478 -0.90733939 0.0025280132
0.055813074 0.048469659 -0.0091665164 -0.29741067 0.63411605 -0.71375334 0.0024830019
0.058408182 0.048838723 -0.0097217746 -0.17793505 0.61227506 -0.7703625 0.0059577427
0.061490905 0.049496118 -0.0098006297 -0.083397888 0.51639044 -0.8522827 0.0089653442
0.064214222 0.049387164 -0.0097524654 0.045970235 0.43600419 -0.8987698 0.0074694064
-0.064818643 0.05129848 -0.0091082854 -0.20773679 0.37249801 -0.90448368 0.0038852745
-0.061925143 0.05140933 -0.0092943031 -0.15387735 0.40173545 -0.90273494 0.0017895565
-0.012319263 0.002944449 -0.0061250003 -0.22660488 -0.87032855 -0.43723962 0.0017983252
-0.009976605 0.0028145683 -0.0064437254 -0.15849258 -0.87670922 -0.45415971 0.0014196722
-0.0073531847 0.0026228677 -0.0068159155 -0.12264358 -0.87443042 -0.46939319 0.0018465803
-0.0044532293 0.0023955167 -0.0071508228 -0.088613778 -0.87840372 -0.46963233 0.0018738845
-0.0014663165 0.0022583597 -0.0072679096 -0.049298037 -0.88033658 -0.47178096 0.0019255263
0.0014978176 0.0021675564 -0.0073478124 -0.029741719 -0.88331181 -0.46784148 0.0017480446
0.0044656224 0.0021275145 -0.0074090711 0.0033266989 -0.88700688 -0.46174431 0.0016586185
0.0074799242 0.0022169256 -0.0073949494 0.032298096 -0.88802654 -0.45865646 0.0018633809
0.010471269 0.002288104 -0.0072979727 0.058705874 -0.89263332 -0.44694445 0.0017195484
0.013440701 0.0024528506 -0.0070581553 0.094414227 -0.89244127 -0.44117397 0.0019133763
0.016397489 0.002647727 -0.0067197396 0.12007809 -0.89373839 -0.43221867 0.00185177
0.01891814 0.0028087946 -0.0063469447 0.16942418 -0.89469695 -0.41329515 0.0015865443
-0.021553932 0.0058377753 -0.0064063556 -0.319906 -0.84231848 -0.43377382 0.0017008191
-0.01934842 0.0054138079 -0.007046767 -0.25927809 -0.84780627 -0.46260077 0.0017718259
-0.016514665 0.0049085482 -0.0075014359 -0.22735663 -0.84041601 -0.49194518 0.0015887021
-0.013546229 0.0041231266 -0.0075139347 -0.2029731 -0.85326433 -0.48035598 0.0012042247
-0.010649905 0.0036595685 -0.0078153377 -0.15240897 -0.84854937 -0.50669074 0.0013641735
-0.0076059382 0.0034674497 -0.0082349516 -0.11709943 -0.84864938 -0.51583135 0.00188379
-0.0046171565 0.0032943944 -0.0086024189 -0.089579165 -0.81798548 -0.56822115 0.0011870824
-0.0014651595 0.0031796794 -0.0087851277 -0.052127354 -0.83429986 -0.54884112 0.0016786371
0.0011942949 0.0030883718 -0.0088464329 -0.033368338 -0.79878825 -0.60068613 0.00089226448
0.0047815172 0.0030336727 -0.008908405 -0.0011738008 -0.80307108 -0.59588212 0.00089516881
0.0078448346 0.0031071969 -0.0088914922 0.023597043 -0.806723 -0.59045845 0.0009860798
0.010662987 0.0031767469 -0.0088456078 0.052929629 -0.8319695 -0.5522908 0.001351851
0.013754285 0.0032445502 -0.0085108289 0.086704619 -0.8513844 -0.51732665 0.0016936593
0.016629556 0.0033949686 -0.0081639402 0.11199538 -0.86801147 -0.48374888 0.0018648108
0.019621719 0.003624822 -0.00769903 0.1676686 -0.87590683 -0.45240963 0.0014243241
0.022525216 0.0041197571 -0.0075113415 0.18732832 -0.88531345 -0.4255915 0.0014173695
0.025483176 0.0047587426 -0.007505489 0.21728133 -0.8753742 -0.43186662 0.0014109843
0.028238298 0.005378522 -0.0072086346 0.24508399 -0.87649399 -0.41435757 0.0015755816
0.030584976 0.0056770411 -0.0064470842 0.28571558 -0.88336754 -0.37152183 0.00082234154
-0.030294754 0.0089752395 -0.0060840063 -0.35589728 -0.83078671 -0.42793754 0.00088774489
-0.028108224 0.0085610384 -0.0068885735 -0.33757773 -0.8314603 -0.44126523 0.0015733037
-0.025434723 0.0078762723 -0.0074743009 -0.29857805 -0.81915355 -0.48973316 0.0014649344
-0.022598496 0.0069454438 -0.0076883845 -0.30174974 -0.82501167 -0.4778105 0.0014159746
-0.019961076 0.0064163492 -0.0083970493 -0.2496278 -0.80430955 -0.53923285 0.0016925723
-0.017648585 0.0061485874 -0.0088661341 -0.24353646 -0.77097315 -0.58846444 0.0016246639
0.029042058 0.0062594446 -0.0084874639 0.2381413 -0.85481668 -0.46106091 0.0015640849
0.031628016 0.0066541857 -0.0077592456 0.28965029 -0.85669285 -0.42682558 0.0011485592
0.034461495 0.0075968839 -0.0076178 0.31055197 -0.85452664 -0.41634327 0.0012535454
0.037234787 0.0083917268 -0.0071248072 0.33391935 -0.84989351 -0.40765044 0.0012992158
0.039485209 0.0088490751 -0.0062167435 0.38851082 -0.84948486 -0.35698009 0.00098157011
-0.036313731 0.011837255 -0.0063840081 -0.40534079 -0.80720562 -0.42908973 0.0013468866
-0.034290537 0.011281894 -0.007146196 -0.36617601 -0.81467509 -0.44968829 0.0016080766
-0.031495783 0.010353613 -0.0075557842 -0.33772391 -0.81752688 -0.46646792 0.0020137187
-0.02890628 0.0095854746 -0.008094213 -0.32042801 -0.80769771 -0.49492452 0.0020898974
-0.026590377 0.0091417916 -0.0088280933 -0.30312279 -0.77349299 -0.55661935 0.001309523
0.038055938 0.0093070865 -0.0082878759 0.33669254 -0.83222824 -0.44049326 0.001456807
0.040580895 0.010037847 -0.0074907248 0.3860704 -0.83435249 -0.39345327 0.00097335811
0.043193478 0.011124678 -0.0072185113 0.40466663 -0.82129198 -0.40214974 0.0014977836
0.045315564 0.011776187 -0.0065878183 0.43553016 -0.80661285 -0.39961135 0.0016329135
-0.04225551 0.014876935 -0.0062187687 -0.47402933 -0.77335507 -0.42097279 0.0012774385
-0.040224493 0.014299322 -0.0071665384 -0.42450586 -0.7846781 -0.45174661 0.0015491173
-0.037573423 0.013180934 -0.007611135 -0.40989849 -0.79468483 -0.44772664 0.0013725334
-0.035110191 0.012402911 -0.0084205084 -0.35262513 -0.75832617 -0.54826713 0.00074213842
0.044104565 0.012263087 -0.008527007 0.41599029 -0.78953636 -0.45120326 0.0022640915
0.046616137 0.013122019 -0.0075375568 0.4555054 -0.79095459 -0.40854096 0.0012427092
0.049059521 0.014289195 -0.0071881921 0.47909737 -0.77624506 -0.40976757 0.0011656013
-0.045626629 0.017528819 -0.0068234988 -0.51524472 -0.73723459 -0.43704453 0.0012651976
-0.043511361 0.016496232 -0.0075181443 -0.49517286 -0.75469029 -0.43040261 0.00075123692
-0.041139115 0.01545192 -0.0083008837 -0.41809943 -0.75133628 -0.51057488 0.0016170233
0.050117821 0.015495084 -0.0081123719 0.474493 -0.75814855 -0.44728878 0.0032747404
0.052443758 0.01666097 -0.0074759796 0.51247591 -0.73528165 -0.44354182 0.0015049903
0.05477269 0.017766112 -0.0065665995 0.54759264 -0.74034446 -0.38991332 0.0023680171
-0.051104087 0.02098907 -0.0061089853 -0.54114234 -0.728993 -0.41920659 0.00096198561
-0.049089063 0.020178637 -0.0071516205 -0.53861344 -0.71420151 -0.44700298 0.0016174066
-0.046812367 0.018903432 -0.0077273212 -0.52273905 -0.72893029 -0.44204587 0.0014459587
-0.044715956 0.018183995 -0.0087739266 -0.47423428 -0.68760699 -0.54981673 0.0010590741
0.053695939 0.01832494 -0.008712709 0.52473933 -0.67960584 -0.51262528 0.0017256992
0.055551365 0.01901681 -0.0076498049 0.55309075 -0.70611966 -0.44213754 0.0014992361
0.057629447 0.020410899 -0.0071337922 0.59518713 -0.6682874 -0.44625583 0.00094833481
-0.054303765 0.02372173 -0.0064495658 -0.56508476 -0.70299053 -0.43183747 0.0011207463
-0.052336227 0.022733515 -0.0073289406 -0.55359155 -0.71164888 -0.43254173 0.0016271789
-0.050146591 0.021597629 -0.0081127323 -0.54280001 -0.71780032 -0.43603984 0.0014920546
0.058848314 0.022110241 -0.0079080779 0.58762383 -0.63944155 -0.49579507 0.0020195947
0.060813095 0.023330458 -0.0070806993 0.61688745 -0.62830961 -0.47400096 0.001649898
-0.057518732 0.026573652 -0.0067081968 -0.59328419 -0.66579407 -0.4524734 0.0012055588
-0.055519145 0.025415918 -0.0074800216 -0.58479762 -0.69036746 -0.42591599 0.0010152385
-0.053493444 0.024414837 -0.0084655853 -0.53800827 -0.65758467 -0.52737993 0.0011571036
0.061925009 0.024984825 -0.007695952 0.63396192 -0.56902343 -0.52374095 0.0023977235
0.063624159 0.026606787 -0.007235588 0.66456133 -0.50498641 -0.55076945 0.0015740076
-0.060485076 0.029485622 -0.0066642109 -0.64882416 -0.59741467 -0.47129908 0.0011110724
-0.058684055 0.02829648 -0.0075724288 -0.62888163 -0.63675755 -0.44614768 0.0011859621
-0.056734383 0.027285434 -0.0085947169 -0.56581962 -0.61066353 -0.55402005 0.00089976558
0.064564772 0.028596755 -0.0078746881 0.66526747 -0.47267583 -0.57792455 0.0017136902
-0.063355975 0.032569092 -0.0064545865 -0.68673736 -0.5363093 -0.49067727 0.0014327042
-0.061600193 0.031417731 -0.0074930494 -0.67033553 -0.56126064 -0.48542431 0.0026367847
-0.05973861 0.030330217 -0.0085678054 -0.5956971 -0.54335636 -0.59153092 0.00081633945
0.065497145 0.031194523 -0.0087250639 0.67039388 -0.38643545 -0.63343483 0.0033003034
0.066771343 0.031424087 -0.0071608629 0.75160706 -0.42072859 -0.50801015 0.0015938225
-0.066207729 0.035983767 -0.0060624373 -0.71578425 -0.47387642 -0.51292706 0.0019534081
-0.064254321 0.034658115 -0.0073090419 -0.69717789 -0.48295349 -0.52981031 0.0023294024
-0.062535472 0.033590112 -0.0084992619 -0.63370878 -0.46652529 -0.61706352 0.0012343709
0.066819713 0.033185806 -0.0083093112 0.73907018 -0.38071114 -0.55572861 0.0023286804
0.069041334 0.034877229 -0.0060483981 0.76697522 -0.45241755 -0.45504665 0.0070918608
-0.066709302 0.037828073 -0.0068628392 -0.71794623 -0.43015593 -0.54728341 0.0027259171
-0.065273561 0.037083376 -0.008084652 -0.68453282 -0.38047314 -0.62181586 0.0023936655
-0.06918069 0.041523192 -0.0061920644 -0.74694401 -0.34639627 -0.56752467 0.0038207453
-0.067545526 0.040431846 -0.0075100861 -0.70831335 -0.30481598 -0.63669407 0.0019954764
-0.065823063 0.039360799 -0.0087342989 -0.69026804 -0.31546962 -0.6511597 0.0019951276
0.040623616 0.041247755 -0.0072937035 -0.44796926 0.74440628 -0.49515939 0.0025747062
0.042325228 0.041480307 -0.0085248649 -0.41412136 0.70997745 -0.56959248 0.0011024982
-0.069574721 0.04365598 -0.0065971189 -0.73674655 -0.24273026 -0.6310994 0.0031015154
-0.068090446 0.0433411 -0.0081022 -0.66983068 -0.17534457 -0.72151309 0.0025401784
0.044706792 0.044424899 -0.0062241377 -0.46287614 0.75623822 -0.46243858 0.0015773728
0.046422385 0.044655897 -0.0074734739 -0.42573613 0.73342538 -0.52993965 0.0019117548
-0.070010304 0.046486586 -0.006946621 -0.72189188 -0.13995846 -0.67770481 0.0051221703
-0.068281807 0.046421468 -0.0084520131 -0.60113001 -0.05974121 -0.79691505 0.0042026355
0.049833287 0.046539985 -0.0076328334 -0.44015205 0.70529747 -0.55571729 0.0037986324
0.051448077 0.046972793 -0.008251789 -0.40700725 0.69943428 -0.58748353 0.0037146071
-0.070306979 0.049443949 -0.0069900118 -0.6608724 -0.057740625 -0.74827385 0.0062047145
-0.068278193 0.049650345 -0.0084071541 -0.52795857 0.040951803 -0.84828222 0.0038359016
0.052581187 0.048348241 -0.0074685928 -0.40545249 0.71052802 -0.5751158 0.0034457652
0.055337764 0.049493846 -0.0079181893 -0.36912039 0.68531132 -0.62777275 0.0027677901
0.058502547 0.050515514 -0.0083766021 -0.30672711 0.63893294 -0.70546663 0.0059803673
-0.070748419 0.052340548 -0.0066699367 -0.57609308 -0.0053465501 -0.81736654 0.0068655708
-0.067787848 0.052127913 -0.0080931326 -0.43595442 0.14172994 -0.88873863 0.0059180027
-0.065081976 0.052418459 -0.008508686 -0.18587731 0.34894237 -0.9185254 0.0038542524
-0.06295874 0.052347694 -0.008686984 -0.20781113 0.37249744 -0.90446681 0.0038699021
0.056259744 0.051448032 -0.0062041222 -0.36604783 0.6964643 -0.6172086 0.0022479645
0.058595728 0.052266527 -0.0066790278 -0.37322485 0.70525932 -0.60275418 0.0028411832
0.061524503 0.052597806 -0.0077100671 -0.24829255 0.58144468 -0.77477282 0.010226715
0.064424455 0.052185457 -0.0084421141 -0.13873304 0.54735327 -0.82532269 0.0052112131
0.06674172 0.053040225 -0.0077975877 -0.13939409 0.46015358 -0.87682837 0.0041700494
-0.070791326 0.055327434 -0.0063056424 -0.48728767 0.084409982 -0.86915231 0.0073233373
-0.067764997 0.055197012 -0.006913268 -0.16616042 0.34011 -0.92558956 0.0069137216
-0.065449677 0.054725915 -0.0072217416 -0.093887545 0.44244528 -0.89186734 0.0010015899
0.062244378 0.054122303 -0.0068157036 -0.25431547 0.62754929 -0.73587066 0.01492301
0.06479194 0.05538673 -0.0066929697 -0.23448716 0.47414383 -0.84864801 0.0091971802
0.067729473 0.055615492 -0.0066602794 -0.1482151 0.47709584 -0.86626315 0.005515296
0.066595174 0.057281096 -0.0061420081 -0.17712055 0.40918913 -0.89509362 0.0091784839
-0.015389987 0.0028777055 -0.0033946652 -0.25027663 -0.93628734 -0.24642976 0.0013243313
-0.0133278 0.00256422 -0.0041956487 -0.21168151 -0.93288898 -0.2913917 0.0022601362
-0.010530349 0.0021240506 -0.0045494675 -0.15715928 -0.94062972 -0.30085987 0.0017698439
-0.0075324182 0.0016910181 -0.0045336545 -0.12635966 -0.94077146 -0.31461456 0.0022275366
-0.0045636571 0.0012837922 -0.0045507648 -0.091416165 -0.94177353 -0.32358241 0.0024464622
-0.0015850953 0.001064343 -0.0044978037 -0.048334628 -0.9423039 -0.331251 0.0026037386
0.0014386444 0.00093663734 -0.0044926512 -0.028840918 -0.94309908 -0.3312588 0.0026422392
0.004462509 0.00088001019 -0.0045135878 0.011372549 -0.94480634 -0.32743183 0.0025314784
0.0075140367 0.0010009859 -0.0044984506 0.0413117 -0.94536263 -0.32339278 0.0025657264
0.010496318 0.001147969 -0.0045155915 0.067749843 -0.94741642 -0.31274906 0.0023249425
0.013525281 0.0014587255 -0.0045177187 0.10526236 -0.94917107 -0.29663792 0.0020074651
0.016532488 0.0018439656 -0.0044971392 0.12630984 -0.95207977 -0.27854979 0.0018224922
0.019440407 0.0023110399 -0.004568703 0.1653173 -0.95187938 -0.2580618 0.0015544615
0.022112599 0.0027118309 -0.0040329662 0.19904283 -0.94625181 -0.25493044 0.0016530259
0.024372974 0.0028931897 -0.0032613571 0.23640452 -0.96192193 -0.13718264 0.0019278247
-0.0244017 0.0058495458 -0.0036223624 -0.35696909 -0.8916055 -0.27859068 0.002482062
-0.022362968 0.0053228252 -0.0044071195 -0.32319516 -0.89737225 -0.30044627 0.0023557059
-0.019483192 0.004349181 -0.0045002443 -0.28231728 -0.90735918 -0.3114424 0.0020338111
-0.016596131 0.0036046042 -0.0046479921 -0.26106191 -0.91258299 -0.31470463 0.0021379234
-0.014147815 0.0032197454 -0.0054484848 -0.21509518 -0.91012853 -0.35411885 0.0020852119
0.022981182 0.0032446792 -0.0052007628 0.20719025 -0.93405151 -0.29089519 0.0018050146
0.025497491 0.0036167346 -0.0045773177 0.24162142 -0.93000871 -0.27695301 0.0015167082
0.028487539 0.0044635702 -0.004594462 0.26604751 -0.92329264 -0.27703696 0.0019223607
0.031412397 0.0052947975 -0.004475107 0.28630105 -0.92368644 -0.2546275 0.0018431487
0.033520892 0.0057884366 -0.0039155874 0.32675499 -0.91401452 -0.24043439 0.001783515
-0.030959098 0.0086020073 -0.0040928372 -0.36427566 -0.88782769 -0.28118539 0.0020903929
-0.028493287 0.0077111884 -0.0045159995 -0.34209237 -0.88796526 -0.30739301 0.0019849641
-0.025662275 0.0066499901 -0.0046275929 -0.36508998 -0.88688153 -0.28310862 0.0016922974
-0.023602709 0.0061859372 -0.005542703 -0.33198342 -0.89124966 -0.30896783 0.0024398768
0.032721963 0.006039781 -0.0055453316 0.32165369 -0.905954 -0.27529323 0.0022003676
0.034585446 0.0065168603 -0.0048194448 0.34311515 -0.90110719 -0.26509959 0.0016028407
0.037423678 0.0075220857 -0.0045826868 0.35359266 -0.89532834 -0.27084953 0.0015775304
0.039955482 0.0084585408 -0.0041979873 0.37970251 -0.88995719 -0.25259084 0.001562935
-0.037082374 0.0113958 -0.0043101651 -0.424891 -0.86272478 -0.27417794 0.0019907409
-0.034489766 0.010201417 -0.0044446122 -0.39178011 -0.87742603 -0.27682471 0.0019349392
-0.032083128 0.0093586789 -0.0049617891 -0.38509738 -0.87710279 -0.28703797 0.0021232988
0.041234538 0.0093045654 -0.0049657035 0.41201109 -0.87263519 -0.2622112 0.0013796649
0.043485042 0.010189852 -0.004390704 0.42009449 -0.87127316 -0.25377861 0.0011972735
0.04584749 0.011429834 -0.0045786514 0.44259712 -0.85725909 -0.2630868 0.001872745
-0.042855542 0.014451726 -0.0042068637 -0.4944168 -0.82163393 -0.28367192 0.0022728171
-0.040504497 0.013253463 -0.0044783005 -0.45269543 -0.84940928 -0.27123925 0.0020876697
