# .PCD v0.7 - Point Cloud Data file format
VERSION 0.7
FIELDS x y z normal_x normal_y normal_z curvature
SIZE 4 4 4 4 4 4 4
TYPE F F F F F F F
COUNT 1 1 1 1 1 1 1
WIDTH 556
HEIGHT 1
VIEWPOINT 0 0 0 1 0 0 0
POINTS 556
DATA ascii
0.020327963 -0.07389278 -0.1204794 -0.1901188 -0.98175752 -0.0026496511 0.0042603496
0.022181977 -0.074336663 -0.12058672 -0.12264779 -0.99244738 0.0024059776 0.0038799872
0.025832139 -0.07476595 -0.1203833 -0.040832046 -0.99772775 0.053592302 0.0021218113
0.028188214 -0.074533887 -0.12096011 -0.025337733 -0.99745524 0.066641249 0.0015920026
0.031762235 -0.074790478 -0.12070429 0.050402269 -0.99461341 0.090574525 0.001386335
0.034532279 -0.074573949 -0.12085421 0.11560321 -0.98597175 0.12039796 0.0018177663
0.037308473 -0.074134327 -0.12112106 0.22516656 -0.97011197 0.09045893 0.0015825662
0.040437188 -0.073459812 -0.12096766 0.26213753 -0.96137977 0.083862148 0.0017259383
0.043409999 -0.072683267 -0.12092742 0.28620198 -0.95525014 0.074736446 0.0022591671
0.04582167 -0.072081812 -0.12142708 0.30753314 -0.93132502 0.19508211 0.00092887302
0.0058737984 -0.069065928 -0.12112634 -0.4562768 -0.86724991 0.19922143 0.0015172313
0.0075593241 -0.069879547 -0.12076181 -0.43123299 -0.89621168 0.10412844 0.0028294036
0.01036005 -0.070934176 -0.12098309 -0.38113648 -0.90330464 0.19691579 0.00067528221
0.0125175 -0.071788713 -0.12114844 -0.32599837 -0.92725438 0.18418595 0.0020922655
0.044749659 -0.071972862 -0.12027063 0.279737 -0.95508319 0.097792678 0.0032681073
0.04694267 -0.071573161 -0.12088361 0.3366949 -0.93672973 0.095781066 0.0025511729
0.049453307 -0.070608638 -0.12076128 0.3737123 -0.9122234 0.16789171 0.0026645651
0.052073833 -0.069446661 -0.12057932 0.44786009 -0.88620371 0.11859328 0.0035872583
0.0018794116 -0.066626996 -0.12072424 -0.52699786 -0.83643186 0.15051565 0.0022596598
0.0042057186 -0.067778431 -0.12083197 -0.48374373 -0.84234762 0.23757634 0.00051449862
0.053679328 -0.068672329 -0.12077444 0.46763712 -0.84504485 0.25925776 0.0026237199
0.055677887 -0.067440785 -0.1205343 0.51112902 -0.80744028 0.29459685 0.0014038598
0.057462197 -0.066246651 -0.12079523 0.54797012 -0.79400623 0.2632165 0.0009409787
-0.0030755971 -0.063131623 -0.12069582 -0.63937157 -0.72765315 0.24844508 0.0015113259
-0.0013745433 -0.06430462 -0.12061211 -0.59088343 -0.76451695 0.25762513 0.001263616
0.0005276528 -0.065894775 -0.1204804 -0.53581452 -0.80604976 0.25136936 0.0019131505
0.058732826 -0.06527704 -0.12060406 0.56705081 -0.78609216 0.24599284 0.00054028456
0.060709167 -0.063701592 -0.12070224 0.58694547 -0.78723639 0.18908679 0.001371242
-0.0060240375 -0.060119618 -0.12124982 -0.69966888 -0.70048177 0.1406724 0.0022034517
-0.0044713165 -0.061721805 -0.12077329 -0.67410839 -0.70962602 0.20496051 0.0013076293
0.062373187 -0.062507518 -0.12064844 0.61880803 -0.76513946 0.1778717 0.0012472764
0.064192019 -0.061011642 -0.12071627 0.65448344 -0.7375766 0.16622923 0.00087963045
-0.0078046396 -0.058134142 -0.12086526 -0.72465235 -0.67931068 0.11582787 0.0022854491
0.065522246 -0.059683859 -0.12089355 0.68462873 -0.69873196 0.2075022 0.00098298327
0.067128681 -0.058152378 -0.12088251 0.71691591 -0.66666329 0.20394027 0.00094338256
-0.010383949 -0.055536833 -0.12061872 -0.80045319 -0.58797699 0.11643805 0.0038291041
0.068556033 -0.056322921 -0.12063577 0.76246494 -0.62496996 0.16751041 0.0018915836
0.069789164 -0.054992437 -0.120696 0.80083758 -0.58799046 0.11369418 0.0019626638
-0.01242811 -0.052084733 -0.12064151 -0.83830923 -0.53375804 0.11108594 0.0029923506
-0.011454203 -0.053640537 -0.12036617 -0.82406527 -0.54573202 0.15196379 0.0025625036
0.071226694 -0.052772965 -0.12082279 0.8330428 -0.53970468 0.12148525 0.0018108314
0.072132975 -0.051282432 -0.12094536 0.8476907 -0.52630049 0.066546246 0.0015131413
-0.014053843 -0.049417149 -0.12060474 -0.8466531 -0.51917285 0.11678212 0.0012928952
0.071814537 -0.05083181 -0.12057669 0.85150754 -0.50792164 0.13019444 0.00081216823
0.073072389 -0.049304307 -0.12105635 0.86626345 -0.49447572 0.071283512 0.0010950157
-0.01571608 -0.046547499 -0.12066784 -0.90413976 -0.42169389 0.06859754 0.002177513
0.074574821 -0.046868365 -0.12082984 0.87608916 -0.47891986 0.055709843 0.0014632768
0.07526464 -0.045320362 -0.12073216 0.89121026 -0.44665819 0.078999244 0.0016525937
-0.016775699 -0.044157501 -0.12043806 -0.92987323 -0.35971168 0.077093109 0.0011924779
0.076394357 -0.043344785 -0.12062684 0.91505694 -0.39160845 0.09650743 0.0029160499
-0.018389026 -0.039353859 -0.12091358 -0.95542777 -0.29065302 0.051755775 0.00074637128
-0.01763382 -0.041245986 -0.12081028 -0.93998092 -0.33505437 0.064610139 0.0010227234
0.077437401 -0.040685587 -0.12048515 0.93880272 -0.31584856 0.13743795 0.0051278714
0.078099877 -0.039279766 -0.12072709 0.91535175 -0.29035506 0.2789714 0.0028953741
-0.018407388 -0.038895529 -0.12020409 -0.95898342 -0.27967921 0.046156947 0.00031987409
0.077742562 -0.038688846 -0.12188861 0.94576633 -0.28940478 0.14754954 0.0045400136
0.078447804 -0.037406016 -0.12052814 0.95587373 -0.25930813 0.13807546 0.0054442412
-0.019783495 -0.033856347 -0.12075414 -0.97479635 -0.22067502 0.032781597 0.00095865596
0.079178028 -0.034257483 -0.12059483 0.96967143 -0.21361612 0.11876627 0.0040867282
0.079601973 -0.031565551 -0.12066095 0.98138654 -0.1596773 0.10669374 0.0020086749
0.079920135 -0.028697288 -0.12075179 0.98799801 -0.11659638 0.10131688 0.0012896809
0.080120958 -0.025923193 -0.12051822 0.99335635 -0.073263064 0.088745184 0.0018458491
0.080069609 -0.022488799 -0.12080705 0.99671537 0.039570473 0.070659593 0.001939061
0.07987982 -0.019461157 -0.12085134 0.99155772 0.1065629 0.073876269 0.00072983117
0.079399854 -0.016466983 -0.12098643 0.98467416 0.15805596 0.073723465 0.00081938156
0.078884587 -0.013494181 -0.12078331 0.97153801 0.22819056 0.06358438 0.0013228387
0.077667877 -0.0095654428 -0.12085432 0.95220888 0.29852873 0.064644367 0.00059883873
0.078307949 -0.010792456 -0.1208514 0.95312673 0.29584062 0.063465275 0.00046201542
0.07704591 -0.0075024124 -0.12099206 0.94323856 0.32237116 0.079861268 0.00021655159
0.076119617 -0.0048289853 -0.12072212 0.93353415 0.34673128 0.091057196 0.0011858263
0.07458128 -0.0011013177 -0.12086515 0.86952972 0.46561655 0.16467926 0.0021879161
0.07542032 -0.00266434 -0.12126862 0.90536511 0.41422912 0.09342517 0.0026891432
0.073144965 0.001489901 -0.12066987 0.84592187 0.50663221 0.16655345 0.0013688167
0.071123257 0.0045950161 -0.12063882 0.80827427 0.56624329 0.16143513 0.0014242816
0.072293527 0.0032910781 -0.12068802 0.82880098 0.54593307 0.12266239 0.0029833333
0.068269111 0.0083310287 -0.12059581 0.7614063 0.62777746 0.16172783 0.0018609595
0.069779687 0.006537131 -0.12088155 0.77990365 0.58575308 0.22055317 0.0012228522
0.065496325 0.011269942 -0.12049796 0.68282789 0.71941119 0.1272539 0.0012584223
0.06663724 0.010256493 -0.12128 0.71158934 0.67868495 0.18173431 0.0011610994
0.062568501 0.013832574 -0.12062708 0.63603729 0.74815077 0.18901579 0.0012190242
0.064449847 0.012412477 -0.12070369 0.66263193 0.73643553 0.13631426 0.00095917622
0.058693968 0.017172016 -0.12073761 0.57855612 0.81132078 0.083853342 0.0027948499
0.060908642 0.015531275 -0.12096504 0.59173173 0.77603084 0.21824224 0.0016648282
0.053206921 0.020232527 -0.12112767 0.46152684 0.88437939 0.069757909 0.001144905
0.056489848 0.018416097 -0.1203201 0.54547459 0.83395147 0.083560795 0.0025929017
0.044994079 0.023874914 -0.12036676 0.40875545 0.91205281 0.032843009 0.00042995787
0.04653402 0.023191102 -0.1202958 0.40339929 0.91270143 0.065155141 0.00040338669
0.050694641 0.021227309 -0.12087122 0.4269689 0.90173119 0.067664579 0.00046541955
0.042902891 0.024612835 -0.12080469 0.40749702 0.91226441 0.041471709 0.00035056399
0.014338179 -0.072302975 -0.11921521 -0.31164536 -0.94870341 0.053283401 0.0073384289
0.016864359 -0.07282646 -0.11918607 -0.21780816 -0.97598559 0.0034327244 0.0048336312
0.019870941 -0.073415443 -0.11881008 -0.20849191 -0.9779954 -0.0074915602 0.0044189817
0.022568241 -0.07391122 -0.11852828 -0.14198904 -0.98986787 -0.00084308692 0.0036325995
0.025627326 -0.074274898 -0.11853953 -0.041058723 -0.99861217 0.03298445 0.0023788097
0.028545706 -0.074397765 -0.11845334 0.015928054 -0.9973343 0.071208075 0.0017464978
0.031382702 -0.074315786 -0.11845627 0.017450871 -0.99522716 0.09601257 0.0016554897
0.034376085 -0.074039757 -0.1185686 0.094898202 -0.98819196 0.12029564 0.0017716464
0.037646405 -0.073557697 -0.11857772 0.18613692 -0.97646874 0.10891261 0.0015840626
0.040914819 -0.072866537 -0.11891207 0.25386855 -0.96434665 0.074742749 0.0019729633
0.042842437 -0.072505027 -0.11895827 0.28441998 -0.9567315 0.061400119 0.0024755297
0.0079288641 -0.069557473 -0.11868135 -0.43863004 -0.89229214 0.10685696 0.0027933652
0.010510103 -0.070615672 -0.11860038 -0.38036427 -0.92058879 0.088540025 0.0014923585
0.013313376 -0.071590334 -0.11854006 -0.31146196 -0.9488585 0.051565439 0.0068069506
0.015076424 -0.071924612 -0.11846936 -0.29555789 -0.95487767 0.02922572 0.007438154
0.044507787 -0.071909443 -0.11869648 0.28120124 -0.95739162 0.0657809 0.0023847301
0.04660463 -0.071178138 -0.11893683 0.33272266 -0.93993556 0.076268397 0.0027027095
0.049527314 -0.070005432 -0.11886188 0.39481449 -0.91172981 0.11344711 0.0029520586
0.051409621 -0.06925679 -0.11904127 0.44446239 -0.88763952 0.1206203 0.0037054045
0.0022597339 -0.0663606 -0.11903604 -0.53718877 -0.83632863 0.10946541 0.0033579508
0.0045793024 -0.067616411 -0.1185471 -0.48314667 -0.86985373 0.099618129 0.0018359092
0.006677717 -0.068696357 -0.11845197 -0.4528046 -0.88562626 0.10312198 0.0031652895
0.053051677 -0.068386547 -0.11854859 0.45723847 -0.88205093 0.11366265 0.0043529044
0.05529226 -0.067057796 -0.11882176 0.53691244 -0.83233023 0.13766426 0.0035311517
0.057171356 -0.066183686 -0.11997518 0.55591524 -0.82503998 0.10132782 0.0031094104
-0.001164893 -0.063931562 -0.11879136 -0.61989367 -0.77114463 0.14514768 0.0033440879
0.0010151904 -0.065362982 -0.11838641 -0.54412073 -0.8287276 0.13093233 0.0030264927
0.056750923 -0.065935813 -0.11930896 0.55801666 -0.80617219 0.19673298 0.0029625355
0.058588285 -0.064778671 -0.11887435 0.58460951 -0.80642372 0.088952757 0.00336897
0.060435329 -0.063448027 -0.11860051 0.60360783 -0.79403657 0.071857721 0.0023581954
-0.0042176279 -0.061294146 -0.11875489 -0.66951644 -0.73346198 0.11739372 0.0034004792
-0.0023119473 -0.062708862 -0.11795384 -0.60789049 -0.78358757 0.12829557 0.002965997
0.062020045 -0.06224319 -0.11865839 0.63898575 -0.76492053 0.081202053 0.0023402481
0.063867688 -0.06065787 -0.11885035 0.67939049 -0.72786629 0.092947625 0.0016916298
-0.0073708389 -0.058298275 -0.11850816 -0.73446357 -0.67392784 0.079903916 0.0021992743
-0.0057038907 -0.059603792 -0.11823276 -0.71695101 -0.69050699 0.095819183 0.0013123085
0.06533397 -0.059242833 -0.11856037 0.71655524 -0.68979847 0.1035697 0.0019749708
0.066885233 -0.057879627 -0.11882205 0.71939057 -0.68685508 0.10347609 0.0020393173
-0.0099792574 -0.054928619 -0.11872178 -0.82412016 -0.55332279 0.12107819 0.0033353816
-0.0089614717 -0.056410372 -0.11843785 -0.78589278 -0.60919338 0.1060942 0.003155617
0.068295367 -0.056046154 -0.11838814 0.77072287 -0.62796986 0.10788938 0.0016857068
0.069490664 -0.054576039 -0.11880668 0.78735179 -0.60866624 0.097992428 0.0015870758
-0.012225567 -0.051594663 -0.11882243 -0.82508963 -0.55856651 0.085032322 0.002100931
-0.011207629 -0.053012133 -0.11866824 -0.82587719 -0.55153137 0.11721817 0.0036252816
0.07075759 -0.05272314 -0.11869349 0.83352953 -0.54662001 0.080219656 0.0022675432
0.072024524 -0.051069148 -0.11833531 0.8392573 -0.54168224 0.047197282 0.001689742
-0.013500651 -0.049765058 -0.11837918 -0.84434259 -0.53036541 0.076146036 0.0015653943
0.071864597 -0.050613552 -0.11787811 0.85329008 -0.51969552 0.042573966 0.0010710005
0.072906859 -0.049376283 -0.11865175 0.86050576 -0.50785267 0.04019447 0.00096574536
-0.015558136 -0.046211544 -0.11872286 -0.88804764 -0.45083743 0.09009479 0.0010780466
-0.014665787 -0.047822218 -0.11803336 -0.87076509 -0.48573378 0.076360226 0.0022821801
0.074339569 -0.046650548 -0.11875532 0.8837502 -0.4642989 0.058412541 0.0015432088
0.075123258 -0.045430809 -0.11886118 0.89569533 -0.43884593 0.07172323 0.001540889
-0.016524764 -0.043779925 -0.11833619 -0.92071217 -0.38140294 0.082589343 0.0010217651
0.075782359 -0.043529123 -0.11890316 0.91361964 -0.39701834 0.087609813 0.002182252
-0.017531484 -0.041308679 -0.11820791 -0.94529426 -0.31960425 0.065359816 0.00078860618
0.076896451 -0.040445279 -0.11885515 0.94428778 -0.31179255 0.10538518 0.0046289149
-0.018432435 -0.038076505 -0.11872901 -0.95991117 -0.27611637 0.048273284 0.00032695694
0.077668644 -0.037650917 -0.11872095 0.95740998 -0.25989631 0.12577744 0.0053061857
0.078330308 -0.036518335 -0.11957196 0.95350987 -0.26099646 0.15066454 0.0051120939
-0.019404752 -0.034937207 -0.11864125 -0.96700299 -0.25300705 0.029877609 0.00026429287
0.077877752 -0.035976823 -0.11870174 0.9707455 -0.20370533 0.1271116 0.0052509629
0.078675032 -0.034504998 -0.11861936 0.96785533 -0.22287242 0.1165505 0.0030089642
-0.020245122 -0.031598471 -0.11939744 -0.98017544 -0.19665566 0.024137866 0.0012111217
0.079029061 -0.031960648 -0.11802935 0.97999144 -0.17775345 0.08955802 0.0028407064
-0.02055631 -0.028310433 -0.11891151 -0.98437321 -0.17442296 0.024208469 0.0014302948
0.079463743 -0.028484071 -0.11882132 0.99269664 -0.064817429 0.10174499 0.0016697908
-0.020739688 -0.026381858 -0.11864869 -0.98555052 -0.16327617 0.045066882 0.001160501
0.079775661 -0.025575597 -0.11850946 0.99574769 -0.028909387 0.087469399 0.0018077898
-0.021094223 -0.023243725 -0.11968664 -0.98555058 -0.16327594 0.045066897 0.0011594597
0.079725757 -0.022594573 -0.11840536 0.99631357 0.010758777 0.085108459 0.0023121587
0.079490319 -0.019554343 -0.11869064 0.99284726 0.095994934 0.070987716 0.0012452246
0.079066716 -0.0162929 -0.11861937 0.98239487 0.16538309 0.086883806 0.00057813677
0.078502506 -0.013261473 -0.11853276 0.97197407 0.22096621 0.080251366 0.00086900068
0.077639535 -0.010212497 -0.11832458 0.95502031 0.28899086 0.066486344 0.00067371258
0.07825245 -0.011363186 -0.11943286 0.9585616 0.27548701 0.072571114 0.0012616294
0.076759256 -0.0074396026 -0.11862883 0.94524294 0.32017899 0.063255221 0.00027494517
0.075732835 -0.0044282372 -0.11859068 0.92764264 0.36316332 0.087129362 0.0014069751
0.074297443 -0.0014621448 -0.11851173 0.88684607 0.45090219 0.10095184 0.0013845364
0.075227916 -0.00278104 -0.11960381 0.89593244 0.43278131 0.10002697 0.0023142069
0.071818784 0.0024800794 -0.11873408 0.83657265 0.53981525 0.093518786 0.0032533102
0.07286036 0.0011096284 -0.11884545 0.84576571 0.52347553 0.10321686 0.0026450399
0.070573121 0.0044282274 -0.11876976 0.81514108 0.57123673 0.096091412 0.0029497524
0.068118639 0.007832435 -0.11852403 0.7876358 0.60880065 0.094824366 0.0016565332
0.069269985 0.0065086661 -0.11923728 0.79080635 0.60375804 0.10050666 0.0017204945
0.064996168 0.011122223 -0.11842927 0.66808492 0.73212713 0.13286248 0.0010740613
0.066736646 0.0096936692 -0.11908542 0.74283963 0.65876484 0.11923973 0.0016372795
0.061971001 0.013964558 -0.11865035 0.65283072 0.7527442 0.084784068 0.0015147552
0.063583747 0.012487203 -0.11859646 0.65564251 0.74252331 0.1370845 0.0009005171
0.056734227 0.01770776 -0.11889081 0.53658271 0.83894759 0.090807423 0.0021775211
0.058506005 0.016563561 -0.11905316 0.57822126 0.81179249 0.081567124 0.0027309167
0.060510211 0.015308248 -0.11891714 0.62122566 0.779697 0.078429706 0.0023778495
0.053121079 0.020045463 -0.11875887 0.49463442 0.86754227 0.052030597 0.0021162713
0.05525849 0.018906873 -0.11932769 0.50676435 0.85988271 0.061576456 0.0027120649
0.044588529 0.023719355 -0.11845955 0.40874633 0.91205603 0.032867238 0.00043115302
0.046866659 0.022705154 -0.11843266 0.41158938 0.91073173 0.034087591 0.00046821387
0.049888335 0.021422245 -0.11917229 0.41948736 0.90477049 0.073625341 0.00063608575
0.014301081 -0.072177187 -0.11541435 -0.34406319 -0.93824905 -0.036183134 0.0026757817
0.016389729 -0.073007651 -0.11547369 -0.32728934 -0.94392985 -0.043338493 0.0023927619
0.019648841 -0.073966004 -0.1154157 -0.21691199 -0.97563559 -0.032930668 0.0020823863
0.022297589 -0.074260861 -0.11539584 -0.095199719 -0.99537969 -0.012502145 0.0026584496
0.025393769 -0.074292958 -0.11544107 -0.032254457 -0.99930453 0.018711654 0.0023430954
0.028605159 -0.074243635 -0.11552377 0.021613698 -0.99936336 0.028385457 0.00079104945
0.031227231 -0.074134447 -0.11527918 0.06113689 -0.99677634 0.051955048 0.0017682248
0.034245253 -0.073880076 -0.1154803 0.11386891 -0.99203467 0.053861763 0.0018649924
0.037468083 -0.073450051 -0.11558469 0.15675797 -0.98682052 0.040152706 0.0016596263
0.040540684 -0.072938234 -0.11549453 0.20588019 -0.97857511 -0.0020302655 0.00033407565
0.043290377 -0.072342515 -0.11553711 0.26266393 -0.96486557 -0.0064908494 0.00053595507
0.0081277126 -0.069419645 -0.11550853 -0.44218701 -0.89674032 0.018097794 0.00050450658
0.010573099 -0.070504241 -0.11542159 -0.41056919 -0.91181749 -0.0046817497 0.00038360315
0.013028286 -0.071666367 -0.11549889 -0.39137241 -0.91982454 -0.027396651 0.0025372102
0.044686198 -0.071996339 -0.1151863 0.28454703 -0.95862532 -0.0083975298 0.000623136
0.046090934 -0.071372412 -0.11536851 0.34821057 -0.93735772 0.010479043 0.00082497409
0.049578331 -0.070053667 -0.11551557 0.39271826 -0.91965872 -0.00053477433 0.00033080179
0.051448006 -0.069215372 -0.11534348 0.45220244 -0.89190692 0.0038799564 0.00058845885
0.0024827213 -0.066259779 -0.1153165 -0.55974406 -0.82849252 0.01693571 0.00086401921
0.0045254626 -0.067513138 -0.11545505 -0.50585818 -0.86261618 -0.00093981577 0.00060172885
0.0067658997 -0.068738833 -0.11550722 -0.45311126 -0.89131373 0.015811684 0.00057805178
0.052655097 -0.068462916 -0.11585172 0.46001744 -0.88700837 0.040002201 0.0011236238
0.055871647 -0.066687763 -0.11498185 0.53163153 -0.84695071 -0.0065100505 0.00062965893
-0.00091957941 -0.063762911 -0.11545021 -0.61498791 -0.78842479 0.013274726 0.00090031943
0.0011524834 -0.065272957 -0.11557829 -0.56554604 -0.82433295 0.025158441 0.00072723418
0.058498472 -0.064930581 -0.11539256 0.58824497 -0.80856568 -0.013761204 0.0002730721
0.060555112 -0.063347481 -0.11522023 0.62276161 -0.78238106 -0.0069161132 0.00037418862
-0.0041567977 -0.061145414 -0.11546238 -0.66224736 -0.74928534 0.00018697654 0.0008700476
-0.0024987592 -0.062596053 -0.11537248 -0.65563917 -0.75490916 0.015795087 0.00076439779
0.062258154 -0.061990995 -0.11571714 0.65379602 -0.75667059 0.0005612477 0.00032004711
0.063780025 -0.060624316 -0.11553768 0.6859585 -0.72762114 0.0053266622 0.00039720975
-0.007125943 -0.058214393 -0.11538971 -0.74257296 -0.66932231 0.024355948 0.0011910595
-0.0058134031 -0.059535656 -0.11558465 -0.71648735 -0.69742274 0.015733926 0.00075301324
0.065172441 -0.059275419 -0.11542376 0.6991713 -0.71478033 0.015766038 0.00060112192
0.066610157 -0.057775706 -0.1155624 0.72729617 -0.68601966 0.020426257 0.00082130753
-0.0097701186 -0.055020969 -0.11535592 -0.81058085 -0.58521158 0.022048788 0.00031905944
-0.0085908379 -0.056511153 -0.11557305 -0.75986779 -0.64920765 0.033621892 0.00072959973
0.068140589 -0.056002017 -0.11557 0.77512205 -0.63123828 0.026909869 0.00060737692
0.069413431 -0.05444634 -0.11544999 0.7862854 -0.61760801 0.017764367 0.00057041855
-0.012021483 -0.051917925 -0.11633009 -0.82500476 -0.56393427 0.036679048 0.0013184588
-0.011264846 -0.05295217 -0.11537858 -0.82608622 -0.56341463 0.012067751 0.00016119487
0.070780791 -0.052539568 -0.11549598 0.82536089 -0.56451839 0.0099193836 0.00054970017
0.072044946 -0.051076379 -0.11536157 0.82981324 -0.55803859 0.0016682998 0.00022610584
-0.013277457 -0.049839832 -0.11531092 -0.84799892 -0.52944738 0.024151688 0.00027203964
0.071929306 -0.050704803 -0.11508852 0.8474043 -0.53089082 0.007800268 0.00071273401
0.072932862 -0.049213003 -0.11543516 0.86048931 -0.50945723 0.0033968145 0.00038870712
-0.015285294 -0.046178609 -0.11547969 -0.89483285 -0.44465122 0.039490119 0.0007451165
-0.014591033 -0.047595166 -0.11531681 -0.88687336 -0.46024281 0.040400542 0.00077247043
0.074341737 -0.046603154 -0.1156562 0.89480764 -0.4464125 0.005925579 0.00049225747
0.075140677 -0.045362014 -0.11572242 0.90325528 -0.42909727 0.002342219 0.00055888499
-0.016347557 -0.043829888 -0.11552306 -0.91700017 -0.39703417 0.038400836 0.00036985375
0.075641185 -0.043596655 -0.11543392 0.92433816 -0.38108909 0.019238047 0.00084901432
-0.01745622 -0.041043583 -0.11547919 -0.93980938 -0.34146017 0.012781227 0.00044992749
0.076788284 -0.040592413 -0.1154815 0.94525701 -0.32603627 0.013762953 0.0011460445
-0.018252846 -0.038677916 -0.11550589 -0.95924491 -0.28244528 0.0085936673 0.00022880122
0.077605493 -0.038052086 -0.11554682 0.96265769 -0.27063167 0.0069780084 0.00069528475
0.078229733 -0.036734223 -0.11527916 0.96237659 -0.27162877 0.0070094247 0.00069034152
-0.019147869 -0.03532961 -0.11541326 -0.96002424 -0.27968732 0.011334942 0.00019228223
0.07853245 -0.034209717 -0.1153006 0.97625715 -0.21499786 0.026416544 0.0014685205
0.0789233 -0.031941704 -0.11572358 0.98388374 -0.16913642 0.058015019 0.0020463506
0.079412609 -0.028555574 -0.11552276 0.99453384 -0.093369521 0.046740126 0.0012393465
0.079585321 -0.02559045 -0.1152018 0.9989419 -0.037627261 0.026442831 0.0008964414
0.079591744 -0.022589071 -0.11503775 0.99879247 0.041767556 0.025867149 0.00075124181
0.079352923 -0.01951731 -0.1156503 0.9929077 0.10987907 0.045397103 0.00097787927
0.078958124 -0.016526949 -0.11544338 0.98479456 0.1718144 0.02567983 0.00039084768
0.077900186 -0.012239015 -0.11593837 0.97505838 0.21579541 0.051899944 0.00081645203
0.078393489 -0.013586922 -0.11550227 0.97506791 0.21914774 0.034882195 0.00035824903
0.077549987 -0.010244614 -0.1153723 0.96111768 0.27460483 0.029070292 0.0003365071
0.07807444 -0.011531373 -0.11542152 0.96217078 0.26907128 0.042755861 0.00035747638
0.076694734 -0.0074274899 -0.11556625 0.94668424 0.32145259 0.021384599 0.00035636922
0.074755765 -0.0030755966 -0.11614603 0.918217 0.39377865 0.042614143 0.0010623337
0.075612366 -0.0045727571 -0.11544143 0.92480952 0.37873897 0.035836026 0.00090419105
0.074102134 -0.0013625033 -0.11533368 0.88533086 0.46417499 0.02703418 0.00064296467
0.071728148 0.0024446056 -0.11581039 0.84611207 0.53284574 0.013033956 0.0003552305
0.072655201 0.0012305935 -0.11531766 0.84965873 0.52715755 0.013602577 0.00031866174
0.070661113 0.0042846026 -0.11561394 0.82246035 0.56874961 0.0091038784 0.00027222268
0.067880541 0.0078987209 -0.11518256 0.76255643 0.64673686 0.015464814 0.00069976156
0.069113627 0.0064062197 -0.11578555 0.788405 0.61493224 0.016609844 0.00066763017
0.065371051 0.010620064 -0.11609215 0.70239568 0.7109552 0.034395102 0.0013369052
0.066483468 0.0095222238 -0.11606374 0.73593348 0.6759516 0.038618393 0.001809194
0.061714217 0.01405296 -0.11528116 0.65733993 0.75318027 0.024974495 0.00040497014
0.063799508 0.012257198 -0.11556677 0.69030422 0.7234329 0.011174913 0.00023125617
0.058453918 0.016597178 -0.11547761 0.57374448 0.81811208 0.038859017 0.0015211996
0.060609277 0.015084703 -0.11534146 0.6191299 0.78509414 0.01747367 0.0011483851
0.055476934 0.018449018 -0.11532021 0.52804112 0.84826356 0.040267691 0.0010027187
0.049680807 0.021422403 -0.11544773 0.42539287 0.90478635 0.020063818 0.00032422534
0.014369701 -0.072229244 -0.11252884 -0.38065118 -0.9247061 0.0048334375 0.00019613557
0.016524773 -0.073040083 -0.11250537 -0.31475246 -0.94915229 0.0064001549 0.00035754271
0.020270217 -0.073922008 -0.11223041 -0.16248752 -0.98641026 0.02434467 0.0010201236
0.022332776 -0.07419657 -0.11256755 -0.066608205 -0.99772578 0.010329562 0.00068146019
0.025460955 -0.07434015 -0.11269682 -0.018243412 -0.99981391 0.0062733032 0.00022657239
0.028516643 -0.074308664 -0.11255856 0.01579392 -0.99986857 0.0036690722 0.00023521681
0.03136364 -0.074174628 -0.1123786 0.057278197 -0.99827462 -0.01292395 0.00014356247
0.034381881 -0.073929898 -0.11249048 0.099716924 -0.99497384 -0.0091473404 0.00028506224
0.037532352 -0.073510155 -0.11266491 0.15706314 -0.98754233 -0.0095593752 0.00034546113
0.0405434 -0.072986394 -0.11233594 0.20051026 -0.97961879 -0.011944564 0.00011270105
0.04329966 -0.072337106 -0.11262332 0.26285452 -0.96483546 -9.7125951e-05 0.0003078804
0.0082200225 -0.069450095 -0.11256922 -0.43716267 -0.89938182 -0.0010926046 0.00015909183
0.010614393 -0.070552312 -0.11241112 -0.41412583 -0.91021955 -0.00047774593 1.1758173e-05
0.013031556 -0.071658559 -0.11256453 -0.39636719 -0.91809177 -0.00074382569 0.00020502633
0.044651985 -0.071981646 -0.11237366 0.28742003 -0.95780313 -0.0017149326 0.0005243005
0.046506085 -0.071304925 -0.11249967 0.34985343 -0.9367981 -0.00346021 0.00016840996
0.049560472 -0.070084766 -0.11247601 0.3949638 -0.91869438 -0.0020752896 0.00023231414
0.05141411 -0.069260046 -0.11247835 0.45144653 -0.89226073 -0.0081794402 0.00037647929
0.0024625021 -0.066293366 -0.11254439 -0.55414408 -0.83239013 -0.007138948 0.00028342672
0.0045102616 -0.067516305 -0.11252783 -0.50794184 -0.86138844 -0.0022650587 0.00028550794
0.0066399169 -0.06868656 -0.11235739 -0.45308709 -0.89146507 0.0014698226 0.00019286214
0.052897215 -0.068501189 -0.11255394 0.47029668 -0.88247317 -0.0078795766 0.00018686231
0.055407867 -0.066992074 -0.11221948 0.51438063 -0.85749453 -0.010757845 0.00023621171
0.057000432 -0.066132046 -0.11140665 0.55683845 -0.83059192 -0.0069260462 0.0001672465
-0.00094361888 -0.063839912 -0.11249759 -0.5959844 -0.80294019 -0.009472114 5.3000356e-05
0.0010391948 -0.065292962 -0.11244874 -0.57257533 -0.81978422 -0.010550603 0.0002780463
0.058564413 -0.0649269 -0.11233632 0.58222008 -0.8129797 -0.0091513796 0.00025671758
0.060552061 -0.063422829 -0.11201224 0.6243906 -0.78105295 -0.0096252337 0.00013886155
-0.0043870313 -0.060978498 -0.11252411 -0.68683636 -0.72680318 -0.0036001797 0.00016964022
-0.0026252083 -0.062548943 -0.11240548 -0.64847428 -0.76121652 -0.0055285729 0.00032097666
0.062174946 -0.062111389 -0.11267874 0.6544466 -0.75606078 -0.0084693963 0.00024364817
0.063816302 -0.060647678 -0.11230734 0.68078464 -0.73244852 -0.0071681119 0.00016484311
-0.0070279534 -0.058284692 -0.11238832 -0.73592144 -0.67705268 0.004389015 0.0001523852
-0.0058023855 -0.059597325 -0.11225642 -0.72129476 -0.6926282 0.00019612507 0.00018747186
0.065320358 -0.059208095 -0.11225081 0.72179109 -0.6920647 -0.0079978406 0.0002823449
0.066658497 -0.057774466 -0.11240769 0.73600894 -0.67689764 -0.010020243 0.00024133164
-0.009738314 -0.05504141 -0.11251058 -0.78982103 -0.61331904 0.0047398629 0.00024904415
-0.0085242493 -0.056548212 -0.11255215 -0.76122254 -0.64845365 0.0069364985 0.00013351357
0.068006985 -0.056217 -0.1127862 0.75786448 -0.65233392 -0.010097306 8.5425883e-05
0.069387116 -0.05450945 -0.11231557 0.7933563 -0.60872269 -0.0065128887 0.0001994418
-0.012505236 -0.051071819 -0.11211329 -0.84866351 -0.52891785 0.0040358114 0.00019529488
-0.011209687 -0.052987594 -0.11241995 -0.82433015 -0.56605792 0.007637585 0.00023205388
0.070861228 -0.052458692 -0.11247 0.8237465 -0.56695795 0.00057442283 0.0002251703
0.072051115 -0.051078562 -0.11239039 0.83291209 -0.55340141 -0.002071192 0.00030754475
-0.013387204 -0.049597323 -0.11251891 -0.86086506 -0.50882208 0.0033824746 0.00040189255
0.072861329 -0.049336884 -0.11245397 0.86475229 -0.5021987 -0.00027540448 0.00031182196
-0.015170681 -0.046296038 -0.11257397 -0.89580506 -0.44434091 0.0097184889 0.00024698486
-0.014481013 -0.047686301 -0.11243271 -0.88708371 -0.46153754 0.0080966009 0.00024494037
0.074269027 -0.046757642 -0.11238003 0.89643282 -0.44317603 -0.0017922209 0.00023755629
0.075169928 -0.0453729 -0.11250686 0.90311134 -0.42937693 -0.0050385338 0.0005527329
-0.016172504 -0.044147596 -0.11239162 -0.91613775 -0.40080893 0.0066170003 0.0001796695
0.074954942 -0.044941235 -0.11273578 0.91410071 -0.40539697 -0.0085598817 0.00054250669
0.075648777 -0.043643657 -0.11256527 0.92546034 -0.37880817 -0.0052510495 6.5831126e-05
-0.01808317 -0.039202165 -0.11234546 -0.95640117 -0.29199669 -0.005899813 0.00017879144
-0.017311389 -0.041375916 -0.11243395 -0.93943375 -0.34272569 0.0018212741 0.00034889427
0.076774426 -0.040774893 -0.11247902 0.94171792 -0.33633408 -0.0068291011 0.00015419097
-0.018733805 -0.036947194 -0.11244773 -0.95640099 -0.29199737 -0.0058963182 0.00016930142
0.07758864 -0.03820755 -0.11250342 0.96306086 -0.26924312 -0.0046677794 0.0001542238
0.078234337 -0.036758211 -0.11229125 0.96823108 -0.25005075 -0.0018006964 0.00040894627
-0.019026374 -0.035835944 -0.11353093 -0.9578768 -0.28717822 0.00084352266 0.00014746297
0.07846678 -0.03459553 -0.11246166 0.97756463 -0.21057071 -0.0052395863 9.6204312e-05
0.079078577 -0.031357978 -0.11229996 0.98812312 -0.15363657 -0.0029316135 0.00015957236
0.079417765 -0.028548457 -0.11271553 0.99571383 -0.092474937 -0.0015126497 0.00044971745
0.079624541 -0.025596416 -0.11230075 0.99909443 -0.042003639 -0.0067776479 0.00027385808
0.079629973 -0.022601742 -0.11212073 0.99953139 0.029088695 -0.009535593 0.00043899211
0.079385549 -0.019536521 -0.11273496 0.99276984 0.11983212 0.0069538071 0.00038627657
0.078914478 -0.016412739 -0.11235242 0.98399389 0.17811559 0.0055594691 0.00027175597
0.077891849 -0.012520261 -0.1124628 0.97353274 0.2278377 0.017999463 4.9658462e-05
0.078395411 -0.01390695 -0.11236196 0.97590053 0.21774863 0.014275248 4.9982264e-05
0.077550083 -0.010447906 -0.11242789 0.96487397 0.26229581 0.014804162 5.3109594e-05
0.078117855 -0.011968684 -0.11261239 0.97326314 0.22890303 0.019033024 0.00026232179
0.07669279 -0.0074699149 -0.11256939 0.94869667 0.3160845 0.0080784634 0.00040201022
0.074825913 -0.0031926397 -0.11327229 0.91708511 0.39869052 -0.00091328641 0.00031251248
0.075601652 -0.0045539979 -0.11242057 0.92352068 0.38344619 0.0088686636 0.00029973319
0.074149117 -0.0014429602 -0.11242276 0.88946325 0.45698896 0.004016804 0.0002213468
0.071634166 0.0025767714 -0.11241376 0.83109313 0.55613273 0.00083913084 8.8204899e-05
0.072672583 0.0011884773 -0.11238311 0.85513961 0.51838464 -0.0036898302 0.00023129981
0.070546255 0.0044301525 -0.11280771 0.81767821 0.57567549 0.00032390383 0.00030128396
0.068131641 0.007636033 -0.1121349 0.76467448 0.6444155 -0.0012759508 0.00030373671
0.069183856 0.0063148723 -0.11285738 0.79276812 0.60952336 3.5601961e-06 0.00029052873
0.065157324 0.010913661 -0.11270757 0.70635712 0.70774353 -0.012597214 0.00038802598
0.066493146 0.009548327 -0.11286216 0.73403865 0.67907077 -0.0070853387 0.00033918855
0.062231749 0.01362231 -0.1126795 0.64925265 0.76053298 -0.0077802776 0.00030755665
0.06378895 0.012200776 -0.11305165 0.68491203 0.728544 -0.010919156 0.00011142864
0.056477793 0.017825803 -0.11173646 0.54424119 0.8389281 0.0011230813 0.00039077012
0.0581536 0.016771762 -0.11273915 0.58595586 0.81031334 -0.0069291661 0.00029835218
0.060548693 0.015115805 -0.11239539 0.61951238 0.78498578 0.0013220701 0.00030897796
0.052450765 0.020159949 -0.11250712 0.45090288 0.89254797 0.0066934293 0.00053334894
0.054106861 0.019259332 -0.11339803 0.5043487 0.86345011 0.0092926659 0.0012656844
0.044276182 0.023773899 -0.11200032 0.37683338 0.92623347 0.0093930559 0.00014892871
0.04725977 0.02250644 -0.11276659 0.39529854 0.91851074 0.0087819183 0.00010210378
0.040661696 0.025059501 -0.1111711 0.36180258 0.93208122 0.017985977 0.00012977909
0.042481117 0.024412656 -0.11154947 0.36180151 0.93208122 0.018010754 0.00013494799
0.01440871 -0.072227761 -0.10952218 -0.37644768 -0.92640418 0.0079089329 0.00023439374
0.016532343 -0.073003374 -0.10946887 -0.3087517 -0.95107073 0.011698739 0.00047278649
0.019729052 -0.073755518 -0.10959618 -0.16087659 -0.98643464 0.032641251 0.00093149289
0.023071684 -0.074154019 -0.10944037 -0.072482049 -0.99702084 0.026376737 0.00026472277
0.025766935 -0.074254066 -0.10952742 -0.022208473 -0.99960327 0.017324703 0.00014472181
0.028518129 -0.074301302 -0.10961285 0.0080607468 -0.99993879 0.0075814789 9.3052025e-05
0.031287059 -0.074209571 -0.10940745 0.050216805 -0.99873447 -0.0027719426 0.00017980627
0.034398533 -0.073969781 -0.10945027 0.10362598 -0.99457163 -0.0094323661 0.00032991444
0.037374862 -0.073579654 -0.10961169 0.16063043 -0.98697877 -0.0084157474 0.00017899025
0.040410779 -0.073038749 -0.1094595 0.19959788 -0.97986913 -0.0041478956 0.00028101832
0.043353092 -0.072340056 -0.10955933 0.26683313 -0.96373999 0.0023276827 0.00028337346
0.008235652 -0.069459192 -0.1096283 -0.44090927 -0.89754987 0.0018144858 0.00015334842
0.010538495 -0.07052929 -0.10951687 -0.41207191 -0.91114932 0.0019134101 0
0.012898169 -0.071584426 -0.10939677 -0.39163062 -0.92011005 0.0047922791 0.0001727827
0.044614427 -0.071993753 -0.10935862 0.28977704 -0.95709395 0.00065653271 0.00035756599
0.046513602 -0.071303792 -0.10950737 0.34593195 -0.93825829 0.0015601176 0.00027242512
0.049581688 -0.070009775 -0.10995755 0.4074181 -0.9132275 -0.0051106331 0.00032317342
0.051382344 -0.06929265 -0.10962769 0.45016274 -0.89294642 -0.00046039178 0.00037661742
0.0025001222 -0.06631323 -0.10962994 -0.55232841 -0.83362186 0.0028310402 0.00031674284
0.0043820399 -0.067433514 -0.10951499 -0.50669307 -0.86211443 0.0045660194 0.00025276825
0.0066121067 -0.068654433 -0.10949066 -0.45469734 -0.89064026 0.0032113546 9.2351751e-05
0.052836373 -0.068459786 -0.10941601 0.47263515 -0.88125795 -0.00061672216 0.00034747398
0.055629805 -0.066845328 -0.10900229 0.52505833 -0.85106587 0.00082267565 0.00020831014
0.057029366 -0.066077933 -0.10956472 0.55177265 -0.83399439 0.0005499227 0.00043588935
-0.00094598305 -0.063827544 -0.10960204 -0.59838927 -0.8011933 0.004426863 1.7066617e-05
0.0010114125 -0.065272391 -0.10935456 -0.57125956 -0.82076335 0.0031901777 0.00028187849
0.058645964 -0.064877041 -0.10946877 0.58165431 -0.81343406 -0.001816188 0.00030722507
0.0606407 -0.063469708 -0.1094345 0.61502939 -0.78850293 -0.0014080282 0.00019204553
-0.0042687999 -0.061060268 -0.10958268 -0.68958992 -0.72411615 0.011024611 0.00029471054
-0.0025761591 -0.062560484 -0.10947787 -0.65224946 -0.75796419 0.007810906 0.0002887499
0.062128555 -0.062159348 -0.10960257 0.64807373 -0.76157755 0.00037016271 0.00018932186
0.063901491 -0.060569674 -0.10925674 0.6855672 -0.72800934 -0.00015978191 0.00016661902
-0.0072096973 -0.058046304 -0.1095088 -0.75148958 -0.65967643 0.0095116198 9.0243935e-05
-0.0057160715 -0.059661757 -0.10945552 -0.70233536 -0.71176881 0.010498716 0.0001720351
0.065326087 -0.059222002 -0.10910109 0.71863234 -0.69538736 -0.0020095825 0.00017000009
0.066611923 -0.057851404 -0.10918051 0.74154222 -0.6709013 -0.0025187791 0.00025175992
-0.0096801901 -0.055083919 -0.10942249 -0.78984535 -0.6132766 0.0060172589 0.00020313583
-0.0086878492 -0.056332417 -0.10948248 -0.7779392 -0.62828881 0.0079878205 0.00020532506
0.068107583 -0.056139689 -0.10975815 0.76899868 -0.63924819 -0.0016582666 0.00028570319
0.069286264 -0.054637711 -0.10920546 0.79125017 -0.61147976 -0.0039594844 0.00022713252
-0.012402778 -0.051238917 -0.10952926 -0.84968889 -0.527282 0.0015667349 0.00020155919
-0.011251488 -0.052942533 -0.10961968 -0.82215786 -0.56925279 0.0027920615 0.00011285838
0.070777275 -0.052603249 -0.10950718 0.8214823 -0.57023102 -0.001861091 0.00034662479
0.072051883 -0.05107883 -0.1094201 0.83327442 -0.55285591 -0.0020413429 0.00021299314
-0.013365681 -0.049680728 -0.10945424 -0.86012274 -0.51003778 0.0070967656 0.00019551156
0.071758956 -0.050882269 -0.10942428 0.83124197 -0.55587006 -0.006727329 0.0001938065
0.072818972 -0.049402606 -0.10940557 0.86415374 -0.50321561 -0.0035164645 0.00026447626
-0.015337058 -0.045927171 -0.10958886 -0.89747816 -0.44099784 0.0073410859 0.00013722685
-0.01446543 -0.047664583 -0.10931168 -0.87867069 -0.4773815 0.0066878493 0.000143774
0.074313544 -0.046669524 -0.10922163 0.89302641 -0.45000377 0.00067802507 0.00038745883
0.0751068 -0.04519701 -0.10986997 0.90768653 -0.41962072 -0.0048518768 0.00062824506
-0.016315786 -0.043823663 -0.10952163 -0.91584158 -0.40153068 0.0027145604 0.00017264798
0.075743139 -0.043446105 -0.10945794 0.92712998 -0.37473884 -0.00082700804 0.00012907574
-0.018005779 -0.039453857 -0.11093706 -0.95392466 -0.30004004 -0.0019419203 0.00013577627
-0.017531747 -0.040793892 -0.10926424 -0.93894035 -0.34406134 0.0035916185 0.0002382486
0.0768492 -0.040552523 -0.10942176 0.94589967 -0.32445788 0.0009373147 0.00033025825
-0.018750878 -0.037028387 -0.10937846 -0.95977926 -0.28069821 0.0056776688 0.00034785451
0.07753367 -0.038372815 -0.109818 0.96220446 -0.27231658 0.0025129046 0.00035190323
0.078138977 -0.036393724 -0.10882184 0.96619952 -0.2577953 -0.00031309674 0.00025660411
0.07840836 -0.03481001 -0.10962659 0.97711915 -0.21268602 -0.0016956389 0.00018698261
0.079070799 -0.031438652 -0.10932367 0.98780429 -0.15568502 -0.0022112962 0.00015635631
0.079408638 -0.02863593 -0.10973034 0.99638063 -0.084993213 0.0013562713 0.00028478733
0.079627141 -0.025594998 -0.10949805 0.9989965 -0.044569854 -0.0044208053 0.00036546501
0.079628438 -0.022607382 -0.10932652 0.99951941 0.030621359 -0.0048338976 0.00059394096
0.07936953 -0.019423306 -0.10961078 0.99202204 0.12606168 0.00083109544 0.00035383258
0.078879133 -0.016328968 -0.10944654 0.98207676 0.18827033 0.0089128828 0.00020412404
0.07788299 -0.012688538 -0.10946404 0.97320092 0.22980429 0.0083655082 5.9198988e-05
0.078333661 -0.01384663 -0.10935929 0.9746083 0.22379537 0.0073706764 0.00012562863
0.077495687 -0.010426477 -0.10958583 0.96590465 0.25873247 0.0092628701 8.5378706e-05
0.078057922 -0.011940822 -0.10959003 0.9731518 0.22995351 0.0098509481 1.5983464e-05
0.076677822 -0.0075086886 -0.10962698 0.95062494 0.3102589 0.0071859318 0.00039579745
0.074901722 -0.0033095691 -0.11040355 0.91931868 0.39349437 0.0039261882 0.00037749094
0.075608596 -0.0045869844 -0.1094266 0.92518848 0.37949833 0.0027186745 0.00032420977
0.074168116 -0.0014801873 -0.10952227 0.89045489 0.45504525 0.0048889411 0.00016644047
0.07173489 0.0024262613 -0.10951862 0.84775364 0.53038901 -0.0011072473 0.0003205855
0.072734624 0.0011313347 -0.10936689 0.85551697 0.51777303 -0.0013630983 0.00026203529
0.070548177 0.0044227825 -0.10954335 0.816046 0.57798702 -0.00011838198 0.00018163581
0.067929998 0.0078884717 -0.10944806 0.76391172 0.64531827 -0.001775275 0.00024375682
0.06912645 0.0066155479 -0.10957262 0.7899403 0.61318272 -0.0011070794 0.00028972494
0.065178059 0.010930231 -0.10953796 0.70739269 0.70680493 -0.0047268001 0.00010681807
0.066467673 0.0095920209 -0.10968678 0.73254681 0.68071491 -0.0015410589 0.00023306705
0.062218644 0.013653316 -0.10948169 0.65178102 0.7583937 -0.0045380159 0.00027380043
0.063724563 0.012342378 -0.1096092 0.67645955 0.73646361 -0.004882589 0.00015832606
0.058158837 0.016770897 -0.1098624 0.60007638 0.79994255 0.00046384224 0.00016649769
0.060440049 0.015091257 -0.1093934 0.61570746 0.78796029 -0.0047869417 0.00024867902
0.055342123 0.018559359 -0.10904251 0.52930981 0.84838194 -0.0089040929 0.00023286993
0.046508744 0.02280285 -0.10886917 0.36178827 0.93212038 0.016150903 0.00014603294
0.04959026 0.021505864 -0.10922012 0.41870052 0.90811008 0.0050950674 0.00026735643
0.014447317 -0.072221205 -0.10653353 -0.37317494 -0.92771512 0.0092287892 0.00015929269
0.016565321 -0.072986037 -0.10649068 -0.30211905 -0.95315593 0.014763313 0.00052852806
0.018950425 -0.073514976 -0.10699927 -0.15647194 -0.98733956 0.026021764 0.000953065
0.022823064 -0.074041262 -0.10646684 -0.086237237 -0.99593723 0.025928846 0.00042815867
0.025724668 -0.074194551 -0.10645247 -0.026934018 -0.99930298 0.025848433 0.00021869678
0.028436277 -0.074264325 -0.1065207 0.00051422836 -0.99988383 0.01523517 0.00017678295
0.031380929 -0.074201182 -0.10642508 0.040888112 -0.99914533 0.0060671633 0.00021370227
0.034395039 -0.073995113 -0.10642598 0.10113791 -0.99487209 0.00081263878 0.00044057565
0.037344828 -0.073590711 -0.10660244 0.15360233 -0.98813236 0.00082127028 0.00037086074
0.040407605 -0.073039249 -0.10646252 0.20891993 -0.97792721 0.0032875249 0.00012920672
0.0433309 -0.072331659 -0.10647272 0.26796681 -0.96342665 0.0016929018 0.00020927793
0.0082912268 -0.069481529 -0.10660843 -0.44170433 -0.89715719 0.0025150459 0.00015487688
0.010442846 -0.070469216 -0.10652274 -0.41699925 -0.90889812 0.0039797691 9.7140532e-05
0.012850751 -0.071544304 -0.10647456 -0.38867009 -0.92135346 0.006592101 0.00013731906
0.044577803 -0.071986571 -0.10636993 0.28860965 -0.95743698 0.0043551996 0.00030547226
0.046499234 -0.071300983 -0.1065013 0.34471557 -0.93869478 0.0048314864 0.00018616911
0.049507003 -0.070039719 -0.10628688 0.41067788 -0.91177791 0.0021509854 0.0001793087
0.051458035 -0.069249064 -0.10678324 0.45255429 -0.89173222 0.0028750917 0.00036980773
0.0025708186 -0.066342674 -0.10659005 -0.55262643 -0.83341628 0.0046191858 0.00030280455
0.0044913329 -0.067475967 -0.10654917 -0.50706339 -0.86189544 0.0047863969 0.00026073557
0.006671322 -0.068668716 -0.10647201 -0.45602015 -0.88996708 0.0020486962 0.00015074358
0.052839369 -0.068533003 -0.10645954 0.47273421 -0.88119584 0.00402945 0.00031130013
0.055262487 -0.067059077 -0.1063571 0.51143217 -0.85931516 0.0038228328 0.00024685668
0.057006788 -0.066090807 -0.10738471 0.56102502 -0.82778436 0.0048999339 0.00017060943
-0.0010502957 -0.063729391 -0.10645349 -0.62023604 -0.78439718 0.0053260699 0.00021852921
0.00090864004 -0.065195382 -0.10648431 -0.56970268 -0.82184094 0.0040480327 0.00026668524
0.058517087 -0.064951986 -0.10655508 0.58184224 -0.81330013 0.0015684498 0.00037126304
0.060562443 -0.063436426 -0.1064368 0.6249693 -0.78064692 0.0019143928 0.00025112793
-0.0041817529 -0.061080236 -0.1065217 -0.66667151 -0.74529308 0.0093462216 0.00016173418
-0.0024666577 -0.062597476 -0.10658413 -0.6324926 -0.77453321 0.0071713175 0.0001877647
0.062089682 -0.062181428 -0.1066237 0.65525401 -0.75540751 0.0012989726 0.00026654775
0.063720554 -0.060729504 -0.10626677 0.6729272 -0.7397033 0.0028245614 0.00011909314
-0.0070973719 -0.058132321 -0.10648473 -0.7345342 -0.67851853 0.0084941182 0.0002403368
-0.0056330548 -0.059694838 -0.10668583 -0.70094639 -0.71316522 0.0083363829 0.00027623368
0.06524393 -0.059295464 -0.10608995 0.70560199 -0.70860809 -0.00065258757 0.00015110144
0.066680558 -0.057782065 -0.10614872 0.737598 -0.67523628 -0.0022571944 0.00022307067
-0.0098021757 -0.054874908 -0.10649506 -0.78759474 -0.61615169 0.0071931044 0.00015924331
-0.0085960748 -0.056385517 -0.10668651 -0.75928789 -0.65069592 0.0087592071 0.00014927046
0.068139039 -0.056100354 -0.10673979 0.76213175 -0.6474219 -0.0004501378 0.00032094697
0.069421232 -0.054473836 -0.10627016 0.7894721 -0.61377394 -0.0039144279 0.00023903632
-0.012281923 -0.051385753 -0.10634931 -0.83364302 -0.55225849 0.0070677227 0.0002396583
-0.011342945 -0.052794915 -0.1065065 -0.82361758 -0.56711894 0.0054954123 0.00024244923
0.070868008 -0.052503705 -0.10648135 0.82328564 -0.56761825 -0.0032009627 0.00035463832
0.072056554 -0.051080484 -0.10644928 0.83373672 -0.55216217 0.00036961786 0.00041055103
-0.013519058 -0.049348891 -0.10649727 -0.86225516 -0.5063768 0.0099275978 0.0002065765
0.071902893 -0.050663121 -0.10515928 0.83623636 -0.54836529 0.0020711443 0.0001793214
0.07288947 -0.049285803 -0.10654353 0.86391109 -0.50364196 0.0015469947 0.0002153432
-0.015594279 -0.045377579 -0.10649009 -0.89863205 -0.4386681 0.0055379085 0.00016975011
-0.014800337 -0.046980191 -0.10656332 -0.89256698 -0.45087883 0.0056970371 0.00019152966
0.074436896 -0.046445027 -0.10629799 0.89375865 -0.44854712 -0.0009595303 0.00038443608
0.075203009 -0.045385208 -0.1063278 0.90087026 -0.43408611 -0.0014470441 0.00065483456
-0.016588587 -0.043129347 -0.10608207 -0.91828793 -0.3958953 0.0037714164 0.00014180125
0.075734094 -0.043489769 -0.10636926 0.92640561 -0.37652689 0.00022273732 0.00017664426
-0.017535267 -0.04075776 -0.10676017 -0.94033694 -0.34023517 0.002534654 0.0001832355
0.076847397 -0.040562846 -0.10651463 0.94725633 -0.32047269 0.0016445703 0.00023509127
-0.018586043 -0.037604924 -0.10653561 -0.95663005 -0.29106981 0.011718785 0.0006518864
0.077775858 -0.037489671 -0.10627653 0.96799433 -0.25094986 0.003341432 0.00039022914
0.078111172 -0.03648575 -0.10697252 0.96632075 -0.25733742 -0.0012622834 0.00020651869
-0.01955712 -0.033514533 -0.10645646 -0.96361965 -0.26726997 0.0020083569 0.00016733605
0.078537777 -0.034305796 -0.10653166 0.98091447 -0.19443925 0.00039968055 0.00028305437
0.079074308 -0.031420972 -0.10653082 0.98741519 -0.15814729 0.00082576415 0.00013858842
0.079434335 -0.028576186 -0.10665068 0.99355388 -0.11335235 -0.001433217 0.00049246417
0.079637945 -0.025575595 -0.10665435 0.99901736 -0.044321962 9.5138879e-05 0.00030961435
0.079650916 -0.022615833 -0.10646874 0.99946791 0.032538828 0.002276897 0.00060810486
0.07937219 -0.01956385 -0.10649107 0.99178392 0.1279245 0.00027010398 0.00032402889
0.078897774 -0.016449261 -0.10653501 0.98294544 0.1838582 0.0038008234 0.00026484038
0.077920735 -0.012858848 -0.10630365 0.97334379 0.22934741 -0.0013073306 0.00013723712
0.078331545 -0.013870033 -0.10654712 0.97471708 0.22344212 -0.00060825719 8.5276464e-05
0.07751096 -0.010529071 -0.10655823 0.96656191 0.25643128 -0.0010661879 0.00010889825
0.07805369 -0.011938855 -0.10655863 0.97294664 0.23102497 -0.0015276448 0
0.076651402 -0.0075087007 -0.10654479 0.95056689 0.31048065 0.0049386271 0.00032199654
0.07494317 -0.0034696467 -0.10645242 0.92030752 0.39112955 0.0071932329 0.00038452377
0.075612858 -0.0046715457 -0.10645899 0.92588359 0.37777719 0.0048945555 0.00029386638
0.074141249 -0.0014853268 -0.10651232 0.89282203 0.45038146 0.0050313151 0.00022379729
0.071651638 0.0025551741 -0.1061611 0.83145297 0.55559456 0.00075392687 6.5890155e-05
0.072726518 0.001103264 -0.10646888 0.85722029 0.51494235 0.002796351 0.0002813474
0.07062152 0.0043197367 -0.10636159 0.81979996 0.57264978 0.00052155554 0.00021919757
0.067931004 0.0078991 -0.10648315 0.76328367 0.64606315 0.00069534907 0.00031171145
0.069116324 0.0064187096 -0.10649125 0.79365462 0.60836643 -0.0016280563 0.00031808397
0.065100677 0.01099008 -0.10650516 0.71025199 0.70394701 -0.00080715428 0.00011976552
0.066414267 0.0096418224 -0.10652606 0.73372209 0.67944968 -0.0002685402 0.00015861588
0.062112458 0.013753895 -0.10644652 0.6525771 0.75772154 -0.0010806384 0.00029463228
0.06385909 0.012219571 -0.10650711 0.68418276 0.72931063 0.00023244784 0.00020446179
0.056369159 0.017930886 -0.10541767 0.54553026 0.83807331 -0.005474973 0.00038003532
0.058227684 0.016752701 -0.10671946 0.60004276 0.7999351 -0.0072532115 0.00014288387
0.060731102 0.015022168 -0.10672703 0.62106037 0.78372443 -0.0077498839 0.00030262742
0.052733164 0.020006217 -0.10713888 0.46290085 0.88641 -0.00048376305 0.00028274601
0.043777402 0.023797428 -0.10528991 0.36174992 0.93213415 0.016216062 0.00015651665
0.045600034 0.023150334 -0.105572 0.36175606 0.9321326 0.016168188 0.00015730422
0.048858926 0.02179704 -0.10528135 0.40903461 0.91251546 0.0025123099 0.00038965335
0.040642709 0.024900092 -0.10610735 0.36173943 0.93213773 0.016245751 0.00016755122
0.014511187 -0.07221441 -0.103425 -0.36745065 -0.92995238 0.012985177 0.00015956123
0.016640376 -0.072962269 -0.10348938 -0.29268634 -0.95600057 0.019941481 0.00062593503
0.019482996 -0.073659323 -0.1036282 -0.20501554 -0.97838604 0.027007824 0.0011724097
0.022514073 -0.073909968 -0.10342534 -0.10155118 -0.99463707 0.019607771 0.00066024007
0.025516268 -0.074103907 -0.10348058 -0.042555608 -0.99888682 0.02035288 0.00011624327
0.028277969 -0.074193478 -0.10331897 -0.0090169189 -0.999852 0.014655155 0.00031549146
0.031296954 -0.074177384 -0.10342492 0.032864474 -0.99942911 0.0078374129 0.000219978
0.034429699 -0.073972017 -0.10350277 0.098764904 -0.99508494 0.0071728635 0.00049734092
0.037348714 -0.073583305 -0.10351647 0.16304639 -0.98660779 0.0045830025 0.0001987649
0.040434472 -0.07301835 -0.10347773 0.21200192 -0.97724056 0.0074878512 0.00018207455
0.043260448 -0.072329871 -0.10343863 0.26747772 -0.96355569 0.0040065334 0.00021719294
0.0083468957 -0.069510244 -0.10360036 -0.44141784 -0.89729345 0.0038462989 0.00023291002
