# .PCD v0.7 - Point Cloud Data file format
VERSION 0.7
FIELDS x y z normal_x normal_y normal_z curvature
SIZE 4 4 4 4 4 4 4
TYPE F F F F F F F
COUNT 1 1 1 1 1 1 1
WIDTH 555
HEIGHT 1
VIEWPOINT 0 0 0 1 0 0 0
POINTS 555
DATA ascii
0.02535308 -0.078386135 0.00075487612 0.088957556 -0.85789621 0.50606394 0.004157709
0.02798228 -0.07820496 0.00048131068 0.15702702 -0.79128861 0.59093565 0.0028991455
0.01153357 -0.07759212 0.0027517858 -0.023379928 -0.95285785 0.30251497 0.00077332056
0.013111634 -0.077917524 0.0017682868 -0.021675514 -0.9518401 0.30582783 0.00089153677
0.015670266 -0.077940039 0.0025634202 -0.04040822 -0.96009547 0.27673796 0.00042457719
0.019219972 -0.077925399 0.0026173699 0.03615512 -0.92505693 0.37810376 0.0041902899
0.022609001 -0.07772249 0.0025034479 0.10725523 -0.87723494 0.46792653 0.0034943223
0.025492471 -0.077385277 0.0022810451 0.1642715 -0.81495106 0.55576038 0.0026480816
0.028665641 -0.0769585 0.0018138166 0.20910002 -0.72536969 0.65583235 0.0035550364
0.031406779 -0.076306134 0.00146466 0.27370968 -0.65006655 0.70886981 0.0033043646
0.034064509 -0.075796828 0.00071646745 0.38417807 -0.60256815 0.69951326 0.004935191
-0.00045470678 -0.074156836 0.0015555432 -0.5063616 -0.75699943 -0.41297674 0.0010644891
0.0011758707 -0.074412443 0.00031829995 -0.51744896 -0.70439076 -0.48588088 0.0013915601
0.032169838 -0.074400298 0.0025869813 0.37550363 -0.49441019 0.78393602 0.0063862023
0.034523249 -0.073549598 0.0018270382 0.45816094 -0.40732965 0.79004508 0.0036186045
0.037097186 -0.073089868 0.00052382867 0.52257013 -0.36336139 0.77129048 0.0024862501
-0.0096788602 -0.069465004 0.0024079075 -0.37212214 -0.65743858 -0.6552096 0.00056965387
-0.007540178 -0.069638401 0.0012565568 -0.42874247 -0.63359797 -0.64399809 0.00041673012
-0.0053827646 -0.070423841 0.00053718331 -0.46763134 -0.61470348 -0.63518548 0.00039927641
0.035201252 -0.070597365 0.0024652318 0.50820678 -0.22156845 0.83224595 0.00041848264
0.037563782 -0.070515335 0.00099056063 0.54265046 -0.23285504 0.80703717 0.00067706249
0.039203953 -0.069830589 1.0821433e-05 0.59207731 -0.23154509 0.77190119 0.00050642824
-0.01592776 -0.066493407 0.0024000858 -0.25869519 -0.71734363 -0.64691192 0.00031825106
-0.013375663 -0.067139335 0.0019692923 -0.31042022 -0.67912632 -0.66515166 0.00044804713
-0.010777457 -0.067816712 0.0013427133 -0.35878289 -0.65774792 -0.66230094 0.00037531802
-0.007998772 -0.06847591 0.00039814686 -0.428767 -0.63349676 -0.64408135 0.00046368057
0.035584923 -0.067969039 0.0028085683 0.5107187 -0.16317855 0.84412044 8.2593557e-05
0.037495729 -0.067490391 0.0017041328 0.54328603 -0.16936216 0.8222875 0.00023708862
0.039653249 -0.067326255 0.0002728999 0.58874279 -0.17318659 0.78954947 0.00044440274
-0.028398091 -0.063384578 0.0026396357 -0.18815994 -0.82701975 -0.52974927 0.00036308047
-0.025432628 -0.063582294 0.0020124994 -0.1777505 -0.80137163 -0.57114649 0.00023756207
-0.022422766 -0.064036466 0.0016963371 -0.18305808 -0.78373557 -0.59350514 0.00015301553
-0.019347506 -0.064608574 0.0014945553 -0.20493524 -0.75172281 -0.62682885 0.00052885822
-0.016656263 -0.064998753 0.0010135685 -0.24080397 -0.70954329 -0.66223997 0.00030216237
-0.013660714 -0.065495409 0.00037184171 -0.29193497 -0.69055772 -0.66174316 0.0004492618
0.037642006 -0.064538091 0.0021388417 0.53511292 -0.13722712 0.83356041 9.704072e-05
0.039906092 -0.064567156 0.00063008029 0.58426172 -0.14005052 0.7993899 0.00035422525
-0.04036032 -0.060364399 0.0018173684 -0.20482692 -0.90720391 -0.36746016 0.00028819559
-0.037316363 -0.060931247 0.0015971164 -0.18951723 -0.89636141 -0.40077353 0.00034648832
-0.034494553 -0.061472688 0.0015734422 -0.18144982 -0.883026 -0.4328292 0.00025122857
-0.031339824 -0.061902728 0.0012273421 -0.16220763 -0.85888171 -0.48580956 0.00070928945
-0.028516904 -0.062427755 0.001239552 -0.15290233 -0.83762372 -0.52441144 0.00071648625
-0.02587815 -0.062503353 0.00061260106 -0.15343283 -0.8139593 -0.56029332 0.0005235037
-0.02238835 -0.062960118 0.00030027406 -0.1547454 -0.77714574 -0.60999876 0.00031104265
0.03800099 -0.06150572 0.0023513392 0.53958064 -0.097579941 0.83626008 0.00015459811
0.040158655 -0.061490528 0.0009215126 0.58823586 -0.097989142 0.8027308 0.00046804547
-0.046773814 -0.057863742 0.00086231373 -0.29593617 -0.84915894 -0.43743673 0.007541392
-0.043729655 -0.059277736 0.00096485915 -0.30028281 -0.85839939 -0.41590953 0.0023413519
-0.040882196 -0.059626225 0.00025555876 -0.20468365 -0.9005844 -0.38347402 0.00056440564
0.038145978 -0.058468342 0.0025507521 0.55914754 -0.0010150528 0.82906759 0.0012530383
0.040155016 -0.058469161 0.0011683975 0.59361875 0.022018654 0.80444509 0.0020027421
0.038018804 -0.055381894 0.0023200149 0.57306439 0.17172675 0.80131596 0.0026104741
0.03994989 -0.055546869 0.00092885806 0.6069718 0.22417219 0.76245141 0.0035456298
0.035571005 -0.051624823 0.0025502427 0.5785616 0.39344639 0.71446937 0.0028095222
0.037453551 -0.052503981 0.0015304136 0.57813251 0.36265001 0.73092264 0.0021711795
0.039404448 -0.053399742 0.00052164815 0.59988803 0.41466081 0.68424469 0.0021811232
0.032418013 -0.048492558 0.00264712 0.55564374 0.60209501 0.57335997 0.00079465297
0.034458477 -0.049375832 0.0016176396 0.54259628 0.59791213 0.58999181 0.0061317938
0.036617905 -0.050337445 0.00066792691 0.53429669 0.53770065 0.65223086 0.0024825903
0.029055133 -0.045511365 0.0018290736 0.4885357 0.78355384 0.38389626 0.0017362805
0.031503506 -0.046873406 0.0013635798 0.52406543 0.69819373 0.48773038 0.0019904072
0.033516232 -0.047789361 0.00068459235 0.50989795 0.69639367 0.50501478 0.0026871373
-0.051279381 -0.042176049 0.0015039281 -0.26630726 0.86356735 -0.42817268 0.0144549
-0.049429934 -0.042355519 0.00097941002 -0.19084814 0.88179082 -0.43130258 0.014058625
-0.047105674 -0.042339366 0.0010262618 -0.31591299 0.82121432 -0.47519058 0.020836888
0.02330504 -0.042644531 0.0027286666 0.43019348 0.8690834 0.24418777 0.0030898459
0.025692174 -0.043541107 0.0015905855 0.42755643 0.86403084 0.2657935 0.0037524658
0.027901638 -0.044425905 0.00079807587 0.48545548 0.80294359 0.34585363 0.0014187599
-0.051286735 -0.041713834 0.0028142205 -0.27024251 0.8557328 -0.4412373 0.014580046
-0.049747247 -0.041673426 0.0029294197 -0.27021512 0.85575092 -0.44121894 0.014564501
-0.046563406 -0.04061095 0.0013886698 -0.39142722 0.7980991 -0.45806396 0.015665691
-0.043826494 -0.039730173 0.0013893688 -0.42424181 0.79293388 -0.43734968 0.018783364
0.0015098838 -0.039217886 0.00020439649 0.11632921 0.49225038 -0.86264545 0.027714789
0.00462989 -0.03913841 0.00045338878 0.013984862 0.79441828 -0.6072101 0.012448442
0.0073071462 -0.039037406 0.00027783267 -0.014283068 0.86582369 -0.50014544 0.0057849004
0.01402404 -0.039321203 0.001045006 0.17068493 0.96621096 -0.19314019 0.0050698896
0.016378777 -0.039853439 0.0013302861 0.25851205 0.96012568 -0.10644364 0.003707648
0.019486155 -0.040865228 0.0018341986 0.3779026 0.92081296 0.096400835 0.0017526825
0.021566961 -0.041553348 0.00080849486 0.35492641 0.93315065 0.05707144 0.0014962363
-0.041851252 -0.038917065 0.00031746569 -0.65904385 0.49431616 -0.56684452 0.042333975
-0.0070367414 -0.036767479 7.6186065e-05 0.090869829 0.10348003 -0.9904719 0.0036596218
-0.0046244268 -0.037162933 0.0002289788 0.079196215 0.1327959 -0.98797435 0.0051091183
-0.0015465621 -0.037366845 0.00042348166 0.11976704 0.20465828 -0.9714787 0.0060043037
0.0016482684 -0.037550207 0.00095770613 0.21050408 0.4134872 -0.8858422 0.028152991
0.0041945102 -0.037770666 0.0019498592 0.35725868 0.57639986 -0.73493505 0.06926439
0.0074977628 -0.038348977 0.0017009837 0.10275447 0.90273356 -0.41774833 0.0066651814
0.010504684 -0.038649771 0.0015437697 0.12146366 0.94842511 -0.29280776 0.0028675667
0.01290752 -0.038970865 0.0016276245 0.20030902 0.95410568 -0.22261772 0.0048520672
-0.0068151578 -0.034749467 6.109399e-05 0.092126198 -0.011429974 -0.99568176 0.00030793529
-0.004682316 -0.034452036 0.00025165026 0.10067844 -0.019817088 -0.99472165 0.00012134259
-0.0015542223 -0.034386348 0.00055624271 0.1428175 0.020810524 -0.98953027 0.00075289141
0.0018354906 -0.03438928 0.0014409624 0.67549443 0.091447875 -0.73167235 0.0378008
0.0033415281 -0.034376375 0.002505155 0.84232742 0.14861147 -0.51807255 0.030004179
-0.0063652247 -0.032547642 1.2555415e-05 0.10749145 -0.034070868 -0.99362206 2.1431055e-05
-0.0047527114 -0.031490438 0.00025670111 0.15669437 -0.037996493 -0.98691601 0.0038396169
-0.0015439966 -0.03162875 0.00052899803 0.15765171 -0.01371451 -0.98739958 0.00059775601
0.0017055584 -0.031526718 0.0013796268 0.70958501 0.0088107204 -0.70456481 0.036642846
0.00333536 -0.031596866 0.0024970081 0.88396114 -0.0019120089 -0.46755639 0.024307795
-0.0043569617 -0.028494183 0.00023698524 0.14596789 -0.022921611 -0.98902375 0.00021459439
-0.0015351038 -0.028596256 0.00050531421 0.1746376 -0.0096807387 -0.98458523 0.000463109
0.0016992061 -0.028494541 0.0013866327 0.70134228 0.00062302646 -0.7128244 0.035268459
0.0033279834 -0.028531518 0.0024885861 0.86603975 0.0014979411 -0.49997291 0.023366757
-0.0040650293 -0.025556898 0.0002198735 0.15168062 -0.020549972 -0.98821598 0.00017046274
-0.0015285055 -0.025564484 0.00048777199 0.18620954 -0.0089053726 -0.98246968 0.00039550997
0.0017006984 -0.025503762 0.0013941943 0.70267797 -0.00093773945 -0.71150738 0.0356155
0.0033212567 -0.025458429 0.0024796911 0.86602408 -0.00025796509 -0.50000238 0.023935148
-0.0038774782 -0.022564149 0.00020015136 0.16148707 -0.02206918 -0.986628 0.00019087146
-0.0011490816 -0.021921242 0.00047169611 0.2403667 -0.021224109 -0.9704501 0.010826732
0.0016875649 -0.022545159 0.0013866315 0.51746809 -0.028548079 -0.85522616 0.032512486
0.0033157298 -0.022519838 0.0024708624 0.87725753 -0.011855133 -0.47987375 0.023731723
-0.0037372299 -0.019543651 0.0001788248 0.16265419 -0.015076797 -0.98656797 2.9102926e-05
-0.00091963209 -0.019429469 0.00049584405 0.2600562 -0.038393583 -0.96482992 0.01136941
0.0019767953 -0.019468367 0.0014853326 0.51624048 0.01907034 -0.85623133 0.034100987
0.0033089421 -0.019574111 0.002462463 0.89267272 -0.011547865 -0.45055741 0.022796107
-0.0035600578 -0.016694281 0.00016603811 0.17448905 -0.015871877 -0.98453122 4.1964715e-05
-0.00089847523 -0.016470218 0.00048575594 0.27014363 -0.028591597 -0.96239543 0.010848675
0.0014313167 -0.016400104 0.0011261506 0.49450961 -0.023180205 -0.86886293 0.028885266
0.0033013169 -0.01647735 0.0024538673 0.91323751 -0.0022929942 -0.40742114 0.020657355
-0.0034223548 -0.013502657 0.00013715826 0.18970904 -0.01934872 -0.98164976 6.0796723e-05
-0.00090987264 -0.013367172 0.00046466113 0.26423368 0.00073289801 -0.96445841 0.0074245259
0.001584039 -0.01351497 0.001157081 0.46215752 -0.0031817185 -0.88679212 0.027835095
0.0032937573 -0.013372496 0.0024452312 0.91187406 -0.003653412 -0.41045377 0.019958898
-0.0033149421 -0.011097506 0.00011223075 0.20099957 -0.021499677 -0.97935534 5.6326338e-05
-0.00094482728 -0.010320765 0.00043447339 0.28254738 0.0012625216 -0.95925248 0.0075042523
0.001717144 -0.010504674 0.0012039159 0.47974622 -0.0019833078 -0.87740499 0.028068662
0.0032868548 -0.010404713 0.002437335 0.90873545 0.00015435457 -0.41737247 0.019188374
-0.0030548284 -0.0081041129 0.00020935456 0.21390393 -0.02317268 -0.97657984 5.692901e-05
-0.0010477573 -0.0073690149 0.00037661789 0.28403246 -0.02547905 -0.95847613 0.0060690097
0.0018261547 -0.0074581336 0.0012485544 0.47582355 -0.0016948121 -0.87953907 0.029377049
0.0032799118 -0.0074298941 0.0024294122 0.90853691 0.0027093971 -0.41779584 0.019349111
-0.042024095 -0.0033615802 0.0028988598 -0.90206248 -0.033568919 -0.43029815 0.0018184023
-0.04156296 -0.0046059466 0.0028323855 -0.92433214 -0.012068663 -0.38139811 0.0037180206
-0.0011015671 -0.0046873861 0.00033669974 0.31394482 -0.0099407043 -0.94938922 0.0060539078
0.0017438615 -0.0044611278 0.0012006735 0.47809607 -0.0031886697 -0.87830174 0.028966879
0.0032583603 -0.0045998115 0.0022266805 0.77110255 -0.00040779781 -0.63671088 0.013860428
-0.041355718 -0.001522243 0.0022686762 -0.91068101 -0.030645646 -0.41197202 0.0017180549
-0.0010547537 -0.0017329678 0.0003076632 0.31653765 -0.00057844544 -0.94857985 0.0052956319
0.0017050809 -0.0014695446 0.001182129 0.49741971 0.0033132832 -0.86750364 0.027116964
0.0032206408 -0.0013663745 0.0021825624 0.82013923 0.020048091 -0.57181263 0.021189002
-0.041505951 0.0014289282 0.0022756667 -0.92432272 0.0030001125 -0.38160005 0.0020716537
-0.0010330703 0.0013587149 0.00029184663 0.297362 0.0096047036 -0.9547165 0.00054610276
0.0017654937 0.0015218556 0.0013245493 0.6558615 0.0067793424 -0.75485086 0.019687379
0.0032289624 0.001520319 0.0022071227 0.84028959 0.039335925 -0.54070896 0.024478614
-0.041441683 0.0043866565 0.0027524217 -0.92288256 0.043750413 -0.38258812 0.007751937
-0.0010737512 0.0045313095 0.00030021879 0.3200765 0.005617036 -0.94737506 0.0011808183
0.0017755507 0.0044343402 0.0013750601 0.65155041 0.006423973 -0.75857806 0.019792514
0.0032444729 0.004406821 0.0022216728 0.86111313 0.0039337375 -0.50839829 0.024093812
-0.0031890799 0.0074911527 9.5260351e-05 0.24354638 0.021931656 -0.96964127 3.9281404e-05
-0.00078581396 0.0076646544 0.00040846344 0.34486511 0.014028212 -0.93854737 0.0059262575
0.0017194453 0.0074265525 0.0013470748 0.52509999 0.0095819253 -0.8509866 0.025094463
0.0032692121 0.0076092277 0.0022437039 0.86004841 0.0022616072 -0.51020747 0.023504436
-0.0034827706 0.010341778 6.9353191e-05 0.22671305 0.024100751 -0.97366339 7.8916302e-05
-0.00091240951 0.010462798 0.0004068533 0.30494383 0.01780507 -0.95220393 0.0016533338
0.001772069 0.010486461 0.0013760896 0.51085967 0.010688436 -0.85959768 0.025795462
0.0032872118 0.010532503 0.0022601199 0.85845417 -0.002826415 -0.51288241 0.023714291
-0.004015659 0.013308021 3.814718e-05 0.21749924 0.023486687 -0.97577792 0.00010496216
-0.0010997568 0.013311165 0.00039008397 0.27086672 0.009963314 -0.9625653 0.00075818243
0.0017176676 0.013562749 0.0013595219 0.49784741 0.0074185035 -0.86723298 0.02625444
0.0033054568 0.013472259 0.0022768308 0.85434669 -0.0015008675 -0.5197013 0.025338948
-0.0038116775 0.016769674 2.507643e-05 0.1870615 0.024758372 -0.98203617 0.00011301686
-0.0011878092 0.01656192 0.0003783227 0.25804281 0.0085412711 -0.96609575 0.00071831053
0.0017239233 0.016488587 0.0013517599 0.48875728 0.0018294234 -0.87241787 0.026254332
0.0033227347 0.01642688 0.0022937225 0.85150391 0.0087953545 -0.52427447 0.025135303
-0.0034349556 0.019630942 7.757578e-05 0.1703575 0.028215842 -0.98497826 6.7384753e-05
-0.0014789772 0.019671423 0.00037751815 0.2229397 0.024714399 -0.97451884 0.00084898621
0.0016404573 0.019508896 0.0013258279 0.61717296 -0.00038846207 -0.78682745 0.022371918
0.0032403108 0.019398037 0.0022080035 0.84601933 0.009859235 -0.53306115 0.025633873
-0.0038853921 0.022534886 9.8437529e-05 0.15102996 0.03413127 -0.98793977 8.9090419e-05
-0.0015455274 0.022476075 0.00040545376 0.21332991 0.021643998 -0.97674042 0.00080812612
0.0015410351 0.022561336 0.0012834853 0.60814029 0.0041546538 -0.79381877 0.02287058
0.0031633966 0.022606872 0.0021278877 0.85214752 -0.0028042707 -0.52329421 0.024996908
-0.003810809 0.025597991 0.00034706265 0.17073777 0.036168255 -0.98465246 0.0011045334
-0.0015557453 0.025564142 0.00034229082 0.16891223 0.014239028 -0.98552823 0.00040419862
0.0017623022 0.02554358 0.0013656017 0.59126943 0.016636249 -0.80630249 0.019783178
0.0031789059 0.025400704 0.002144591 0.84326661 0.008578537 -0.53742707 0.025538923
-0.0040149866 0.028495926 0.0003334202 0.15646839 0.01776748 -0.98752314 0.00089403987
-0.0015382296 0.028457727 0.00034178948 0.18554476 0.0075101443 -0.98260713 0.0020832652
0.0016553132 0.02849414 0.0013067937 0.58000559 0.01714294 -0.81443208 0.017152281
0.0032964419 0.028584022 0.0020818813 0.80622071 -0.0081606191 -0.59155858 0.0305725
-0.0065732352 0.031838819 3.9559134e-05 0.097717367 0.026381254 -0.99486452 3.0893516e-05
-0.0044390494 0.031618062 0.00034769153 0.13657999 0.017345561 -0.9904772 0.00064197672
-0.0014546236 0.031473175 0.00036575852 0.15025735 0.010675945 -0.98858929 0.00047576585
0.0017500425 0.031498205 0.0013318636 0.64090639 0.0028719187 -0.76761365 0.027548186
0.0033291741 0.031576525 0.0021146396 0.81235474 0.0032054042 -0.58315468 0.029866477
-0.0068899374 0.034741208 7.2170777e-05 0.087166101 0.0090654893 -0.99615258 6.1223574e-05
-0.0042975307 0.034592982 0.00024091736 0.10955184 -0.030627934 -0.99350911 0.0013260228
-0.0016321637 0.034582943 0.0003617109 0.13852687 -0.036214881 -0.98969632 0.001696236
0.001771995 0.034522038 0.0013485457 0.54061663 -0.087210417 -0.83673656 0.025050404
0.0033626694 0.034601465 0.0021521826 0.8274197 -0.17806056 -0.53260779 0.028548388
-0.042595204 0.03867374 0.0026414208 -0.49103284 -0.82795107 -0.27089438 0.023196254
-0.04171228 0.038011879 0.0013568123 -0.85600615 -0.37647662 -0.35428643 0.035720583
-0.0071014492 0.037126537 7.612953e-05 0.087385841 -0.071997933 -0.99356931 0.0023804086
-0.0042204885 0.037545528 0.00022259624 0.069339186 -0.15247633 -0.98587173 0.0066837356
-0.001503027 0.03783438 0.00036783554 0.13406849 -0.23807338 -0.96194941 0.0091987029
0.001807568 0.037526812 0.001156005 0.27086824 -0.39813536 -0.87642372 0.043945696
0.0043223877 0.038156878 0.0020760216 0.33360669 -0.63917077 -0.69294101 0.056620847
0.0073852241 0.038593534 0.0022159328 0.12055559 -0.9001103 -0.41865 0.0056480053
0.0099546164 0.038759995 0.0024925272 0.18156393 -0.9482109 -0.26063487 0.0042669061
-0.051358823 0.041982744 0.0027889346 -0.27934799 -0.90412223 -0.32330754 0.026677998
-0.048701782 0.041022286 0.0027922625 -0.30835107 -0.83780235 -0.45056286 0.013043654
-0.046411239 0.04073878 0.0017262353 -0.35890836 -0.84969211 -0.38627467 0.013322611
-0.043809101 0.040105782 0.0014751235 -0.38939843 -0.85090965 -0.35259268 0.018562907
-0.04171399 0.039454959 0.00066874846 -0.55513519 -0.72183013 -0.41326275 0.030264076
-0.00082158437 0.039210916 0.000292463 0.094369411 -0.46847728 -0.87842101 0.0058192504
0.0018334606 0.039519504 0.00029056513 0.095273435 -0.6156857 -0.78221107 0.013767198
0.0045548012 0.039481599 0.00057139131 0.042234596 -0.78272748 -0.62092984 0.016181948
0.0075608999 0.039356422 0.00056751852 0.009421045 -0.88647968 -0.46267164 0.0053525791
0.010724033 0.039323371 0.0010049661 0.090897366 -0.95167458 -0.29334816 0.0061652921
0.013490352 0.039642017 0.001442831 0.18815687 -0.96314985 -0.19219635 0.0043083946
0.016363585 0.040321168 0.0015672342 0.25646478 -0.96117151 -0.1018586 0.0030448127
0.019270096 0.041254845 0.0013992096 0.30352992 -0.95281166 -0.0044119665 0.003008306
0.021304784 0.041935399 0.00072342315 0.33915839 -0.94028008 0.029066354 0.0031932474
-0.051386975 0.043004811 0.0014210339 -0.45001265 -0.78715217 -0.42175832 0.049630921
-0.049472436 0.042644922 0.001340409 -0.26473156 -0.86301291 -0.43026266 0.016945766
-0.047150843 0.042747699 0.00074420252 -0.32795009 -0.7988041 -0.5043419 0.017455555
0.022646772 0.042576551 0.0016511424 0.37166721 -0.92330176 0.096836373 0.001520128
0.02556859 0.043908939 0.0014972589 0.41187871 -0.88132459 0.23156612 0.0038289512
0.027596837 0.044720486 0.0008111737 0.45191896 -0.83664459 0.30950776 0.0033737416
-0.052358728 0.046854131 0.0021465239 -0.81083286 -0.50663757 -0.29303333 0.046427891
0.028751079 0.045687929 0.0015989743 0.48089159 -0.79634064 0.36685815 0.0015666878
0.031200163 0.04713916 0.0013506757 0.50287521 -0.73514205 0.45462358 0.0031240084
0.033148468 0.047808982 0.00033486748 0.4921611 -0.71403998 0.49792004 0.0039573004
0.032403015 0.048771039 0.0023088828 0.55201435 -0.60699749 0.5716942 0.00094510685
0.034343671 0.049536042 0.0013222201 0.53171402 -0.62300229 0.57371455 0.0040644133
0.036639057 0.050670333 0.0004306901 0.54104275 -0.58933884 0.59996051 0.0009523764
0.035442904 0.051648557 0.0022165175 0.55331337 -0.51162815 0.65732867 0.0043356181
0.037569482 0.052615676 0.0011144208 0.56346756 -0.49320984 0.66275817 0.002969516
0.039504882 0.053475715 0.00024688267 0.59307796 -0.44935682 0.66808462 0.0021747034
0.038024854 0.055343784 0.0021961618 0.57008892 -0.24022767 0.78567761 0.0027159823
0.040129833 0.055541545 0.00067008816 0.62001818 -0.27245706 0.73576123 0.0039442312
-0.049418926 0.057553876 0.00030829548 -0.28376326 0.89672375 -0.33965412 0.0058930181
-0.046904087 0.058567755 0.0011320801 -0.33327854 0.86911249 -0.36547098 0.0034210037
-0.044991482 0.059797361 0.0016268715 -0.28327638 0.86607856 -0.41190109 0.0020378307
0.038459998 0.058526881 0.002384909 0.56652486 -0.0311877 0.82345426 0.0015284145
0.04070707 0.058385786 0.00078273832 0.62724954 -0.063274324 0.77624381 0.0024409946
-0.043267164 0.060331773 0.0019816007 -0.2846421 0.87019885 -0.40216035 0.0023361316
-0.040532134 0.060682617 0.0012463871 -0.20202425 0.90288115 -0.37946269 0.00028060045
-0.037188597 0.061545987 0.0016288711 -0.19333361 0.89383924 -0.40456593 0.00032255444
-0.034355331 0.062018555 0.0014291912 -0.16512311 0.88300991 -0.43934947 0.00052130281
-0.031677227 0.062301859 0.00098237745 -0.14889716 0.86248618 -0.48368087 0.00045297679
-0.028608305 0.06256479 0.00054758007 -0.13956131 0.83935845 -0.52535707 0.00044940383
-0.026621044 0.062703833 0.00021064811 -0.12514067 0.81246042 -0.56942779 0.00046078098
0.038100913 0.061500553 0.0023630632 0.54572308 0.084616534 0.83368242 0.00021305129
0.040374532 0.061479867 0.00085274933 0.58316666 0.084204674 0.80797666 0.0004089711
-0.03095079 0.063198052 0.0023596918 -0.18479642 0.85619539 -0.48247263 0.00030068523
-0.028636588 0.06363371 0.0022463112 -0.18091714 0.83559364 -0.51870251 0.00027610426
-0.02536778 0.063900456 0.0016228564 -0.17309481 0.81089079 -0.55901188 0.0004462059
-0.022428347 0.064423092 0.0014950018 -0.18481252 0.77778995 -0.60073882 0.00022954053
-0.019507559 0.064930938 0.0012599037 -0.19589069 0.75692928 -0.62344593 0.00045631779
-0.016836852 0.065293364 0.00078509498 -0.23412819 0.72248638 -0.6505363 0.00035454455
-0.014209613 0.065708809 0.00024614256 -0.2862719 0.69376898 -0.66085786 0.00046821291
0.03796358 0.064358875 0.002076027 0.54420251 0.12604393 0.82943153 0.00017297869
0.039932873 0.064581424 0.00073324633 0.58372933 0.13263434 0.80104196 0.00041105854
-0.019261243 0.066224426 0.0027456519 -0.22513421 0.74799985 -0.6243484 0.0004516179
-0.016143151 0.066795081 0.0022037837 -0.25467232 0.73490888 -0.6285308 0.00031984452
-0.013456127 0.067291103 0.0015844157 -0.29619858 0.71118778 -0.63755655 0.00027982928
-0.01086005 0.067985184 0.00099121151 -0.35028034 0.68248045 -0.64150155 0.00051335857
-0.0082295323 0.068714023 0.00022748858 -0.41200191 0.64177328 -0.64682424 0.00039801732
0.037515871 0.06742049 0.0018355077 0.53608871 0.15829039 0.82918823 0.00022094326
0.039388727 0.067523561 0.00057097699 0.58865899 0.17084724 0.79012144 0.00035608612
-0.012226961 0.069026083 0.0027881633 -0.32439846 0.70204753 -0.63395184 0.00044084829
-0.009930945 0.069756024 0.0022880065 -0.35925207 0.71459943 -0.60023803 0.00086909183
-0.0074093179 0.07030379 0.0013033855 -0.43128112 0.67083514 -0.60330498 0.0011993892
-0.005466802 0.071573563 0.0012715493 -0.44903147 0.6854136 -0.57321817 0.0010172706
0.035484903 0.070535079 0.0024373506 0.50625312 0.21390574 0.83543533 0.00043040939
0.03748142 0.070426986 0.0012207179 0.54116887 0.21612877 0.81266516 0.00044970412
-0.0043159272 0.072654128 0.0017755851 -0.48234481 0.68148887 -0.55037838 0.00086657458
-0.0021191344 0.073437363 0.00088552514 -0.50942075 0.67316765 -0.53603727 0.00040349487
0.032574467 0.074851193 0.0024821791 0.45973721 0.29499504 0.83762741 0.00047986052
0.034890831 0.073654182 0.0018382663 0.49489585 0.33323091 0.80251807 0.0017071937
0.037107449 0.073211908 0.00069081888 0.53089392 0.33691522 0.77758586 0.001805914
0.0078887232 -0.076840527 0.0049933079 -0.0047389939 -0.95217091 0.30552933 0.00067170669
0.010584462 -0.077141047 0.0045105959 0.0042092595 -0.94977105 0.31291732 0.00082544505
0.013834105 -0.077341549 0.0043314495 0.00016571151 -0.93899941 0.34391877 0.0022145757
0.016681939 -0.077197187 0.0045210836 0.049226351 -0.92105854 0.38630036 0.0042040772
0.019613842 -0.076879375 0.0045643584 0.13343051 -0.84057468 0.52500534 0.0031467986
0.02251712 -0.076404639 0.0044492804 0.18176451 -0.80335242 0.56708598 0.0033246789
0.025465721 -0.075982831 0.0040100678 0.219735 -0.70657653 0.67265606 0.0036069532
0.028266344 -0.07554014 0.003423885 0.29187137 -0.65200871 0.69978273 0.003075704
0.025907641 -0.074346416 0.0053709098 0.29414225 -0.64460927 0.70566237 0.0025555622
0.028603964 -0.073646106 0.0046661692 0.3467513 -0.48883423 0.80050278 0.0032826867
0.031291567 -0.073126741 0.0036869154 0.41165853 -0.42626458 0.80550349 0.0029437128
0.029452078 -0.070955515 0.0055398154 0.46826282 -0.27051592 0.84116054 0.0015276659
0.031502552 -0.070466049 0.0045793145 0.45630741 -0.26200309 0.85037524 0.0016597117
0.033659138 -0.070313029 0.0034216915 0.46973118 -0.2613807 0.84322757 0.0011081388
-0.021688502 -0.066293493 0.0044241752 -0.21864417 -0.77000606 -0.59940416 0.00057098921
-0.019368747 -0.06667348 0.0039846925 -0.22667465 -0.74297988 -0.62976146 0.00039257601
-0.016511302 -0.067346685 0.0035780258 -0.25894079 -0.71740788 -0.64674228 0.00020437225
-0.013659838 -0.068335228 0.0033607541 -0.30291426 -0.68557292 -0.66199154 0.0003612852
0.031703234 -0.067565836 0.0051345574 0.48802727 -0.18033056 0.85399663 0.0002060354
0.034126006 -0.067455463 0.0037525475 0.49829933 -0.1646997 0.85121787 0.00012041136
-0.034448385 -0.063000657 0.0046256678 -0.18968339 -0.88136035 -0.43269411 0.00034106013
-0.031414218 -0.063493207 0.0041050985 -0.19674967 -0.85444301 -0.48084998 0.00024689845
-0.028464291 -0.064061515 0.0037342303 -0.19442222 -0.82083631 -0.53705478 0.00039943637
-0.025245328 -0.065096885 0.0041308934 -0.18928054 -0.80056334 -0.56856948 0.00020345219
-0.022634048 -0.065442204 0.0036168764 -0.19334237 -0.78367436 -0.59031618 0.00041018112
-0.020853983 -0.065512143 0.0031609102 -0.2204314 -0.76241416 -0.60838693 0.00044392614
0.032146126 -0.064519674 0.0054387031 0.50311267 -0.13856871 0.8530395 4.5046199e-05
0.034486607 -0.064602509 0.0040469514 0.50477248 -0.1372584 0.85227048 4.6218767e-05
0.036099136 -0.063399971 0.0032736096 0.51345569 -0.13541076 0.8473649 4.3297598e-05
-0.042607859 -0.060364719 0.0032568614 -0.25585884 -0.89572132 -0.36362025 0.0010552952
-0.040471748 -0.061225299 0.0040833908 -0.20485041 -0.90718418 -0.36749581 0.00032025622
-0.037621543 -0.061938621 0.0040332293 -0.20961313 -0.89012402 -0.40464988 0.00016482823
-0.034374632 -0.062600613 0.0037674955 -0.18968372 -0.88136142 -0.43269178 0.00034243267
-0.032583248 -0.062728412 0.0032431523 -0.19155096 -0.86765915 -0.45877647 0.00046174121
0.032533672 -0.061478931 0.0056573083 0.50774276 -0.10605005 0.85495657 6.1641993e-05
0.034526911 -0.06149793 0.0044587641 0.51213026 -0.10205162 0.85282367 8.1665581e-05
0.036509115 -0.061518222 0.0032692759 0.52180552 -0.098935835 0.84730798 0.00010527206
-0.050162073 -0.057982016 0.0044338894 -0.32731652 -0.88081259 -0.34210113 0.0030546058
-0.046854418 -0.059530858 0.0041920515 -0.30152497 -0.87585819 -0.3767693 0.0034332508
-0.044431459 -0.059858978 0.0031043396 -0.28118491 -0.8679533 -0.40938011 0.0028644011
0.032917198 -0.059317451 0.0056536826 0.51756567 -0.050533883 0.85414994 0.00032627617
0.034460604 -0.05835823 0.004799373 0.51979828 -0.037886344 0.85344851 0.00054324977
0.036602702 -0.058549225 0.0034975891 0.53046441 -0.019520625 0.8474825 0.0009617887
0.032894585 -0.054252252 0.0056376341 0.56664962 0.20586333 0.7978273 0.0059807356
0.034390166 -0.055505924 0.0048040054 0.54165733 0.094408721 0.83528107 0.0028330041
0.036570553 -0.055781364 0.0034016455 0.55081981 0.15247735 0.82057804 0.0032173011
0.03234436 -0.052228179 0.005352858 0.56455261 0.29620972 0.7704156 0.0032436112
0.034303106 -0.052641183 0.0040501198 0.56793487 0.3585386 0.74087793 0.0043892697
0.036022492 -0.053611625 0.0032200101 0.56849742 0.34176472 0.74833655 0.002518371
0.02941918 -0.048387177 0.0053416076 0.54266256 0.56626517 0.62037182 0.00083035912
0.03137248 -0.049471647 0.0044710073 0.55872613 0.48717317 0.67118371 0.0030141245
0.033412192 -0.050320901 0.0034120674 0.56521267 0.51760131 0.64235777 0.0022009725
0.026566679 -0.04562157 0.004955295 0.51785177 0.72109282 0.4602769 0.002431903
0.028578296 -0.046731587 0.0042931037 0.53740025 0.6405192 0.54857653 0.0028912977
0.030430809 -0.047649719 0.0036071944 0.54729599 0.62551785 0.55605268 0.0029241927
0.022592982 -0.042883225 0.004572663 0.45350942 0.83001763 0.32465374 0.0051220772
0.025063535 -0.044228893 0.004279179 0.49596158 0.75949788 0.42093369 0.0021593582
0.027027268 -0.044817384 0.0030464414 0.48691836 0.75607771 0.43732941 0.0024638483
-0.051302586 -0.041016504 0.0048034368 -0.29585484 0.869115 -0.39636993 0.0037347884
-0.049645063 -0.040650066 0.0044974084 -0.29588288 0.86910284 -0.39637563 0.0037699821
-0.046855975 -0.039615691 0.0040065274 -0.31522918 0.88236094 -0.34938493 0.0037452462
-0.044863015 -0.039308492 0.004012377 -0.41832268 0.83366454 -0.36056846 0.012820466
0.014442434 -0.039115235 0.0039265254 0.25440782 0.9650349 -0.063121364 0.002711067
0.016556293 -0.039949015 0.004540693 0.39045405 0.91289234 0.11905131 0.00078978995
0.019598311 -0.041188635 0.0040797796 0.38149711 0.91845685 0.10438862 0.001517821
-0.043962117 -0.038576718 0.0047860555 -0.30294591 0.90131021 -0.30961874 0.0029609925
0.0051045874 -0.036322929 0.0046244496 0.60963607 0.52407873 -0.59471458 0.02937923
0.0067933821 -0.036784139 0.0052176681 0.51466519 0.72077727 -0.46432734 0.012003819
0.010404178 -0.037944045 0.0044530812 0.23613758 0.94913769 -0.20827095 0.0057643517
0.0129023 -0.038640156 0.004214142 0.25438151 0.96504205 -0.063118726 0.0026821694
0.002425852 -0.034221776 0.0034780006 0.84957719 0.16113965 -0.50224763 0.032252088
0.0038021586 -0.034383878 0.0050054826 0.79322416 0.26748902 -0.54703301 0.038791187
0.0023655258 -0.031425525 0.003409893 0.90067178 -0.0022013767 -0.43449455 0.034008451
0.0038033873 -0.031495355 0.0050074477 0.87694305 0.032916099 -0.47946572 0.01507315
0.0023748758 -0.028455546 0.0034204652 0.8871004 0.018993886 -0.46118551 0.032901898
0.0037890447 -0.02849498 0.0049895551 0.86092234 0.0013664208 -0.50873458 0.01078766
0.0023631868 -0.025618875 0.0034070048 0.88760912 -0.022784866 -0.4600336 0.03313097
0.0037747105 -0.025487123 0.0049716742 0.87711102 0.027650708 -0.47949117 0.014756205
0.0023729794 -0.022620199 0.0034176877 0.8858096 -0.020149942 -0.46361119 0.033071667
0.0038052208 -0.022436347 0.0050107166 0.86755395 0.026322894 -0.49664602 0.014650865
0.0023150588 -0.019479237 0.0033529326 0.75108916 -0.036478158 -0.65919232 0.052419081
0.0037817196 -0.019551992 0.0049809357 0.87416071 -0.004479181 -0.48561597 0.012587953
0.0023243788 -0.016449774 0.0033634608 0.94989258 -0.0034152011 -0.31255794 0.027017638
0.0037723263 -0.016557377 0.0049694581 0.8750993 0.0029235412 -0.48393461 0.01254526
0.0025070442 -0.01337722 0.0035849493 0.94786274 -0.0063487161 -0.31861573 0.025699781
0.0038306767 -0.013589175 0.0050436379 0.87639809 0.0014035843 -0.48158538 0.012198618
-0.042450007 -0.0095417239 0.0044238344 -0.92435318 -0.012062643 -0.38134733 0.0036756159
0.0025281433 -0.010536751 0.0036114112 0.94356656 -0.022460701 -0.33042052 0.023073744
0.0038908999 -0.010500688 0.0051202788 0.86485547 -0.0014743678 -0.50201875 0.01044689
-0.042235371 -0.0084177349 0.0036708354 -0.92435318 -0.012062643 -0.38134733 0.0036756159
-0.041735854 -0.007685239 0.00365151 -0.92435318 -0.012062643 -0.38134733 0.0036756159
0.0025168671 -0.0075180093 0.003597792 0.94242966 0.0060473215 -0.33434984 0.023845477
0.0038734921 -0.0074739237 0.0050984127 0.86483955 -0.00063862716 -0.50204796 0.01054049
-0.042772334 -0.0052932859 0.0048480867 -0.89980608 -0.0091122044 -0.43619499 0.0026426467
-0.041579384 -0.0058121346 0.0031727413 -0.92434448 -0.01206462 -0.38136822 0.0036940677
0.0025013566 -0.0044827759 0.003584008 0.93875247 0.0067124479 -0.3445268 0.024432512
0.0038695657 -0.004576887 0.0050936528 0.86457103 -0.00013987304 -0.50251061 0.010500715
-0.042799357 -0.0011261863 0.0049223513 -0.90741897 -0.016210586 -0.41991428 0.0018097427
0.002487804 -0.0015314112 0.0035706416 0.93299854 0.012874594 -0.35964993 0.02470441
0.0038655624 -0.0015339185 0.0050888788 0.86434096 -0.0016290374 -0.50290352 0.010311583
-0.042688075 0.001317345 0.0046344101 -0.91126579 0.017277809 -0.41145614 0.0013489072
0.0026016303 0.0013345872 0.0036973043 0.93007547 -0.0035786193 -0.36735123 0.022790061
0.0038400094 0.0017648862 0.0048618824 0.86287409 0.0098805903 -0.50532234 0.010657352
-0.042319555 0.0044464767 0.0036772056 -0.90655828 0.046880413 -0.41946912 0.00674807
0.0027171969 0.0045103468 0.0038231257 0.92040098 0.015623042 -0.39066356 0.023294292
0.0039218883 0.0046045203 0.0049648578 0.86703402 0.00044248381 -0.49824882 0.011307958
-0.04259916 0.0081142467 0.0044100201 -0.8821829 -0.0063626505 -0.47086397 0.006192652
-0.041032705 0.0064158612 0.0034898587 -0.91518974 0.048509467 -0.4000932 0.007864086
0.0027071065 0.0075027817 0.0038103003 0.9199428 0.022667125 -0.39139679 0.022938296
0.0040045721 0.0074578957 0.005069044 0.8769697 -0.0082101114 -0.4804756 0.0097717224
-0.043141101 0.011160537 0.0058260565 -0.91048747 0.040379923 -0.41156057 0.0037393998
-0.041875873 0.010110703 0.0042227488 -0.87455648 0.007449076 -0.48486653 0.0054016705
0.0026961067 0.010510216 0.0037974033 0.91807312 0.023721075 -0.39570084 0.023100942
0.00399801 0.010568722 0.0050595049 0.87579882 2.7474582e-05 -0.48267624 0.0098012192
-0.04273342 0.01387249 0.004969887 -0.89561224 0.027017014 -0.44401449 0.0029807019
0.0026853718 0.013532275 0.0037844409 0.93284619 0.0058737635 -0.36022714 0.019660521
0.0040190644 0.013512972 0.0050851498 0.88099742 -0.0086383326 -0.4730421 0.008656404
-0.042321596 0.015986823 0.0057322672 -0.89732307 0.015666584 -0.44109616 0.0030061977
0.0026741615 0.016569387 0.0037714143 0.93143958 0.0064386921 -0.36383912 0.019648228
0.0040402026 0.016381366 0.0051110014 0.87273818 0.0045159673 -0.48816758 0.0090698516
0.0026632214 0.019621335 0.003758328 0.90967196 0.028094379 -0.41437623 0.024120376
0.0040336973 0.01954628 0.0051011234 0.87062645 0.0069209896 -0.49189603 0.0087452056
0.0026778281 0.022540368 0.0037773119 0.92623043 0.0094705625 -0.37683892 0.021751385
0.0041200086 0.022444541 0.0052097165 0.87360418 -0.0022602088 -0.48663196 0.011629604
0.0026423403 0.025461581 0.0037333507 0.89175385 0.031025944 -0.45145592 0.017893381
0.0040122867 0.025545111 0.0050719627 0.86879915 0.0055375369 -0.49513373 0.0098744826
-0.041381631 0.028655993 0.0046076449 -0.95337003 0.027100557 -0.30058476 0.00085108401
0.0026063083 0.028396884 0.0036891086 0.88730508 0.03633751 -0.45974913 0.0077919434
0.004070377 0.028407587 0.0051447158 0.85967565 0.0022373425 -0.51083541 0.0058781155
-0.041653145 0.032525439 0.0053188116 -0.93326664 -0.082371302 -0.3496117 0.0082725519
0.0026204968 0.031357616 0.0037079919 0.8465187 0.0001593394 -0.53235906 0.0032334053
0.0039411695 0.031432889 0.0049796905 0.86541039 -0.0010508228 -0.50106275 0.006067351
-0.04110967 0.033943642 0.0039029177 -0.96746325 -0.12389714 -0.22060008 0.013471955
0.0026088429 0.034483243 0.0036945823 0.83450687 -0.069149137 -0.54664135 0.012106908
0.003998023 0.034448534 0.0050504375 0.85230613 -0.13496892 -0.50532937 0.023247795
-0.042813938 0.038498074 0.0040262556 -0.50876695 -0.82615304 -0.24213099 0.023812404
-0.041378081 0.038170911 0.0037491701 -0.88935542 -0.41591075 -0.18990852 0.036714882
0.0026088874 0.036675971 0.0036852579 0.71319616 -0.41857082 -0.56227189 0.046041615
0.0047732708 0.0370818 0.0043429784 0.54125106 -0.66314214 -0.51700062 0.047392908
0.0075116814 0.03768336 0.004578596 0.27999407 -0.88903654 -0.36223957 0.020006835
0.010538814 0.038460355 0.0045648958 0.27417234 -0.94220644 -0.19255269 0.0060087019
0.012388837 0.038883001 0.004884365 0.28826952 -0.95184731 -0.10434251 0.0041039698
-0.051284701 0.041572325 0.0044176951 -0.41540512 -0.86941153 -0.26751098 0.024974395
-0.049542502 0.041099519 0.004631645 -0.35234436 -0.87994659 -0.31866515 0.014504796
-0.046410087 0.039826378 0.0046403906 -0.25053418 -0.92549413 -0.28406551 0.0077733528
-0.043913569 0.039437868 0.0041627078 -0.33358279 -0.92053896 -0.20329911 0.015083354
0.01379896 0.039413303 0.0044556037 0.28804004 -0.95670956 -0.041710142 0.0044674054
0.016545407 0.040410772 0.0045257192 0.33476031 -0.94165248 0.035016593 0.0030337246
0.019042231 0.041418232 0.0042325915 0.40465489 -0.89874178 0.16887154 0.0031611044
-0.052052423 0.042644992 0.003653391 -0.84314454 -0.51320648 -0.16039474 0.064551421
0.020471519 0.042269617 0.0048861182 0.45096591 -0.86012846 0.23834606 0.0027323193
0.022519553 0.043265939 0.0044683209 0.47786292 -0.82327211 0.30638215 0.0040003844
0.024970662 0.044457652 0.0039414237 0.4823097 -0.78554893 0.38767284 0.0029746094
0.02595821 0.045651332 0.0048953388 0.5211935 -0.72910649 0.44357771 0.0018236493
0.028147262 0.046833754 0.0042075524 0.52187234 -0.68849546 0.50361031 0.0039999569
0.030348614 0.047857434 0.0033101779 0.53324491 -0.65364957 0.53702152 0.0014151371
0.029188599 0.048626672 0.0052110828 0.54633963 -0.55465364 0.6275925 0.0026967619
0.031275503 0.049576495 0.0041458663 0.55972117 -0.55801773 0.61264056 0.0029069404
0.033420786 0.050715677 0.0032404768 0.54641789 -0.57552385 0.6084404 0.0022683712
0.032509044 0.051858902 0.0046904916 0.55973727 -0.43055177 0.70803905 0.0016302465
0.034256343 0.05263567 0.0038809136 0.56047451 -0.372879 0.73947924 0.0031473634
0.032765143 0.055368818 0.0058342339 0.56519687 -0.12462475 0.81548834 0.0027974411
0.034621429 0.0553854 0.0045823767 0.54322892 -0.14478257 0.82700694 0.0021383034
0.036502436 0.055686023 0.0033558561 0.57443619 -0.21821658 0.7889263 0.0038730826
-0.050186623 0.058732353 0.0051420294 -0.33237624 0.8801595 -0.33888835 0.0020538399
0.03287847 0.058386039 0.0058269324 0.51771587 0.029032746 0.85505992 0.00069029134
0.034568734 0.058510721 0.004797528 0.53049582 0.013209261 0.84758466 0.00083636853
0.036849588 0.058411427 0.0034069503 0.54305172 -0.0085703349 0.83965552 0.0014590631
-0.045247734 0.060773943 0.0048218924 -0.30927494 0.89092314 -0.33257329 0.0017036255
-0.043036558 0.06116356 0.004167649 -0.24678759 0.91005933 -0.33299834 0.00022237052
-0.04018119 0.062006976 0.0043604318 -0.23276389 0.90202814 -0.36354664 0.00025895541
-0.037901469 0.062695667 0.0046439907 -0.22820379 0.89652252 -0.37969783 0.00023757032
-0.034377392 0.062893391 0.003082836 -0.2003361 0.88240051 -0.42571688 0.00042333035
0.032441601 0.061427169 0.005815703 0.50949955 0.097882323 0.85488558 7.0171853e-05
0.034571674 0.061652247 0.0045112153 0.51441139 0.09371458 0.85240752 8.4570056e-05
0.03664444 0.061025959 0.0033320645 0.52612931 0.091460355 0.8454721 0.00010434044
-0.036525495 0.063254707 0.0050678612 -0.22864664 0.88856894 -0.39770082 0.00038162331
-0.034316588 0.063667178 0.0046809223 -0.22071287 0.88078088 -0.41894025 0.00043151676
-0.031772222 0.064174592 0.0044474113 -0.20390299 0.86677164 -0.45511609 0.00034139596
-0.028470686 0.064977549 0.004379923 -0.2115718 0.85128123 -0.4801642 0.00081119913
-0.02541187 0.065372869 0.0038022429 -0.21099624 0.83281356 -0.51176375 0.0011703903
-0.023132201 0.065778047 0.0034922957 -0.20836002 0.80329907 -0.55793971 0.00094687846
0.032232944 0.064352699 0.0055339145 0.50164038 0.13392057 0.85464746 4.6118053e-05
0.034554448 0.064701527 0.0041103582 0.5082615 0.13289995 0.85088652 7.8513978e-05
0.036348343 0.064087309 0.0031334828 0.51999903 0.12843782 0.84445536 8.8123343e-05
-0.025118642 0.06640695 0.0052759871 -0.23504315 0.83301657 -0.5008375 0.00053568796
-0.022172404 0.066853039 0.0046393499 -0.2364216 0.81162685 -0.53419733 0.0010588473
-0.01942174 0.067488641 0.0043598134 -0.27340761 0.77050036 -0.57582766 0.00096915569
-0.016506387 0.068151943 0.0038587782 -0.27779251 0.74467766 -0.60686612 0.00097628671
-0.014509193 0.068374306 0.0032231018 -0.3194004 0.72039288 -0.61564398 0.00093953224
0.031653956 0.067544162 0.0052965344 0.49120507 0.16945046 0.85440284 0.00010069292
0.034358121 0.06760364 0.003719473 0.50029016 0.16767855 0.84946674 9.3034927e-05
-0.016262505 0.069329947 0.0053133033 -0.29372686 0.78697509 -0.54258156 0.0017051505
-0.013337513 0.069967069 0.0045671305 -0.32874244 0.75869071 -0.56242061 0.0021037473
-0.010783799 0.070698917 0.0039509446 -0.35462242 0.72347057 -0.59231186 0.00084689161
-0.0085794004 0.071426317 0.0034238214 -0.38698196 0.71932632 -0.57690096 0.0012828445
0.029554453 0.070670374 0.0057706195 0.45751697 0.23389521 0.85788769 0.00059029536
0.031470068 0.070271082 0.0047978689 0.46996737 0.21836035 0.85524821 0.00060739566
0.033973452 0.070515662 0.0033446064 0.47578737 0.24438249 0.84492821 0.0012417207
-0.0095197083 0.072005622 0.0050709327 -0.38162813 0.74661487 -0.54490942 0.00052577036
-0.0073293536 0.072471701 0.0040552369 -0.41124922 0.70865798 -0.57330453 0.0013807465
-0.005380474 0.073223479 0.0036398843 -0.4454135 0.68872863 -0.57206619 0.00093370961
0.025983319 0.074425764 0.0057354602 0.41678354 0.37491217 0.82808959 0.00075746403
0.028999792 0.072911978 0.0052077579 0.42383665 0.35532078 0.83313245 0.0010469706
0.031813819 0.07278157 0.0038575788 0.45895791 0.2946429 0.83817858 0.00047274248
0.033702448 0.072256543 0.0030591968 0.47942898 0.25152081 0.84076464 0.0012216845
0.0023517709 -0.075698785 0.0085612563 -0.029585615 -0.92053723 0.38953286 0.002437331
0.0046963505 -0.076078758 0.0075346292 -0.010900967 -0.94859481 0.31630543 0.00086952414
0.0074927285 -0.076243818 0.0074414075 0.013407398 -0.94585228 0.32432041 0.00083653041
0.010625059 -0.076228186 0.0074537443 0.031706356 -0.92451292 0.37982962 0.0025348784
0.013622323 -0.076040551 0.0073640123 0.083465792 -0.88658959 0.45496416 0.0039265384
0.016478065 -0.075834073 0.0070748948 0.14122601 -0.82919556 0.54082352 0.0041612345
0.019425834 -0.075519376 0.0066526192 0.19235915 -0.76351494 0.61647618 0.0041298955
0.021574493 -0.075168282 0.0063538956 0.25870785 -0.69689918 0.66888106 0.0024406128
-0.01161276 -0.07203234 0.0088904127 -0.36848217 -0.86949253 -0.32894325 0.0028218166
-0.0073650968 -0.07320524 0.0083265202 -0.37573606 -0.84793073 -0.37394655 0.0026366068
-0.0048795613 -0.073797785 0.007047582 -0.43119437 -0.82314432 -0.36946571 0.0031681978
0.017058278 -0.07469257 0.0084529659 0.2129623 -0.7115348 0.6696009 0.0032485551
0.019824857 -0.074082136 0.0080832681 0.2568897 -0.64213592 0.72226667 0.0036296912
0.022529088 -0.0735543 0.0074145938 0.30662584 -0.57548809 0.75815183 0.0028360854
0.025244523 -0.073014982 0.0066186138 0.35394928 -0.51757026 0.77899998 0.0035927279
0.027317695 -0.072203204 0.0061382684 0.38497823 -0.4921965 0.78072685 0.0031908497
0.023375865 -0.071352318 0.0084850397 0.41224721 -0.36390314 0.83524054 0.0028886888
0.025568761 -0.07050357 0.007742139 0.42775723 -0.33015823 0.84143883 0.0033694054
0.02804181 -0.070227668 0.0065307119 0.44503164 -0.29039273 0.84712392 0.0021316109
0.026100975 -0.067663141 0.0082569038 0.46378815 -0.21652195 0.8590802 0.00070968032
0.028630279 -0.067473166 0.0068942402 0.47375187 -0.19675602 0.85839748 0.00019450157
0.03028056 -0.066669993 0.0061442386 0.48130724 -0.18756121 0.85625005 0.00015247168
0.0265649 -0.064749904 0.0085847024 0.48305479 -0.15671067 0.86145222 4.2670137e-05
0.028489618 -0.064482339 0.0075607831 0.48764032 -0.15096529 0.85989332 7.5555232e-05
0.030681163 -0.064316414 0.0063368664 0.49587506 -0.14445835 0.85629421 7.2600262e-05
0.028495725 -0.061575286 0.0080225607 0.49411154 -0.11804352 0.8613475 9.5170173e-05
0.031072367 -0.061380357 0.006540223 0.50220752 -0.11114147 0.85757524 7.3873438e-05
0.029015023 -0.058439944 0.0080651166 0.51226777 -0.064917587 0.85636878 0.00012872122
0.031431064 -0.058500689 0.0066224611 0.51718223 -0.055671893 0.85406274 0.00034360294
0.028930414 -0.05535239 0.0082785133 0.53939033 0.026319014 0.84164453 0.0013686386
0.031304602 -0.055545211 0.0067947032 0.53643936 0.054077819 0.84220451 0.0021404279
0.028846588 -0.052378222 0.0079471879 0.5559389 0.21255271 0.80358773 0.0025347124
0.030939121 -0.052603815 0.006529924 0.5469451 0.26269031 0.79488677 0.0039566145
0.026461398 -0.048911665 0.0082431668 0.56925863 0.36691916 0.73574108 0.0031209693
0.028420379 -0.049690165 0.0071105347 0.55785757 0.42201358 0.71463245 0.0055918605
0.030281253 -0.050443128 0.0061006877 0.56087011 0.43578747 0.70392764 0.0023181844
0.023528138 -0.045614481 0.0080663031 0.56554043 0.60996121 0.55507785 0.0015124304
0.025317717 -0.046599768 0.0073469682 0.55933207 0.58661962 0.58568347 0.0046898546
0.027305543 -0.047509477 0.0064479033 0.55974263 0.56016213 0.61066073 0.00091108243
0.020052563 -0.042661168 0.0075438465 0.50897044 0.76267511 0.39909369 0.001302659
0.022440409 -0.044104546 0.0072155111 0.55433953 0.66498339 0.50050449 0.0026536947
-0.049581636 -0.039658763 0.0065346314 -0.30491742 0.88430804 -0.35358837 0.003514492
-0.047867022 -0.039007645 0.0063023665 -0.28533056 0.89557171 -0.3413763 0.0019590256
0.014390458 -0.039347488 0.0071950667 0.40455857 0.91153508 0.073730014 0.0033403295
0.016672289 -0.040715758 0.0077500078 0.48232907 0.81635714 0.31767854 0.0015535977
0.018449992 -0.041444667 0.0070215496 0.48295584 0.8037219 0.34754103 0.0020272059
-0.048002969 -0.038560305 0.0079229213 -0.2636264 0.91401982 -0.30833253 0.0029463607
-0.046272829 -0.038605072 0.0073159579 -0.26361579 0.91402262 -0.30833325 0.0029519598
0.0079479869 -0.036462393 0.007125766 0.53703004 0.66435653 -0.51983565 0.018242152
0.0099219838 -0.037327126 0.007840544 0.47760147 0.74329895 -0.46840528 0.023085501
0.012696407 -0.03872855 0.007704176 0.44264263 0.89027858 0.107105 0.0047070133
0.0052462812 -0.034285113 0.0068364781 0.75400031 0.31071091 -0.57874191 0.022566956
0.0067989584 -0.034648355 0.0081047826 0.67332977 0.34901828 -0.65177697 0.019874215
0.00525208 -0.031507097 0.0068443115 0.76534873 0.025352634 -0.6431163 0.0012785457
0.0063808975 -0.0314551 0.0082749799 0.70199084 0.0028938234 -0.71218002 0.016276794
0.0098450333 -0.030515699 0.0089511015 0.24536359 -0.24736801 -0.93733978 0.024022577
0.0052489117 -0.028527409 0.0068401648 0.77286202 0.00053083204 -0.63457382 0.00067133072
0.0063892091 -0.028591201 0.0082862489 0.54432178 -0.090468965 -0.83398396 0.032489493
0.0096917991 -0.027813254 0.0086196922 0.26991874 -0.0930591 -0.95837563 0.01577596
0.00523319 -0.02549823 0.0068206638 0.76870459 -7.8724588e-05 -0.63960391 0.0011461331
0.006317894 -0.025725216 0.0081958193 0.50755936 0.019389542 -0.86139858 0.034324028
0.010014899 -0.025435679 0.0085706133 0.2104343 -0.017676683 -0.97744817 0.010982458
0.00525722 -0.02245703 0.0068516685 0.7689352 9.7712968e-05 -0.63932675 0.0011504892
0.0062812734 -0.022533841 0.0081495102 0.50635964 0.046801973 -0.86105138 0.032096889
0.0099213449 -0.022420593 0.0085640252 0.21688609 0.041506402 -0.97531408 0.014131462
0.0052543683 -0.019499812 0.0068482151 0.77160609 -0.00018910505 -0.63610065 0.00069536921
0.0063597672 -0.019361097 0.008249063 0.60939968 0.067001566 -0.79002708 0.029910227
0.010047927 -0.019822655 0.0087233568 0.18298209 0.16548325 -0.96908867 0.02150574
0.0052275006 -0.016504494 0.0068141911 0.7792362 -1.2899226e-05 -0.62673038 0.00013323486
0.0063954424 -0.016444575 0.0082941698 0.77281791 0.013780302 -0.63447827 0.00063839735
0.0052237888 -0.013533758 0.0068095783 0.78502166 2.8363171e-05 -0.61946833 2.9469669e-07
0.0063749021 -0.013480855 0.0082684066 0.78154796 0.0063183289 -0.62381309 0.00013955514
0.0052350103 -0.010512201 0.0068237856 0.7852608 5.8643236e-05 -0.61916512 0
0.0063836798 -0.01043302 0.0082797883 0.78526151 0.00027424822 -0.61916423 2.7585835e-07
0.0052461335 -0.0074833725 0.0068383003 0.78525007 5.6906225e-05 -0.61917877 3.7862361e-07
0.0063824104 -0.0074530467 0.0082787871 0.78539675 3.3803768e-05 -0.61899275 4.825535e-07
0.0052431291 -0.0045360411 0.0068346187 0.78524727 5.485272e-05 -0.61918241 9.9462717e-08
0.0063816188 -0.0044663157 0.0082778987 0.78536952 2.6833437e-05 -0.61902732 0
