# .PCD v0.7 - Point Cloud Data file format
VERSION 0.7
FIELDS x y z normal_x normal_y normal_z curvature
SIZE 4 4 4 4 4 4 4
TYPE F F F F F F F
COUNT 1 1 1 1 1 1 1
WIDTH 543
HEIGHT 1
VIEWPOINT 0 0 0 1 0 0 0
POINTS 543
DATA ascii
0.037844952 0.078726657 -0.0049931942 0.51725948 0.73617834 0.43644491 0.0043360535
0.039141163 0.078202382 -0.0056507448 0.55921179 0.72365856 0.40447557 0.0044065109
0.025847657 0.081054948 -0.0055271792 -0.13388562 0.97662252 0.16817579 0.0028100738
0.028749991 0.081266105 -0.0052063856 0.0053410023 0.96113247 0.27603602 0.0041253176
0.031406954 0.081190161 -0.0054325387 0.14826244 0.95153701 0.26943573 0.0046087797
0.011832911 -0.078066334 -0.0010727256 -0.23722084 -0.9698444 -0.055929329 0.0029270942
0.013757069 -0.078294404 -0.0014597707 -0.18650296 -0.98232287 0.016075766 0.0027096635
0.016539361 -0.078772493 -0.0014009969 -0.12826341 -0.9840197 0.12350632 0.0024553617
0.019472426 -0.079165645 -0.0015563049 -0.090428263 -0.97271365 0.2136607 0.0032074794
0.022394199 -0.079359271 -0.0014677715 -0.049307283 -0.95549297 0.29086417 0.0030258659
0.025513006 -0.079477258 -0.0016209779 0.0019757173 -0.93155128 0.36360472 0.0039852732
0.028557958 -0.07940159 -0.001717914 0.063860632 -0.89997876 0.43123087 0.0021838995
0.031663377 -0.07900729 -0.0017089033 0.19810793 -0.83635861 0.51113361 0.0034811385
0.034143832 -0.078488044 -0.0020392619 0.30840045 -0.78434002 0.53823769 0.0039794822
0.036270432 -0.078032002 -0.0028645119 0.44050848 -0.70057797 0.56137586 0.0032637594
0.0026745431 -0.07518886 -0.00041861652 -0.42559892 -0.83517438 -0.34835225 0.0037746732
0.0047004712 -0.075586282 -0.0013226056 -0.36061677 -0.88286597 -0.30083773 0.003473453
0.0075171404 -0.076628342 -0.0013456129 -0.2988247 -0.93307853 -0.20017081 0.0030618818
0.010481998 -0.077472821 -0.0017020116 -0.2603755 -0.95816529 -0.11884358 0.0024054523
0.012289003 -0.077956252 -0.0019091669 -0.23387913 -0.9713226 -0.042813655 0.0028285244
0.032277983 -0.077673234 -0.00015997158 0.24437656 -0.71340603 0.65675861 0.0034186046
0.035245281 -0.077017494 -0.0010001346 0.4161247 -0.67594671 0.6082238 0.0063427105
0.037492067 -0.076312579 -0.0019128416 0.51257139 -0.61021978 0.6040715 0.0048235026
0.039371196 -0.075463973 -0.00270752 0.58815086 -0.54964066 0.5932737 0.0039277058
-0.00078182772 -0.072680123 -0.0010525807 -0.53666866 -0.71728992 -0.44438931 0.0032118994
0.0013407294 -0.073658168 -0.0016561976 -0.48304877 -0.76872051 -0.41920468 0.0022416443
0.0034142283 -0.074626602 -0.0021468736 -0.42713436 -0.82199341 -0.37667373 0.0026431798
0.038125891 -0.073847249 -0.00065718079 0.55419314 -0.37315696 0.74405909 0.0030408017
0.040186618 -0.073587246 -0.0022316356 0.64390188 -0.41916054 0.64007413 0.0035881118
-0.0064696143 -0.069301546 -0.00030030432 -0.37906703 -0.73349905 -0.56416959 0.017694784
-0.0042206361 -0.069979414 -0.0010303681 -0.487389 -0.69559127 -0.52783024 0.0090011954
-0.0019153754 -0.070830353 -0.0020730081 -0.54779249 -0.66696739 -0.50505239 0.0046865903
0.038743678 -0.071404278 -0.00019872519 0.60121268 -0.24078177 0.76194984 0.00089695957
0.040562849 -0.070551954 -0.001409359 0.62682432 -0.24442005 0.73983115 0.00077478145
0.04219475 -0.070184186 -0.0026876733 0.70043689 -0.30183065 0.64675057 0.0014102984
-0.009940451 -0.066570736 -0.00054065842 -0.35219279 -0.65983033 -0.66376513 0.0013815035
-0.0073537054 -0.067365564 -0.0013215401 -0.42945343 -0.65332872 -0.62348318 0.003968365
-0.0048993053 -0.068234809 -0.0021386179 -0.4890165 -0.6406737 -0.59194595 0.0044414834
-0.0026799049 -0.068460919 -0.0022965297 -0.56706583 -0.70692748 -0.42271742 0.015334729
0.04093435 -0.067591421 -0.00088893896 0.6266486 -0.18278448 0.75756276 0.00055707723
0.042662974 -0.067320801 -0.0023445473 0.68380797 -0.19818749 0.70223105 0.00084271753
-0.021277416 -0.063170314 -0.00024233642 -0.1601771 -0.75925565 -0.63077265 0.00043077409
-0.019058907 -0.063241608 -0.00038052653 -0.16812986 -0.73891914 -0.65248054 0.00056113576
-0.016344639 -0.063672021 -0.00069389504 -0.20860599 -0.71206552 -0.67040747 0.00062682806
-0.013379226 -0.064227886 -0.0011767705 -0.26987058 -0.67993313 -0.68180698 0.00065584277
-0.010643514 -0.06481041 -0.0018458662 -0.34887889 -0.63941765 -0.68514854 0.00099063478
-0.0083043845 -0.065513432 -0.002483428 -0.42809877 -0.61853635 -0.65889615 0.00063568121
0.041238882 -0.064583525 -0.00050124084 0.62920558 -0.14101805 0.76433903 0.00045609137
0.043010175 -0.064480603 -0.0019927975 0.69646287 -0.14596276 0.70259118 0.00071371032
-0.037118405 -0.060181439 -0.00038651135 -0.15978511 -0.89971691 -0.40617511 0.00033190427
-0.034372114 -0.060409866 -0.00084199355 -0.14087158 -0.88164914 -0.45038861 0.00036338947
-0.031399444 -0.060665946 -0.001154871 -0.12364926 -0.86100692 -0.49333361 0.00052460993
-0.028479282 -0.060915567 -0.0013729392 -0.11395584 -0.83783913 -0.53389114 0.0005076658
-0.025494367 -0.061185688 -0.001540667 -0.10571364 -0.80741817 -0.58043122 0.00073691458
-0.0225455 -0.06160479 -0.0015471781 -0.12935282 -0.76794916 -0.62731326 0.00054858025
-0.019603217 -0.06188279 -0.0017816928 -0.14080012 -0.73942715 -0.65834856 0.00058044592
-0.016662057 -0.062138163 -0.0021364221 -0.18357199 -0.70391691 -0.68615043 0.00066010433
-0.013919651 -0.062543377 -0.0025566032 -0.25527614 -0.66449755 -0.70233691 0.00068989646
-0.011922224 -0.06275928 -0.0029942906 -0.31351498 -0.62519503 -0.7147305 0.00091852038
0.041539453 -0.06181315 -0.00029795128 0.63181454 -0.091762781 0.76966876 0.00069376448
0.043285608 -0.061540838 -0.0017880999 0.7071023 -0.075851798 0.70303112 0.0013010208
-0.051131885 -0.057046231 -0.00010412191 -0.24791309 -0.89128965 -0.37966031 0.067035288
-0.049474329 -0.057046466 -0.00012839108 -0.28523859 -0.89437991 -0.3445628 0.016525798
-0.045708347 -0.058226857 -0.00035936068 -0.24373864 -0.87436283 -0.41962031 0.0088259634
-0.043590218 -0.058276389 -0.0015899814 -0.31084779 -0.84379637 -0.43747166 0.013799774
-0.040689867 -0.059045736 -0.0015936381 -0.20121536 -0.90174085 -0.38259074 0.0066787056
-0.037682667 -0.05944676 -0.001799695 -0.10677202 -0.90361947 -0.41481516 0.0006749162
-0.034629475 -0.059602652 -0.0023296159 -0.10477649 -0.88591123 -0.45186633 0.00042216116
-0.031938814 -0.059747051 -0.0026356045 -0.086180277 -0.86296469 -0.49786028 0.00049419783
-0.028955711 -0.059908431 -0.0028070819 -0.069169901 -0.83109534 -0.55181164 0.00074769423
-0.026797945 -0.059970863 -0.0028762592 -0.084731594 -0.8012374 -0.59231687 0.0012606444
0.041800473 -0.05863769 -0.00018116808 0.66407305 0.027202429 0.74717271 0.002380965
0.043245688 -0.05872735 -0.0015895917 0.71743238 0.041651085 0.69538182 0.002795072
-0.051384941 -0.055738524 -0.0013701924 -0.76141793 -0.61388552 -0.20829603 0.047637958
-0.049454905 -0.056694787 -0.0012271943 -0.21892571 -0.92582166 -0.30810025 0.012014712
-0.046566892 -0.056590255 -0.001676437 -0.18556753 -0.89252645 -0.4110488 0.016497986
-0.044057254 -0.056401838 -0.0026309313 -0.30909926 -0.83027703 -0.4637863 0.021107132
-0.041227363 -0.056518458 -0.0018656827 -0.26682329 -0.86474687 -0.42546234 0.057346404
0.041455947 -0.055014927 -0.00057513942 0.67714 0.30600694 0.66920942 0.0035917342
0.042943545 -0.05564715 -0.0019145159 0.75056887 0.32353407 0.57617021 0.0032460408
-0.051918432 -0.052870501 -0.001833585 -0.90501517 -0.39838901 -0.14910977 0.025422802
0.038719535 -0.051238727 -0.00039005658 0.57154977 0.55551571 0.60393143 0.0015229611
0.040687215 -0.052376203 -0.0014374023 0.66633946 0.46024486 0.58665699 0.0033133365
0.042309701 -0.053327329 -0.0025146534 0.69994116 0.46393254 0.54299986 0.0032313489
-0.052070342 -0.049392171 -0.0011508093 -0.99500656 0.0056884605 -0.099646948 0.0018373048
0.035572864 -0.048585571 -0.00038978836 0.52632415 0.65958279 0.53659439 0.0018311027
0.037584379 -0.049386188 -0.0014144932 0.5305993 0.68296725 0.50201613 0.0042084614
0.039660566 -0.050419468 -0.0021907527 0.59303594 0.61603975 0.51846254 0.0033302745
-0.051890068 -0.046444207 -0.0016733578 -0.97671187 0.19620417 -0.086820871 0.020570956
0.029852649 -0.045182317 -9.7479562e-05 0.48804843 0.81217647 0.319653 0.0033905399
0.0317319 -0.045811146 -0.0012048217 0.46008971 0.84002042 0.28754678 0.0017803811
0.034288105 -0.04716007 -0.0014393022 0.48260197 0.76945984 0.41836211 0.0033537582
0.036237612 -0.047732338 -0.0025192827 0.49006596 0.77406073 0.40083075 0.0042190612
-0.051407304 -0.043768149 -0.0012604689 -0.72240734 0.63786387 -0.26694071 0.010749578
-0.049601167 -0.0433846 -0.0018707704 -0.083682872 0.9366408 -0.34014872 0.012039827
-0.046771131 -0.043361329 -0.0018483632 -0.21287081 0.86381149 -0.45663521 0.026302386
-0.043511894 -0.04269978 -0.0024639326 -0.25155887 0.81972671 -0.5145545 0.015391734
-0.040953852 -0.042065948 -0.0029021497 -0.18706036 0.68856311 -0.7006349 0.010338219
-0.030565411 -0.042184163 -0.0029100052 0.080478422 0.70878249 -0.70082146 0.006463212
-0.027576486 -0.04222035 -0.0029149305 0.10551182 0.59472054 -0.79697853 0.0085446034
-0.025012847 -0.042260047 -0.0028042186 0.084887713 0.59093744 -0.80223876 0.0055223196
-0.022583291 -0.042467304 -0.0027772351 0.092976622 0.54361904 -0.83416641 0.0055343295
-0.019568063 -0.042695541 -0.002600427 0.079937927 0.5359996 -0.84042513 0.0034106891
-0.01648717 -0.042953894 -0.0024759667 0.065065831 0.52727455 -0.8472001 0.0029477871
-0.013575466 -0.042939238 -0.0022687239 0.0034850498 0.51826978 -0.85521013 0.0050119557
-0.010587094 -0.042993002 -0.0022848286 -0.0048474586 0.55240351 -0.83356285 0.0023898301
-0.0075632548 -0.042893417 -0.0023257923 -0.035110384 0.59248877 -0.80481327 0.0025919178
-0.0045006238 -0.04270092 -0.0023776018 -0.056541231 0.64697111 -0.76041532 0.0028252571
-0.0015973694 -0.042599753 -0.0024842513 -0.087140702 0.69923604 -0.7095601 0.0035689725
0.00088374503 -0.042369373 -0.0027218815 -0.15252689 0.74708647 -0.64699107 0.0026063952
0.023394026 -0.042191744 -0.0015837866 0.31279004 0.9495697 -0.021903824 0.0027454819
0.025465034 -0.042911526 -0.001542958 0.33013856 0.94378018 0.016954435 0.0028491132
0.028417382 -0.044131119 -0.0013045142 0.40430632 0.89803219 0.1734201 0.0013575997
0.030482845 -0.044835404 -0.0024943827 0.43330365 0.87189955 0.22812097 0.0022104459
-0.04540807 -0.040979106 -0.00045740508 -0.33600247 0.7696209 -0.54294199 0.026177162
-0.043399621 -0.040989384 -0.0013827155 -0.37361866 0.697438 -0.61154664 0.015628746
-0.040456422 -0.040695108 -0.0021288774 -0.22692809 0.61892843 -0.75195158 0.027199347
-0.037425905 -0.040223714 -0.0023908122 -0.079888843 0.34682471 -0.9345215 0.017628685
-0.034432061 -0.04005003 -0.0024104498 0.0076938802 0.19287899 -0.98119241 0.014261283
-0.031377733 -0.040229231 -0.0023695223 0.033078477 0.26637113 -0.96330279 0.010977987
-0.028532162 -0.040337585 -0.0022381176 0.070003092 0.28923365 -0.95469546 0.007179305
-0.025515072 -0.040422712 -0.0020741054 0.071383804 0.31623098 -0.94599277 0.0062695043
-0.022440204 -0.040538978 -0.0018713202 0.082802638 0.33273003 -0.93937987 0.0046861181
-0.019478677 -0.040452387 -0.0015917878 0.079635456 0.32977703 -0.94069409 0.0039651697
-0.016520487 -0.040550131 -0.0013775222 0.066845775 0.33514833 -0.93979108 0.0044031157
-0.013626894 -0.040480144 -0.0011455248 0.039119791 0.34876382 -0.9363938 0.0045032939
-0.010449421 -0.040503897 -0.0010243261 0.032780994 0.3823007 -0.92345631 0.0045538982
-0.0074424511 -0.040513825 -0.00093462237 0.021761646 0.41281727 -0.91055387 0.0051385402
-0.0044306442 -0.040487539 -0.00086385198 0.012546471 0.45718661 -0.88928223 0.006211644
-0.0015196237 -0.040599138 -0.00091606734 0.017422661 0.5356642 -0.84425128 0.007009489
0.0013439592 -0.040686302 -0.0010608742 -0.040924571 0.64291662 -0.76484215 0.010828776
0.0041779494 -0.040612023 -0.0015164234 -0.13308246 0.76435757 -0.63090932 0.0042304685
0.0074091014 -0.040195517 -0.0016109828 -0.077525266 0.85675496 -0.50986356 0.0013666025
0.010428603 -0.039929196 -0.0015837284 -0.0005677556 0.90742171 -0.42022076 0.0040481603
0.013456094 -0.039972879 -0.0014451086 0.079488784 0.93674481 -0.34086764 0.0039091385
0.01652725 -0.040419351 -0.0015848313 0.15260893 0.95209652 -0.26499575 0.0040418971
0.019542303 -0.041051909 -0.0015733942 0.19658217 0.96483576 -0.17449199 0.0027769741
0.021988133 -0.041742727 -0.0013606595 0.31226093 0.94997066 -0.0069919173 0.0018785269
-0.040087782 -0.037797026 -0.0011072278 -0.52197015 0.23597883 -0.81967133 0.038511135
-0.037305474 -0.037478853 -0.0022238544 -0.087265015 0.021190502 -0.9959597 0.0075608599
-0.034472413 -0.03740314 -0.0023427985 0.0089714136 0.055929128 -0.99839443 0.0061326302
-0.031500712 -0.037465688 -0.0021264646 0.059576545 0.088555403 -0.99428803 0.0054140212
-0.028373733 -0.037441604 -0.0017890442 0.076504238 0.087547675 -0.9932183 0.0038337701
-0.025322637 -0.037418522 -0.0014899209 0.077080712 0.10411767 -0.99157351 0.0049904403
-0.022661064 -0.037596375 -0.0012835597 0.075447395 0.13696317 -0.98769873 0.0058606169
-0.019630697 -0.03748133 -0.0010591507 0.085842423 0.13162 -0.98757643 0.0056560277
-0.0163144 -0.03732609 -0.00074230775 0.095256403 0.097702131 -0.99064654 0.0034215648
-0.013497404 -0.037492562 -0.00052263227 0.078304961 0.12442268 -0.98913461 0.0061369361
-0.011007997 -0.037345611 -0.00033392225 0.079674482 0.086866677 -0.99302882 0.0039759944
-0.0077938652 -0.03793681 -0.00021231217 0.087829635 0.13829559 -0.98648888 0.0035869542
-0.0046638884 -0.038183436 -0.00013641476 0.069551565 0.19591039 -0.97815216 0.0067907274
-0.0019174048 -0.038369227 -7.0972921e-05 0.085439615 0.23754546 -0.96761161 0.010083053
6.3929707e-05 -0.038888674 -0.00019756232 0.0086845662 0.42631084 -0.90453506 0.01181087
-0.039974749 -0.034607742 -0.0011871452 -0.63866639 0.025906302 -0.7690475 0.029638531
-0.037327878 -0.034450535 -0.0024278872 -0.088523492 -0.10321913 -0.99071157 0.0056708925
-0.034408029 -0.034463443 -0.0024351527 0.044009324 -0.084075503 -0.99548703 0.0013403555
-0.031276576 -0.034547977 -0.002145587 0.095176324 -0.057088293 -0.9938221 0.00042268884
-0.028606419 -0.03441162 -0.001924449 0.09075924 -0.051282648 -0.9945516 0.00032778658
-0.025365181 -0.034299877 -0.0017365232 0.080039367 -0.048428606 -0.99561459 0.0010159316
-0.02244221 -0.034411117 -0.0014911992 0.08459416 -0.065382555 -0.99426806 0.00040798227
-0.01969129 -0.034416933 -0.0012140125 0.086551741 -0.057315778 -0.99459726 0.00062103779
-0.01659802 -0.034441598 -0.00096554606 0.092350602 -0.057600927 -0.99405915 0.00039982321
-0.013398378 -0.034386422 -0.0006381445 0.097491078 -0.048370369 -0.99406028 0.00035987658
-0.010752402 -0.034318794 -0.00035502602 0.095651336 -0.034552898 -0.99481505 0.00054895075
-0.007703681 -0.033950824 -0.00017069252 0.10430396 -0.034271233 -0.99395484 0.00013858207
-0.004994337 -0.034245275 -7.5379226e-05 0.1035152 -0.0043753646 -0.99461824 0.00031209344
-0.039923087 -0.031516552 -0.0014911244 -0.63719761 -0.15265575 -0.75543064 0.028521426
-0.03757621 -0.031742163 -0.0026912016 -0.1352561 -0.12819949 -0.9824819 0.0082246605
-0.034212172 -0.03147769 -0.0026749519 0.084501274 -0.13080686 -0.98780012 0.0011544887
-0.031420939 -0.031341396 -0.0024574299 0.10118002 -0.10175898 -0.98965031 0.00025985774
-0.028420644 -0.031454545 -0.0021974151 0.085911006 -0.089507446 -0.99227399 8.3887637e-05
-0.025535541 -0.031528547 -0.0019585439 0.079368792 -0.085720927 -0.9931528 1.6215579e-05
-0.022409573 -0.031548046 -0.0017551125 0.084685981 -0.083998919 -0.99286079 1.5839836e-05
-0.01936174 -0.031588215 -0.0014423035 0.092998393 -0.081478313 -0.9923268 1.7515637e-05
-0.016545253 -0.031423815 -0.0011837375 0.098813057 -0.074947387 -0.99227965 3.0341333e-05
-0.013610549 -0.031502586 -0.00090468896 0.10473352 -0.063596033 -0.99246484 5.913616e-05
-0.010503789 -0.031440891 -0.00051067298 0.10963394 -0.05169829 -0.99262667 5.5054319e-05
-0.0077154646 -0.031361572 -0.00026973043 0.11308308 -0.042105909 -0.99269301 5.3616805e-05
-0.005346234 -0.030701363 -6.0781837e-05 0.11562918 -0.027902341 -0.99290049 3.8120565e-05
-0.039554186 -0.027977994 -0.0020564341 -0.41038933 -0.13116463 -0.90242809 0.016388532
-0.038289368 -0.028758088 -0.0028394074 -0.25259471 -0.12679529 -0.95922822 0.010089685
-0.033757392 -0.029452616 -0.0028712088 0.1037531 -0.14856356 -0.98344505 0.00093507068
-0.031308968 -0.0288228 -0.0026946981 0.1207673 -0.1300721 -0.98412222 0.00021227602
-0.028564224 -0.028458621 -0.0024879707 0.093857571 -0.11351743 -0.98909283 0.0001490562
-0.025535908 -0.028505096 -0.0022477661 0.083977416 -0.099003553 -0.99153721 0.0001091215
-0.022375461 -0.028520446 -0.0019345436 0.091186844 -0.084209494 -0.99226695 3.9860577e-05
-0.019539045 -0.028421797 -0.0017039728 0.099384807 -0.07606373 -0.99213767 2.5613341e-05
-0.016232392 -0.028636917 -0.0013213179 0.10948943 -0.067416809 -0.9916991 3.1439573e-05
-0.013749805 -0.028326059 -0.0010568183 0.11577654 -0.058013059 -0.99157965 3.4531455e-05
-0.010293116 -0.028598201 -0.00062921981 0.11997803 -0.046581917 -0.99168313 4.272248e-05
-0.0076619005 -0.02845154 -0.00033842801 0.121534 -0.034431007 -0.99198991 3.7649781e-05
-0.0053112176 -0.028206846 -0.00013591746 0.12763594 -0.025857408 -0.99148399 3.2185231e-05
-0.0026229278 -0.027997123 -2.2248338e-05 0.14278172 -0.010567001 -0.98969781 8.6057182e-05
-0.039627254 -0.02568539 -0.0023681109 -0.61791217 -0.1187124 -0.77723354 0.023977099
-0.038654026 -0.026589245 -0.0029301273 -0.21354111 -0.16692843 -0.96256691 0.0095561268
-0.030704923 -0.025895394 -0.0029081395 0.14580375 -0.16473483 -0.97550184 0.00034202824
-0.028219428 -0.02583752 -0.0027489855 0.1119094 -0.13370486 -0.98468244 0.00022620731
-0.025599832 -0.025457818 -0.0025107148 0.10433677 -0.11599487 -0.98775452 0.00015546624
-0.02262757 -0.025325697 -0.0022623872 0.10384118 -0.097872272 -0.98976666 0.00011025299
-0.019443473 -0.025599401 -0.0018786356 0.11010003 -0.079962768 -0.99069864 6.3726817e-05
-0.016522767 -0.025359401 -0.0015985258 0.11842159 -0.068879917 -0.9905715 4.437234e-05
-0.013399263 -0.025505263 -0.0011723102 0.12646621 -0.055425119 -0.99042135 3.867417e-05
-0.010670658 -0.025304541 -0.00085031567 0.13196936 -0.043518525 -0.99029803 4.1931107e-05
-0.0076286434 -0.025523081 -0.00040527986 0.13553119 -0.032605607 -0.9902364 3.9228606e-05
-0.0050628968 -0.02546688 -0.00016235028 0.13979739 -0.023121405 -0.98991019 2.562856e-05
-0.0025928584 -0.025424283 -4.2401214e-05 0.14966737 -0.011988539 -0.98866379 4.4600445e-05
-0.039899454 -0.022699879 -0.002154568 -0.7890566 -0.07994815 -0.60909605 0.024077117
-0.027488774 -0.023238515 -0.0029104315 0.14065906 -0.15925717 -0.9771654 0.00032190437
-0.025073426 -0.023049286 -0.0027764288 0.11631929 -0.13158916 -0.98445624 0.0001816282
-0.022474121 -0.02252478 -0.0025015243 0.11926097 -0.10898045 -0.98686373 0.00013489972
-0.019522345 -0.022518257 -0.0021469088 0.12597606 -0.090450354 -0.98790121 0.00011182811
-0.016529126 -0.022413287 -0.0017738298 0.13152142 -0.072780661 -0.98863804 7.5409414e-05
-0.013401154 -0.02248743 -0.0013692612 0.1398211 -0.056624521 -0.98855644 5.1074716e-05
-0.010561075 -0.022519894 -0.0009576882 0.14447324 -0.042818476 -0.98858184 4.5284596e-05
-0.0074625174 -0.022480775 -0.00047653136 0.14826186 -0.030419268 -0.98848015 4.3801942e-05
-0.0048898351 -0.022402335 -0.00020038264 0.1520437 -0.020529265 -0.98816049 2.7227828e-05
-0.002648422 -0.022696503 -7.3228817e-05 0.15672514 -0.015523305 -0.98752028 3.7859543e-05
-0.03962341 -0.019694187 -0.0014906591 -0.95428175 -0.00054247869 -0.29890803 0.020782301
-0.02449953 -0.020364838 -0.0029202618 0.14290862 -0.14197518 -0.97949994 0.00016578143
-0.022132622 -0.019812845 -0.0027766321 0.14503826 -0.12048809 -0.98206234 0.00016805215
-0.019477701 -0.019509824 -0.0024202021 0.14169496 -0.10036426 -0.9848094 0.00013063378
-0.016379124 -0.019492202 -0.002003883 0.15142162 -0.079967476 -0.98522925 0.00012786886
-0.013441361 -0.019608522 -0.001508903 0.15445001 -0.059557136 -0.98620391 7.5202828e-05
-0.010608274 -0.019518044 -0.0010687197 0.15786132 -0.045056317 -0.98643279 5.643558e-05
-0.0073820679 -0.019552918 -0.00055042899 0.16044369 -0.030322058 -0.98657912 5.1573377e-05
-0.0048959502 -0.019369096 -0.00021166528 0.16365387 -0.019826595 -0.98631859 3.209533e-05
-0.0024827942 -0.019712081 -8.3003069e-05 0.17147377 -0.011283349 -0.98512411 4.0870364e-05
-0.039378952 -0.016373524 -0.00087449857 -0.98356938 0.052220311 -0.17281292 0.0058115805
-0.02153774 -0.017227842 -0.0028950369 0.17362091 -0.13389553 -0.97566783 0.00018245015
-0.01925768 -0.016643863 -0.0026954759 0.16825391 -0.11094641 -0.97948015 0.00013872076
-0.016676104 -0.016454868 -0.0022621097 0.16821033 -0.088078909 -0.98180825 0.00011915302
-0.013502476 -0.016493076 -0.0017133955 0.17323342 -0.066919535 -0.98260462 9.365291e-05
-0.010383881 -0.016540444 -0.0011703448 0.17239037 -0.048975348 -0.98381042 6.9120477e-05
-0.0075779022 -0.016371639 -0.00068707252 0.17383958 -0.036220528 -0.98410767 5.9951406e-05
-0.0048847543 -0.016475765 -0.00023095473 0.17653833 -0.022390749 -0.98403901 4.7572728e-05
-0.002445844 -0.016734455 -0.00010430965 0.1816075 -0.012562256 -0.98329085 4.7557674e-05
-0.039308127 -0.013475864 -0.0010599949 -0.97459525 0.061447747 -0.21537922 0.0085225897
-0.038828369 -0.012760567 -0.0023099184 -0.98792291 0.037454847 -0.15035097 0.0094136931
-0.018837806 -0.013971031 -0.00283171 0.1964625 -0.11071935 -0.97424006 0.00012072088
-0.016432248 -0.013619688 -0.0024845593 0.1920817 -0.09542013 -0.97672909 0.00011083819
-0.013534635 -0.013435739 -0.0019415366 0.18808419 -0.074529 -0.97932106 9.2692106e-05
-0.010477304 -0.013485169 -0.0013565912 0.18789181 -0.055912454 -0.98059696 7.515664e-05
-0.0074540703 -0.013456303 -0.00077663513 0.18820499 -0.038932245 -0.98135781 7.6788201e-05
-0.0046895877 -0.013516109 -0.00031025987 0.18876757 -0.025358897 -0.98169434 5.6154931e-05
-0.0024762743 -0.013494343 -9.3897943e-05 0.20165049 -0.013497819 -0.97936451 0.00011274471
-0.039334856 -0.010480074 -0.00099054771 -0.96537197 0.010420558 -0.26066905 0.0083365683
-0.038800921 -0.010392597 -0.0023814337 -0.99641842 0.012971832 -0.0835585 0.0074735712
-0.01842103 -0.011129897 -0.0028896453 0.21786301 -0.10885146 -0.96989024 9.0136571e-05
-0.016142428 -0.010713262 -0.0026979144 0.21009681 -0.093036756 -0.97324383 9.7947719e-05
-0.013505218 -0.010521013 -0.0021560467 0.20439801 -0.078574322 -0.97572929 9.3503433e-05
-0.010484486 -0.010470065 -0.0015345213 0.20387273 -0.059527062 -0.97718596 8.3136089e-05
-0.0073970133 -0.010502418 -0.00088741881 0.20385201 -0.042976439 -0.97805798 7.0023394e-05
-0.0047869119 -0.010376298 -0.00038236871 0.2053588 -0.028940814 -0.97825879 5.7858899e-05
-0.0023958415 -0.010550323 -0.00012360093 0.21636793 -0.018546924 -0.97613567 9.5156982e-05
-0.039344437 -0.0074723559 -0.00096462888 -0.9656027 -0.031574219 -0.25809789 0.010226671
-0.038741291 -0.0073430249 -0.0025366654 -0.99223584 -0.055523116 -0.1112891 0.012874339
-0.015773345 -0.007888604 -0.0028068263 0.22800311 -0.093852662 -0.96912658 6.1432635e-05
-0.013539937 -0.007514888 -0.0024100943 0.22136821 -0.081250004 -0.97179967 8.6687411e-05
-0.010530244 -0.0074777217 -0.0017336775 0.22145531 -0.064431243 -0.97303963 8.9306894e-05
-0.0074849399 -0.0074577094 -0.0010447024 0.22006644 -0.046819165 -0.97436064 7.8674733e-05
-0.0046940083 -0.0074965898 -0.00045168272 0.21964183 -0.031861667 -0.97506011 6.8369925e-05
-0.0025083863 -0.007143904 -7.368037e-05 0.23544122 -0.022121195 -0.97163689 0.00018436358
-0.039889514 -0.0046968963 -0.0013407026 -0.9513545 -0.093350537 -0.29361582 0.007208101
-0.038749557 -0.005561782 -0.0025277645 -0.99114788 -0.062498234 -0.11713136 0.013027563
-0.01550555 -0.0046682176 -0.0029323057 0.24362622 -0.089403339 -0.96573979 4.2708496e-05
-0.01329683 -0.0046137818 -0.0025997832 0.23856364 -0.079018958 -0.96790671 5.8956102e-05
-0.010530697 -0.0045208782 -0.0019315823 0.23689055 -0.064146057 -0.96941644 7.2099218e-05
-0.0076513998 -0.004568846 -0.0012267457 0.23448689 -0.047440693 -0.97096097 7.2455841e-05
-0.0048051714 -0.0044754641 -0.00054827047 0.23549236 -0.03362852 -0.97129416 6.0815335e-05
-0.0024918045 -0.0044847098 -9.7533753e-05 0.2509371 -0.021797638 -0.96775788 0.00015894526
-0.039906584 -0.0015025085 -0.00099037867 -0.93227381 -0.058059189 -0.35706398 0.012558914
-0.0151412 -0.002360079 -0.002967576 0.25131983 -0.060010359 -0.96604198 0.00017443986
-0.0129723 -0.0017134653 -0.0027445587 0.25192079 -0.053474728 -0.96626931 0.00010567646
-0.010399302 -0.0015068713 -0.0020941491 0.24931769 -0.046495967 -0.96730489 8.4824482e-05
-0.0074970452 -0.0015584276 -0.0013380076 0.24727143 -0.034795471 -0.96832126 7.1529998e-05
-0.0046702498 -0.0015314487 -0.00061165274 0.24788463 -0.025699833 -0.96844858 5.1570842e-05
-0.0024672751 -0.0014901768 -0.00015923756 0.26328483 -0.016356189 -0.96457952 0.00014273194
-0.040164124 0.0016507063 -0.00078409055 -0.88360345 -0.010688091 -0.46811396 0.011131351
-0.013187655 0.0014815192 -0.002836125 0.25722 -0.0043988591 -0.96634287 0.00019297161
-0.010506043 0.0014606391 -0.0022143258 0.25393334 -0.0056104306 -0.96720546 0.00014251505
-0.0074610636 0.0014295278 -0.0014062116 0.25323132 -0.0036650486 -0.96739882 6.5382745e-05
-0.0046103387 0.0014458925 -0.00064400613 0.25362647 -0.002244574 -0.96729964 4.0755684e-05
-0.0024647533 0.0015253255 -0.00018877593 0.26841843 -0.00054295827 -0.96330231 0.00012108275
-0.04008906 0.0045487322 -0.001218317 -0.95542973 0.060463488 -0.28896043 0.0086615561
-0.01288964 0.0046328036 -0.002760092 0.24934797 0.036351934 -0.96773142 3.7731523e-05
-0.010390016 0.0044285441 -0.0021149386 0.25137848 0.030912932 -0.96739507 2.6764537e-05
-0.0074804961 0.0044751717 -0.001355422 0.25225151 0.025606779 -0.96732283 1.6227101e-05
-0.0046992362 0.0044719563 -0.00063005148 0.25216162 0.020914027 -0.96745908 2.1946889e-05
-0.0024870287 0.004401105 -0.00017147073 0.2614156 0.014777062 -0.96511322 9.8588665e-05
-0.039313123 0.0077175931 -0.0010490268 -0.96881437 0.095038287 -0.22883701 0.0074455356
-0.038741123 0.0077455351 -0.0025389758 -0.98675025 0.099679686 -0.12801549 0.0092236269
-0.01521869 0.0074811201 -0.0029084075 0.24172854 0.061214693 -0.96841115 8.8633293e-05
-0.013140269 0.0075049312 -0.0026781945 0.24052371 0.058024496 -0.96890736 6.4766617e-05
-0.01046806 0.0074878903 -0.0020178079 0.24291234 0.047896482 -0.9688651 4.0403029e-05
-0.0075264415 0.0075166561 -0.0012617193 0.24502005 0.03751605 -0.96879196 3.3146927e-05
-0.0047230041 0.0074546486 -0.00054003147 0.24277356 0.027690066 -0.9696877 3.4963748e-05
-0.0025583615 0.0075103557 -0.00011758111 0.25195163 0.018738914 -0.96755838 9.5662377e-05
-0.039299585 0.010540402 -0.0010851271 -0.96809852 -0.012833027 -0.25024113 0.0090248035
-0.038811516 0.010545668 -0.0023561674 -0.9959231 -0.033701841 -0.083674051 0.0077174818
-0.015565194 0.01081181 -0.0028976251 0.23033985 0.086253807 -0.96928 7.527358e-05
-0.013399018 0.01049106 -0.0025373653 0.22515385 0.076510526 -0.97131449 6.3244421e-05
-0.010572191 0.010483131 -0.0018686348 0.22991025 0.061915778 -0.97124028 7.7561279e-05
-0.0075268121 0.010486798 -0.0011329285 0.23182775 0.045379627 -0.97169781 8.2856124e-05
-0.0048066755 0.01034111 -0.00049189659 0.22948463 0.029403621 -0.97286808 7.6450211e-05
-0.002596922 0.010253583 -9.2204144e-05 0.23790945 0.019289693 -0.9710958 0.00012246527
-0.039323203 0.013507998 -0.001023241 -0.97345805 -0.026453793 -0.2273317 0.0085743312
-0.038821653 0.012882368 -0.0023301714 -0.98899597 -0.034325916 -0.14390489 0.0090801623
-0.018277906 0.01472757 -0.0028960491 0.21263848 0.11525247 -0.97031015 5.9244489e-05
-0.016026367 0.01373585 -0.0027701126 0.2110296 0.10103136 -0.97224438 7.526837e-05
-0.013547751 0.01347291 -0.0023022597 0.2083161 0.087754861 -0.9741168 9.7390242e-05
-0.010489917 0.013516067 -0.0016394854 0.21421662 0.068457276 -0.97438431 9.5972951e-05
-0.0074205315 0.013481353 -0.00095823489 0.21544586 0.047670972 -0.97535145 0.00012849635
-0.0047649178 0.013376988 -0.00040260539 0.20917428 0.029990992 -0.97741842 0.00012950557
-0.0024670409 0.013508878 -0.00016499283 0.22342113 0.013777371 -0.97462463 0.00017500466
-0.039357096 0.016343392 -0.00093414448 -0.97965634 -0.060552288 -0.1913293 0.0070944387
-0.038884006 0.016161988 -0.0024913163 -0.98906422 -0.060864132 -0.13434151 0.01198021
-0.018535567 0.017089335 -0.0028291275 0.1977112 0.12684205 -0.9720192 6.7881439e-05
-0.016442567 0.016456479 -0.0025854206 0.19775039 0.11398682 -0.97360241 7.5149277e-05
-0.013468213 0.016423132 -0.0020235577 0.19421855 0.10005548 -0.97584218 9.8353426e-05
-0.010446198 0.016498631 -0.0014182302 0.19400926 0.077543996 -0.97793019 0.00016565665
-0.0074518821 0.016511563 -0.00080365269 0.18973823 0.054217704 -0.98033655 0.0002295938
-0.0047168238 0.016546249 -0.00032512649 0.18912755 0.033712707 -0.98137367 0.00013600121
-0.0023572079 0.016406903 -0.00013225868 0.20627765 0.018014612 -0.97832769 0.00020929256
-0.039535359 0.019447332 -0.0010109645 -0.97478414 -0.047000796 -0.21814406 0.010566697
-0.021543482 0.020501407 -0.0029384783 0.16693181 0.15297911 -0.97402841 0.00010407596
-0.019221071 0.019584646 -0.0027262587 0.17818637 0.13391761 -0.97484136 6.812728e-05
-0.016517757 0.019537399 -0.002227081 0.18101223 0.12053964 -0.97606599 6.800409e-05
-0.013443964 0.019449646 -0.0016706248 0.17735353 0.10252387 -0.97879231 0.00010501064
-0.010401724 0.019565169 -0.0011158088 0.17001966 0.079480276 -0.98223019 0.00016003454
-0.0075890771 0.019371662 -0.00066851918 0.1665131 0.057558652 -0.98435789 0.0001449675
-0.0049026622 0.019460768 -0.00024678398 0.16807744 0.041585829 -0.98489624 7.5000091e-05
-0.0026013518 0.019307742 -0.00015656892 0.18932083 0.023633409 -0.98163086 0.00022066846
-0.039770711 0.022865688 -0.0022227368 -0.81947911 0.05229187 -0.57071847 0.018196722
-0.024455985 0.02321497 -0.0029155186 0.1478221 0.16211568 -0.97563678 9.1123038e-05
-0.022081479 0.022811798 -0.0027365629 0.14776208 0.14750153 -0.97796202 8.5674648e-05
-0.019544546 0.02243151 -0.002398331 0.16281313 0.13179137 -0.97781539 9.1306625e-05
-0.016383162 0.022543991 -0.0018475668 0.16550033 0.11021766 -0.98003143 0.00010496423
-0.013450421 0.022470387 -0.0013774468 0.15584512 0.091606036 -0.98352468 0.00012868829
-0.01053197 0.022446081 -0.00096408848 0.14924765 0.072823092 -0.98611456 0.00010963922
-0.0075559886 0.022547748 -0.0004826978 0.14941348 0.055768024 -0.98720086 5.1410425e-05
-0.005138387 0.022116514 -0.00017568053 0.15395911 0.044650327 -0.98706788 6.021831e-05
-0.0025203149 0.022255201 -8.8814137e-05 0.17094652 0.026900262 -0.98491305 0.00021126514
-0.039681364 0.025810532 -0.002164955 -0.73526299 0.12607165 -0.66595364 0.023257365
-0.030365551 0.026981227 -0.002965471 0.13030802 0.18616353 -0.97383928 4.2879539e-05
-0.028031453 0.026521327 -0.0029348696 0.13072355 0.16957153 -0.9768095 0.00010931311
-0.025433367 0.025863016 -0.0027502768 0.12915744 0.15843089 -0.97888607 7.8053163e-05
-0.022436898 0.025428558 -0.0024362064 0.13538149 0.13913925 -0.98097509 8.303349e-05
-0.019450679 0.025365353 -0.0020101913 0.1454387 0.1235468 -0.98162305 0.00015963675
-0.01641795 0.025546139 -0.0015271145 0.14168848 0.096061312 -0.98523933 0.00016914276
-0.013590264 0.025530234 -0.0011161959 0.13716741 0.077615269 -0.9875024 0.00012324522
-0.010403171 0.025463648 -0.00072820275 0.13411088 0.058131848 -0.98925972 8.9010122e-05
-0.0074848779 0.025472321 -0.00034450358 0.13437529 0.044681318 -0.9899227 0.00011772493
-0.0051103458 0.025206383 -9.7084754e-05 0.13796337 0.031937644 -0.98992229 9.9070188e-05
-0.0027616527 0.024322145 -1.1495444e-05 0.16626383 0.017903971 -0.98591876 0.00031787882
-0.039676122 0.028192338 -0.0021085043 -0.54868972 0.15456976 -0.82161289 0.019200344
-0.038623467 0.02911159 -0.0028512697 -0.29756695 0.1527092 -0.9424085 0.010505924
-0.033794474 0.029507255 -0.002902814 0.080642201 0.19707657 -0.97706586 0.00049762719
-0.031200504 0.029266657 -0.002852207 0.11391786 0.17080386 -0.97869748 9.8856042e-05
-0.028206343 0.028718619 -0.0026918564 0.1144439 0.15353236 -0.98149401 9.7662407e-05
-0.02549609 0.02830625 -0.0023859176 0.11773159 0.14136036 -0.98293263 8.8186156e-05
-0.022236878 0.028448045 -0.0019848305 0.1193925 0.12670816 -0.98472863 0.00011290496
-0.019670103 0.028246025 -0.0016867053 0.12359235 0.11068211 -0.98614115 0.00013263026
-0.016374175 0.028582346 -0.001257268 0.12103462 0.083742917 -0.98910952 0.0001615654
-0.013611243 0.028450213 -0.00097373768 0.11850773 0.066610791 -0.99071634 9.9627337e-05
-0.010375065 0.028562393 -0.00054404431 0.11585576 0.047362924 -0.99213618 5.372626e-05
-0.0077178585 0.028333651 -0.00026962414 0.11662558 0.033633012 -0.99260634 7.0490314e-05
-0.0045259609 0.028553365 -0.00015725357 0.11735713 0.01715875 -0.9929415 8.2619132e-05
-0.039862838 0.03161402 -0.0016136525 -0.5813576 0.12533364 -0.80393708 0.022105724
-0.037769333 0.031851102 -0.0027569556 -0.16205812 0.15233792 -0.97495145 0.0068093082
-0.03421795 0.031970475 -0.0027875567 0.071573839 0.1467258 -0.98658431 0.0012664129
-0.031221446 0.031428061 -0.0025879059 0.1037018 0.13585879 -0.98528588 0.0001489954
-0.028321667 0.031652972 -0.002261145 0.10221258 0.12796682 -0.98649734 0.00015580778
-0.025497779 0.031479746 -0.0020343431 0.10319792 0.12027925 -0.98736173 0.00011934594
-0.022580177 0.031291619 -0.0017285048 0.10368928 0.10346857 -0.98921323 0.00011213389
-0.019547846 0.031664092 -0.0013662247 0.10560915 0.083094895 -0.9909299 0.00013865955
-0.016687982 0.031471994 -0.0010783327 0.10238897 0.070439614 -0.99224734 0.00012767747
-0.013285298 0.031546783 -0.00073381938 0.1050809 0.055794243 -0.99289733 6.3353604e-05
-0.010649793 0.031368829 -0.00044302241 0.10651786 0.043619022 -0.99335355 5.0669412e-05
-0.0078087491 0.031281259 -0.00020084628 0.10414784 0.032981701 -0.9940148 3.8851762e-05
-0.0048646727 0.031446233 -0.00012682362 0.10184974 0.019525817 -0.99460816 4.544502e-05
-0.039937142 0.034729019 -0.0012754732 -0.66205138 0.018700624 -0.74922514 0.02423878
-0.037486672 0.034385953 -0.0025080605 -0.10873878 0.11704895 -0.98715526 0.0065833135
-0.034367297 0.034643084 -0.0025438222 0.032488853 0.098548159 -0.99460179 0.0014722885
-0.03151124 0.034539118 -0.0022809347 0.09857589 0.087486193 -0.99127644 0.000426888
-0.028626896 0.034451921 -0.0019827608 0.10422262 0.068919264 -0.99216312 0.00055622094
-0.02551653 0.034495052 -0.001721722 0.090615891 0.069307968 -0.99347126 0.00070889754
-0.022465995 0.034520246 -0.0014038887 0.092223972 0.053648409 -0.99429202 0.00052138482
-0.019501027 0.034500241 -0.0011357019 0.094377704 0.055267181 -0.99400127 0.00029904587
-0.016600145 0.034399424 -0.00092942512 0.088546358 0.046976633 -0.99496371 0.00010523487
-0.013473045 0.03453248 -0.00061321357 0.090339981 0.02889278 -0.9954918 0.00021255476
-0.01060281 0.034472544 -0.00037614454 0.095327169 0.020866284 -0.99522734 8.4290579e-05
-0.0079105478 0.034399662 -0.00017010304 0.094865583 0.012450754 -0.99541223 9.0737842e-05
-0.005042654 0.034342486 -0.00010130845 0.093719199 0.00098145625 -0.99559826 0.00011521578
-0.040169414 0.03816412 -0.00098350504 -0.51567364 -0.35843632 -0.77820563 0.037234724
-0.037419867 0.037449554 -0.0022787317 -0.1724605 -0.03242005 -0.98448282 0.010618928
-0.034432769 0.037488218 -0.002426093 0.0084726233 -0.007492159 -0.99993604 0.0030052736
-0.031430319 0.037500106 -0.002183615 0.078514583 -0.043347355 -0.99597007 0.002649239
-0.028533937 0.037531521 -0.0018184511 0.086002022 -0.074588031 -0.99349904 0.0033498697
-0.025654308 0.03753268 -0.0015936133 0.078941762 -0.092501856 -0.99257827 0.0041815653
-0.02265998 0.037549157 -0.0013074172 0.084172606 -0.10700973 -0.99068862 0.0047689918
-0.019475715 0.037586153 -0.0010759868 0.084674269 -0.11551326 -0.9896903 0.0048379232
-0.016382333 0.037431374 -0.00081171736 0.086773679 -0.094416618 -0.99174386 0.0030543897
-0.013537144 0.037682705 -0.00055782602 0.07812918 -0.11856356 -0.98986793 0.0036012307
-0.010683898 0.037481107 -0.00036624906 0.081017606 -0.094490364 -0.99222362 0.0024844059
-0.0078504859 0.037711225 -0.00018959295 0.093709037 -0.1043075 -0.99012047 0.0026937013
-0.0051902598 0.03851568 -7.7851415e-05 0.078469671 -0.15142341 -0.98534942 0.0039766291
-0.0015026953 0.038776889 -0.00013772433 0.095325008 -0.23207831 -0.9680149 0.010493262
-0.045438237 0.041341987 -0.00046893975 -0.36307305 -0.75073761 -0.55187953 0.014506096
-0.043338686 0.04120449 -0.0012083786 -0.38000327 -0.68125242 -0.62569374 0.011157257
-0.040376704 0.040513068 -0.0018065255 -0.32638678 -0.4903459 -0.80810434 0.029571446
-0.037451688 0.040429659 -0.0023938313 -0.15180735 -0.29010522 -0.94487751 0.019259626
-0.034498833 0.040606268 -0.0024740903 0.02370307 -0.28964284 -0.95684123 0.019348701
-0.031494778 0.04057838 -0.0023817725 0.062266525 -0.28842527 -0.95547569 0.013349694
-0.028567351 0.040564574 -0.0022000594 0.080674909 -0.30961058 -0.9474349 0.011215558
-0.025544168 0.040509198 -0.0019954322 0.065086499 -0.30663261 -0.9496001 0.0069308747
-0.022500066 0.040543661 -0.0017713929 0.081490487 -0.29322216 -0.95256501 0.0056523443
-0.019531488 0.040575638 -0.0015281974 0.080221944 -0.31104174 -0.94700456 0.0041393819
-0.016498758 0.040548157 -0.0012679026 0.07299152 -0.31172574 -0.94736445 0.0037569706
-0.013574854 0.040619746 -0.0010819882 0.054532651 -0.32176095 -0.9452492 0.0042894473
-0.010470347 0.040530138 -0.00094177097 0.03910483 -0.35819498 -0.93282753 0.0043378035
-0.007436438 0.040549833 -0.00081172044 0.021666503 -0.38472199 -0.92277813 0.0044675726
-0.0044465098 0.040600158 -0.00073234271 0.016023718 -0.44572553 -0.89502627 0.0061526727
-0.0014604117 0.040786996 -0.00078506762 0.012722258 -0.51941252 -0.85442895 0.0068436801
0.001688426 0.041009676 -0.0009872982 -0.031907018 -0.64626628 -0.76244462 0.0091820136
0.004572052 0.04097436 -0.0014491713 -0.10818008 -0.80103195 -0.58876556 0.0036972729
0.0075488295 0.040573873 -0.0015487106 -0.072312996 -0.86358917 -0.49898359 0.0018666009
0.010495312 0.040344939 -0.001535847 0.007247299 -0.91262847 -0.40872583 0.0033838111
0.013531576 0.040443622 -0.0014986999 0.090496697 -0.93885148 -0.33221719 0.0041730274
0.016528677 0.040848952 -0.0015047896 0.16577257 -0.95847476 -0.23204643 0.0037404692
0.019328553 0.041460641 -0.0015418293 0.21520232 -0.96524465 -0.14829266 0.0025144096
0.021250058 0.041907307 -0.0011005399 0.27234742 -0.95886207 -0.080064885 0.0027819779
-0.051359016 0.044129781 -0.0014942023 -0.49601772 -0.84327143 -0.20702599 0.036826465
-0.049500156 0.043798767 -0.001741166 -0.16135089 -0.91957575 -0.35825449 0.016361808
-0.046581935 0.043751266 -0.0017246669 -0.23983331 -0.8374927 -0.49100512 0.022110434
-0.043558702 0.043043219 -0.0024736985 -0.26784357 -0.75660175 -0.59650117 0.0095014414
-0.040704273 0.042223729 -0.0027839378 -0.17661326 -0.66796881 -0.72292829 0.0098038148
-0.038193952 0.042165849 -0.0028136449 -0.055096202 -0.61328328 -0.78793907 0.013091252
-0.035381906 0.04207262 -0.0029660675 0.002510078 -0.714221 -0.69991571 0.011815189
-0.031093061 0.042192806 -0.0028128761 0.064439394 -0.56687123 -0.82128221 0.011908573
-0.028128926 0.042280581 -0.0027771399 0.060976803 -0.56483996 -0.82294452 0.0093216114
-0.025305936 0.04243277 -0.0027493844 0.078094035 -0.54888296 -0.83224326 0.006743337
-0.022424458 0.042646781 -0.0026457205 0.088512637 -0.52824152 -0.84446806 0.0047035655
-0.019473068 0.042911746 -0.0025012959 0.085624404 -0.51342666 -0.85385102 0.0039997003
-0.016464893 0.043141443 -0.0023577714 0.065950617 -0.50550222 -0.86030108 0.0032973941
-0.013475377 0.043247312 -0.0022180998 0.026021795 -0.49735045 -0.86715937 0.0038927691
-0.010503838 0.043253586 -0.00222547 0.00088825182 -0.53167194 -0.84694993 0.0027827814
-0.00753508 0.043125931 -0.0022036578 -0.022497803 -0.5708015 -0.8207798 0.0032159565
-0.0045986078 0.042874839 -0.0021736189 -0.045179427 -0.6232276 -0.78073442 0.0033416376
-0.0015793017 0.042781897 -0.0023242731 -0.072112583 -0.69087821 -0.71936578 0.0038883679
0.0012916011 0.042497113 -0.0024428472 -0.1363432 -0.72753668 -0.6723845 0.0033338952
0.0039024837 0.042241558 -0.0028814562 -0.17093278 -0.7921679 -0.58587712 0.00073772308
0.020797528 0.042068176 -0.0027596054 0.20161632 -0.97187364 -0.12170687 0.0019319935
0.022722609 0.042438027 -0.0014598223 0.28219098 -0.95845079 -0.041718293 0.0023065964
0.025458964 0.043370139 -0.0015604978 0.34511614 -0.9365055 0.062067378 0.0024767304
0.028300799 0.044501808 -0.0016373618 0.37030658 -0.92032045 0.1260294 0.0024120258
-0.051845849 0.046449166 -0.0015123826 -0.94122368 -0.2847417 -0.18171455 0.040056527
0.029617721 0.045254875 -0.00097585347 0.43656483 -0.87335676 0.21600723 0.0026356562
0.031410534 0.045970894 -0.0016607908 0.43274388 -0.8632527 0.25986046 0.0021220709
0.034095298 0.047328711 -0.0017420594 0.46156445 -0.80906016 0.36384055 0.0037697952
0.036265958 0.047949631 -0.0029510907 0.49347061 -0.77001703 0.40442625 0.0032370633
-0.052058712 0.049514096 -0.0012592892 -0.99366522 -0.012210596 -0.11171566 0.0017352784
0.035270177 0.048533201 -0.00081479031 0.49642617 -0.75102216 0.43534672 0.0038037491
0.037400208 0.049550116 -0.001587513 0.5183093 -0.70457965 0.48468846 0.0044445479
0.039524239 0.050531629 -0.0024276634 0.58284634 -0.64225924 0.49778834 0.0023900766
-0.051892929 0.052475076 -0.0017090057 -0.98275042 0.13764679 -0.12351093 0.0093784714
0.038742743 0.051415142 -0.00067101506 0.57727391 -0.55769694 0.59643024 0.0027705727
0.040481452 0.052465659 -0.0014998468 0.63928455 -0.51420891 0.57175553 0.0039450107
0.042256638 0.053396329 -0.0026544903 0.68547004 -0.50968707 0.51995188 0.003136412
-0.051482633 0.055416949 -0.0013867088 -0.95424992 0.26287338 -0.14249472 0.012474581
-0.04943841 0.056831852 -0.0021937762 -0.0083800238 0.96992928 -0.24324276 0.000376888
-0.046210319 0.056836747 -0.0024624309 -0.16110982 0.89131951 -0.42378432 0.016285533
-0.044836283 0.056854777 -0.0023904829 -0.27288279 0.84996438 -0.4506613 0.013009321
0.041457176 0.054840256 -0.00084285514 0.68748212 -0.38561451 0.61536139 0.003447206
0.042907171 0.055475045 -0.0021258802 0.74802452 -0.38298908 0.54201359 0.0029838197
-0.049658407 0.057176378 -0.00077758718 -0.1034782 0.9494794 -0.2962788 0.0090011507
-0.046227466 0.057768986 -0.00069738209 -0.26483959 0.86678326 -0.42254785 0.010029015
-0.043629136 0.058435168 -0.0015598867 -0.31478193 0.85084748 -0.42067915 0.0079376074
-0.040661577 0.059222449 -0.0017733161 -0.2074894 0.89051938 -0.40487441 0.0044072424
-0.038139798 0.059480976 -0.0025094848 -0.15076163 0.89223868 -0.42565364 0.0044396138
-0.034530535 0.059865277 -0.0026360168 -0.10109005 0.88058037 -0.46298927 0.00038256025
-0.031980377 0.059878502 -0.0029387176 -0.079443604 0.84848136 -0.52322859 0.00068966049
0.041633889 0.05839856 -9.2734525e-05 0.65687495 -0.073258996 0.75043219 0.0024860506
0.043274477 0.058528408 -0.0016207589 0.72767866 -0.089746788 0.68002152 0.0031200524
-0.039722681 0.060160559 -0.00039805364 -0.20433664 0.89770502 -0.39034885 0.0012206722
-0.037297599 0.060316067 -0.001001479 -0.16081668 0.89111209 -0.42433155 0.00081517029
-0.034571271 0.060598034 -0.0013069439 -0.12427972 0.87818927 -0.46188557 0.00044117085
-0.031491771 0.060889166 -0.0015354598 -0.11699326 0.86091447 -0.49511501 0.00050455146
-0.028452879 0.0612804 -0.0015117298 -0.10267093 0.83649981 -0.53826272 0.00051766261
-0.025488919 0.061610233 -0.0015490557 -0.098842226 0.8054179 -0.58440769 0.00056965934
-0.022482939 0.061863422 -0.0017189194 -0.11196347 0.77172297 -0.62602544 0.00050669716
-0.019609846 0.062069919 -0.0020157481 -0.1372284 0.74392301 -0.65402359 0.00056800089
-0.016561719 0.062337413 -0.0024251177 -0.17610632 0.69924206 -0.6928544 0.00081498502
-0.014268498 0.062674113 -0.0026995821 -0.23955151 0.67027044 -0.70239061 0.0008821197
0.041696608 0.062109124 -0.00030899947 0.64742649 0.081243522 0.7577852 0.000894689
0.043331161 0.061465871 -0.0016909497 0.70652151 0.052461639 0.70574433 0.0016177767
-0.022473967 0.063138746 -0.00013507598 -0.1437424 0.77981544 -0.60928321 0.00040197247
-0.019219665 0.063510418 -0.00048831239 -0.1684906 0.74559921 -0.64474237 0.00042537219
-0.016422344 0.063842371 -0.00092151761 -0.20534259 0.70853984 -0.67513388 0.00052444206
-0.013228002 0.064347401 -0.0016001149 -0.28989929 0.66874224 -0.6846475 0.00055232615
-0.01086496 0.065036103 -0.0019972061 -0.34827119 0.6347931 -0.68974257 0.00055020605
-0.0084906109 0.065641865 -0.0025835873 -0.42516887 0.62249291 -0.65706474 0.00060582324
0.041327003 0.064596601 -0.00042428056 0.62442398 0.13611323 0.76913446 0.00051531865
0.04313885 0.064343572 -0.0019324449 0.69904017 0.139073 0.70142823 0.00071554043
-0.012170088 0.066580132 -0.00012423078 -0.34973934 0.65619236 -0.66865087 0.00037630188
-0.010048079 0.066715181 -0.00083826162 -0.35415828 0.65295845 -0.66949022 0.00045324376
-0.0074386192 0.067679718 -0.0014603045 -0.42808217 0.63408148 -0.64396143 0.00060527929
-0.0053252275 0.06848608 -0.002203716 -0.48612604 0.62036902 -0.61548662 0.00057233614
0.041030679 0.067489617 -0.00077177194 0.62414062 0.17503001 0.76145458 0.00047054444
0.042686224 0.06755738 -0.0022200556 0.70144355 0.20716813 0.68195194 0.00085227774
-0.0063702315 0.069332831 -0.00041898969 -0.46368101 0.63618749 -0.61665654 0.00055739307
-0.0043658982 0.07001017 -0.0014302386 -0.49081838 0.63489962 -0.59665722 0.00065032876
-0.0020416824 0.071284689 -0.0020193309 -0.51811802 0.65293711 -0.55247331 0.00066606229
0.038979508 0.071510673 -0.00011363307 0.58602291 0.21746933 0.78056669 0.00061193743
0.040642746 0.070478834 -0.0012494695 0.63236552 0.2418251 0.73595822 0.00089777104
0.042376194 0.070185289 -0.0027028734 0.69882089 0.26506186 0.66437316 0.00090601319
-0.0030357086 0.07200706 -0.00019662573 -0.50315905 0.66427422 -0.55278468 0.0012322862
-0.0010767754 0.072903752 -0.0011309119 -0.49675426 0.68814492 -0.5288589 0.0014481556
0.0010136054 0.073780172 -0.0019346622 -0.49548453 0.72427273 -0.47950405 0.0014939783
0.0034294119 0.074792966 -0.0026528323 -0.44464606 0.81546283 -0.370554 0.0029570132
0.038402952 0.07404045 -0.00066362187 0.56823558 0.40716255 0.71507132 0.0025334449
0.040392801 0.073296845 -0.0020298881 0.64260519 0.38097006 0.66477096 0.0026565557
0.002404761 0.075288162 -0.00036830554 -0.42135477 0.84297621 -0.33444166 0.0029119959
0.0043486748 0.075839832 -0.0012776895 -0.41853034 0.83025151 -0.36812317 0.0022754956
0.0076155714 0.076993346 -0.0017583971 -0.33841386 0.90870231 -0.24440977 0.0018173367
0.0099940728 0.0777798 -0.0013874257 -0.30149505 0.94256669 -0.1437663 0.0035279058
0.032754604 0.077780485 -7.0762428e-05 0.29993787 0.65988582 0.68890351 0.0021228164
0.03497009 0.077295557 -0.00067430193 0.41140366 0.64476764 0.64422184 0.0054120002
0.037409611 0.076425157 -0.001549545 0.531268 0.54655409 0.6473276 0.0041893004
0.039436225 0.075575814 -0.0024951401 0.58574861 0.54471612 0.60015237 0.0043774908
0.011406751 0.078200445 -0.0014649408 -0.30370992 0.93677616 -0.17381226 0.0018203121
0.013947403 0.078738414 -0.0010033754 -0.12595297 0.98776424 0.091965482 0.0019568708
0.0163888 0.079211123 -0.0014525253 -0.10367808 0.97955722 0.17239057 0.0026031476
0.019370198 0.0795957 -0.001606164 -0.082630195 0.97003549 0.22848059 0.0025676859
0.022635333 0.079873487 -0.001590376 -0.027923582 0.94775093 0.31778666 0.0045323977
0.025596432 0.079898365 -0.0014760685 0.0033074154 0.92801756 0.37252182 0.0048123319
0.028629065 0.07972537 -0.0014300189 0.064258523 0.88772637 0.45586494 0.0034927472
0.03166274 0.079372704 -0.0016222838 0.21816686 0.81978989 0.52947873 0.0031248326
0.034365378 0.078854278 -0.0021301147 0.34640643 0.78684354 0.510764 0.0043198615
0.036361657 0.078137666 -0.0024890976 0.45956108 0.70245373 0.54347241 0.0041925712
0.011934658 -0.078047566 0.00080886274 -0.14194947 -0.98733932 0.070791319 0.0025658314
0.014029096 -0.078169346 0.00089761388 -0.12145244 -0.97881746 0.16482018 0.0024851896
0.01641796 -0.078312099 0.0012353192 -0.063579485 -0.96882272 0.23945799 0.002370941
0.019427558 -0.078462169 0.0011244036 -0.017988266 -0.94891524 0.31501812 0.0026389349
