# .PCD v0.7 - Point Cloud Data file format
VERSION 0.7
FIELDS x y z normal_x normal_y normal_z curvature
SIZE 4 4 4 4 4 4 4
TYPE F F F F F F F
COUNT 1 1 1 1 1 1 1
WIDTH 560
HEIGHT 1
VIEWPOINT 0 0 0 1 0 0 0
POINTS 560
DATA ascii
0.014590331 -0.039173316 0.0048753489 0.32367143 0.94611609 0.010061215 0.0025685758
0.016573898 -0.039893169 0.0044044494 0.3597554 0.93232137 0.036782756 0.0040803989
0.019345468 -0.041047189 0.0042062425 0.38971394 0.90406871 0.17545056 0.0030549543
0.021426298 -0.04193373 0.0039122934 0.43567699 0.87437761 0.21365716 0.0020329624
-0.045056596 -0.038965363 0.0055365399 -0.39253956 0.85342145 -0.34290615 0.0080272509
-0.043127615 -0.037830286 0.0045743668 -0.49156475 0.79858351 -0.34731609 0.0094203465
-0.04120452 -0.036981184 0.0043351823 -0.79055512 0.56147105 -0.24448505 0.026457973
0.0052168495 -0.03702464 0.0040634619 0.59205145 0.66791302 -0.45096266 0.04181537
0.0074005709 -0.03727049 0.0043822811 0.2083728 0.93425548 -0.28939158 0.012685215
0.010401565 -0.037958324 0.0044247825 0.24062523 0.95053226 -0.19643816 0.00535892
0.013135378 -0.03868147 0.0046729771 0.29795662 0.95423275 -0.025724493 0.0051732175
-0.041206997 -0.034427959 0.0045614587 -0.9344843 0.12948141 -0.33162269 0.022287615
0.0055614454 -0.035912618 0.0049696877 0.58531982 0.69880468 -0.41118437 0.037114035
-0.041189011 -0.031513199 0.0045100083 -0.93867618 0.013124549 -0.34454992 0.00021828912
-0.04118773 -0.028688287 0.0045028096 -0.93372375 -0.00044896829 -0.35799405 0
-0.041214351 -0.025586629 0.0045676618 -0.93372005 -0.00048761998 -0.35800371 0
-0.041149415 -0.022560805 0.0043936558 -0.91083217 -0.040268376 -0.410808 0.002642103
-0.04124444 -0.019468151 0.0046382202 -0.8857668 -0.061273646 -0.46006823 0.0043382747
-0.042750534 -0.015683617 0.0058902125 -0.8585369 -0.04723594 -0.5105713 0.0053240876
-0.041179556 -0.016491735 0.004466393 -0.86779678 -0.033218674 -0.49580762 0.0052800346
-0.042550873 -0.013468229 0.0054247254 -0.83505625 -0.047980204 -0.54806834 0.0071793799
-0.041118626 -0.013696956 0.0043048151 -0.84667081 -0.033453319 -0.53106445 0.0076828343
-0.042638935 -0.010420044 0.0050618965 -0.83534718 -0.043224245 -0.54802084 0.0070277406
-0.041267548 -0.010607206 0.0043618069 -0.8377986 -0.043999895 -0.54420358 0.0069757928
-0.042653009 -0.0075405659 0.004947436 -0.85200119 -0.042256497 -0.52183175 0.0065495963
-0.041260898 -0.0075344308 0.0038202377 -0.84078068 -0.063174531 -0.53767735 0.0054116086
-0.042607646 -0.0045361165 0.0048252367 -0.88045424 -0.03571634 -0.47278386 0.0043035052
-0.04137215 -0.0046778265 0.0032663089 -0.87384748 -0.074343428 -0.48048264 0.0067409324
-0.042537913 -0.0015539881 0.0046409471 -0.89260578 -0.027264243 -0.45001286 0.002225663
-0.041550234 -0.0025088547 0.003030004 -0.89012039 -0.012649881 -0.45554984 0.0031607589
-0.042490549 0.0015188716 0.0045136474 -0.88502145 0.031622835 -0.46447504 0.0024379841
-0.042582512 0.0044683553 0.0047504338 -0.87400931 0.030611455 -0.48494399 0.0040518269
-0.041222788 0.0049769827 0.0032777998 -0.88596654 0.060448755 -0.45979264 0.0072970339
-0.042573221 0.0074523939 0.0047261002 -0.85370243 0.036924303 -0.51945037 0.0063970592
-0.041295711 0.0075550624 0.0037437612 -0.8423326 0.045557007 -0.53702915 0.0056226212
-0.042558953 0.010369196 0.0049070865 -0.84512734 0.04915227 -0.53230047 0.0065765358
-0.04121238 0.010620347 0.0041722516 -0.84382063 0.05089888 -0.53420609 0.0063256426
-0.042479772 0.013575477 0.0053870529 -0.79736924 0.068000749 -0.5996483 0.0096770013
-0.041198537 0.013450947 0.0043813116 -0.85573357 0.065640926 -0.51323617 0.01202598
-0.042820327 0.015792988 0.0058696973 -0.78748411 0.073909454 -0.6118874 0.0087491674
-0.041212302 0.016377801 0.0045163808 -0.86064523 0.089182772 -0.50133437 0.011215195
-0.041218087 0.019616758 0.0045273951 -0.89633745 0.021825751 -0.44283512 0.0082287844
-0.041257333 0.022483651 0.0046262448 -0.90665662 0.022046175 -0.42129293 0.004028643
-0.041171696 0.025464231 0.0043982398 -0.93384928 -0.0004842109 -0.35766646 0
-0.041173063 0.028463144 0.0043976074 -0.94107705 -0.02060947 -0.33756354 0.00063878077
-0.041249536 0.031621706 0.0045930436 -0.95440435 -0.041358139 -0.29563797 0.001661274
-0.04127901 0.034240283 0.0046669762 -0.9431746 -0.17231563 -0.28412879 0.0039817276
-0.042524733 0.037480298 0.0042326991 -0.8934809 -0.3102133 -0.32474554 0.0096439309
-0.052139152 0.043417882 0.0037374047 -0.99498034 -0.088987805 -0.045773946 0.0061516967
-0.052648824 0.046627384 0.0036789929 -0.98591125 -0.075239867 -0.14939141 0.0010281304
-0.052742008 0.049440142 0.0035607291 -0.99838609 0.0070424313 -0.056353852 0.0080017531
-0.052744441 0.052288048 0.004096115 -0.99637777 0.08388675 0.013937665 0.006235424
-0.052168962 0.055891484 0.003986876 -0.92768103 0.36548662 -0.076337188 0.040563956
-0.051479612 0.05821256 0.0041728006 -0.55996817 0.78801119 -0.25587875 0.027067006
-0.049372677 0.058755279 0.0044014165 -0.40004912 0.88245803 -0.24744418 0.0086942036
-0.047215398 0.059810366 0.0037509454 -0.33583754 0.87881345 -0.3389692 0.0019265148
-0.048226599 0.060133945 0.00579869 -0.38621506 0.88623273 -0.25579187 0.0086552361
-0.046223566 0.060424514 0.0048160567 -0.32154828 0.88413906 -0.33897614 0.0020465688
-0.043501344 0.061098967 0.0045192335 -0.26112887 0.9129951 -0.31345111 0.00012225762
-0.040510651 0.061920255 0.0045388155 -0.23729201 0.90579444 -0.35103983 0.00028978154
-0.037749365 0.062496819 0.004223757 -0.22339155 0.89664787 -0.38225493 0.00033580314
-0.035250761 0.062758937 0.0033556926 -0.20013721 0.88385457 -0.42278388 0.00039910109
-0.036776543 0.063254796 0.0053860946 -0.24564895 0.89252228 -0.37823343 9.1349066e-05
-0.034372292 0.063575163 0.0046572983 -0.22314242 0.88230681 -0.41441774 0.00033717381
-0.031491887 0.064192817 0.0044618798 -0.21340048 0.86884165 -0.44673762 0.00060560839
-0.02848449 0.064996123 0.0045071896 -0.21767004 0.85197669 -0.47618854 0.00096857263
-0.025664296 0.06540782 0.0040269014 -0.21486671 0.8298614 -0.51493919 0.0010510286
-0.02275514 0.065816589 0.0034811094 -0.21200103 0.78246921 -0.58548898 0.00060047605
-0.025103737 0.066442102 0.0054268446 -0.23756154 0.83687246 -0.49316216 0.00076170382
-0.022379745 0.066928573 0.0049244533 -0.24124426 0.81474763 -0.5272451 0.0011290171
-0.019505177 0.067529999 0.0045129308 -0.25360009 0.79206693 -0.55526292 0.0020032255
-0.016679591 0.068134844 0.003990361 -0.28809559 0.76324135 -0.57832831 0.0025551128
-0.014121505 0.068712398 0.0034313835 -0.32159045 0.71198875 -0.62422085 0.00062414503
-0.016250394 0.069364652 0.0054495707 -0.29573157 0.80036438 -0.52149767 0.0018224432
-0.013396124 0.070002645 0.0047187977 -0.31932229 0.77871776 -0.54002947 0.0024665
-0.010656459 0.070964515 0.0043430706 -0.37501201 0.79088998 -0.48358971 0.0022206272
-0.0082313754 0.071599826 0.0034739743 -0.39733446 0.77359569 -0.49363455 0.0067427792
-0.0095915552 0.072207406 0.0057010781 -0.36014545 0.82388026 -0.43762606 0.003335685
-0.0073563904 0.072727583 0.0047598798 -0.34123465 0.85236698 -0.39626932 0.0053299665
-0.0045184465 0.073790014 0.0043225004 -0.35564765 0.89702654 -0.26240829 0.0047441372
-0.0022974566 0.074674651 0.0040638237 -0.38146657 0.89963013 -0.2124828 0.0049381168
-0.0010526467 0.075289272 0.004707518 -0.32555294 0.93551463 -0.13721365 0.0036464809
0.001400138 0.076001823 0.0044182409 -0.29187298 0.94831169 -0.12455989 0.0022284028
0.0045028143 0.076741681 0.0044040903 -0.21609505 0.97634619 0.0071495897 0.0045816279
0.0073480722 0.077225924 0.0043777404 -0.17356198 0.98124063 0.083923206 0.0022372806
0.010333583 0.077580415 0.0042511588 -0.10822536 0.97625238 0.187666 0.0032121362
0.013110778 0.077613689 0.0046271193 -0.067272127 0.97273892 0.22193135 0.0018498851
0.017754031 0.077939026 0.0036001811 -0.041111603 0.96504939 0.25882304 0.00064559473
0.014556495 0.078078978 0.0032866928 -0.076500088 0.97552568 0.206149 0.0022968438
-0.051871013 -0.049396675 0.0086707743 -0.99936092 0.0048510353 0.035414979 0.007759911
-0.051743697 -0.046682853 0.008615247 -0.98777062 0.15398896 0.024424469 0.0098039946
-0.051437374 -0.043661214 0.0080931112 -0.94809693 0.2852484 0.14051911 0.013126204
-0.050991479 -0.042495884 0.0083722072 -0.95543891 0.29360381 -0.030550251 0.02267001
0.020129053 -0.042324994 0.0069442429 0.44252402 0.87576687 0.19288571 0.0012944485
0.021764711 -0.042940073 0.0061198212 0.43567973 0.87437677 0.21365489 0.0020282359
-0.049637433 -0.04021652 0.007477107 -0.60316914 0.7875675 -0.12619179 0.03373738
-0.046652097 -0.03903972 0.0062273182 -0.37288597 0.86691523 -0.33077806 0.0076052756
0.014187703 -0.039334483 0.0077726943 0.47319168 0.87112474 0.13126823 0.0068126624
0.016072778 -0.040170636 0.0072272145 0.40105981 0.90222633 0.15855201 0.0012436449
0.018745748 -0.041465644 0.0068418514 0.42956841 0.87715763 0.21462886 0.00092570012
-0.048277587 -0.038628951 0.0077393586 -0.38999078 0.88080293 -0.26850221 0.0080835242
-0.046359744 -0.038548976 0.0077366652 -0.3431662 0.89931971 -0.27103704 0.0064077396
-0.043651663 -0.03734576 0.0075270166 -0.57020074 0.75426662 -0.32550415 0.033273172
-0.041790109 -0.036568198 0.0060309484 -0.70089167 0.60779101 -0.37328398 0.032275632
0.0056381826 -0.036498487 0.0067192032 0.52006513 0.72921544 -0.44472134 0.037460338
0.0076886886 -0.036563151 0.0072477283 0.55381048 0.72955209 -0.40130755 0.03517944
0.010385956 -0.037494235 0.0076304139 0.48847616 0.85052741 -0.19492084 0.048137698
0.012764012 -0.038631335 0.0071216933 0.44003916 0.89685893 0.044828366 0.011554537
-0.042365897 -0.034416452 0.0075825779 -0.9123162 0.099255182 -0.39727515 0.0087755518
-0.041764028 -0.035813481 0.0060170242 -0.80677795 0.38340601 -0.44956541 0.047290191
0.0057880105 -0.034240764 0.0071932161 0.83002162 0.18649422 -0.52562732 0.01622488
0.0072055627 -0.03483675 0.0083034532 0.76145351 0.17144126 -0.62513721 0.025903964
-0.042398013 -0.031614896 0.0076635047 -0.93377566 -0.00050735555 -0.35785851 0
-0.041978702 -0.030588061 0.0065674381 -0.93375283 -0.00049744477 -0.35791808 0
0.0056879078 -0.031477001 0.0070681497 0.66605216 0.10914285 -0.73787689 0.030928323
0.0069912747 -0.031556703 0.0087195626 0.52050173 0.037192468 -0.85305029 0.025424348
0.0095791435 -0.0308483 0.0088325553 0.25673267 -0.17622323 -0.95028085 0.022992851
-0.042551335 -0.028413007 0.0080605587 -0.93379062 -0.0004500717 -0.35781962 0
-0.04192695 -0.028280888 0.0064299544 -0.9337762 -0.00043904386 -0.35785711 0
0.0055890763 -0.028735336 0.006945217 0.6028769 0.015010688 -0.79769307 0.021863719
0.0068861898 -0.028802717 0.0085874563 0.40800396 -0.022722552 -0.91269737 0.048360951
0.010364218 -0.02827039 0.0087064495 0.15955818 -0.029418655 -0.98675007 0.024019161
-0.042523202 -0.025626296 0.0079832962 -0.89850152 -0.088329397 -0.42999187 0.0057189283
-0.041858405 -0.025226085 0.0062480448 -0.92768013 -0.015726 -0.37304476 0.00052414491
0.0054755486 -0.02562294 0.0068023973 0.61637771 -0.016367294 -0.78728056 0.008236764
0.0067672646 -0.025679871 0.0084382659 0.61637694 -0.01636604 -0.7872811 0.0082375547
0.010643143 -0.025612609 0.008604127 0.1244617 -0.04548014 -0.99118149 0.024073062
-0.042735524 -0.022563348 0.0077598016 -0.86237574 -0.13231391 -0.48867294 0.0038924862
-0.041790545 -0.02219622 0.0060671945 -0.88443726 -0.076104999 -0.46041149 0.004784456
0.0053910948 -0.023304958 0.006696268 0.56061006 0.051314883 -0.82648844 0.0089227129
0.0066498239 -0.022583902 0.0082914829 0.43529546 0.058828037 -0.89836365 0.036032736
0.010624117 -0.022494594 0.0086182551 0.075448364 0.028438594 -0.9967441 0.022939231
-0.043101776 -0.019653371 0.0073020482 -0.85997456 -0.086681165 -0.50292158 0.0021740242
0.0065326602 -0.019512119 0.0081442604 0.36434829 0.081018999 -0.92773181 0.033022705
0.010149525 -0.01976868 0.0086997366 0.24629985 0.068331875 -0.96678185 0.030347252
-0.043262668 -0.016578687 0.0072471094 -0.86848885 -0.064360857 -0.49151281 0.003610824
0.0064168684 -0.016466392 0.0079992032 0.41549098 0.14094043 -0.89861172 0.038132735
0.0099775335 -0.017722625 0.0089725535 0.33279702 0.1916168 -0.92332506 0.024611311
-0.043614909 -0.013507591 0.0074646361 -0.89825743 -0.038742937 -0.43775859 0.0062765987
0.0063021169 -0.013445775 0.0078555504 0.61303943 0.081186183 -0.7858699 0.020838726
-0.04358444 -0.010548218 0.007381238 -0.90197057 -0.017711116 -0.43143407 0.0062815221
0.0061880024 -0.010449247 0.0077123865 0.85203326 0.010208256 -0.52338815 0.0016896561
-0.043640047 -0.0075739245 0.0075232405 -0.91114825 -0.0030193352 -0.41206771 0.0044673895
0.0060742423 -0.0074759554 0.0075689796 0.78491277 0.000245726 -0.61960626 0
-0.043648537 -0.0044545168 0.0075421683 -0.93378222 -0.00038355534 -0.35784152 0
0.0059480108 -0.0041606142 0.0074106497 0.78492808 0.00027174491 -0.61958677 0
0.0065916269 -0.0045183045 0.008225657 0.78492194 0.00025231284 -0.61959457 0
-0.043659166 -0.0014916889 0.0075663934 -0.93377483 -0.00038734157 -0.35786083 1.7723574e-05
0.0058504185 -0.0016031077 0.0072879395 0.7849288 0.00027337277 -0.61958593 0
0.0071066367 -0.0015770918 0.0088795451 0.78493154 0.00027237821 -0.61958247 5.0712094e-07
-0.043602303 0.0015388392 0.0074149109 -0.9337762 -0.0003949907 -0.35785714 0
0.0057399506 0.0012977712 0.0071493546 0.78492588 0.00026717334 -0.61958975 2.547722e-07
0.0069906488 0.0013337776 0.008733836 0.72698516 -0.037033319 -0.68565375 0.0044576582
-0.043657348 0.0045526293 0.0075553358 -0.93375432 -0.00031659199 -0.35791454 0
0.0056167035 0.0045331265 0.0069946414 0.7849158 0.00028314267 -0.61960244 0
0.0068755639 0.004221309 0.0085892845 0.71991438 -0.011904476 -0.69396085 0.0051570535
-0.043643858 0.0076072831 0.0075168279 -0.93228394 0.0040637166 -0.36170441 5.1515974e-05
0.0054944148 0.0077407416 0.0068410737 0.78490639 0.00029230618 -0.61961424 0
0.0067472546 0.007441645 0.0084281061 0.71119899 -0.0065397848 -0.70296025 0.0076863207
-0.043656182 0.010500411 0.0075459131 -0.89940822 -0.0019278588 -0.43710527 0.0048432071
0.0054005906 0.010214834 0.0067238337 0.75953561 0.0056079961 -0.65044159 0.00067806762
0.0066200453 0.01063422 0.0082683433 0.76596308 0.010120502 -0.64280492 0.0010419257
-0.043600317 0.013433113 0.0073968489 -0.88470387 0.058273103 -0.46249682 0.010398874
0.0065083914 0.013446932 0.0081286328 0.70910674 -0.063565187 -0.70223016 0.016294694
-0.043321185 0.016556885 0.0071447776 -0.83072293 0.1103602 -0.54563737 0.0082533965
-0.041873019 0.016374581 0.0061277412 -0.78748423 0.07391005 -0.61188704 0.0087513523
0.0063832747 0.016585235 0.0079713911 0.4073858 -0.15049607 -0.90077072 0.03031495
0.0097696446 0.017851731 0.008973782 0.33846194 -0.2093607 -0.91739386 0.022556391
-0.043124668 0.019557336 0.0072582583 -0.84394574 0.074936852 -0.53116864 0.0063919192
-0.041798633 0.018696683 0.0060430802 -0.8718226 0.045087431 -0.48774233 0.0096058697
0.00625946 0.019696439 0.0078160595 0.31575707 -0.025301129 -0.94850272 0.030417509
0.010078298 0.020005472 0.0087112598 0.27798507 -0.089796551 -0.956379 0.031010823
-0.043077596 0.022397431 0.0078989631 -0.87553823 0.15632312 -0.4571608 0.0019975111
-0.041989513 0.023599651 0.0065371324 -0.89487201 0.094083637 -0.43629387 0.0038238885
0.0065141227 0.022756932 0.0081031341 0.3462666 -0.032885928 -0.9375596 0.023395766
0.01066367 0.022658817 0.0086433906 0.13897674 0.0083173858 -0.99026078 0.021440124
-0.042582612 0.025469396 0.0080814296 -0.9144451 0.077905834 -0.39714092 0.0031212405
-0.041941572 0.025590161 0.0064082793 -0.92701215 0.032632809 -0.37360883 0.0020493325
0.0059744162 0.026850414 0.0074580554 0.56993181 0.016620843 -0.82152396 0.0072685471
0.0066798897 0.02545861 0.0083191795 0.35453767 -0.0041575874 -0.93503243 0.033506539
0.010622623 0.025471959 0.0085832188 0.13657577 0.039392442 -0.98984611 0.024718182
-0.042461164 0.028552983 0.0077609546 -0.93378991 -0.00040928801 -0.35782158 2.1569107e-05
-0.041869815 0.028555909 0.0062173083 -0.93384588 -0.0004623069 -0.35767537 0
0.0059075756 0.028531037 0.0073742927 0.56579036 0.026527382 -0.82412231 0.01432748
0.0071152723 0.028656118 0.0089040194 0.35798588 0.10367137 -0.92795384 0.036181934
0.010449694 0.028313542 0.0086975181 0.13758539 0.052130923 -0.98911715 0.025517631
-0.042432744 0.031500101 0.0076828832 -0.93382859 -0.00042887923 -0.35772043 0
-0.041814525 0.030844986 0.0060696262 -0.94338834 -0.0096636927 -0.33154956 0.00076645298
0.0057876823 0.031537332 0.0072235763 0.53480691 0.0073742829 -0.84494215 0.033076931
0.0070042457 0.031337366 0.008765134 0.47324792 -0.032329489 -0.88033587 0.037403271
0.010022699 0.030614432 0.0088803507 0.18494985 0.10433137 -0.97719419 0.027533567
-0.042386692 0.034265038 0.0075591626 -0.94453597 -0.094405793 -0.31454647 0.0067895409
0.0057084914 0.033528276 0.0071243332 0.44500771 -0.022335611 -0.89524812 0.035230201
0.0069212429 0.033335775 0.0086610364 0.41104418 -0.1084329 -0.90514368 0.034191772
-0.051903866 0.050526876 0.0086481925 -0.99734002 0.05527892 0.047508914 0.0098459376
-0.051771026 0.052553404 0.0086855376 -0.98595947 0.16485842 0.026564827 0.0093287667
-0.051208813 0.055886716 0.0085695926 -0.95722544 0.28507864 0.049493566 0.020184403
-0.051073395 0.058785036 0.0061515938 -0.77199614 0.63411701 0.043790743 0.030319415
-0.049657755 0.059070315 0.0076405676 -0.74122036 0.66861671 -0.059531696 0.035832353
-0.048280347 0.060621273 0.0074925078 -0.49964994 0.84694582 -0.18174909 0.01061351
-0.04645516 0.061205927 0.0074815792 -0.40848237 0.88562059 -0.22094877 0.0062892474
-0.043538135 0.062123131 0.0075078397 -0.2874293 0.91151202 -0.29416028 8.9188354e-05
-0.040991444 0.062687151 0.0068734856 -0.26752356 0.90614116 -0.32762676 0.0003436566
-0.042153768 0.063024469 0.0089366566 -0.29164335 0.91116899 -0.29105884 0.00082070497
-0.040055051 0.063369729 0.0079805059 -0.27456954 0.90348291 -0.32913563 0.00036212563
-0.037475463 0.063954085 0.0075026006 -0.2579644 0.89883822 -0.35432222 0.00029273806
-0.034505915 0.064769514 0.0074508018 -0.24856788 0.89666605 -0.36633855 0.00026857792
-0.031688418 0.065470025 0.0072597507 -0.2471166 0.89102441 -0.3808004 0.00055664615
-0.02937752 0.065752961 0.0064221444 -0.23901922 0.88255954 -0.40491796 0.00082144572
-0.030614458 0.066242464 0.0083933575 -0.25503665 0.89593405 -0.36367366 0.00034289443
-0.028382782 0.066554941 0.0076112146 -0.25217143 0.89142936 -0.37651455 0.00045127553
-0.025518151 0.067320436 0.0074376105 -0.25866193 0.8777073 -0.40339041 0.0010326122
-0.022626756 0.068208672 0.0074342159 -0.28988099 0.87650895 -0.38431898 0.00094213412
-0.020172644 0.06867291 0.0066884821 -0.29478514 0.86297309 -0.41034013 0.0013501968
-0.021424064 0.069129348 0.0086822286 -0.29911566 0.88093418 -0.3667216 0.0014224491
-0.019200413 0.069517381 0.0078348471 -0.28401798 0.88266677 -0.37447703 0.0020579034
-0.016465692 0.070331 0.0075398176 -0.28646746 0.88546628 -0.3659043 0.0034133554
-0.013607935 0.071301684 0.0073562786 -0.3449885 0.88732588 -0.30599958 0.0032208322
-0.011542637 0.071780846 0.0065309606 -0.3550753 0.88988501 -0.28640226 0.0064530247
-0.012338819 0.072178483 0.0085383877 -0.38328716 0.90247309 -0.19655353 0.011992334
-0.010350941 0.072541147 0.0074294275 -0.33134979 0.90758568 -0.25786746 0.0049017426
-0.0076672886 0.073456176 0.0073357187 -0.3266117 0.92442608 -0.19687878 0.0062917504
-0.0046157343 0.074400678 0.0073952214 -0.29591799 0.95416278 -0.044788171 0.0055380953
-0.0025967362 0.074938454 0.0079976767 -0.26662388 0.96376592 0.008192597 0.005469298
-0.0012615813 0.075338043 0.0072978092 -0.25079703 0.96722692 0.039659251 0.003492679
0.0015376228 0.07605055 0.0073845494 -0.20702195 0.97503924 0.080251709 0.0012781199
0.0045538335 0.076507501 0.0072206766 -0.1279213 0.97979814 0.15372598 0.0023698753
0.007531378 0.076629184 0.007474747 -0.068202078 0.97511744 0.21093689 0.0015352503
0.0092102829 0.077046663 0.0062964251 -0.072139651 0.97620404 0.20450316 0.0016250454
0.012306526 0.07672359 0.0070416266 -0.071365491 0.97559464 0.20765842 0.0015496577
-0.051795051 -0.052885037 0.0095528187 -0.99909973 -0.03925065 -0.016099004 0.0081827603
-0.052040637 -0.049414128 0.010160138 -0.98536605 -0.00020445409 -0.1704516 0.00058017432
-0.05189801 -0.046291769 0.010075057 -0.98213404 0.098583467 -0.16029328 0.0013097358
-0.051413368 -0.04345062 0.010178275 -0.95955837 0.24866065 -0.13196836 0.0052147042
-0.051032688 -0.041601337 0.010110135 -0.87662965 0.43719435 -0.20095165 0.0087367166
-0.04997883 -0.039823234 0.0099627655 -0.77799743 0.56863743 -0.26715437 0.01188252
0.013525404 -0.039851252 0.010580234 0.53901976 0.8246032 0.17171845 0.013117405
-0.048911624 -0.038561486 0.01083181 -0.54593688 0.80823863 -0.22068809 0.024271742
-0.046437811 -0.03770769 0.010601692 -0.35438746 0.91730171 -0.1815685 0.0052360096
-0.04400577 -0.037020925 0.010294549 -0.68690497 0.66465688 -0.2939263 0.033468045
0.008305395 -0.036632586 0.0096123517 0.52345908 0.58994693 -0.61477888 0.036202218
0.01038575 -0.037050195 0.010022341 0.5871554 0.72774202 -0.3544575 0.046242118
0.012539244 -0.038870122 0.0093041975 0.47528464 0.87238747 0.11421301 0.0056512891
-0.043489683 -0.034391765 0.01051637 -0.9459182 0.11273333 -0.30418736 0.0055112415
0.0083488505 -0.034654431 0.010347511 0.594625 0.085755341 -0.79941678 0.043218229
0.0098694758 -0.034482073 0.010401192 0.53346062 0.12384398 -0.83670932 0.09957546
-0.043456018 -0.031438213 0.010425271 -0.93379796 -0.00040025316 -0.35780045 1.3414407e-05
0.0084155025 -0.031300437 0.0098827565 0.17357294 -0.20415045 -0.96342874 0.021772182
0.010386406 -0.031332649 0.009774507 0.25518042 -0.20985141 -0.94384605 0.022154093
0.012987577 -0.031253774 0.010853763 0.41768208 -0.25852364 -0.87103796 0.01589396
-0.043485299 -0.028655585 0.010497937 -0.93377823 -0.0003968775 -0.35785192 3.0248189e-05
0.0081832549 -0.02837286 0.0093417997 0.16291949 -0.019161584 -0.98645324 0.024026036
0.01028817 -0.028501196 0.0095566278 0.15588218 -0.11121997 -0.98149413 0.028617937
0.013134297 -0.028192937 0.010036414 0.41891155 -0.098286055 -0.90269202 0.019827859
0.015250864 -0.027836258 0.011867473 0.40319133 -0.1097156 -0.90851486 0.015646037
-0.043484364 -0.025690585 0.010491454 -0.92712259 -0.10539658 -0.35963205 0.0061555663
0.0080975406 -0.025265854 0.0091351904 0.38394052 -0.010250272 -0.92330092 0.034501337
0.0094041349 -0.025649445 0.0094637508 0.013543164 -0.010179418 -0.99985647 0.024122709
0.013315737 -0.025423592 0.0099008214 0.37479922 -0.03802307 -0.92632592 0.026102869
-0.04530422 -0.021574862 0.011879827 -0.96341634 -0.15813363 -0.21638548 0.0059260051
-0.04461436 -0.022059372 0.010081508 -0.90702152 -0.18411158 -0.37870163 0.0063871057
0.0082776537 -0.022441722 0.0091989757 0.18524741 -0.049302161 -0.98145437 0.022168567
0.0097011831 -0.022482231 0.0095827263 0.038122278 0.029254187 -0.99884474 0.025593739
0.013453081 -0.022445651 0.010030367 0.41204599 0.070270084 -0.90844935 0.026964532
-0.04525391 -0.019680055 0.011747183 -0.9810406 -0.08336661 -0.17495531 0.0063551571
-0.044591263 -0.019546142 0.010019201 -0.89013976 -0.02492878 -0.45500511 0.0034081913
0.0080382824 -0.019611876 0.009372903 0.28473976 0.00058668078 -0.95860463 0.030053629
0.010153919 -0.019162579 0.0095439274 0.12680259 0.11922093 -0.98473728 0.028651007
0.013277542 -0.019527279 0.010369314 0.53408182 0.24596924 -0.80886078 0.0094599845
-0.045173943 -0.016667167 0.011536108 -0.93698639 0.03443291 -0.34766513 0.0033570374
-0.044627249 -0.016686764 0.010109492 -0.92333108 -0.0095764771 -0.38388547 0.00036337966
0.0081423903 -0.016561961 0.0098503362 0.33016396 0.24807286 -0.91074228 0.026566714
0.010456691 -0.016381027 0.010158787 0.25629595 0.28088939 -0.92488575 0.017672846
0.013085294 -0.016796486 0.011134867 0.55335939 0.32228675 -0.76806551 0.014199858
-0.045094833 -0.013678716 0.01132609 -0.9673596 0.042778026 -0.24977089 0.0048108939
-0.044615589 -0.013415264 0.010075241 -0.95159888 0.016420426 -0.30690387 0.0023520153
0.0082647605 -0.013604198 0.010298099 0.62155622 0.10666022 -0.77607447 0.027854985
0.010643394 -0.014055086 0.011134359 0.52722371 0.3294653 -0.78325456 0.037284609
0.012204722 -0.014609307 0.01150454 0.44378465 0.46974674 -0.76314694 0.024843233
-0.045177061 -0.010619049 0.011537213 -0.96716803 -0.032939896 -0.2519941 0.0052983365
-0.044568427 -0.010192074 0.0099487128 -0.95997679 -0.0036187186 -0.28005627 0.0050547267
0.0081010405 -0.010454651 0.010135414 0.77346003 0.10251324 -0.62550038 0.0081652757
-0.045258727 -0.0075824624 0.011746865 -0.95838755 -0.052891668 -0.28052765 0.005102877
-0.044606458 -0.007481901 0.010045056 -0.93375117 -0.00041914603 -0.35792267 0
0.0079793623 -0.0074668047 0.009982531 0.80509108 0.0049920743 -0.59313017 0.00012202952
-0.045180161 -0.0046651806 0.011538376 -0.94938135 0.033543963 -0.31232959 0.0025159095
-0.044618662 -0.0045743119 0.010073711 -0.93375528 -0.00038248452 -0.35791197 0
0.0079556927 -0.0046598492 0.0099537652 0.80121529 0.0039825016 -0.59836292 0.00016751979
-0.045102179 -0.0017718992 0.011331799 -0.96805853 0.043430999 -0.24693412 0.0050227386
-0.044607285 -0.001349097 0.010040616 -0.95201951 0.016968219 -0.30556667 0.0024011678
0.0083713289 -0.0015505347 0.010481635 0.80697811 -0.00059695105 -0.59058106 0.00040948979
-0.045183148 0.0011981848 0.011539578 -0.96726727 -0.032642722 -0.25165185 0.0054245233
-0.04462304 0.0017146176 0.010077955 -0.96033001 -0.0033246095 -0.27884606 0.0050197882
0.0082499208 0.0013700374 0.010329183 0.78628063 -0.066755354 -0.61425281 0.0078755859
-0.045253899 0.0045001684 0.011720145 -0.95795053 -0.048758764 -0.28276023 0.0048522744
-0.044614758 0.0044506872 0.010053545 -0.93373913 -0.00039347215 -0.35795388 0
0.0081292838 0.0042674365 0.010177515 0.68562281 -0.027302574 -0.72744477 0.0079534622
0.010506781 0.0048972261 0.01152607 0.80769664 -0.063128971 -0.58620894 0.022285257
-0.045166895 0.0076744733 0.011489659 -0.95065159 0.037017152 -0.30804437 0.0025387097
-0.044571068 0.0071896627 0.0099365357 -0.93721074 0.0003502013 -0.34876344 0.00013150676
0.0079950001 0.0074983174 0.010008896 0.67645746 0.016214142 -0.73630315 0.007769037
0.010195045 0.0074299965 0.010905056 0.81017286 0.0010846696 -0.58618999 0.024105504
-0.045090288 0.010471638 0.011286382 -0.9707315 0.050403368 -0.23481876 0.0067860936
-0.044599462 0.010344151 0.010006839 -0.95271528 0.00062696065 -0.30386379 0.002740731
0.0078616319 0.010701663 0.0098412037 0.72084123 0.062378556 -0.69028753 0.0070532383
0.0094523625 0.010351597 0.011241364 0.79506058 0.035561118 -0.60548663 0.013891223
-0.045196362 0.013217167 0.011560147 -0.96998954 -0.04407398 -0.23911875 0.0075935693
-0.044629067 0.013659066 0.010079822 -0.92868042 0.0092138201 -0.37076655 0.00013418021
0.0079560224 0.013798609 0.0099312421 0.62971455 -0.16162126 -0.75982779 0.024563804
0.0090429345 0.013183065 0.011381567 0.74702644 -0.12633394 -0.6526801 0.01530979
-0.045239646 0.016550936 0.011668944 -0.96551281 -0.051961418 -0.25511762 0.0062840339
-0.044583499 0.016588615 0.0099578761 -0.9203794 0.020406928 -0.39049357 0.00064492656
0.0079787094 0.016526502 0.0097858021 0.49462315 -0.19206999 -0.84761852 0.032364488
0.010300053 0.016451901 0.010186162 0.26687774 -0.27979174 -0.92222172 0.017500948
0.012621173 0.01713565 0.010714257 0.36561278 -0.28669432 -0.88551325 0.021706
-0.045154117 0.019620832 0.011442279 -0.97106725 0.11651767 -0.20845139 0.010717823
-0.044589147 0.019389512 0.0099694142 -0.91221231 0.056179944 -0.40584803 0.0022852821
0.0080851596 0.019467954 0.0094667561 0.34675714 -0.051206216 -0.9365561 0.034045842
0.010629497 0.019450188 0.0095702577 0.21149777 -0.13013795 -0.96867585 0.027736342
0.013200366 0.019598288 0.010403447 0.43078375 -0.13845553 -0.8917709 0.015614562
0.015042693 0.020992488 0.01168918 0.5792557 -0.091260597 -0.81002122 0.0060313339
-0.045088183 0.021989813 0.011267104 -0.94765729 0.20915173 -0.241249 0.011452844
-0.044211511 0.022840189 0.010204884 -0.93014795 0.20852847 -0.30222633 0.0068215211
0.0081167752 0.022428714 0.0091851829 0.24229668 0.045599084 -0.96912998 0.02642823
0.0098229405 0.022359133 0.0095237112 0.063007459 -0.037855361 -0.99729484 0.022447452
0.013304594 0.022596627 0.0099498862 0.49897385 -0.086237691 -0.86231554 0.014080572
-0.043513034 0.025454763 0.010507566 -0.93801159 0.13459428 -0.31940362 0.0072023948
0.0081330761 0.025516262 0.0091366479 0.31415913 0.017357385 -0.9492116 0.028056236
0.0094999019 0.025513744 0.0094834771 0.030779589 0.014911939 -0.99941498 0.024490235
0.013293225 0.025549849 0.0098627796 0.51185691 0.022068195 -0.85878718 0.018531125
0.015602672 0.025679845 0.011912609 0.63907456 0.075672306 -0.76541322 0.0056507858
-0.043556482 0.028519694 0.01061859 -0.93376648 -0.00042078481 -0.35788262 0
0.0081709344 0.028510988 0.0093069701 0.27596638 0.024877355 -0.96084529 0.043015383
0.009941807 0.028762517 0.0095747812 0.13074067 0.11320026 -0.98493284 0.026796956
0.013309139 0.028479895 0.010210565 0.56354314 0.16065732 -0.81031376 0.013410317
-0.043494381 0.031482425 0.010453997 -0.93378514 -0.00037142431 -0.35783416 0
0.0083420966 0.031572301 0.0098235877 0.35355231 -0.041771371 -0.93448168 0.034160618
0.010402252 0.031529274 0.0097967833 0.2365737 0.076416142 -0.96860391 0.026953228
0.012971617 0.030908125 0.01051833 0.49052244 0.22695823 -0.84135467 0.030218581
-0.043172196 0.033607811 0.0096107209 -0.93380624 -0.00045848868 -0.35777885 2.0823138e-05
0.010239254 0.03306843 0.0095520113 0.23657867 0.076422237 -0.96860218 0.026954912
-0.051899217 0.046870869 0.009814918 -0.99888349 0.042985693 -0.019593021 0.0063593867
-0.052088842 0.049450587 0.01009583 -0.98894471 0.038127266 -0.14329886 0.0018943853
-0.051951032 0.052491393 0.009927216 -0.97843069 0.12033699 -0.16790627 0.0011737086
-0.051452041 0.055537231 0.01010291 -0.94938451 0.2430788 -0.19895177 0.0049682274
-0.051104195 0.057264261 0.010030332 -0.9019267 0.42594704 -0.071395583 0.025396999
-0.049965966 0.059136886 0.0099438615 -0.84388828 0.49446383 -0.20822601 0.0084183495
-0.048873607 0.060676869 0.010816941 -0.64561409 0.7360723 -0.20342068 0.0154922
-0.046496958 0.062074192 0.010443375 -0.39778984 0.89731127 -0.19130045 0.003870127
-0.044024203 0.062727861 0.0099290581 -0.30344555 0.9192 -0.2509822 0.0008018802
-0.043044493 0.06337963 0.010945476 -0.30721664 0.91892779 -0.24736533 0.0005729117
-0.04046499 0.064092882 0.010486656 -0.30781126 0.91254431 -0.2692863 0.00035894237
-0.037422948 0.065061577 0.010430224 -0.28090101 0.91525531 -0.2887949 0.00051776716
-0.034785464 0.06566757 0.010021515 -0.26328331 0.91729093 -0.29876283 0.00042295098
-0.033983484 0.066286817 0.011165339 -0.25462681 0.92559004 -0.28008631 0.0004735378
-0.031470448 0.06674657 0.010524921 -0.23823714 0.93062598 -0.27780995 0.00074986089
-0.028437881 0.067575045 0.010410571 -0.25059769 0.92902303 -0.27224445 0.0016775721
-0.025561236 0.068411507 0.010320881 -0.27384043 0.93272644 -0.23459047 0.0028919487
-0.02329988 0.068801835 0.0093734711 -0.29199088 0.91748524 -0.27011517 0.003185635
-0.024268264 0.069140226 0.01164417 -0.21961892 0.96650934 -0.13276745 0.0059627704
-0.022407651 0.069425642 0.010602927 -0.23388553 0.95969492 -0.15583062 0.0065275445
-0.019622501 0.070201397 0.010322777 -0.25104144 0.95701635 -0.14525113 0.0077421241
-0.016542744 0.071115777 0.010367504 -0.29181671 0.95321441 -0.0789003 0.0056480221
-0.014142562 0.07178843 0.010473413 -0.31146133 0.94667906 -0.082405128 0.0065492708
-0.012649521 0.072204001 0.010166369 -0.19907719 0.97995692 -0.0072552972 0.0093907593
-0.010519683 0.072708368 0.010204268 -0.20890282 0.97759336 0.025898237 0.008711298
-0.007444046 0.073410049 0.010340861 -0.27367729 0.95854449 0.079329424 0.0091797374
-0.0044505778 0.074087247 0.010362508 -0.239034 0.95162368 0.19306767 0.0025753235
-0.0016567711 0.074720107 0.010298724 -0.22356118 0.94504875 0.23854409 0.0023592536
0.0012941996 0.074647509 0.01196271 -0.2142505 0.94285727 0.25518012 0.0010700808
-0.00088774803 0.075186327 0.0092235077 -0.21884947 0.94778001 0.23198694 0.0024058451
0.0010395203 0.075419471 0.0099322386 -0.19101536 0.95205373 0.23897049 0.0013751058
0.0034411142 0.075882465 0.0097382385 -0.13160734 0.96116698 0.24256451 0.0019318204
0.0065639429 0.075818583 0.0099184467 -0.10183782 0.97001046 0.22070085 0.0015872726
-0.051289242 -0.058305718 0.012758084 -0.99442977 -0.10307352 -0.022028552 0.0037697242
-0.05188711 -0.055355862 0.0126944 -0.98274148 -0.093459517 -0.15963845 0.0023237078
-0.05237652 -0.052490652 0.012705254 -0.98274279 -0.093413919 -0.15965755 0.0023787259
-0.052531492 -0.049510282 0.012661266 -0.98674703 -0.010845246 -0.16190323 0.00058737415
-0.052370068 -0.046435729 0.012633166 -0.98265666 0.11724754 -0.14366198 0.0017584229
-0.052006837 -0.043371107 0.012909723 -0.96736175 0.21636818 -0.13189459 0.0024291449
-0.051545303 -0.0406284 0.013404437 -0.86764002 0.44383416 -0.22408022 0.024050524
-0.05063362 -0.039908163 0.012325304 -0.85100305 0.4339909 -0.2957122 0.020899052
-0.051149625 -0.038792774 0.013300137 -0.74071658 0.65414494 -0.15307985 0.031163948
-0.049347684 -0.038331591 0.013384713 -0.52388966 0.84869331 -0.072520629 0.02781683
-0.046538409 -0.037096642 0.01345702 -0.53659701 0.81362289 -0.22378911 0.040363297
-0.044503238 -0.036797162 0.01292168 -0.86556596 0.3808012 -0.32524794 0.042927545
0.011014353 -0.037657369 0.014220613 0.72551155 0.67428797 0.13772717 0.043019824
-0.045077316 -0.034463983 0.014658596 -0.94983113 0.16860278 -0.2634275 0.029506519
-0.044477664 -0.0347801 0.013095314 -0.87937534 0.32106018 -0.35159546 0.0492329
-0.045014743 -0.032105051 0.014493216 -0.94119251 0.00064135913 -0.33787009 0.00019345376
-0.044591915 -0.031379942 0.013388653 -0.94168943 0.0048906533 -0.33644783 0.00015612096
-0.044581417 -0.028388396 0.01335771 -0.93824834 0.0023583507 -0.34595448 8.5141706e-05
-0.045180459 -0.025706153 0.014916183 -0.94352609 -0.055612579 -0.3265973 0.0038744288
-0.044511124 -0.025685987 0.013170918 -0.94774055 -0.098508015 -0.30345342 0.0074084825
-0.045097757 -0.022634719 0.014696569 -0.95283824 -0.16157365 -0.25689149 0.0045288112
-0.044799462 -0.023966782 0.013920709 -0.94914848 -0.16313022 -0.26926896 0.007998677
-0.04555941 -0.018738326 0.012543472 -0.96806234 -0.068116441 -0.24127875 0.0058938437
0.015229316 -0.019637242 0.012358513 0.53574592 0.30752313 -0.7863878 0.011339179
-0.045498498 -0.016479991 0.012382356 -0.9646433 0.030213345 -0.26182163 0.0018296998
0.014142723 -0.016278327 0.013026311 0.58168364 0.41715011 -0.69830495 0.013478545
-0.0452981 -0.013436051 0.013533087 -0.96608603 0.039534077 -0.25517607 0.0039025738
0.010898974 -0.013300102 0.013014392 0.61027807 0.42583421 -0.66800147 0.020183658
0.012715376 -0.013746738 0.013455414 0.44278431 0.44686279 -0.77733892 0.021063171
-0.045150869 -0.010654913 0.014153051 -0.9656992 -0.032891259 -0.2575717 0.0040291594
0.010961166 -0.010285275 0.014101871 0.70385468 0.19701111 -0.68247724 0.019548852
-0.045559667 -0.0066555236 0.012530136 -0.96578491 -0.050083358 -0.25446245 0.0039008018
0.01093702 -0.00747514 0.014191381 0.77303213 0.12244816 -0.62243688 0.0077547221
-0.045499705 -0.0044692615 0.01237153 -0.96519649 0.031249227 -0.25965226 0.0019263917
0.010846693 -0.0043960502 0.014047335 0.81621259 0.013323583 -0.57759804 0.00011614351
-0.045298092 -0.0015064646 0.013520909 -0.96418327 0.02962539 -0.26357725 0.0050594728
0.010791711 -0.0013973478 0.01415659 0.82727361 -0.037650082 -0.56053621 0.0059061442
-0.045150738 0.0011965975 0.014140414 -0.9608447 -0.040628619 -0.27409279 0.0047383904
0.010776922 0.0015395624 0.014191383 0.8311708 -0.020477448 -0.55563992 0.0081030466
-0.045559913 0.0050583309 0.012517178 -0.96129727 -0.048535574 -0.27120441 0.0042574778
0.01073366 0.0044387071 0.014323425 0.84918123 -0.048837371 -0.52583855 0.014518596
-0.045854196 0.0074324063 0.013626903 -0.95790857 0.033512775 -0.28511059 0.0019064464
0.010824447 0.0071976953 0.014368738 0.85738212 -0.045456689 -0.51266915 0.015993306
-0.045270465 0.010575798 0.013620816 -0.96079201 0.048264075 -0.2730372 0.0079688402
0.01098382 0.01057511 0.013758622 0.80711377 0.083114617 -0.58451629 0.014763241
-0.045095172 0.012934334 0.014652081 -0.96151203 -0.042676382 -0.27142832 0.0083846236
0.01134973 0.012379303 0.014003246 0.71119344 -0.22450539 -0.66618407 0.042497184
-0.045870248 0.016624881 0.013326459 -0.96158057 -0.049861491 -0.26995662 0.0062055476
-0.0457118 0.019379551 0.013572685 -0.95970833 0.15018646 -0.23749514 0.011712905
-0.044871755 0.02082919 0.014059043 -0.94643742 0.14010511 -0.29090694 0.016404672
-0.045188602 0.022253597 0.01432506 -0.9224456 0.093567125 -0.37461913 0.018518798
-0.044561788 0.022887027 0.01324801 -0.94806296 0.14813495 -0.28148311 0.017507313
0.015816333 0.023771415 0.012285377 0.69224346 0.036207572 -0.72075522 0.0049091089
-0.045055989 0.025429284 0.014534715 -0.8767724 -0.022619544 -0.48037335 0.005603326
-0.044448648 0.025550457 0.012949939 -0.91512728 0.0020199867 -0.40316001 0.011816132
0.015764246 0.025953179 0.012316984 0.7009002 0.077939749 -0.70898831 0.0029684086
-0.046168152 0.028422514 0.014771153 -0.8874442 -0.02259071 -0.46036124 0.0069160792
-0.04462631 0.028655248 0.013409748 -0.89093155 -0.018034436 -0.4537794 0.0053569898
0.015039156 0.029817248 0.01229542 0.55028486 0.18155815 -0.81499892 0.013750652
-0.044545174 0.030996008 0.013195437 -0.89141428 -0.025490936 -0.45247185 0.0036233391
0.015316221 0.030018259 0.012971188 0.54550117 0.13536233 -0.82710665 0.01375802
-0.051451221 0.040985897 0.012735739 -0.99435037 -0.10167045 -0.030502176 0.0070066489
-0.050900757 0.04026806 0.012443117 0.8847959 0.46502185 0.029846758 0.045420073
-0.051953413 0.043563738 0.012855993 -0.9843201 -0.12097632 -0.12836941 0.0029800066
-0.052434716 0.046646118 0.012791997 -0.9895823 -0.075741597 -0.12243418 0.0020379443
-0.052589122 0.049697656 0.01284183 -0.99152863 0.0087823374 -0.12959112 0.00072159467
-0.052448839 0.052613176 0.01283888 -0.98972702 0.090075202 -0.11102647 0.0010859779
-0.052081145 0.05547839 0.012993964 -0.96547055 0.21838523 -0.14203745 0.0026102271
-0.051593862 0.058287457 0.013255219 -0.90445489 0.38686717 -0.17970856 0.018026683
-0.050673775 0.05908405 0.012315889 -0.86285973 0.45054892 -0.22908232 0.020171082
-0.051162511 0.060189839 0.013845156 -0.64847529 0.75827742 -0.067046113 0.030317344
-0.049273729 0.060791396 0.013458626 -0.60726219 0.7895419 -0.08863578 0.025363863
-0.046648718 0.062565356 0.013341602 -0.47808731 0.87564051 -0.06845621 0.0074441116
-0.045319397 0.063101672 0.013665065 -0.33595976 0.94080764 -0.044854771 0.0071864119
-0.04351411 0.063715346 0.013325549 -0.31315118 0.943358 -0.1095992 0.0027302327
-0.040478081 0.064818852 0.013375678 -0.33772734 0.93538284 -0.10487708 0.002782393
-0.037918296 0.06567508 0.013105953 -0.31416059 0.93853116 -0.14304662 0.0035358316
-0.036629248 0.066212267 0.0139729 -0.2703965 0.95184636 -0.14447892 0.002952971
-0.034492966 0.066720746 0.013431957 -0.23509248 0.96143055 -0.14276868 0.0022380417
-0.031568158 0.067444339 0.013431552 -0.24307941 0.96064448 -0.13444175 0.0020094907
-0.028515885 0.068153039 0.013436012 -0.23747845 0.96724087 -0.089716673 0.0019348506
-0.025814362 0.068770669 0.013433839 -0.20783854 0.97813183 -0.0078296009 0.0018970915
-0.024337804 0.069096245 0.013303838 -0.2184249 0.97583872 0.0054104743 0.0025143398
-0.022515552 0.069456436 0.013442626 -0.14745395 0.98689747 0.065504245 0.0025211459
-0.019608462 0.07001929 0.013348214 -0.17343561 0.97360426 0.14837402 0.0048054196
-0.01661122 0.070669584 0.012947202 -0.17386104 0.93665683 0.30404988 0.0080296081
-0.013144437 0.071632117 0.012318309 -0.21924122 0.97389233 0.058880985 0.0063547674
-0.0094240624 0.072180048 0.012754904 -0.19319835 0.97488528 0.11078355 0.0030735095
-0.0079706246 0.072741993 0.012230586 -0.21545164 0.96776617 0.13041961 0.0034577739
-0.0042532734 0.073327325 0.012606129 -0.21853544 0.9483642 0.22988613 0.0012806732
-0.0011465021 0.074167594 0.012079531 -0.20610027 0.94370389 0.25873861 0.0011559225
-0.052669205 -0.053685218 0.015085724 -0.98558331 -0.081537209 -0.14824741 0.0025291473
-0.052966669 -0.049055632 0.015278687 -0.99232858 0.046275675 -0.1146406 0.0027004445
-0.052831259 -0.046327591 0.015212876 -0.98291433 0.17310543 -0.062561229 0.0046627908
-0.052259091 -0.043836415 0.016698807 -0.97041178 0.22756146 0.080727249 0.012137012
-0.051559079 -0.040753614 0.016415281 -0.82184625 0.49842417 0.27593872 0.026323305
-0.049701922 -0.0393296 0.017298421 -0.57518893 0.7659021 0.28731811 0.015919264
0.0111551 -0.039970089 0.015413266 0.68943632 0.70334065 0.17317465 0.044816479
-0.051141247 -0.038954955 0.015424838 -0.58761209 0.8019802 0.10742319 0.026873846
-0.049054146 -0.038363658 0.016017491 -0.49134827 0.85924304 0.14240189 0.013345232
-0.046529245 -0.037053745 0.016307134 -0.74443012 0.64597529 -0.16893682 0.041621964
-0.04558048 -0.034202829 0.016297786 -0.94984269 0.16856502 -0.26340955 0.029471966
-0.045619544 -0.031441398 0.016590253 -0.98179877 0.030026169 -0.18753578 0.0028683029
-0.045520343 -0.02866919 0.016082583 -0.96960485 -0.0043513873 -0.2446373 0.001907779
-0.04562404 -0.025598124 0.016414111 -0.95935404 -0.081803203 -0.27008894 0.0051596202
-0.046368662 -0.022186978 0.016671132 -0.93624449 -0.17438883 -0.3050161 0.0074203592
-0.046470616 -0.019365348 0.016532091 -0.94376945 -0.084297672 -0.31967643 0.0057179318
-0.046364952 -0.016394673 0.016377145 -0.94724399 0.0068619642 -0.32043988 0.0047150105
-0.046463657 -0.013499992 0.016539054 -0.93771398 0.086062029 -0.33657956 0.0048172683
-0.046535406 -0.010535438 0.016656321 -0.94678456 -0.012086456 -0.32164106 0.0066360971
-0.046484023 -0.0074034329 0.016510809 -0.94659954 -0.083984651 -0.31128091 0.0035974493
-0.046342503 -0.0043432149 0.016343564 -0.94836938 0.033199482 -0.3154256 0.003136856
-0.046523344 -0.0014589786 0.016654007 -0.93809271 0.063108012 -0.34058687 0.0042312816
-0.046637505 0.0015278012 0.016391587 -0.94055647 -0.051162876 -0.33576161 0.0039745402
-0.046526294 0.004461579 0.016128574 -0.93840271 -0.077082641 -0.33683607 0.003908426
-0.046452899 0.007538754 0.016232876 -0.93957388 0.047383614 -0.33905125 0.0027241295
-0.046653405 0.01054507 0.016469369 -0.92764187 0.072878659 -0.36629117 0.0066749924
-0.046577379 0.013467753 0.016279824 -0.93293869 -0.062092472 -0.35464045 0.0073403623
-0.046482902 0.016420381 0.016146015 -0.93435562 -0.064485781 -0.35045856 0.0066941222
-0.04655109 0.019541178 0.016374897 -0.91157341 0.092739567 -0.40054125 0.0059040664
-0.046633456 0.022553256 0.016491 -0.88747573 0.045609225 -0.45859206 0.0029428096
-0.046309173 0.025426583 0.016150055 -0.90420043 -0.02942217 -0.4260937 0.0064815069
-0.046154495 0.028562952 0.016015548 -0.88743776 -0.022614585 -0.46037242 0.0069358498
-0.046746146 0.031204998 0.016585181 -0.89689833 -0.038282644 -0.44057661 0.0071384804
-0.052840617 0.046795774 0.015621264 -0.99425101 -0.065046817 -0.085052066 0.0028390894
-0.052775145 0.050583359 0.016910825 -0.99621791 0.059885904 -0.062958024 0.0015410981
-0.052597523 0.052540451 0.017094305 -0.99261504 0.11913504 0.022852367 0.0026262682
-0.052188896 0.056452274 0.015743567 -0.96297395 0.24631007 0.10960194 0.0061507472
-0.05151074 0.058491915 0.016439984 -0.75411928 0.57161504 0.32335794 0.031171102
-0.050227031 0.059649155 0.017282795 -0.69663495 0.64577615 0.31252673 0.033042714
-0.05101357 0.060268316 0.015293219 -0.75953388 0.63544512 0.13898809 0.041034587
-0.048709903 0.060629472 0.016099116 -0.53618407 0.78870755 0.30074421 0.014124379
-0.046690799 0.062259004 0.016344966 -0.49144906 0.85578585 0.16158058 0.0025518017
-0.044624202 0.062766895 0.017606497 -0.39246309 0.8951441 0.21139948 0.0047582504
-0.045016758 0.063168623 0.015285024 -0.43871996 0.88254344 0.16923891 0.0046357629
-0.043336093 0.063658975 0.016236639 -0.34408337 0.92276841 0.173508 0.0048517692
-0.040508386 0.064772584 0.016398897 -0.36050016 0.92599428 0.11213499 0.002576859
-0.037885446 0.065750383 0.016625999 -0.35714519 0.92651838 0.11836873 0.0027328893
-0.036679212 0.066217527 0.016201328 -0.29974195 0.95005113 0.086934596 0.0025583198
-0.034505986 0.066839427 0.016351217 -0.25833392 0.96348625 0.070411779 0.0020238166
-0.031433966 0.067568429 0.016544024 -0.23042393 0.97248828 0.034222823 0.00063012954
-0.028453805 0.068183899 0.016379006 -0.20673451 0.97773951 0.035865314 0.00035238577
-0.025599951 0.06870234 0.01667876 -0.16265157 0.98459768 0.064124398 0.00018140646
-0.023797564 0.068969056 0.01706497 -0.11409485 0.99004865 0.082377359 0.00051738945
-0.018019045 0.068909675 0.017982164 0.081994921 0.98546863 0.14875627 0.0012681326
-0.016483523 0.068785667 0.017661685 0.11848144 0.97315788 0.1972964 0.0014641191
-0.01479817 0.068811655 0.016976254 0.0064248308 0.92610121 0.37722036 0.0082568228
-0.024342401 0.069001667 0.015440312 -0.16019212 0.98520052 0.060978092 0.00035814848
-0.022542929 0.069194563 0.016331198 -0.090291902 0.99309021 0.074961267 0.00083025941
-0.019809784 0.069241881 0.016428323 0.010988003 0.98876381 0.14908203 0.0034023183
-0.017505154 0.069446161 0.015499208 0.060373262 0.96281624 0.26332474 0.0050964481
-0.05156523 -0.043146245 0.018955963 -0.84573966 0.32422483 0.42379555 0.014142092
-0.048941184 -0.040511917 0.019891333 -0.67879492 0.55982888 0.47521493 0.0044208118
-0.048353482 -0.038465634 0.01861188 -0.6548233 0.62750959 0.42123392 0.016606411
-0.046809848 -0.037531093 0.019361511 -0.72914195 0.58945817 0.34769398 0.015471491
-0.045858577 -0.03509422 0.018215077 -0.92029864 0.36618754 -0.13768485 0.038486607
-0.045714669 -0.030871142 0.020017205 -0.9901005 -0.019840583 -0.13895066 0.0016766278
-0.045835171 -0.028350428 0.019186007 -0.96734262 -0.12145741 -0.22247787 0.0094319694
-0.046111546 -0.025579333 0.018798526 -0.92502767 -0.17291042 -0.33826873 0.0069701495
-0.047630288 -0.022317775 0.019179119 -0.91937172 -0.12559111 -0.37280372 0.0035585223
-0.047651384 -0.019327464 0.019578077 -0.89673877 -0.087370247 -0.43385026 0.0038728972
-0.047718748 -0.016617125 0.018855127 -0.92666334 0.003278737 -0.37587804 0.0026419754
-0.047730632 -0.01369155 0.018281287 -0.92048109 0.020936249 -0.39022595 0.003224453
-0.047551498 -0.01014505 0.020248618 -0.90766692 0.0091382721 -0.41959167 0.0035414286
-0.047682274 -0.0077179354 0.019352553 -0.91016173 -0.000503972 -0.41425291 0.0034013842
-0.047730941 -0.0047541703 0.018636744 -0.93150818 -0.009938309 -0.36358467 0.0015602006
-0.047630329 -0.0017158965 0.019079311 -0.9155587 0.012329154 -0.40199533 0.0015179345
-0.047644228 0.0017782156 0.01970014 -0.8988722 -0.016657788 -0.43789405 0.0019230997
-0.047725648 0.0047559398 0.018859509 -0.927665 -0.033178244 -0.37193665 0.0029596644
-0.047740478 0.0075153918 0.018287867 -0.93271321 0.0015230634 -0.36061594 0.0021862795
-0.04765974 0.010668756 0.019277075 -0.89196724 0.012283104 -0.45193318 0.0028774417
-0.047703851 0.013616797 0.019215787 -0.88249874 -0.0015102713 -0.4703123 0.0025666705
-0.047742307 0.016369896 0.018555136 -0.91948813 -0.05330544 -0.38948709 0.0049167224
-0.047688469 0.019379867 0.018810647 -0.90933931 0.033206675 -0.41472813 0.0045104078
-0.04767723 0.02264069 0.019513244 -0.95185852 0.083155535 -0.29504329 0.018766291
-0.047341987 0.025368646 0.019168312 -0.97442883 -0.0032700435 -0.22467244 0.020211792
-0.047092706 0.028652539 0.018427758 -0.95186621 -0.1295951 -0.27776936 0.019684829
-0.047094397 0.030461093 0.018074723 -0.95098549 -0.064024828 -0.30253506 0.023700418
-0.052224576 0.053666651 0.018173555 -0.94307959 0.28190157 0.17644405 0.026308132
-0.051332667 0.057413645 0.018590761 0.78792566 -0.388522 -0.47772768 0.02582656
-0.04859598 0.05909843 0.019397447 -0.52723891 0.7346285 0.42701298 0.0081126904
-0.048549484 0.060536232 0.018313551 -0.52723962 0.73462576 0.42701676 0.0081870733
-0.046411976 0.061451823 0.018752849 -0.46504077 0.81272793 0.3510133 0.0055375253
-0.043403506 0.062319618 0.019722743 -0.3735306 0.8749668 0.30807146 0.00068541861
-0.042503186 0.063441329 0.018333089 -0.37353438 0.87495589 0.3080976 0.00080047746
-0.04037841 0.063963071 0.019371221 -0.37448019 0.87770993 0.29898134 0.00089260883
