# .PCD v0.7 - Point Cloud Data file format
VERSION 0.7
FIELDS x y z normal_x normal_y normal_z curvature
SIZE 4 4 4 4 4 4 4
TYPE F F F F F F F
COUNT 1 1 1 1 1 1 1
WIDTH 568
HEIGHT 1
VIEWPOINT 0 0 0 1 0 0 0
POINTS 568
DATA ascii
0.030164018 0.050779726 0.0062339189 0.55854094 -0.46822298 0.68468916 0.0023638506
0.028785529 0.052177694 0.007898719 0.55111134 -0.25686207 0.79391319 0.0024648046
0.030888764 0.052735146 0.0065621897 0.55116928 -0.29227948 0.78152746 0.0037480299
0.029169824 0.055356912 0.0082187252 0.54523301 -0.053144805 0.83659822 0.0016398908
0.031425741 0.055492576 0.0067927577 0.54011047 -0.086322002 0.8371554 0.0027735375
0.028960546 0.058641355 0.0082144421 0.51691836 0.055945266 0.85420465 0.0002191091
0.031378061 0.058591381 0.0067824489 0.52531928 0.038167752 0.85004872 0.00074058422
0.028875085 0.061663974 0.0079212124 0.49991089 0.10741974 0.85938936 5.7004203e-05
0.031167775 0.061234206 0.0066574933 0.50331736 0.10281095 0.85796356 9.9819357e-05
0.028174307 0.064402558 0.0079153385 0.48990154 0.14071432 0.86034638 6.5567088e-05
0.030833453 0.064281315 0.0064137904 0.49320036 0.13838847 0.8588376 5.3351014e-05
0.026386596 0.067699052 0.0082968101 0.47562322 0.17869239 0.8613081 5.0607938e-05
0.028746551 0.067440741 0.0070355888 0.4834719 0.1734926 0.85799485 6.8669506e-05
0.030451266 0.067052111 0.0061686817 0.48683223 0.17002302 0.85678852 5.9653732e-05
0.025255922 0.069631509 0.0084899394 0.46853924 0.18852536 0.86309278 5.7933736e-05
0.028273957 0.069950275 0.0067335102 0.47825548 0.1818606 0.85918468 6.2736835e-05
-0.00020669487 -0.075059123 0.0090790419 -0.23040169 -0.96584255 0.11858844 0.0022979681
0.001840039 -0.075318351 0.0097827986 -0.15926592 -0.94561321 0.28363729 0.0040880619
0.0045636799 -0.075448327 0.01008636 -0.042862654 -0.93824214 0.34331387 0.0031542967
0.0075415326 -0.075448588 0.0098262234 0.049106266 -0.90657508 0.41917804 0.0041999156
0.010345538 -0.075380079 0.0094669405 0.10815374 -0.85504049 0.50715727 0.0039578201
0.012828544 -0.07518094 0.0091998195 0.15776914 -0.79967445 0.57933551 0.0027803867
-0.012180936 -0.072022587 0.009842026 -0.36152655 -0.91611767 -0.17328277 0.037982486
-0.010103753 -0.072464064 0.010345021 -0.18404628 -0.94089621 0.28432599 0.0033266759
-0.0074662101 -0.07307861 0.010337618 -0.18128639 -0.94724828 0.2643027 0.0032054065
-0.0044204495 -0.073775046 0.010329234 -0.21475855 -0.9422695 0.25691813 0.0024600509
-0.0014365205 -0.0743993 0.010486118 -0.19856878 -0.93536854 0.29267076 0.0040792073
0.0011044532 -0.074749283 0.010971774 -0.12538688 -0.91651422 0.37984169 0.0029792134
0.0043951888 -0.074881852 0.01153197 -0.00091991242 -0.9060201 0.42323357 0.0040524178
0.0076500205 -0.074724719 0.011273487 0.11650303 -0.86648601 0.48541629 0.0032243673
0.010680532 -0.074235104 0.011158885 0.1742541 -0.81575507 0.55152446 0.0028525898
0.013585349 -0.07375101 0.010753993 0.26136854 -0.7187348 0.64428782 0.0042332509
0.016455006 -0.07335481 0.010103014 0.25356019 -0.635221 0.72952145 0.0035972535
0.01941956 -0.072813429 0.0094103497 0.31862092 -0.58850688 0.74306148 0.0028858522
0.021259705 -0.072189756 0.009079027 0.30757618 -0.58004314 0.75428557 0.002981816
-0.022045055 -0.069356732 0.01168001 -0.18087408 -0.97101659 -0.15624119 0.02899307
-0.019533057 -0.070037723 0.01140673 -0.29552442 -0.94886732 -0.11097801 0.028915422
-0.016284447 -0.070669852 0.010747842 -0.25353694 -0.92776024 -0.27382469 0.025032908
-0.013358412 -0.071609393 0.010973816 -0.34342685 -0.93300557 -0.10751113 0.039582539
-0.011396288 -0.071928978 0.01161899 -0.20382835 -0.92126769 0.33123991 0.0016837065
0.016762437 -0.07115078 0.01168177 0.35080221 -0.46382615 0.8135128 0.0049812258
0.019503722 -0.070571728 0.010750648 0.38689035 -0.39823455 0.83170009 0.003703
0.022283584 -0.070381336 0.0095093083 0.41046956 -0.3647525 0.83574539 0.002770853
-0.027663499 -0.066113323 0.010663892 -0.27241579 -0.8632769 -0.42490295 0.0011662247
-0.025349062 -0.066653244 0.010130635 -0.29394951 -0.86013353 -0.41685009 0.0003934211
-0.022744773 -0.067692183 0.010210353 -0.34781265 -0.84404647 -0.40818122 0.0074407831
-0.019512389 -0.068227358 0.0093381619 -0.29278207 -0.85061389 -0.43673182 0.011919409
0.019835209 -0.067681208 0.011639219 0.44262996 -0.24206528 0.86341357 0.00065676938
0.022451619 -0.067535959 0.010310002 0.45017847 -0.23826812 0.86056238 0.00063690741
0.024554383 -0.067354582 0.0092225764 0.45729282 -0.2266968 0.85993713 0.00053254323
-0.04264915 -0.063339636 0.011802423 -0.29446372 -0.89458621 -0.33616465 0.022040633
-0.039889194 -0.063465133 0.011518079 -0.22499788 -0.80612934 -0.54729456 0.0039845216
-0.037027519 -0.063563883 0.010876405 -0.2755968 -0.82070637 -0.50048727 0.0042722332
-0.034405582 -0.064114071 0.010311964 -0.24396132 -0.84856373 -0.46949184 0.0052694641
-0.031494353 -0.064941011 0.010411082 -0.19374256 -0.85922462 -0.47349423 0.0032535135
-0.028929319 -0.065624066 0.010290315 -0.23319475 -0.86793631 -0.43852794 0.002039711
-0.026523152 -0.065908149 0.009079027 -0.28136376 -0.87944388 -0.38394386 0.00044190115
0.020495534 -0.064553022 0.011981636 0.45703685 -0.17428087 0.87220615 0.00011612173
0.022527229 -0.064555451 0.010910955 0.46959779 -0.16462798 0.86739588 0.00011525434
0.025104646 -0.064452916 0.0094991457 0.47804841 -0.15779498 0.86404312 6.5728644e-05
-0.048590895 -0.060461462 0.010073689 -0.20308778 -0.88505799 -0.41884094 0.016213678
-0.046468247 -0.060854714 0.010730212 -0.20284382 -0.88504457 -0.41898733 0.016226958
-0.043598168 -0.061490577 0.010583205 -0.2792694 -0.84256554 -0.46053427 0.0058694473
-0.040671196 -0.062192556 0.01030229 -0.22799008 -0.85726428 -0.46164763 0.0058211247
-0.038081691 -0.062802799 0.0096200285 -0.23657832 -0.87351954 -0.4254342 0.0026234898
0.022519041 -0.06154732 0.011404643 0.47464639 -0.13259956 0.87013113 6.8171663e-05
0.025531091 -0.061511096 0.0097366432 0.48523992 -0.12760232 0.8650201 3.4199886e-05
-0.048581798 -0.059699163 0.0099089174 -0.15601484 -0.92467523 -0.34732577 0.01323479
-0.047684148 -0.059610188 0.0093550636 -0.22203945 -0.94612151 -0.23569584 0.024859736
0.023074556 -0.05893597 0.011460446 0.48401454 -0.094712116 0.86991924 0.00011064478
0.025463825 -0.058365159 0.010186598 0.49240667 -0.087598793 0.86594582 0.00012519424
0.027343422 -0.058547806 0.0090790344 0.50094539 -0.077695057 0.86198443 0.00011990291
0.023496985 -0.055585921 0.011520336 0.50277483 -0.034817312 0.86371589 0.00046676377
0.025639584 -0.055398613 0.010295993 0.51137072 -0.010533517 0.85929567 0.00039486645
0.027689954 -0.055457562 0.0090790298 0.5146246 0.0025553217 0.8574118 0.00095069443
0.02349674 -0.052493755 0.011532987 0.51889867 0.098916009 0.8490935 0.0024102281
0.025507409 -0.052368805 0.010230432 0.52636498 0.15085594 0.83676898 0.0034971442
0.027415523 -0.052775741 0.0090790419 0.53122544 0.18536867 0.82670301 0.0028796999
0.022877319 -0.049374215 0.011196122 0.55468339 0.26709405 0.78802729 0.0019547476
0.025023241 -0.049547378 0.0097114472 0.56534976 0.3385646 0.75216591 0.0032365464
0.020849064 -0.046961363 0.011568206 0.54437906 0.44232622 0.71274054 0.0030349826
0.022451343 -0.046859235 0.010155502 0.56141794 0.46034962 0.68766868 0.0018967054
0.017836075 -0.043294348 0.011093813 0.55952907 0.49467796 0.66499686 0.000980312
0.019775067 -0.044836886 0.010831858 0.58075786 0.46528906 0.66800177 0.0018618641
0.010551577 -0.036842525 0.011348695 0.71918285 -0.19880542 -0.66577208 0.10093188
0.0075635025 -0.033461235 0.0098612411 0.36039171 -0.18943897 -0.91336226 0.0098402668
0.010727252 -0.034494489 0.01097645 0.42314675 -0.38590667 -0.81977004 0.032397319
0.012386441 -0.033350606 0.011664088 0.7359336 -0.37412208 -0.56429994 0.0085322792
0.0072041135 -0.032001238 0.0094055226 0.29693234 -0.28344151 -0.91186184 0.014348287
0.010805399 -0.031612132 0.0098428102 0.30169326 -0.25504336 -0.91865885 0.0076733227
0.012935597 -0.031319927 0.011123827 0.67670733 -0.31159058 -0.66706705 0.010040004
0.0069465227 -0.029605854 0.0090790419 0.32242796 -0.20807439 -0.92344207 0.026841976
0.010931769 -0.028692715 0.0092527624 0.32383251 -0.18125254 -0.92859036 0.0084863296
0.013625105 -0.028432859 0.010818347 0.67197806 -0.20356135 -0.71204513 0.011624953
0.01125232 -0.025332045 0.0090790419 0.47682908 -0.039760526 -0.87809634 0.0020371794
0.01366473 -0.025630755 0.010445492 0.62113523 -0.069395341 -0.78062493 0.0074683707
0.015112899 -0.025161887 0.011684664 0.72570109 -0.061453659 -0.68526006 0.010449821
0.011191725 -0.022536462 0.0090790363 0.47944817 0.054470647 -0.87587804 0.0022283657
0.01363591 -0.022417933 0.010467336 0.58960938 0.07814119 -0.80389965 0.009693101
0.015097901 -0.023095211 0.011693192 0.72604966 0.10067569 -0.68023247 0.009934566
0.011042272 -0.019639997 0.0093435999 0.43609938 0.20190756 -0.87695539 0.0085151168
0.013589152 -0.019559473 0.010923274 0.65240836 0.21401387 -0.72702229 0.0076849652
0.01083538 -0.016808987 0.0099299075 0.50547612 0.2631844 -0.82172251 0.007793921
0.01290857 -0.016702753 0.011376257 0.70516229 0.33596674 -0.6243977 0.0102107
0.0072107613 -0.013281482 0.0094155362 0.65191406 0.015121616 -0.75814205 0.0059456499
0.01028605 -0.012963736 0.011145236 0.62500072 0.33401334 -0.70555598 0.017141463
0.0073712287 -0.010476517 0.0096192351 0.62510151 0.013896833 -0.78041971 0.0059776423
0.010116464 -0.010489439 0.011230428 0.70591646 0.044374134 -0.70690376 0.017826034
0.0073731821 -0.0073586982 0.0096218036 0.6369437 0.003052098 -0.7709043 0.0054839528
0.010110996 -0.0074886731 0.011240276 0.72937739 -0.0031288408 -0.68410438 0.017559675
0.0073750094 -0.0044541438 0.0096241701 0.63898575 0.0024318092 -0.76921475 0.0055103297
0.010099334 -0.004455186 0.011250243 0.81657952 -0.00037057672 -0.57723278 0.035421718
0.0073768501 -0.0015240554 0.0096265683 0.64097244 0.0013618132 -0.76756275 0.0054193824
0.010088754 -0.0015170256 0.011259902 0.81818748 0.00060406455 -0.57495123 0.034974482
0.007378561 0.001432035 0.0096289804 0.64185494 0.00016283164 -0.76682615 0.0053551821
0.010091391 0.0014352006 0.011269562 0.73072493 0.0016200758 -0.68267012 0.016471628
0.0073800702 0.004414543 0.0096314233 0.64165932 -0.00048443594 -0.76698959 0.0053464547
0.010113102 0.0043961178 0.011279173 0.83059424 -0.0084433239 -0.55681413 0.039046016
0.0073816683 0.0074235541 0.0096338782 0.64088309 -0.00037011103 -0.76763844 0.0053660367
0.010135499 0.0073826783 0.011288871 0.72891635 0.0046424754 -0.68458706 0.016579868
0.0073833559 0.010459427 0.009636363 0.6689027 0.03269913 -0.74263042 0.0056791194
0.010156951 0.010396756 0.011298663 0.7032488 -0.046667639 -0.70941043 0.017351469
0.0073854942 0.013522177 0.0096388664 0.56563914 -0.070493564 -0.82163435 0.015836898
0.01059935 0.013580547 0.01134207 0.58846951 -0.23976092 -0.77215183 0.032750078
0.0072982176 0.016439021 0.0095286835 0.46908081 -0.039558124 -0.88226885 0.033019241
0.010917757 0.016232675 0.010327687 0.52298325 -0.3910926 -0.75732106 0.01619529
0.012798985 0.016802115 0.011428838 0.68619782 -0.37093425 -0.62573189 0.0094761625
0.0069435067 0.019507304 0.0090790316 0.42781222 -0.1071796 -0.89749056 0.031716179
0.010761017 0.01933777 0.0093594976 0.32479367 -0.21638858 -0.92069811 0.0065825093
0.013483514 0.019601582 0.010969026 0.64813399 -0.23004571 -0.72594845 0.00777914
0.011073892 0.02256858 0.0090790335 0.3984786 -0.086662084 -0.91307414 0.01021154
0.013677819 0.022363517 0.010563931 0.62659043 -0.11578332 -0.77070016 0.0069699106
0.015168352 0.022855543 0.011880963 0.80242896 -0.1047396 -0.58748394 0.0032009569
0.011243932 0.025571147 0.0090790419 0.5034554 0.022828519 -0.86371958 0.0029352214
0.013747914 0.025461921 0.010487839 0.61162758 0.031152293 -0.79053223 0.0077970996
0.015264253 0.02553237 0.011891477 0.80070609 0.041814428 -0.59759629 0.0049984665
0.010948353 0.028665084 0.0092211282 0.43835306 0.15880564 -0.88466227 0.0081442641
0.013699195 0.028561639 0.010829076 0.61996287 0.14914072 -0.77032661 0.0069226986
0.015091929 0.02730033 0.011899534 0.82144237 0.13953206 -0.55295861 0.0052931854
0.011066415 0.031530231 0.0098786149 0.49946085 0.28925824 -0.81662017 0.011783688
0.01362963 0.031034783 0.011466685 0.6890412 0.24526288 -0.68195915 0.011683102
0.0075732926 0.035512388 0.0093678674 0.55105138 -0.35324001 -0.7560184 0.05645667
0.010349542 0.034538105 0.010516073 0.60305971 0.29232883 -0.74220133 0.029364698
0.012482163 0.033584509 0.011651936 0.74759883 0.28849906 -0.59821755 0.014561244
0.007760921 0.036512926 0.0094261169 0.50602841 -0.68562257 -0.52331346 0.0513428
0.010590895 0.037686273 0.010344598 0.79343462 -0.54973 -0.26126301 0.1088412
0.011754335 0.039261259 0.011675808 0.74921709 -0.65341717 0.10825791 0.079927102
0.013482851 0.040294178 0.010528013 0.5483526 -0.8003844 0.24226892 0.0069117546
0.015869888 0.041473351 0.0099008987 0.49867749 -0.77385879 0.3904655 0.0038847302
0.016927559 0.042855196 0.010943354 0.53507733 -0.67865187 0.50311434 0.0046445797
0.019167149 0.043991003 0.010060338 0.528054 -0.66511321 0.52799934 0.0047619436
0.021125197 0.044740565 0.009079027 0.51157016 -0.68790776 0.51485807 0.0033928724
0.020024555 0.045982812 0.011282974 0.56027871 -0.48347414 0.67256272 0.0032004945
0.022216639 0.046707656 0.0099637089 0.56020147 -0.54278803 0.62574393 0.0027605321
0.024208963 0.047684647 0.0090790344 0.54528677 -0.53881937 0.64213389 0.0024116887
0.022651577 0.049322732 0.011235995 0.5538128 -0.32588243 0.76621932 0.002538353
0.025067143 0.049703136 0.0096168546 0.55568522 -0.36778161 0.74562103 0.0034117703
0.023292935 0.052541614 0.011675693 0.54663527 -0.11680193 0.82918471 0.0024775537
0.025681023 0.052376933 0.010114005 0.53554368 -0.18363839 0.82429969 0.0039532022
0.027352717 0.052690648 0.0090790307 0.54068094 -0.22513324 0.81054252 0.0037745496
0.023369119 0.055473626 0.011686258 0.50650483 0.019498738 0.86201662 0.0005866827
0.025762904 0.055530887 0.01029157 0.50665343 0.00012990972 0.86214983 0.00068459107
0.027797299 0.055200856 0.009079027 0.5189724 -0.02920644 0.85429192 0.0015458335
0.023062626 0.05834173 0.011639819 0.48721638 0.084891602 0.86914533 8.6619686e-05
0.025657926 0.058520135 0.01016648 0.49614352 0.075005308 0.86499476 0.00014372697
0.027590111 0.058044691 0.0090790363 0.50495535 0.068141058 0.86045152 0.00021394232
0.023306716 0.061658114 0.01112458 0.48223308 0.11843973 0.86799961 6.0132563e-05
0.025628906 0.061434034 0.009827896 0.49035314 0.11788666 0.86351407 7.882504e-05
0.027205644 0.06023749 0.0090790419 0.49594569 0.11414727 0.86081833 5.8581216e-05
0.022739565 0.064522311 0.010958696 0.46847332 0.16384488 0.86815184 0.00010001194
0.025276793 0.06439089 0.0095665809 0.48794898 0.15033151 0.85982919 9.3076756e-05
0.020343134 0.068188034 0.011449399 0.45539045 0.19378138 0.86894667 4.1506319e-05
0.022551108 0.067235805 0.010495007 0.46388337 0.18711948 0.8659091 4.5290501e-05
0.024976319 0.06771563 0.009079027 0.47708809 0.17940722 0.86034876 5.6510347e-05
0.020859906 0.069385134 0.010858285 0.45537764 0.19382811 0.86894298 3.8468872e-05
0.023097917 0.069470473 0.0096700666 0.46388236 0.18713334 0.86590666 4.0219616e-05
-0.0090090912 -0.072276391 0.012111652 -0.16450784 -0.93929893 0.30108929 0.0036967101
-0.0071196198 -0.072411217 0.012687872 -0.19171877 -0.87862319 0.43733868 0.0049324222
-0.0044739102 -0.072743475 0.013085344 -0.16697145 -0.868599 0.46653652 0.0039119725
-0.0015472161 -0.073116727 0.013359677 -0.15143885 -0.85365653 0.49833399 0.0036003315
0.0015400288 -0.073585242 0.013325293 -0.10653447 -0.86219507 0.49524754 0.0018462026
0.0046132156 -0.073662989 0.01348109 0.035777971 -0.82792854 0.55969131 0.0036329534
0.0074381782 -0.073306695 0.013370735 0.16484553 -0.7613591 0.62702334 0.0039106808
0.010259727 -0.072811298 0.013005631 0.24568239 -0.67817175 0.69262058 0.0037353621
0.012637496 -0.072337314 0.012570098 0.29553407 -0.64897507 0.70106411 0.0028960253
-0.021990037 -0.069163494 0.013631459 -0.22663614 -0.97374427 -0.021406323 0.024236256
-0.019500297 -0.069625489 0.013552224 -0.14023547 -0.96643591 0.2152572 0.0029965502
-0.016484592 -0.07016518 0.013450741 -0.14183673 -0.93001127 0.33905938 0.0042574215
-0.013477324 -0.070631318 0.013532973 -0.17161588 -0.88676709 0.42917609 0.0061923065
-0.010563186 -0.071269728 0.01339534 -0.21983878 -0.88475448 0.41095054 0.0052296193
-0.0080165053 -0.071429156 0.014046627 -0.19412158 -0.85137647 0.48731405 0.0036173409
-0.0051964545 -0.071783215 0.01443587 -0.16099989 -0.7645455 0.62413877 0.0020959568
0.0079888105 -0.071727499 0.014956169 0.19885541 -0.69276512 0.69320494 0.0029636414
0.01063241 -0.070980348 0.014446122 0.32293203 -0.51852447 0.7917369 0.0058994577
0.013500421 -0.070516184 0.013503999 0.34034869 -0.50545424 0.79289269 0.0039382791
0.01600498 -0.069903269 0.012728757 0.3888846 -0.4285157 0.81556308 0.0029410124
-0.03623471 -0.066033497 0.014979261 -0.28961754 -0.95651567 0.034631982 0.0039569023
-0.034175474 -0.066419102 0.013581173 -0.17216592 -0.92657799 -0.33438322 0.017453598
-0.031558778 -0.067070842 0.013593979 -0.15143156 -0.94048953 -0.30421695 0.01204136
-0.028942235 -0.067673959 0.013832416 -0.21529974 -0.92175484 -0.32251197 0.011458576
-0.0259641 -0.068343714 0.01363992 -0.28661877 -0.92787635 -0.23852682 0.016359188
-0.023662498 -0.068843387 0.013517007 -0.28536102 -0.94477928 -0.16112478 0.021793019
0.013859799 -0.067820355 0.014593093 0.42816493 -0.28209051 0.85854512 0.0013482188
0.016548051 -0.067464679 0.013358116 0.4211424 -0.28425848 0.86129916 0.0016085791
0.018455172 -0.067241415 0.012463545 0.42431644 -0.26668391 0.86535275 0.0013042977
-0.043409184 -0.063378826 0.013442424 -0.31862143 -0.93242806 -0.17046522 0.019520609
-0.040654276 -0.064355053 0.013324807 -0.29240218 -0.92730927 -0.23366326 0.018363714
-0.03750851 -0.065482184 0.013585007 -0.34839609 -0.89485002 -0.27904046 0.014924963
-0.035490904 -0.065870777 0.012561697 -0.31810555 -0.88564867 -0.338283 0.020304888
0.014567085 -0.065040193 0.014946958 0.45263898 -0.1831983 0.87267196 0.00015525681
0.016500501 -0.06444671 0.0140848 0.44869763 -0.1794488 0.87548184 0.00015637696
0.01904968 -0.064478084 0.01275307 0.45621392 -0.17329676 0.87283278 0.00011528773
-0.04648168 -0.062259801 0.013472145 -0.38115081 -0.91188163 -0.15230235 0.016742831
-0.044508561 -0.062831894 0.012360173 -0.32785174 -0.90958202 -0.25529179 0.028023355
0.016707523 -0.061595827 0.014496105 0.45929512 -0.14514214 0.87634569 9.1537717e-05
0.019560784 -0.061458267 0.013025949 0.46604413 -0.13639279 0.87418526 5.7416979e-05
0.017116435 -0.058423165 0.01473717 0.46965316 -0.10824972 0.87618947 5.7684236e-05
0.019380666 -0.058534652 0.013516149 0.47251198 -0.10326654 0.87525332 0.00010861218
0.021650262 -0.058314119 0.012310697 0.47889584 -0.09656845 0.87254417 7.4877484e-05
0.017962327 -0.056602873 0.01449852 0.46922061 -0.081349321 0.87932611 0.00015298444
0.019552832 -0.055536658 0.013715737 0.48085013 -0.063082322 0.87453055 0.00011479016
0.022173421 -0.055492476 0.012261606 0.48787323 -0.053166959 0.87129384 0.00021141734
0.019385781 -0.052577265 0.01396407 0.50818324 0.01639495 0.86109298 0.0011222699
0.021870524 -0.052680794 0.012524677 0.51204079 0.057694487 0.85702139 0.0018268779
0.017745594 -0.048641175 0.014572474 0.55038559 0.17681822 0.81597245 0.0035330357
0.019442253 -0.049695406 0.01366682 0.53871942 0.1786782 0.82331985 0.0032287084
0.02159692 -0.049821395 0.012245637 0.53897762 0.23746851 0.80815339 0.0030463918
0.016861841 -0.046109907 0.014202473 0.57755661 0.39057472 0.71685416 0.003603251
0.019158082 -0.046895813 0.012825429 0.5559001 0.41449949 0.72053128 0.0029486285
0.014635708 -0.043335825 0.014145237 0.57476151 0.47582921 0.66575962 0.0018951154
0.01683466 -0.044106111 0.012858602 0.57470202 0.43773127 0.69145429 0.0019467941
0.011580952 -0.039520077 0.013693613 0.93908745 0.3245317 0.11311015 0.055702165
0.012532565 -0.041031674 0.014013845 0.71038949 0.49323449 0.50206226 0.033685628
0.011032348 -0.037176706 0.013581715 0.99322873 -0.060204607 -0.099358298 0.065181203
0.011666555 -0.035514217 0.01301812 0.92604578 -0.32310492 -0.19504461 0.042534087
0.012971819 -0.034218654 0.013673298 0.83054787 -0.49084371 -0.26317811 0.012530982
0.014288031 -0.031693518 0.01329159 0.85972506 -0.38086066 -0.34032041 0.012924024
0.015237599 -0.030342793 0.014246603 0.88908982 -0.34517109 -0.30062616 0.015724767
0.014850495 -0.029180171 0.012316934 0.85785091 -0.22763452 -0.46073234 0.012069968
0.015600109 -0.028387217 0.013644814 0.94293195 -0.18465447 -0.27709568 0.011393713
0.015980015 -0.02549522 0.013507799 0.95758671 -0.066800028 -0.28029549 0.013388186
0.015928218 -0.022429062 0.013520648 0.95361704 0.097653523 -0.28474274 0.012716595
0.014788076 -0.018679705 0.012634656 0.883744 0.22528844 -0.41017264 0.013686372
0.015497969 -0.019663589 0.013771513 0.93717384 0.20491688 -0.28233704 0.0096564284
0.014172894 -0.016573386 0.013399136 0.83850968 0.43919861 -0.32249975 0.012990935
0.01501681 -0.017482927 0.014881584 0.87417144 0.43909976 -0.20740213 0.0089910273
0.011441274 -0.012602469 0.013357623 0.84801567 0.48621225 -0.21087235 0.012476717
0.012986534 -0.014307496 0.013955842 0.79729879 0.55294335 -0.24200907 0.0070573646
0.010733537 -0.010401412 0.01353146 0.95781678 0.23210257 -0.16945603 0.025154127
0.010727109 -0.0076747821 0.013395665 0.99198067 0.054674618 -0.11395214 0.0072002015
0.010722265 -0.0046841758 0.013441197 0.93673015 -0.012754072 -0.3498199 0.035712514
0.010716317 -0.0015396066 0.013485709 0.94179809 0.036742475 -0.33416519 0.036481481
0.010718553 0.001620741 0.01343091 0.94629693 0.0092162769 -0.32316756 0.039685223
0.010740703 0.0046640649 0.013476695 0.95912623 0.0070842966 -0.28288975 0.044293605
0.01076626 0.0076493667 0.013496077 0.99525636 -0.022403968 0.094672702 0.052203733
0.010800144 0.010653398 0.013515497 0.97310281 -0.20607212 -0.10298146 0.018820142
0.011362539 0.0129003 0.013316941 0.87403077 -0.41203821 -0.25747749 0.028857291
0.012604833 0.014199715 0.013753322 0.83694154 -0.45006937 -0.31139439 0.023282189
0.013945969 0.016468477 0.013490793 0.82998174 -0.46271652 -0.3114863 0.013371988
0.015019104 0.01790929 0.014643821 0.88294035 -0.39564708 -0.25274453 0.020982159
0.014735165 0.018707586 0.01279477 0.8824296 -0.29510248 -0.36637774 0.009329549
0.015437906 0.019796705 0.013774386 0.92559862 -0.23748243 -0.29473588 0.010371977
0.015930194 0.022489971 0.013553674 0.94656885 -0.12333549 -0.29798624 0.0119953
0.016040705 0.025457863 0.013541002 0.95455199 0.040509891 -0.29527867 0.014803791
0.014834099 0.029969797 0.01247819 0.89037484 0.30735213 -0.33580849 0.014069212
0.015721582 0.02826428 0.013592971 0.94250208 0.19066383 -0.27447614 0.012481654
0.014448261 0.031980574 0.013485329 0.86797768 0.43757173 -0.23483141 0.0067203329
0.015344024 0.030457951 0.014318707 0.93575072 0.30505565 -0.17695081 0.011829703
0.011793111 0.035515171 0.01252276 0.8873688 0.26297846 -0.37870702 0.035401575
0.01322642 0.034453452 0.013939331 0.8170383 0.46075407 -0.3466326 0.013290123
0.010978743 0.038066205 0.013453435 0.96396661 0.01386829 0.26566166 0.094580561
0.011480435 0.039849713 0.013971576 0.79491848 -0.53717911 0.28203404 0.014478045
0.012844005 0.041169215 0.013315234 0.67662108 -0.5838232 0.44870293 0.0095765581
0.014034827 0.043032281 0.01410823 0.59348077 -0.55840451 0.57962483 0.0084324125
0.016045736 0.044036057 0.013185753 0.57960886 -0.55643612 0.59534228 0.0038683813
0.016789148 0.046193372 0.014129519 0.55520016 -0.38655362 0.73642993 0.0016765835
0.018796571 0.046847168 0.01292336 0.57356751 -0.42731774 0.69887042 0.0027129573
0.017579654 0.049301412 0.014780109 0.53041846 -0.18413703 0.82749611 0.0032095546
0.019516893 0.049329374 0.013465507 0.55138516 -0.25276458 0.79503739 0.0047907233
0.021254331 0.050100483 0.012540537 0.57695538 -0.29799151 0.76047581 0.0033481712
0.017887032 0.052527446 0.014900031 0.49761432 -0.019687282 0.86717492 0.0013364854
0.019992165 0.052311834 0.013666316 0.5133121 -0.053780027 0.85651523 0.00091756304
0.02184017 0.052447163 0.012548727 0.51229835 -0.07919082 0.85514867 0.0021208439
0.017508525 0.055533152 0.014928229 0.48385584 0.067501105 0.87254065 0.00014848872
0.019687993 0.05541848 0.013741692 0.48261535 0.055451225 0.87407529 0.00029030174
0.021800714 0.055507801 0.012563991 0.48743859 0.039287612 0.87227297 0.00031212234
0.017175836 0.058803502 0.014762126 0.46971285 0.10493221 0.87656093 8.9165231e-05
0.019304013 0.058373664 0.013680188 0.47175309 0.096199214 0.87646723 5.8766367e-05
0.021554986 0.058612712 0.012434582 0.47737306 0.08995197 0.87408441 5.7998826e-05
0.016677584 0.061262075 0.014687884 0.45976406 0.13610302 0.87754941 7.3559175e-05
0.019520154 0.061280873 0.013193724 0.4621236 0.12900773 0.87738186 5.2667929e-05
0.021617878 0.06183074 0.012009914 0.47268102 0.12546179 0.87225682 7.713653e-05
0.016815642 0.06419915 0.014117262 0.45276409 0.17063987 0.87514955 7.2975628e-05
0.019609479 0.064420611 0.012620944 0.45288837 0.16936725 0.87533242 5.9373364e-05
0.014908939 0.067253299 0.014451864 0.44840613 0.18152222 0.87520373 3.3590688e-05
0.016324626 0.067431681 0.013647067 0.45174977 0.18332505 0.87310606 5.2707343e-05
0.018811716 0.067267589 0.012441245 0.45326445 0.19167557 0.87052381 3.0750522e-05
-0.0006279847 -0.07212685 0.015050354 -0.11526832 -0.76814765 0.62981141 0.00086691172
0.0015346312 -0.07238394 0.015023204 -0.049368061 -0.78683871 0.61518091 0.0047635213
0.003415243 -0.072167121 0.015333019 0.058014818 -0.71954 0.69202346 0.002120964
-0.021579891 -0.069042347 0.015319231 -0.11117968 -0.98729157 0.11355362 0.0019241308
-0.019536136 -0.069125444 0.015295151 -0.05575791 -0.96543521 0.25460914 0.0044459826
-0.016603345 -0.069181226 0.015518956 -0.055426374 -0.9319573 0.35830629 0.0054881126
-0.013729137 -0.069339827 0.015534392 -0.073328152 -0.8680979 0.4909471 0.0037620692
-0.01065965 -0.069662176 0.015625428 -0.11102796 -0.81590205 0.5674299 0.0032658118
-0.0075931111 -0.070008807 0.015882034 -0.13384923 -0.75919652 0.63694978 0.0018577084
-0.0043484182 -0.070321746 0.016232509 -0.14441149 -0.71095467 0.68825048 0.0019391336
-0.0013597008 -0.070638835 0.01643635 -0.087625191 -0.66453928 0.74209791 0.0035272916
0.0014096523 -0.070817463 0.016531156 -0.034898244 -0.64688134 0.76179171 0.0079351328
0.0045404285 -0.070527822 0.016646417 0.10464887 -0.57197523 0.813568 0.002614625
0.0074851555 -0.070388563 0.01613722 0.23828764 -0.56134665 0.79253328 0.0046049338
0.010042266 -0.069595486 0.015627079 0.36460823 -0.47405064 0.80145919 0.0024203861
-0.036211677 -0.066047698 0.015783492 -0.28116712 -0.95819831 0.052925013 0.0044104643
-0.034269601 -0.066523269 0.016734637 -0.27694601 -0.95614833 0.095296092 0.0020407063
-0.031969823 -0.067089625 0.01640147 -0.22169295 -0.97486722 0.022046434 0.00049515499
-0.028926449 -0.067702837 0.016567914 -0.20041181 -0.97913951 0.033480141 0.00036217115
-0.025455119 -0.068351798 0.016549565 -0.17342344 -0.98342866 0.052842438 0.00036457574
-0.022274008 -0.068790562 0.016892081 -0.073853411 -0.99064833 0.11472392 0.0014542089
-0.019500546 -0.068790503 0.016822251 0.0032133209 -0.98724633 0.15916757 0.0025082575
-0.01638921 -0.068538822 0.017143171 0.053620748 -0.94758809 0.31496307 0.0053288001
-0.01351807 -0.068447582 0.017028593 0.041472018 -0.88841981 0.4571546 0.0070266905
-0.010592511 -0.068300523 0.017293382 -0.0087935496 -0.81087875 0.5851481 0.0068078828
-0.0075756679 -0.068415523 0.017448574 -0.064187936 -0.72223824 0.68865955 0.0039498629
-0.0044555473 -0.068682961 0.01764808 -0.082630076 -0.64899319 0.75629365 0.0023962741
0.0054091718 -0.068176471 0.01799112 0.21350019 -0.3834261 0.89855558 0.0037610075
0.0077168094 -0.067644268 0.017528411 0.33802232 -0.334865 0.87954891 0.0022501245
0.010432952 -0.067515887 0.016376518 0.39816228 -0.33725885 0.85306698 0.002705405
0.012491933 -0.067050092 0.015521881 0.40411204 -0.31722131 0.85794181 0.0021943618
-0.043382775 -0.063268781 0.01638704 -0.35455054 -0.92667335 0.12478159 0.0039939773
-0.040532757 -0.064429693 0.01639211 -0.34951472 -0.93154728 0.10029504 0.0017569012
-0.037646569 -0.065519698 0.016381519 -0.33259133 -0.93927264 0.084557854 0.005186189
0.0085206665 -0.065244839 0.017981168 0.35227242 -0.22817168 0.90765738 0.0017462947
0.010456773 -0.064443596 0.017181976 0.43015137 -0.20225695 0.87980789 0.00046311095
0.013191268 -0.064352356 0.015798202 0.44546822 -0.18890743 0.8751412 0.00024737549
-0.046795309 -0.061856803 0.016501842 -0.40589532 -0.89700341 0.17502557 0.0060996609
-0.044778485 -0.062666722 0.01674052 -0.40103805 -0.90184718 0.16074884 0.0053442549
0.011267234 -0.061758053 0.017293211 0.43919584 -0.15329073 0.88521689 0.00013728613
0.013574705 -0.061472654 0.016144233 0.45767206 -0.15152001 0.87611526 5.3902499e-05
0.015209336 -0.060370319 0.015477727 0.45970514 -0.14570199 0.87603778 5.3215797e-05
0.011692539 -0.059014607 0.017522156 0.44108573 -0.119334 0.88949585 0.00020991346
0.013510218 -0.058460467 0.016641112 0.45972314 -0.11780928 0.88021338 8.0591788e-05
0.015663553 -0.058567535 0.015491307 0.46287897 -0.1155951 0.87885201 5.6437515e-05
0.013467771 -0.055549286 0.017013421 0.45842028 -0.092144199 0.88394594 2.3425562e-05
0.016192265 -0.055523962 0.015546864 0.47581989 -0.079375468 0.87595379 0.00011100325
0.013783589 -0.052462727 0.017109537 0.48489419 -0.035222746 0.87386334 0.00036900191
0.016608505 -0.052476462 0.015545097 0.51220471 -0.0021242325 0.85886079 0.00070574688
0.013861664 -0.04943414 0.01711875 0.49425268 0.1054655 0.86289698 0.001273609
0.016441345 -0.049523909 0.015578475 0.52694023 0.13826206 0.83858073 0.0035928006
0.011317225 -0.045568384 0.017715361 0.49653032 0.19511652 0.84580564 0.0011431073
0.013350992 -0.046181835 0.01671375 0.54040313 0.27952534 0.79361832 0.0029594139
0.015584913 -0.046896614 0.015516037 0.54372025 0.32133964 0.7753123 0.0034068427
0.010895479 -0.043173391 0.017391311 0.61989975 0.24243392 0.74629086 0.016239708
0.013040517 -0.043588128 0.015853077 0.59595031 0.42057803 0.6840741 0.0085230609
0.010546966 -0.04041148 0.016697817 0.8037312 0.073617987 0.59042072 0.045891281
0.0107821 -0.037355725 0.016564112 0.90534693 -0.38494018 0.17935444 0.036362391
0.011873299 -0.035920918 0.016707003 0.8036232 -0.59134096 0.067124464 0.005169014
0.013080914 -0.034399997 0.016494354 0.84044242 -0.54052085 0.038647488 0.0047030216
0.014500024 -0.03194835 0.01678187 0.88768917 -0.45411366 0.076083966 0.0040341914
0.015229161 -0.030503476 0.016183045 0.94735575 -0.31894797 0.028092062 0.0082849404
0.015762763 -0.028488569 0.016628874 0.97804177 -0.19719 0.067457281 0.0032913431
0.016236452 -0.025477376 0.016571527 0.99844348 -0.054771218 -0.010522297 0.0073948028
0.016163217 -0.022400929 0.016653748 0.99180335 0.10871167 0.067140959 0.0040194085
0.015618745 -0.019484323 0.016531654 0.97091103 0.23889327 0.016181588 0.0051916814
0.01451189 -0.016605694 0.016679123 0.87430137 0.47664988 0.091662169 0.0044766138
0.015045104 -0.017507525 0.015672248 0.90320522 0.42848691 -0.024886195 0.0072164717
0.011710768 -0.012482932 0.016832832 0.91736269 0.39159864 0.071387842 0.019986762
0.013119439 -0.014221448 0.016298372 0.8226276 0.56680351 0.044917107 0.0039223614
0.010736831 -0.010289403 0.016670547 0.94745851 0.30684379 0.09038353 0.019125784
0.010757693 -0.0077019664 0.016363071 0.98539543 0.09682744 0.14007218 0.010066829
0.01076994 -0.004813808 0.015581905 0.98818594 0.034651306 0.1492914 0.018119592
0.0047730375 -0.00054425769 0.017345423 -0.2845434 -0.89738661 -0.33724239 0.17477955
0.010770714 -0.0015218606 0.015614235 0.99656355 0.0012387158 0.082822204 0.0068685059
0.0049630348 0.0012809708 0.017365118 0.23047471 -0.95166266 -0.20302618 0.097415581
0.0073853736 0.0020207276 0.017339714 0.52945483 -0.8448658 0.076677829 0.1004775
0.010501903 0.0020484838 0.016474741 0.96447033 0.045704976 0.26020777 0.066164225
0.010766475 0.0041908887 0.015999386 0.94490457 0.055063777 0.32268146 0.083090402
0.0080314586 0.0073243137 0.017118623 0.93873006 -0.018408846 0.34416139 0.058973823
0.010392414 0.0076933838 0.01650965 0.96007919 -0.068358772 0.27124703 0.04324298
0.010758164 0.010718447 0.016566534 0.96022421 -0.25497401 0.11383186 0.015659381
0.011472746 0.012662487 0.016791606 0.84055436 -0.5357585 0.080194719 0.007376425
0.012749383 0.014109585 0.016434344 0.84336507 -0.53452307 0.05495926 0.0068539362
0.014180879 0.016400138 0.016637908 0.85689199 -0.51188624 0.060897674 0.0030841273
0.015031981 0.017896658 0.015756516 0.94006884 -0.33990449 0.027117994 0.007625082
0.014843727 0.018081304 0.017709259 0.9174993 -0.38967711 0.079667285 0.0060196212
0.015550603 0.019576225 0.016410233 0.95482773 -0.29418591 0.041936189 0.0055451784
0.016187105 0.022533813 0.016401401 0.99426711 -0.10681911 -0.0047585876 0.0070047602
0.016314646 0.025535144 0.016284835 0.99918956 0.040238954 0.00099439907 0.0071194456
0.015905781 0.028478419 0.016414411 0.97876358 0.19687003 0.057131197 0.0035251547
0.01459711 0.032314472 0.016471092 0.89785939 0.43680957 0.055190422 0.003187767
0.015269227 0.030736247 0.016446246 0.95368516 0.30052117 0.013100751 0.0072066872
0.013292135 0.034522261 0.016605971 0.83746934 0.54530513 0.035880968 0.0060686595
0.010315826 0.038515151 0.016590765 0.89349395 0.20811045 0.39794293 0.080131032
0.010652832 0.04064671 0.016489174 0.77921098 -0.20928693 0.59078693 0.022610249
0.010995209 0.043352392 0.017260263 0.55234611 -0.18256183 0.81337863 0.0051762266
0.012839624 0.043719936 0.015911324 0.59816879 -0.39878097 0.69510281 0.0081540169
0.011390618 0.046333265 0.017826922 0.49160391 -0.21172771 0.84468752 0.0011412587
0.013534131 0.046345763 0.016574219 0.53836364 -0.31150684 0.78302491 0.0039985841
0.015489729 0.04711942 0.015574604 0.54106897 -0.34678569 0.76614881 0.0038002294
0.013632204 0.049454987 0.017250365 0.48028427 -0.09830156 0.87158698 0.0010858376
0.016112931 0.049332783 0.015762705 0.51734906 -0.14192724 0.84392339 0.0029012279
0.013612345 0.052470401 0.017285278 0.47305903 0.025465099 0.88066262 0.00037209861
0.016388135 0.052331366 0.015746223 0.48956287 0.0072934898 0.87193751 0.00072194712
0.011762373 0.056210905 0.017942954 0.44536114 0.091218121 0.89069229 0.00021193764
0.013441568 0.055306725 0.017151365 0.46569759 0.080985516 0.88123047 0.00010333434
0.015781738 0.055361371 0.015881727 0.47574079 0.077456422 0.87616855 8.1265811e-05
0.011138461 0.058635239 0.0179816 0.44125536 0.11346381 0.89017957 0.00021241588
0.013532997 0.058331501 0.016762478 0.46155497 0.11439424 0.87970507 5.6878667e-05
0.015801774 0.058296401 0.015555847 0.46410823 0.11135064 0.8787517 6.7538014e-05
0.011394072 0.061426427 0.01741669 0.44079512 0.14504148 0.88581187 0.00024308597
0.013468367 0.061620712 0.016303189 0.4572311 0.14455038 0.87752199 7.4709154e-05
0.015304604 0.061922327 0.015297237 0.45850089 0.13838243 0.87785375 5.0724921e-05
0.010929167 0.064594783 0.017060373 0.44486421 0.17563003 0.87820828 0.00011813838
0.013712724 0.064590894 0.015634932 0.44845864 0.1779739 0.87590533 5.4669614e-05
0.010199743 0.066893116 0.016894827 0.44277048 0.17838435 0.8787111 9.4258685e-05
0.013255744 0.06688796 0.01536129 0.4509753 0.17945589 0.8743093 6.818321e-05
-0.033918239 -0.066348039 0.018796584 -0.29961926 -0.94294643 0.14519031 0.00066662126
-0.031169156 -0.067004189 0.019430052 -0.26294225 -0.95713049 0.12150133 0.0013708005
-0.028055266 -0.067716308 0.019360753 -0.20626055 -0.97620767 0.066897489 0.00045660409
-0.02538844 -0.068163469 0.019566266 -0.15842007 -0.98461932 0.073674165 0.0001443845
-0.022343157 -0.068559244 0.019501997 -0.05518695 -0.99305844 0.10387253 0.0014848444
-0.01934935 -0.068411954 0.01969282 0.088141106 -0.98471141 0.15024836 0.0015735422
-0.016545277 -0.068003796 0.019658977 0.1588674 -0.9588573 0.23527397 0.0039890418
-0.013522699 -0.067417189 0.019649891 0.17214082 -0.92122293 0.3488777 0.0066464995
-0.010609578 -0.066877492 0.019539816 0.09973105 -0.83044511 0.54810095 0.0066160951
-0.0076961368 -0.066846445 0.019056626 0.033598326 -0.70726776 0.70614684 0.0062642205
-0.0047162403 -0.067302085 0.01868288 0.026542671 -0.59588194 0.80263323 0.0040781428
-0.0014805862 -0.067471594 0.018733449 -0.0056292773 -0.53534228 0.84461641 0.0035384039
0.0015277229 -0.067911483 0.01851094 0.040270004 -0.47484776 0.87914616 0.0032763695
0.004195008 -0.067285173 0.018567657 0.19201873 -0.3622171 0.91210067 0.0036299338
0.0064386884 -0.066192329 0.018498529 0.32526809 -0.25389987 0.91089821 0.0021217084
-0.04012854 -0.063757382 0.019483561 -0.36355057 -0.9020561 0.23264961 0.00077325146
-0.037134878 -0.065103881 0.019300908 -0.35215217 -0.91720909 0.18632314 0.00090470375
-0.035103083 -0.065696158 0.019969199 -0.33276299 -0.92315072 0.19251363 0.00081458548
-0.0097357035 -0.065768816 0.020842567 0.27987462 -0.80402809 0.52460361 0.0096953344
-0.007575531 -0.065384135 0.020547902 0.19493583 -0.6919955 0.69508427 0.0088872397
-0.0046792096 -0.065041386 0.020278163 0.099904105 -0.55834746 0.82356983 0.0056493729
-0.0016727173 -0.064515449 0.02022806 0.12569615 -0.41059402 0.90311295 0.0047045853
0.001492727 -0.064569041 0.019867746 0.12142678 -0.32503718 0.93787336 0.0023544219
0.0046626865 -0.064590767 0.019353975 0.23724245 -0.23291251 0.94311595 0.0011233892
0.0072805914 -0.064178661 0.018695615 0.32224777 -0.21183857 0.92264879 0.0020403441
-0.048243172 -0.060546476 0.018467668 -0.40568468 -0.89707822 0.17513047 0.0061404542
-0.046174385 -0.060857631 0.019530635 -0.39758021 -0.89220643 0.21423779 0.0035237083
-0.043740705 -0.062036607 0.019467944 -0.39653945 -0.88936657 0.22755978 0.0032304351
-0.00043172564 -0.062932827 0.020692918 0.16195534 -0.33675495 0.92755949 0.0033600444
0.0017511762 -0.061736524 0.02061205 0.19621131 -0.23900197 0.95098853 0.001987363
0.0046307053 -0.061792508 0.019936267 0.26314852 -0.18642123 0.94657278 0.001119148
0.0076469528 -0.061478578 0.019010995 0.35176685 -0.14716382 0.92444736 0.00070583564
0.0098030763 -0.061158929 0.018143976 0.42026851 -0.14744955 0.89533961 0.00021262564
-0.048486009 -0.05975794 0.019588862 -0.4058553 -0.89701551 0.17505597 0.0060997284
0.0046144268 -0.058695938 0.020430531 0.2909683 -0.15788743 0.94361484 0.00063466316
0.0076647969 -0.058520321 0.019405473 0.36670116 -0.12745926 0.92156631 0.0004422256
0.010313102 -0.058425736 0.018277876 0.42192146 -0.11114322 0.8997941 0.00021207047
0.0052368003 -0.055543557 0.020708347 0.34114662 -0.13559686 0.9301787 0.00048627271
0.0074291443 -0.055587076 0.019846939 0.37632406 -0.11126514 0.91978276 0.00031537676
0.010366607 -0.055378687 0.018596657 0.4265416 -0.091270477 0.89985114 0.00016131274
0.0058508068 -0.053493369 0.020733554 0.37338454 -0.098104432 0.92247468 0.00037150833
0.0075868359 -0.052285824 0.02014572 0.40267041 -0.073807329 0.91236454 0.00029122925
0.010774628 -0.052579481 0.018668812 0.42637733 -0.071514912 0.90171385 0.0002496597
0.012010898 -0.051492337 0.018124226 0.43714717 -0.011967836 0.89931035 0.0019152348
0.0076365373 -0.04956593 0.020260943 0.4145771 0.017161099 0.90985239 0.001286204
0.010675642 -0.04953571 0.018782787 0.43642589 0.074706867 0.89663333 0.0015713962
0.01210226 -0.050617449 0.018135566 0.46170709 0.03440465 0.88636494 0.0031854177
0.0055607408 -0.045978796 0.020881394 0.45100716 0.092645735 0.88769889 0.00057750201
0.0074459696 -0.046575636 0.020012066 0.44835126 0.11897018 0.88590473 0.00059208809
0.010284945 -0.04669372 0.018542165 0.46984378 0.15100347 0.86973834 0.00028273516
0.0051729144 -0.043009702 0.02072477 0.51835531 -0.1161955 0.84723455 0.014231903
0.0073877033 -0.043344509 0.019479264 0.49264863 0.064055808 0.86786759 0.0028548082
0.0093331793 -0.04355156 0.018414658 0.56745714 0.11627307 0.81515205 0.0049981941
0.0054159011 -0.041012853 0.020805791 0.59888053 -0.41908574 0.6824289 0.028831124
0.0075083561 -0.040164001 0.01965967 0.59500086 -0.30924684 0.74184924 0.035670102
0.0090714395 -0.039284803 0.018354353 0.70544177 -0.10048643 0.70160842 0.024873856
0.0083700391 -0.038358569 0.020262774 0.63116795 -0.65749037 0.41150153 0.0060433084
0.010056233 -0.037067953 0.019496839 0.74281591 -0.62935883 0.22832417 0.0027580492
0.011502827 -0.035428643 0.019979134 0.72773951 -0.65388334 0.20695809 0.0011240846
0.012703125 -0.03401411 0.019460058 0.80323333 -0.56419241 0.19105792 0.0013799866
0.014078612 -0.031518847 0.0197303 0.88721538 -0.41753864 0.19624028 0.0013433924
0.014839447 -0.029483963 0.02002804 0.93941367 -0.28224152 0.19452958 0.0016839351
0.015340921 -0.028231224 0.019249815 0.95770192 -0.22259644 0.1823674 0.0016960674
0.0156892 -0.025530066 0.019552637 0.97877079 -0.08826372 0.18497913 0.0019321648
0.015644331 -0.02253006 0.019534953 0.97845531 0.10702512 0.17655259 0.001505242
0.014803221 -0.018792296 0.019762021 0.93587947 0.28545403 0.20650798 0.0015961769
0.015283462 -0.019991856 0.019057639 0.9481824 0.26093301 0.18128465 0.0014881601
0.013977031 -0.01667819 0.019321939 0.8878485 0.42066497 0.18645635 0.0013058844
0.011429364 -0.012947144 0.019504566 0.79594511 0.56066501 0.22831172 0.0037905551
0.012500214 -0.01430694 0.019515609 0.82787645 0.52887213 0.18685517 0.00040259407
0.0083165476 -0.0098682921 0.020961124 0.71059036 0.5167762 0.47749731 0.034104958
0.0099646719 -0.010195238 0.019211844 0.80174649 0.27575332 0.53024781 0.02488468
0.0082798209 -0.0083976313 0.020988386 0.53237343 0.065107383 0.84400213 0.01111229
0.0098936846 -0.0075132241 0.019349732 0.81034046 -0.013525877 0.58580309 0.019517206
0.0087556513 -0.0039578592 0.0196415 0.82676125 -0.0010212717 0.56255198 0.023371888
0.0098254876 -0.0045394637 0.019396475 0.8267656 -0.0010186553 0.56254572 0.023375474
0.0089134388 -0.0016804138 0.020549931 0.50940543 -0.033717636 0.85986584 0.012587568
0.0098927105 -0.0016462343 0.019167915 0.86929065 -0.045072068 0.49224219 0.022779869
0.0088474974 0.0013341673 0.020603072 0.82450294 0.0091520865 0.56578356 0.10827949
0.010008183 0.0013002533 0.019162448 0.88917148 0.052830923 0.45451409 0.095087938
0.0087907007 0.0043678428 0.020656366 0.52658361 0.022497732 0.84982562 0.010715913
0.0099032009 0.0041772127 0.019404491 0.90545934 -0.095931925 0.41344941 0.085513346
0.0086116949 0.0072904956 0.01997173 0.93125397 -0.034827754 0.36270237 0.071126081
0.0098929815 0.0073940535 0.019288685 0.93125248 -0.034824256 0.36270651 0.071123041
0.0087300343 0.010468673 0.020762466 0.75495321 -0.37606263 0.53723609 0.028404452
0.0099098114 0.010629747 0.019446488 0.8539632 -0.23103674 0.46622822 0.020700589
0.010993835 0.012992683 0.019782003 0.78289229 -0.57003331 0.24928252 0.0051719719
0.012376483 0.014476016 0.019507615 0.8137688 -0.54914153 0.19032559 0.0014547117
0.013614239 0.016497239 0.019617356 0.87177896 -0.45013931 0.19332923 0.0013933695
0.014671126 0.018926647 0.019934865 0.9231593 -0.31989166 0.21318127 0.0020718242
0.015250743 0.020263301 0.019212719 0.94183803 -0.27813151 0.18863714 0.0017343418
0.015652858 0.022451416 0.019376028 0.97607189 -0.12887628 0.1751416 0.0015304954
0.015763683 0.025427835 0.019475013 0.98232216 0.05599311 0.17862803 0.0018069679
0.014900325 0.029500021 0.020400319 0.95008802 0.2393848 0.20006931 0.0017103622
0.015425397 0.028297896 0.019354697 0.96101117 0.20173663 0.18910262 0.0013825747
0.014378871 0.031403936 0.019589044 0.89867425 0.38337305 0.21309541 0.0010769665
0.01509381 0.0305114 0.018146623 0.92321813 0.3422555 0.17472683 0.0027916557
0.011838628 0.03546847 0.019982595 0.8033756 0.56645155 0.18363081 0.0014040479
0.013153875 0.033915684 0.019220237 0.85058844 0.48849499 0.19460706 0.0009952574
0.0094864191 0.038707528 0.018339131 0.94405639 0.20287125 0.26000148 0.066294737
0.0083132461 0.04102283 0.018872282 0.57409674 -0.078409076 0.8150245 0.0081997104
0.0090218177 0.040014494 0.018363301 0.84392118 0.28052032 0.45728052 0.06204538
0.0051633311 0.043573696 0.02081589 0.4657273 -0.093627535 0.87996137 0.00063999387
0.0073293694 0.043491691 0.019521298 0.49076185 -0.10120986 0.86539555 0.0011143818
0.0093508344 0.043846499 0.018408511 0.55978394 -0.15036948 0.81488097 0.0048680278
0.0057205465 0.046365947 0.020851038 0.45582929 -0.10402539 0.8839674 0.00038289715
0.0075765303 0.046289548 0.019876257 0.46859574 -0.13267121 0.8733936 0.00027034676
0.0098604122 0.046493798 0.018695675 0.47487491 -0.16338466 0.86475384 0.00036844748
0.007465044 0.049128398 0.020328373 0.42656273 -0.039373431 0.90360057 0.0010875881
0.010472161 0.049583718 0.018894147 0.46105403 -0.085855186 0.88320893 0.0011160283
0.0058504483 0.052625485 0.020951066 0.38590541 0.086807497 0.91844511 0.00075704476
0.0077031017 0.05220456 0.020199653 0.40949127 0.050369866 0.91092247 0.00029483403
0.010697956 0.052611575 0.018797569 0.43541673 0.04249597 0.89922541 0.00041677189
0.0053429017 0.054025929 0.020983625 0.37215945 0.12422014 0.91981882 8.2045706e-05
0.0072215307 0.055048402 0.020073559 0.3701458 0.1141299 0.92193621 0.00012064767
0.0099688666 0.055555526 0.018848836 0.42371359 0.092296824 0.90108162 0.00018444569
0.0053220205 0.057956688 0.020449925 0.33615738 0.14366747 0.93078351 0.00060212245
0.0079702241 0.058155507 0.019451654 0.37871408 0.10151787 0.91992915 0.00020766964
0.0099709071 0.058164045 0.018586669 0.41546527 0.1085139 0.90311313 0.00028050906
0.0075010457 0.061001454 0.019260664 0.38936996 0.13571304 0.9110285 0.00043055171
0.0099772867 0.060932558 0.018225137 0.4225755 0.14175519 0.89517337 0.00026070324
0.0076809856 0.064046659 0.018698512 0.41428372 0.15330355 0.89714384 0.00034167702
0.0093330136 0.063702755 0.018069524 0.43241143 0.16278918 0.88685966 0.00026216742
-0.031593408 -0.066533357 0.022191299 -0.28306475 -0.95041591 0.12877867 0.00085243414
-0.028719835 -0.067300126 0.022549121 -0.23857138 -0.96701926 0.089204311 0.00083211961
-0.025582943 -0.067909904 0.022609737 -0.14771129 -0.98658174 0.069555484 0.00034784045
-0.022636367 -0.068296865 0.022250164 -0.030341541 -0.99469519 0.098290175 0.0012662231
-0.019736074 -0.068139866 0.022431709 0.13166781 -0.98665649 0.095773846 0.0014754853
-0.016555248 -0.067439117 0.022552805 0.2680923 -0.94943506 0.16340017 0.0036922677
-0.013823926 -0.066545039 0.022358678 0.36975268 -0.90787458 0.19760235 0.0038507269
-0.011900721 -0.066162616 0.021395583 0.3152684 -0.89906543 0.30378804 0.0078148376
-0.037015352 -0.064302206 0.022004101 -0.36772645 -0.90813565 0.20016733 0.00032499529
-0.034453169 -0.065425605 0.022190906 -0.34889132 -0.92278028 0.16355877 0.0010536881
-0.032314729 -0.065979943 0.023994941 -0.3199482 -0.93663543 0.14264372 0.00028947109
-0.012449053 -0.065724321 0.023216197 0.38430607 -0.86515975 0.32219163 0.0075086546
-0.010488711 -0.064800322 0.022778746 0.37351361 -0.84571123 0.38112995 0.0097582517
-0.0079072611 -0.063822567 0.022155251 0.40970629 -0.68286955 0.60483867 0.019713454
-0.0046924395 -0.06336613 0.02128638 0.22475226 -0.53888851 0.81184083 0.0049355202
-0.0071039908 -0.062060092 0.023361469 0.53748482 -0.63356531 0.55651152 0.015914897
-0.0048472066 -0.061297048 0.022530522 0.48419261 -0.55972362 0.672508 0.01580636
-0.0017048966 -0.061325572 0.021489434 0.25954798 -0.35011855 0.90002877 0.0030140379
0.00046876204 -0.060495783 0.021225244 0.23051052 -0.27561745 0.93322021 0.0020602192
-0.0040447856 -0.058754891 0.023500156 0.60226125 -0.3339555 0.72508973 0.012020409
-0.0016613704 -0.058307655 0.022517469 0.34594896 -0.31572032 0.88353837 0.0023872212
0.0015125158 -0.05840474 0.021454141 0.31624368 -0.2343342 0.91928089 0.001318334
-0.003166195 -0.056698125 0.023945902 0.7356258 -0.31118459 0.6016801 0.016597239
-0.0016977336 -0.055550635 0.023421168 0.5152384 -0.30422151 0.80123574 0.010981804
0.0014343956 -0.055394351 0.022153148 0.37948829 -0.20269686 0.90271956 0.0022910305
0.0038165112 -0.055447817 0.021248193 0.35466754 -0.1499853 0.92288429 0.00044090886
-0.00099043211 -0.052809201 0.023635937 0.5206995 -0.15989122 0.83863395 0.011290153
0.0014750473 -0.052493114 0.022639157 0.40522388 -0.11395086 0.9070881 0.0022737773
0.0041141803 -0.052417442 0.021579044 0.37539792 -0.10021146 0.92143041 0.0003674239
-0.00023341338 -0.049340408 0.023523996 0.54938322 -0.035770465 0.83480448 0.0098412456
