# .PCD v0.7 - Point Cloud Data file format
VERSION 0.7
FIELDS x y z normal_x normal_y normal_z curvature
SIZE 4 4 4 4 4 4 4
TYPE F F F F F F F
COUNT 1 1 1 1 1 1 1
WIDTH 564
HEIGHT 1
VIEWPOINT 0 0 0 1 0 0 0
POINTS 564
DATA ascii
-0.040361326 -0.02457661 0.028370688 -0.31954116 -0.11295068 0.94081646 0.011541227
-0.037034005 -0.025497919 0.02866107 -0.12141337 -0.12857461 0.98423952 0.0089764781
-0.034397617 -0.025694948 0.028602835 -0.0035675392 -0.095996127 0.99537534 0.00022261118
-0.031534158 -0.025695348 0.028602535 0.0069249012 -0.090219378 0.99589783 6.0193423e-05
-0.028670704 -0.025695741 0.028602242 -9.3686445e-05 -0.080168188 0.99678141 0.00031653736
-0.025520789 -0.025693804 0.02860369 0.0077442946 -0.080166765 0.99675137 0.00043200751
-0.022378219 -0.025890237 0.02845655 0.082382537 -0.042684138 0.99568629 0.0022455528
-0.019452518 -0.025521055 0.028075933 -0.063923024 -0.022019409 0.9977119 0.013912465
-0.016724678 -0.025443524 0.028484849 -0.30826497 0.0010508132 0.95129997 0.0064553358
-0.014416157 -0.02578879 0.029690586 -0.34265298 -0.02454864 0.93914121 0.011451109
-0.01091142 -0.025521962 0.02980083 -0.16992745 -0.026212398 0.9851079 0.022624483
0.0075636301 -0.025410788 0.029883584 0.16873625 -0.023238933 0.98538721 0.019485964
0.011272755 -0.025601115 0.029599464 0.25267634 -0.022545988 0.96728814 0.0076227826
0.012771279 -0.025435448 0.029010877 0.59574938 0.014236227 0.8030442 0.027635502
-0.042866062 -0.022610992 0.027473936 -0.50014526 -0.01349348 0.86583638 0.0055109076
-0.040525816 -0.022388274 0.028451169 -0.27695388 -0.041797973 0.95997369 0.0058714002
-0.037511773 -0.022562748 0.028883331 -0.1164587 -0.046599563 0.99210173 0.0038965323
-0.034393627 -0.022332357 0.028927695 -0.0059877988 -0.044211656 0.99900419 0.00034045801
-0.031397119 -0.022439443 0.028911641 -0.0061275093 -0.047319569 0.99886096 0.00037574553
-0.028550237 -0.022437412 0.028913165 0.0073477039 -0.047281541 0.99885458 0.00035196589
-0.025551379 -0.02254162 0.02889928 0.011766714 -0.05466995 0.9984352 0.00049851759
-0.022439627 -0.022332221 0.028927796 0.090182059 -0.037788302 0.99520814 0.0034267476
-0.019413052 -0.022421286 0.028059181 -0.02148707 0.0031734661 0.99976408 0.019786816
-0.016634353 -0.022532854 0.028365172 -0.31953532 0.055344228 0.94595671 0.0082218004
-0.014361793 -0.022477303 0.029690493 -0.3657921 0.071071468 0.92797905 0.011993777
-0.010707796 -0.022556746 0.029888691 -0.29772452 -0.0018594208 0.95464998 0.024229182
0.0074889902 -0.022531932 0.029907072 0.24834116 0.011992436 0.96859837 0.021169703
0.011180964 -0.022415226 0.029607911 0.30055404 0.081892394 0.95024252 0.011660505
0.012770774 -0.022560788 0.028972175 0.6074689 0.085345306 0.78974539 0.024798766
-0.042680614 -0.019500019 0.027580813 -0.50528765 -0.00051172043 0.86295086 0.0040178015
-0.040367998 -0.019511346 0.028497774 -0.29128247 0.0050492757 0.95662379 0.0047168848
-0.037498977 -0.019166507 0.028902419 -0.12270829 0.00035909208 0.99244267 0.0034584007
-0.034563541 -0.019220339 0.028905913 -0.0016236606 -0.00070431107 0.99999839 0
-0.031466566 -0.019095285 0.028914854 0.00034997176 0.00054669048 0.9999997 1.1976235e-05
-0.028437823 -0.019148914 0.028915834 0.00011129177 -0.0002970231 0.99999988 5.7922871e-06
-0.025607018 -0.019154759 0.028911401 -0.00079213141 -0.00027144523 0.99999964 0
-0.022492701 -0.019154122 0.028911885 0.14707963 -0.014666455 0.98901588 0.0033974198
-0.0193673 -0.01957473 0.028005613 0.19747582 0.081560455 0.97690904 0.0051083672
-0.016436093 -0.019527126 0.027948285 -0.23209067 0.18870133 0.95421469 0.025960647
-0.013889951 -0.019365305 0.029549757 -0.33698499 0.13121003 0.93232244 0.01174394
-0.010036772 -0.020268528 0.029839789 -0.18051837 0.10108768 0.97836316 0.02234216
0.005504841 -0.018697623 0.02996715 0.23304124 0.084345452 0.96880209 0.014465621
0.0063865501 -0.020103579 0.029964514 0.17757207 0.09079162 0.97991073 0.018722663
0.010656388 -0.019418092 0.029499881 0.30436879 0.15899126 0.93919194 0.010586327
0.012559831 -0.019730058 0.028236248 0.74596637 0.23624502 0.62267369 0.02996872
-0.042895023 -0.016138626 0.027464045 -0.50565284 -0.0037462607 0.86272889 0.003971919
-0.040509395 -0.016588096 0.028443927 -0.2943525 0.0043569109 0.95568699 0.0051745065
-0.037360869 -0.016372677 0.028907962 -0.12958035 0.0067231427 0.99154615 0.0041982704
-0.034542624 -0.016370162 0.028909834 -0.0017981128 0.00064251322 0.99999815 5.6704425e-06
-0.031444117 -0.016389556 0.028894931 -0.00045164771 -0.0018513551 0.99999821 1.6508258e-05
-0.02834318 -0.016371958 0.028908465 -0.000125632 -0.0015139827 0.99999887 1.1060448e-05
-0.025525175 -0.016371505 0.02890881 -0.0013825056 -0.0016320238 0.99999762 6.5251261e-06
-0.022509411 -0.016422614 0.028911304 0.11279332 -0.0099428082 0.99356872 0.0041916324
-0.01937798 -0.016561275 0.027927624 0.24513051 0.040899798 0.96862704 0.0027844252
-0.016569322 -0.016688492 0.027291043 -0.10432368 0.18740316 0.97672749 0.03447989
-0.013624268 -0.016553735 0.028910674 -0.45239493 0.36950243 0.81166905 0.01102983
-0.011204316 -0.015931457 0.029741604 -0.2441611 0.24243422 0.93894142 0.012443244
-0.0080536809 -0.017770404 0.029964233 -0.13815069 0.069267966 0.98798603 0.0096005974
0.0080910437 -0.016061163 0.029691594 0.2648249 0.22840384 0.93685621 0.008967544
0.010604408 -0.016510874 0.028574307 0.66018206 0.45052341 0.60098946 0.024887148
-0.04289227 -0.013344169 0.027460255 -0.51425362 -7.3132993e-05 0.85763818 0.0045956741
-0.040576495 -0.013587351 0.028440118 -0.29364935 -0.0040185167 0.95590478 0.0052381107
-0.037506752 -0.013631023 0.028893266 -0.077785812 0.0081386985 0.99693686 0.00072433968
-0.034418263 -0.013592851 0.028922759 -0.0025815202 -0.00093671883 0.99999624 6.0691459e-06
-0.031613316 -0.01358989 0.028925056 0.0019711915 -0.0010961327 0.9999975 9.1039092e-06
-0.028528562 -0.013597131 0.028919445 -0.00057561358 -0.00030313039 0.99999982 6.9692496e-06
-0.025443085 -0.013593031 0.028922621 -0.0021176485 -0.00086839049 0.99999732 0
-0.022638284 -0.013591331 0.028923946 0.1422075 0.0078058164 0.98980612 0.0030520449
-0.019508187 -0.013521029 0.028127408 0.27130207 -0.0048237219 0.96248215 0.00021668855
-0.016767729 -0.013464309 0.02724864 0.12367824 0.01819713 0.99215549 0.027019825
-0.013002643 -0.014285406 0.028031563 -0.33450231 0.4494248 0.828327 0.063928671
-0.010756171 -0.01332862 0.028847842 -0.40870762 0.4710547 0.78170687 0.014202824
-0.0077181091 -0.012977152 0.029681053 -0.19893132 0.39587459 0.8964985 0.0036302411
-0.0044206511 -0.012332895 0.029895985 -0.091837034 0.34735709 0.93322504 0.0061967853
-0.0013482179 -0.012225484 0.029979015 0.0044096783 0.35404807 0.93521684 0.0056468262
0.0014495049 -0.012361298 0.029874031 0.10342357 0.34282917 0.93368715 0.0067952592
0.0048538917 -0.013167128 0.029640574 0.24233869 0.37292439 0.89565587 0.0030851965
0.0076914467 -0.013337674 0.028715115 0.48232976 0.57046735 0.66477448 0.03326565
0.0096184229 -0.014335352 0.02814511 0.60436535 0.55013961 0.57627147 0.033121526
-0.042719163 -0.010487924 0.027559353 -0.50682825 0.0021043746 0.86204445 0.0038747371
-0.040441297 -0.010523604 0.028476518 -0.29269516 -0.00058883318 0.95620567 0.004885932
-0.037479274 -0.010533846 0.028886819 -0.12240942 0.0012234016 0.99247885 0.0034253565
-0.034423526 -0.010311929 0.028931407 -0.0041031665 -0.00056708866 0.99999142 1.431744e-05
-0.031487245 -0.010416795 0.028913874 0.00053670222 0.0003720668 0.99999982 8.401068e-06
-0.02848208 -0.010492586 0.02890081 0.0016027262 0.000345023 0.99999869 7.3252431e-06
-0.025427476 -0.010351779 0.028914163 -0.00055040338 0.0010580069 0.99999928 3.5763642e-07
-0.022559246 -0.010394385 0.028931335 0.13378179 -0.013860465 0.99091387 0.002518456
-0.019505333 -0.010525187 0.028160237 0.27492717 0.00095201674 0.96146458 0.00014118722
-0.016787419 -0.010422717 0.027246602 0.29140019 0.021972407 0.95634884 0.00086210785
-0.0096208267 -0.011471063 0.028089816 -0.35170069 0.63429964 0.68845516 0.021733059
-0.0073956768 -0.010704176 0.028410185 -0.24465664 0.69537187 0.67572266 0.017306933
-0.004427488 -0.010218474 0.028714254 -0.16651803 0.72245795 0.67106348 0.018807316
-0.001361355 -0.010075282 0.028826278 0.050135273 0.71370584 0.69864905 0.019819759
0.0014324447 -0.010266611 0.028676568 0.1971288 0.73665291 0.64690238 0.02666303
0.0043697646 -0.010863175 0.028446246 0.31331289 0.72298509 0.61573339 0.023577312
0.0066173226 -0.011648927 0.027880004 0.45541537 0.69239134 0.5596348 0.030265221
-0.042788241 -0.0074337255 0.027521949 -0.5041827 0.0016173292 0.86359555 0.0038880317
-0.040488485 -0.0074424092 0.02845788 -0.29372087 0.00052889902 0.95589107 0.0048451517
-0.037466627 -0.0072689238 0.028908219 -0.12562621 -0.00029481688 0.99207759 0.0038307831
-0.034415077 -0.0072809318 0.02889875 -0.0034833518 -0.0011437194 0.99999326 9.8890096e-06
-0.031360678 -0.0072494806 0.028923545 0.00042431563 -0.00043018605 0.99999982 6.8470417e-06
-0.028586047 -0.0072493502 0.028923647 0.0014101829 -0.0017429844 0.9999975 0
-0.025535721 -0.0072825742 0.028897457 -0.00033100104 -0.00048108381 0.99999982 5.320025e-07
-0.022483112 -0.0072806352 0.028898958 0.13582511 -0.01530795 0.99061453 0.0027286338
-0.019332288 -0.0074098469 0.028048996 0.29627833 0.0024001224 0.95509863 0.00057807995
-0.016658638 -0.0074873515 0.027212527 0.29290953 0.025781609 0.95579255 0.0012545973
-0.042917714 -0.0043586362 0.027446665 -0.51426345 -0.0010807347 0.85763162 0.004425955
-0.040482137 -0.0045596575 0.028464274 -0.29561865 -0.0012235275 0.95530522 0.0051870015
-0.037524853 -0.0045471666 0.028902354 -0.12984224 0.0013664619 0.9915337 0.0042564059
-0.034567975 -0.0045680851 0.028927218 -0.0027493718 0.0016443322 0.99999487 9.6188496e-06
-0.031530216 -0.0045728073 0.028923461 -0.0013441128 -0.00028428258 0.99999911 0
-0.028491857 -0.0045694164 0.028926158 0.0014601628 -0.00070739182 0.99999869 8.9691284e-06
-0.025453918 -0.0045725103 0.028923698 0.0012679189 -0.0010223575 0.99999869 1.2818676e-06
-0.022415636 -0.0045692925 0.028926255 0.13649958 0.014637846 0.99053192 0.0028828909
-0.019432252 -0.0044332081 0.028068995 0.29434398 0.0021685134 0.95569706 0.00036658955
-0.01681043 -0.0043992316 0.02726437 0.31327808 -0.00077900535 0.94966114 0.00087785337
-0.042737436 -0.0014342475 0.027551662 -0.50627893 0.0015679024 0.86236835 0.0038142148
-0.040590096 -0.0014402829 0.028438715 -0.29303825 -0.0028677192 0.95609641 0.0046933102
-0.037452761 -0.0015182305 0.028894166 -0.12449247 0.00033573294 0.99222046 0.0036224902
-0.034428019 -0.0014877454 0.028918561 -0.0026741533 -0.00018148897 0.99999636 5.315716e-06
-0.031468727 -0.0015577878 0.028908338 -2.659583e-05 0.0019701454 0.99999809 7.7166223e-06
-0.028459966 -0.0014243167 0.028919149 5.191367e-05 0.0012361355 0.99999923 0
-0.025489593 -0.001581367 0.028907584 -0.00048302129 7.7951663e-05 0.99999988 0
-0.022487329 -0.0014056911 0.028920298 0.17179367 0.0029057132 0.98512864 0.0038978895
-0.019605601 -0.0015037963 0.028138699 0.29104856 0.0066507286 0.95668519 0.00017793765
-0.017037908 -0.0014634455 0.027307417 0.30861935 0.0055985013 0.95116913 0.00061514426
-0.042743865 0.0015151436 0.027543364 -0.51246613 0.0045178086 0.85869557 0.0044726967
-0.040419523 0.0015497078 0.028487006 -0.29706091 0.0010842958 0.95485795 0.0051081199
-0.037569236 0.0015593232 0.028907955 -0.12476844 -0.0022966645 0.99218321 0.003656578
-0.034563273 0.0015555184 0.028904816 -0.028582763 -0.0035631275 0.99958509 0.00066777837
-0.031555545 0.0015765703 0.028921846 -0.00018559795 -0.0013770835 0.99999905 1.7895274e-05
-0.028550766 0.0015560128 0.028905217 -3.8622702e-06 -0.0027066674 0.99999636 0
-0.025543461 0.0015760971 0.028921466 -0.00029096115 -0.0035926141 0.9999935 2.6520725e-06
-0.022537971 0.0015642211 0.028911855 0.17371954 -0.0027021344 0.98479146 0.0038981172
-0.019546887 0.0015002788 0.028079093 0.29433462 0.00035801294 0.95570236 0.00026473723
-0.016899208 0.0015216199 0.027268438 0.30789939 0.0044963323 0.95140827 0.00045213799
-0.042932916 0.0045092227 0.027439635 -0.51175916 -0.0020227185 0.85912657 0.0043096384
-0.040501367 0.0044153924 0.02845126 -0.29709703 -0.00054667285 0.95484716 0.0048613562
-0.037488256 0.0046502841 0.028910348 -0.13134919 -0.00015188134 0.99133617 0.0043056607
-0.034420826 0.0046219337 0.028937286 -0.0029693809 0.00031606093 0.99999547 2.5548183e-05
-0.031430732 0.0046220683 0.028937394 -0.00017743268 -0.0017733362 0.99999839 5.0784784e-06
-0.028440639 0.0046221255 0.028937442 -0.00011279272 -0.00064622768 0.99999982 3.1582085e-06
-0.025450561 0.0046219812 0.028937325 -0.00037963121 -0.00041647902 0.99999982 5.7181092e-06
-0.022460461 0.0046220864 0.028937409 0.1752553 0.002028462 0.98452097 0.0039854259
-0.019515123 0.0045933411 0.028094508 0.2932708 0.00020546174 0.95602942 0.00017904972
-0.016935829 0.0044999272 0.027287168 0.28894135 -0.011078707 0.95728272 0.00074590882
-0.04269015 0.0074983886 0.02757642 -0.50542063 -0.00069166726 0.86287278 0.0037335928
-0.040497031 0.0075547732 0.028473465 -0.29484385 0.0014354393 0.95554441 0.0048923614
-0.037531901 0.0075726486 0.028899925 -0.12424506 0.00071788818 0.99225134 0.0034802121
-0.034554802 0.0075997263 0.028922167 -0.0033712857 8.0619784e-06 0.99999434 7.6117253e-06
-0.031581629 0.0075802687 0.028906163 -0.0011696654 0.00015350503 0.99999934 8.5846359e-06
-0.028505901 0.0075466433 0.028922306 0.00078113354 -0.0010252343 0.99999917 1.0920026e-05
-0.025550811 0.0076308548 0.028906539 7.2693161e-05 0.00038644057 0.99999988 1.003445e-05
-0.022386037 0.0075981859 0.028920893 0.17493859 0.0018870838 0.98457754 0.0041724946
-0.019396786 0.0075150272 0.027986558 0.27945727 0.001646534 0.96015668 8.594383e-05
-0.01688334 0.0076092533 0.027276257 0.27472177 -0.013391443 0.96143049 0.0005874568
-0.042874828 0.010366915 0.027474325 -0.51194304 0.00036241536 0.85901928 0.0043355846
-0.040529694 0.010547969 0.028448861 -0.29860705 0.0029356736 0.95437163 0.0052059633
-0.037438415 0.010497624 0.028913192 -0.13046685 -0.0014347781 0.99145162 0.00409002
-0.034491088 0.010621128 0.028920248 -0.0026773706 -0.0019454198 0.99999452 0
-0.031456411 0.010583832 0.028939163 -0.00089087914 -2.5901816e-05 0.99999964 4.4832e-06
-0.028497431 0.010584071 0.028939361 0.0011177459 -0.0014418961 0.99999833 1.9220686e-05
-0.025539622 0.010563645 0.028922433 -0.00027355965 0.00049092522 0.99999982 1.6469765e-05
-0.022579491 0.010584198 0.028939461 0.17251517 -0.008872699 0.98496687 0.0041217194
-0.019676736 0.010368068 0.028142827 0.2780816 -0.0049506212 0.96054465 9.4426381e-05
-0.017031074 0.010488921 0.027308581 0.26112419 -0.0022602014 0.96530253 0.00011994993
-0.042929612 0.013398567 0.027440362 -0.50976557 0.00017655164 0.86031336 0.0040916791
-0.040482111 0.013517594 0.028462995 -0.29696226 -0.0046743094 0.95487779 0.0047707581
-0.037492491 0.01349348 0.028918561 -0.13147131 -0.0023687093 0.99131721 0.0043447223
-0.03454775 0.013503687 0.028927067 -0.0020111559 0.0010857751 0.99999738 0
-0.03150503 0.013459626 0.028933842 -0.00068856048 0.00052255596 0.99999964 3.4545449e-06
-0.028579878 0.013547875 0.028922973 0.0012428511 0.0043004733 0.99998999 2.731726e-06
-0.025448618 0.013506278 0.028929237 0.0003050573 0.0016239025 0.99999869 1.8494882e-05
-0.022504779 0.013507868 0.028930577 0.17168374 8.2679646e-05 0.98515207 0.0038884182
-0.019515269 0.013477892 0.028129011 0.27673659 -0.0034767692 0.96093953 8.4194682e-05
-0.016852956 0.013538718 0.027277879 0.27434647 -0.0024622036 0.96162778 0.00015017764
-0.012330314 0.014252669 0.028856235 -0.37695011 -0.26755437 0.88674867 0.025245341
-0.011260105 0.014169572 0.029135641 -0.41560441 -0.33684078 0.84487355 0.010675802
0.0081559708 0.014254972 0.029091047 0.20183365 -0.12768643 0.97106093 0.0078741089
-0.042736109 0.016435901 0.027554983 -0.50508732 0.0020436693 0.86306578 0.0037941856
-0.040492341 0.016510965 0.028472871 -0.29564968 -0.0011816174 0.95529568 0.0047380407
-0.037547041 0.016443584 0.028912963 -0.12580189 -0.0012661684 0.99205452 0.0035859754
-0.034411836 0.016400777 0.028922344 -0.0018140175 -0.0012233439 0.99999762 8.3334753e-06
-0.031484403 0.016383391 0.028907577 0.00042893703 -0.00099742576 0.9999994 2.273076e-06
-0.02855478 0.016396476 0.028918713 0.00076973712 -0.00079431885 0.9999994 9.4324632e-06
-0.02536089 0.016373714 0.028899441 0.0003311988 -0.0019093782 0.99999815 1.4270562e-05
-0.02243166 0.016382525 0.028906846 0.13143559 0.012666759 0.99124384 0.0024055012
-0.019414937 0.016534522 0.028098408 0.2601504 -0.027969066 0.96516293 0.00073380012
-0.016859772 0.016531905 0.027286587 0.012225774 -0.16549481 0.98613495 0.040412057
-0.01305339 0.0167224 0.029263195 -0.38206345 -0.17907523 0.90661985 0.017274382
-0.011352003 0.016227877 0.029681057 -0.42926255 -0.21913515 0.87619257 0.021575108
0.0084232027 0.016762003 0.029690446 0.20183365 -0.12768643 0.97106093 0.0078741089
0.0099045383 0.01658652 0.029166022 0.19603717 -0.1164686 0.97365522 0.0075933589
-0.042768754 0.019362904 0.02753309 -0.51338565 0.0013222265 0.85815704 0.0044187461
-0.040506486 0.019590389 0.028460285 -0.29597715 0.0033939835 0.95518899 0.0049019391
-0.037434377 0.019678751 0.02891895 -0.1270183 -0.0018565261 0.9918986 0.0037489627
-0.034520406 0.019706493 0.028942609 -0.0014439739 0.014969287 0.99988687 0.00031954874
-0.031609077 0.019706409 0.028942542 -3.7459333e-05 0.014907384 0.99988884 0.00032997385
-0.028433047 0.019706642 0.028942741 0.00097711675 0.013937118 0.99990237 0.00032814304
-0.025521737 0.019706124 0.028942298 0.00070860679 0.013914287 0.99990296 0.00035181758
-0.022610381 0.019706374 0.028942512 0.13217647 0.0056281486 0.99121022 0.0022130734
-0.019528374 0.019501587 0.028213702 0.045718201 -0.065311491 0.99681699 0.025349377
-0.016807303 0.019553771 0.027715907 -0.22615863 -0.1783081 0.95763171 0.027021678
-0.013950475 0.019396603 0.029472832 -0.35035741 -0.1328298 0.92714936 0.012768744
-0.01016598 0.020302072 0.029796436 -0.12573986 -0.10234674 0.98676986 0.01052578
0.010541874 0.019429971 0.02950123 0.31824338 -0.12748319 0.93939829 0.0011535045
0.012219896 0.020154342 0.028976485 0.31824633 -0.12749352 0.9393959 0.0011516018
-0.04289867 0.022442892 0.027460033 -0.50308603 0.046717562 0.86297274 0.0040977248
-0.040490653 0.022541605 0.028463988 -0.28379536 0.03765526 0.95814526 0.0044552176
-0.037451569 0.022472261 0.028921474 -0.12782697 0.048207439 0.99062419 0.0037783349
-0.034571141 0.022570819 0.02892191 -0.0036687353 0.063177757 0.99799556 0.00040836618
-0.031490233 0.0225325 0.028929843 -0.0051403805 0.049815193 0.9987452 0.00026351673
-0.028408905 0.022490885 0.028934885 -0.0053262189 0.049915154 0.99873924 0.00025269212
-0.025531193 0.022572881 0.028921166 0.0092921983 0.055000838 0.99844313 0.00035446201
-0.022536911 0.022533813 0.028930979 0.096217752 0.04463914 0.9943589 0.0023889944
-0.019462503 0.022647355 0.028083 -0.018272907 -0.018370153 0.99966425 0.021394089
-0.016415749 0.022600353 0.028477738 -0.30651671 -0.051508356 0.95047057 0.011001439
-0.014224669 0.022338005 0.029709609 -0.31618336 -0.048812471 0.94744158 0.011246724
-0.010684127 0.02220911 0.029901767 -0.058639131 -0.032611299 0.99774647 0.014183477
0.0074660573 0.022354703 0.029818505 0.13988145 -0.016575467 0.99002945 0.013593631
0.011214376 0.022426285 0.02958649 0.36227131 -0.037120745 0.93133318 0.0021499968
0.012682989 0.022814419 0.029033508 0.36228564 -0.03712276 0.93132752 0.0021640351
-0.042608205 0.025214707 0.027465085 -0.5230397 0.097551182 0.84670734 0.0044645411
-0.040463641 0.025452873 0.028185172 -0.28921402 0.092996426 0.95273656 0.0059722895
-0.037573162 0.025473107 0.028620902 -0.11362342 0.099985853 0.98847991 0.0026119533
-0.034522511 0.025430838 0.028658612 -0.0059561324 0.08252161 0.99657142 0.00029597158
-0.031377714 0.025430607 0.028658412 -0.0017514841 0.080319852 0.99676764 0.00027596304
-0.028494963 0.025430601 0.028658409 0.00043998711 0.079702459 0.9968186 0.00026811624
-0.02561227 0.025429692 0.028657617 0.0065172669 0.081216305 0.99667519 0.00029439837
-0.022471633 0.02533243 0.028573034 0.083374172 0.065423787 0.99436837 0.002082757
-0.019330328 0.025547476 0.028064668 -0.068526067 0.029765842 0.9972052 0.013365366
-0.016384695 0.025516866 0.028623233 -0.30572146 -0.0030102003 0.95211625 0.0054831915
-0.014332286 0.0254838 0.02974469 -0.34097585 0.018103972 0.93989772 0.010524381
-0.010982144 0.025706489 0.02986842 -0.20714568 0.069768786 0.97581911 0.015220461
0.0076400172 0.025527582 0.029782552 0.15932885 0.0036707015 0.98721874 0.021800719
0.011260732 0.025471883 0.029639803 0.31391752 0.05736123 0.947716 0.013524457
0.012905732 0.025583899 0.028675439 0.78097808 0.046240892 0.62284422 0.03378645
-0.042278316 0.028453272 0.027131649 -0.58771241 -0.037059139 0.80822074 0.013188853
-0.040518008 0.028292645 0.027903942 -0.27859664 -0.073971547 0.95755529 0.01557152
-0.037533484 0.028221902 0.028319236 -0.12739356 -0.040317696 0.99103248 0.0079231625
-0.034288675 0.02840947 0.02834543 0.027267523 -0.0083011677 0.99959368 0.0023485105
-0.031514011 0.028646102 0.028345454 0.02888507 0.023394264 0.99930894 0.001625857
-0.028646626 0.028646199 0.028345535 -0.0051699509 0.048025366 0.99883276 0.0004275243
-0.025518687 0.028644165 0.028343746 0.016368473 0.049199462 0.99865484 0.00036135965
-0.022391701 0.028620025 0.028322538 0.018810919 0.016351376 0.99968928 0.001391502
-0.019526962 0.0285402 0.028252438 -0.082708031 0.016004492 0.9964453 0.0077700806
-0.016604751 0.028528765 0.028450267 -0.26190099 0.038427591 0.96432942 0.0063344454
-0.014135049 0.028675379 0.02958351 -0.28748932 0.085454099 0.95396411 0.011408782
-0.010135641 0.028398864 0.029859791 -0.27556318 0.032214593 0.96074301 0.01394769
0.0059548263 0.029979602 0.02986226 0.13508974 0.077740125 0.98777896 0.014575823
0.0068643284 0.028368307 0.029832875 0.20356216 0.046762466 0.97794467 0.025613325
0.010843507 0.028646424 0.029567325 0.43085846 0.14047371 0.89141917 0.0036925988
0.012726484 0.028539937 0.028277943 0.7279557 0.25734794 0.63549399 0.029773071
-0.042240936 0.032177564 0.028346427 -0.55568165 -0.015347451 0.83125353 0.010978074
-0.040456638 0.03156497 0.028495802 -0.28592792 -0.054140244 0.95672041 0.017304197
-0.037389535 0.031507641 0.028836541 -0.057627656 -0.045964122 0.99727947 0.0031714507
-0.034603406 0.031687547 0.028847 0.036480624 -0.0089580659 0.99929422 0.0022021523
-0.03158142 0.031780697 0.028386023 0.043453041 -0.0044885059 0.99904537 0.0011228801
-0.028528817 0.031787839 0.028347192 -0.12821202 -0.13751483 0.98216665 0.013670313
-0.02565915 0.031348471 0.028346747 -0.098672882 -0.22968481 0.96825027 0.014461572
-0.022329092 0.031002911 0.028343236 0.021129116 -0.27471477 0.96129358 0.0068111992
-0.019301308 0.031532854 0.028337248 0.10558544 -0.20548479 0.97294796 0.013476861
-0.016556295 0.031694703 0.028333919 -0.13795477 0.0056346217 0.99042249 0.022848967
-0.013570961 0.031621978 0.029262219 -0.25452009 0.17265344 0.95153052 0.0025899983
-0.011051068 0.031857025 0.029861158 -0.1656439 0.12806623 0.97783488 0.013020459
-0.007536551 0.03167424 0.029974112 -0.17128637 0.19248372 0.96623552 0.0092415325
0.008390937 0.032454249 0.02974429 0.24209687 0.18716602 0.95202833 0.015621667
0.01055895 0.031603239 0.029006552 0.54292703 0.32868618 0.77278429 0.019309394
0.012214093 0.03065669 0.028035901 0.74787617 0.25613612 0.61243409 0.030209243
-0.042167604 0.034190401 0.027370673 -0.58981013 0.091098681 0.80238706 0.010718876
-0.04047906 0.034444395 0.028153295 -0.28908908 0.13082913 0.94832021 0.01491624
-0.037727825 0.034568697 0.02856924 -0.11642337 0.09480726 0.98866433 0.0036693488
-0.034611978 0.034385908 0.028585335 0.03514218 0.048727032 0.99819374 0.00093355961
-0.031592809 0.034429412 0.028351188 0.030578448 0.01959463 0.99934024 0.0013111399
-0.028654037 0.034404177 0.028347855 -0.21451783 -0.126064 0.96855038 0.015380407
-0.025540499 0.034602147 0.029986678 -0.18601753 -0.22868662 0.95556259 0.017274389
-0.01924899 0.034530267 0.029577171 0.23730056 -0.16379814 0.95752734 0.014266066
-0.016488967 0.034461524 0.028347636 0.13751262 -0.067033045 0.98822916 0.030253546
-0.013293049 0.034348715 0.02867667 -0.18253285 0.13799906 0.97346699 0.0071124332
-0.010532405 0.034655344 0.029479181 -0.19238654 0.20179912 0.96034604 0.0086330734
-0.0080538346 0.035478391 0.029808855 -0.15073593 0.22490528 0.96265066 0.0077545983
0.0050995573 0.035387762 0.029757399 0.20800376 0.31445405 0.92620361 0.0049825781
0.0077968957 0.034653936 0.029213987 0.40409291 0.44848019 0.79722917 0.014335915
0.01002047 0.033985794 0.028206045 0.60269022 0.5193494 0.60583878 0.017855596
-0.042038415 0.036362346 0.027244464 -0.55906123 0.11560328 0.82102764 0.0060646143
-0.040591151 0.037627231 0.027788719 -0.32490131 0.08504568 0.94191635 0.0059447843
-0.037467215 0.037278626 0.028326655 -0.12011074 0.040166635 0.99194759 0.0036488008
-0.034484643 0.037198525 0.028348671 0.011409291 0.020356545 0.99972767 0.00035978731
-0.031405333 0.037198152 0.028348334 -0.0046904041 0.0021211845 0.99998677 0.00057442876
-0.028527467 0.0372109 0.0285399 -0.26717246 0.025925757 0.96329993 0.0076916171
-0.018307751 0.036333837 0.029984159 0.28919944 -0.027156677 0.95688361 0.013864012
-0.016464012 0.037192691 0.028477939 0.22804609 0.035477869 0.97300375 0.013226804
-0.01344251 0.037198551 0.028348694 0.029959587 0.099095911 0.99462682 0.01751483
-0.010289085 0.037225485 0.028619597 -0.11323892 0.21254857 0.97056681 0.0079535237
-0.0071956175 0.037599385 0.02909345 -0.1113183 0.48107937 0.86958081 0.023168394
-0.0045820926 0.037635978 0.029508648 -0.075922318 0.52620262 0.84696317 0.023411125
-0.0016579288 0.037790123 0.02957245 0.0069551026 0.46295077 0.88635665 0.0054137041
0.001566535 0.037623946 0.029482398 0.13607326 0.51875544 0.84402424 0.0052631055
0.0044281003 0.037668288 0.028772738 0.31034088 0.66118062 0.68302917 0.027346143
0.0071149045 0.036782328 0.028185178 0.49435115 0.66380161 0.56123483 0.022287646
-0.040535267 0.040484987 0.027797159 -0.32840869 -0.011140494 0.94447005 0.0061986772
-0.037398424 0.040236928 0.028344437 -0.077691443 0.017328113 0.99682683 0.0019918585
-0.034335833 0.040242702 0.028349688 -0.0094443606 -0.0024797539 0.99995232 6.7908062e-05
-0.03139263 0.040173795 0.028349567 -0.064500622 0.0018015471 0.99791604 0.0032052561
-0.02852652 0.040310483 0.02848614 -0.22367148 0.090000868 0.97050035 0.012092919
-0.026552098 0.041191891 0.02924606 -0.30300662 0.12079617 0.94530171 0.010100542
-0.018737299 0.041107096 0.029252687 0.26270905 0.17339937 0.94916624 0.014020572
-0.016571809 0.04018151 0.028453022 0.21335453 0.089604706 0.97285706 0.012009743
-0.013412169 0.040242698 0.02834969 0.049035277 0.014319065 0.99869436 0.0039640642
-0.010350172 0.04024316 0.028350109 0.074293964 0.039444409 0.99645609 0.025232188
-0.0074146292 0.040111724 0.028160829 0.20892726 0.25298673 0.94464129 0.081054255
-0.0044216909 0.039422207 0.02823616 0.032360829 0.77397245 0.63239193 0.035920318
-0.0016656073 0.039656855 0.028158745 0.022500549 0.81131959 0.58416975 0.021833844
0.0013127461 0.039389137 0.028166292 0.13916247 0.8255108 0.54696047 0.023502436
0.0032140557 0.039161272 0.027360745 0.27616957 0.82704437 0.48962033 0.027813338
-0.042073738 0.044080541 0.027042078 -0.48383173 -0.013213566 0.87506121 0.0072667119
-0.040362068 0.043265339 0.028016815 -0.44335711 -0.091647536 0.89164746 0.010338643
-0.037710119 0.04307555 0.028350579 -0.22200556 -0.22004624 0.94989115 0.015816644
-0.034616157 0.042538818 0.028350668 -0.02744727 -0.20207268 0.97898579 0.009944465
-0.031448122 0.042832099 0.028350651 0.091134906 -0.22101718 0.97100252 0.015338069
-0.028606459 0.043252766 0.028350687 -0.051426169 0.024399988 0.99837869 0.035193603
-0.025436426 0.043163225 0.028704265 -0.2232756 0.24026014 0.94468141 0.014781712
-0.022498399 0.043464694 0.028889371 0.025395235 0.3181558 0.9476983 0.012130566
-0.019633504 0.04317759 0.028673155 0.098493487 0.24776392 0.96380079 0.010683722
-0.016427033 0.043252733 0.028350657 0.055868797 0.025390036 0.99811524 0.033498719
-0.013532915 0.042665206 0.028350707 -0.081978694 -0.22659077 0.97053397 0.014053753
-0.010340514 0.042505041 0.028350964 0.065323941 -0.28676611 0.95577091 0.0091296947
-0.007200243 0.04315066 0.028350495 0.27589825 -0.26663762 0.92346334 0.014620239
-0.0053923558 0.043814547 0.028351381 0.63754851 -0.004604897 0.77039653 0.037984546
-0.040661152 0.046306048 0.028046882 -0.49125859 -0.14521413 0.85882354 0.0090839397
-0.037868597 0.046199091 0.029629856 -0.29008213 -0.14655523 0.94571346 0.01617318
-0.03121905 0.045966707 0.029963383 0.18123846 -0.20705105 0.96139616 0.016773185
-0.028374659 0.046235822 0.028420281 0.20262538 -0.09992262 0.974145 0.017123958
-0.025464125 0.046229467 0.028351806 -0.034533307 0.097087264 0.99467659 0.012426142
-0.022436216 0.046229526 0.028351853 0.00068198517 0.12559895 0.99208087 0.010218422
-0.019408314 0.046229616 0.028351935 -0.084735304 0.0069197426 0.99637949 0.01474559
-0.016686933 0.046217583 0.028531739 -0.2775729 -0.046952616 0.95955652 0.015229218
-0.013764744 0.045597408 0.029941507 -0.1657514 -0.2470146 0.95473045 0.0086195441
-0.0090618785 0.045396976 0.029984726 0.18847153 -0.26851729 0.94465709 0.014723115
-0.0064387931 0.04625174 0.02837247 0.59227723 -0.11516836 0.79746091 0.018180637
-0.0051276833 0.046377674 0.028352046 0.59228241 -0.11515538 0.79745895 0.018186344
-0.040365353 0.049675129 0.028353764 -0.55111635 0.038506534 0.83353943 0.0070586586
-0.038632024 0.048360351 0.029993789 -0.31003994 -0.0052401139 0.95070904 0.018126098
-0.028308161 0.049609248 0.028656321 0.26190141 0.019035559 0.96490693 0.011387027
-0.02535576 0.04953827 0.028353181 0.11070798 -0.033687714 0.99328184 0.0094618257
-0.022346711 0.04953821 0.028353125 -0.014590214 -4.3070704e-05 0.99989355 0.00023818502
-0.01933766 0.049537905 0.028352844 -0.12275096 -0.0068932506 0.99241352 0.010633465
-0.016842203 0.049412806 0.028596107 -0.33007833 -0.0010978666 0.94395286 0.01354705
-0.0063338196 0.049260546 0.028775603 0.43443823 -0.009139373 0.90065533 0.011593805
-0.0048316815 0.04951309 0.028111499 0.72245073 0.008186521 0.69137394 0.014074073
-0.040397786 0.052664291 0.028168689 -0.50808704 0.15509059 0.84722751 0.0071289442
-0.037993502 0.053070709 0.029033637 -0.29818577 0.22219023 0.92828703 0.011664988
-0.030819273 0.053441584 0.029055018 0.16945298 0.29149526 0.94144362 0.012035733
-0.028737416 0.052598964 0.028590834 0.18718465 0.15724492 0.96965766 0.017094733
-0.025497565 0.05280742 0.028354339 0.062682509 -0.021864286 0.99779397 0.019721556
-0.022446981 0.052821733 0.028354196 0.0055621536 -0.1500947 0.98865592 0.0109174
-0.019336555 0.052850284 0.028353974 -0.063568257 -0.031789377 0.99747103 0.020711597
-0.016140319 0.052586574 0.028664907 -0.20107512 0.15915912 0.96655947 0.019496495
-0.014266445 0.053615525 0.029122597 -0.25202891 0.23320831 0.93919933 0.010645501
-0.0070755412 0.052903969 0.0289416 0.34215954 0.17311269 0.92355764 0.015850339
-0.0049547232 0.052728392 0.028180728 0.7129581 0.12246727 0.69042933 0.017941352
-0.040258117 0.055529226 0.027932754 -0.51230109 0.20503636 0.83397108 0.010442742
-0.037414011 0.055502456 0.028452873 -0.2244191 0.22745736 0.94757545 0.0096750678
-0.034625817 0.055285875 0.028790208 -0.023875646 0.29397717 0.95551419 0.015832875
-0.031807754 0.055293318 0.028640145 0.17166664 0.24587998 0.95397782 0.01047136
-0.028624462 0.055678666 0.02835515 -0.01615832 0.057094838 0.99823797 0.031607412
-0.025992624 0.055219483 0.028485455 -0.13319297 -0.21946095 0.96648669 0.014396457
-0.022649435 0.055718172 0.029420616 0.020090021 -0.32200715 0.94652408 0.0059585017
-0.019312428 0.05521204 0.02835522 0.13575639 -0.20256141 0.96981394 0.018610597
-0.016659275 0.055635892 0.028355235 0.0011210461 0.059003819 0.99825716 0.034590621
-0.01327235 0.05531279 0.028653892 -0.17458028 0.27798563 0.94458759 0.018489949
-0.010227124 0.055230513 0.028795486 0.11411428 0.304501 0.94565165 0.016583377
-0.0074055609 0.055553816 0.028393764 0.40729624 0.29432151 0.86457193 0.031383086
-0.0053020385 0.055594768 0.027930586 0.74449944 0.28319153 0.60458505 0.016993986
-0.039506897 0.058249354 0.027644174 -0.54575586 0.33441901 0.76831919 0.015820302
-0.037435059 0.058556318 0.028323898 -0.30809048 0.22753558 0.92374659 0.024106119
-0.034428436 0.058518585 0.028355837 -0.050032549 0.14740571 0.98780984 0.010120792
-0.031470519 0.058518607 0.028355867 -0.0089164851 0.05268402 0.99857146 0.0024113255
-0.028704097 0.058539081 0.028512647 -0.21841224 -0.086994611 0.97197121 0.019599814
-0.025779486 0.057724912 0.029983088 -0.26026413 -0.18626535 0.94740057 0.013162856
-0.019248998 0.058088437 0.029992865 0.25288993 -0.14741123 0.95619905 0.014668448
-0.016638298 0.058617454 0.028337456 0.20523515 -0.083646923 0.97513163 0.020680012
-0.013590674 0.058465578 0.028357111 -0.027692497 0.109343 0.99361831 0.010834122
-0.010404417 0.058573961 0.02835688 0.06478864 0.15073697 0.98644859 0.010022052
-0.0073134927 0.058499698 0.028152367 0.50700969 0.30271661 0.80703402 0.052354373
-0.037203856 0.061095685 0.027870687 -0.49164501 0.44927463 0.74594736 0.037774861
-0.03452415 0.061487313 0.028317466 -0.21817759 0.26254058 0.93993139 0.039159104
-0.031343866 0.061327945 0.028356677 -0.14045875 0.041905619 0.98919928 0.011304158
-0.028446412 0.061516378 0.028655196 -0.29114127 0.021066472 0.95644814 0.0092310682
-0.016715685 0.061500885 0.028566957 0.26600853 0.042959835 0.96301287 0.010400582
-0.013692341 0.061328273 0.028356997 0.15499984 0.15476583 0.97571647 0.0418262
-0.010394447 0.061433505 0.028272325 0.24566869 0.39515924 0.88515317 0.068220876
-0.0080979913 0.060797296 0.027928131 0.63898849 0.48273218 0.59888506 0.037638668
-0.034337521 0.063927554 0.02789296 -0.39955211 0.46950167 0.78735405 0.033343732
-0.031659003 0.064464763 0.028253023 -0.34030256 0.46471429 0.81745631 0.041930269
-0.028373208 0.064515263 0.028460702 -0.23733759 0.38536382 0.89172059 0.040157512
-0.0255892 0.065289401 0.029102191 -0.19621743 0.34261197 0.91875774 0.0067666415
-0.021140134 0.065968655 0.029862361 0.052227706 0.31349915 0.94815111 0.019467348
-0.019302327 0.065008782 0.02900056 0.28431532 0.27681842 0.91789776 0.018861154
-0.016539451 0.06449993 0.028358223 0.32038116 0.43857715 0.83964634 0.061753493
-0.013643958 0.064564019 0.028207038 0.35189345 0.35444638 0.86633641 0.072292089
-0.011111631 0.063726328 0.027997086 0.42970395 0.60721886 0.66831118 0.045970332
-0.03095746 0.066366404 0.02759913 -0.2988416 0.53944325 0.78720689 0.055360798
-0.028588772 0.067032285 0.027941735 -0.2270115 0.75976002 0.60928696 0.027433828
-0.025384622 0.067418069 0.028064944 -0.10985091 0.73740017 0.66646355 0.026690539
-0.022380849 0.067037575 0.028488416 0.00082878442 0.67353511 0.73915476 0.027574126
-0.019515503 0.067442767 0.028016137 0.20076321 0.7616604 0.61609054 0.036036979
-0.016650725 0.066955127 0.02791764 0.27298415 0.77256829 0.57325208 0.038649555
-0.014615456 0.066295631 0.027795132 0.32041699 0.75344616 0.57415318 0.038935181
-0.025355663 -0.060981907 0.030720437 -0.31259519 -0.13523792 0.94021004 0.017141975
-0.022563715 -0.06112501 0.03071416 0.2440524 -0.092735603 0.96531785 0.035623062
-0.020041134 -0.060935188 0.030721853 0.40998265 -0.079563096 0.90861654 0.024270827
-0.025524827 -0.058724005 0.030533854 -0.38261655 0.050140977 0.92254561 0.020787399
-0.022513904 -0.058760595 0.030508911 0.0012752198 0.10752186 0.9942019 0.0004080268
-0.019588588 -0.058838774 0.03050738 0.39260301 0.049626421 0.9183681 0.027782435
-0.025454801 -0.055944704 0.030263878 -0.30865782 0.22685616 0.92372429 0.018967278
-0.022456346 -0.055992726 0.030230837 0.0065357033 0.2449044 0.96952522 0.0077289022
-0.019753689 -0.055919807 0.030280994 0.33551133 0.17991669 0.92469573 0.031256594
-0.034027848 -0.05202328 0.030682521 -0.23404148 -0.11899143 0.96491742 0.023203479
-0.031415071 -0.052114952 0.030476652 0.12281284 -0.25799277 0.95830929 0.0096837142
-0.028704651 -0.05208841 0.030216152 0.23180243 -0.14170906 0.96238565 0.013021677
-0.016271912 -0.052201256 0.030278083 -0.20464462 -0.16609405 0.96464157 0.010160907
-0.013270381 -0.052142624 0.030539552 0.036679473 -0.26791269 0.96274471 0.036823314
-0.011107995 -0.052009016 0.030722439 0.32514232 -0.15185477 0.93339306 0.034944538
-0.034219675 -0.049370363 0.030682337 -0.34370944 0.044130992 0.93803859 0.02627445
-0.031503718 -0.049415603 0.030454509 0.10403761 0.0060339896 0.994555 0.00072036096
-0.029268488 -0.04958088 0.030236218 0.23361185 0.074718118 0.96945488 0.0072395969
-0.016075363 -0.049740344 0.030227786 -0.22162645 0.04978092 0.97386014 0.0062015937
-0.013396214 -0.04935246 0.030498603 -0.097646929 0.0089254593 0.99518114 0.00055547536
-0.010750466 -0.049209833 0.030663548 0.46220556 -0.017527245 0.8865996 0.038877413
-0.034422092 -0.046368115 0.030637359 -0.23525316 0.42160952 0.87572908 0.043643609
-0.031680591 -0.046279453 0.030494165 0.062665381 0.3451319 0.93645984 0.045187958
-0.029041948 -0.046638269 0.03024173 0.23900646 0.24046342 0.94077271 0.01069825
-0.016245296 -0.046551585 0.030251265 -0.23738608 0.24960425 0.93880004 0.012514236
-0.013369407 -0.046237171 0.03052392 -0.12398478 0.26606837 0.9559474 0.025047028
-0.010845312 -0.046350256 0.03064055 0.2671307 0.26796737 0.9256537 0.051596805
-0.033702489 -0.04482016 0.030085336 -0.16524985 0.47847736 0.86241055 0.044915151
-0.032822225 -0.044885106 0.030039391 0.071124226 0.61814427 0.78284031 0.03239375
-0.025394797 -0.043073632 0.030246172 -0.24921955 -0.11891361 0.9611187 0.020618344
-0.022447772 -0.042750601 0.030236306 0.12789232 -0.266323 0.95536149 0.022421353
-0.019975891 -0.042967018 0.030270597 0.38162336 -0.088773802 0.92004502 0.046155877
-0.012476532 -0.044874828 0.030046664 0.0081164027 0.57802957 0.81597549 0.052711345
-0.011296926 -0.044861838 0.030055854 0.30398321 0.44300792 0.8434087 0.050367065
-0.025600966 -0.040203325 0.03049974 -0.34266964 -0.025028206 0.93912256 0.024705065
-0.022677308 -0.040227585 0.030482354 0.029588675 0.025400555 0.99923939 0.018561516
-0.019751774 -0.04020277 0.030500121 0.45648563 -0.046171229 0.88853204 0.046840817
-0.02543023 -0.037183817 0.030571332 -0.13837355 0.34681886 0.92766881 0.030531639
-0.022599036 -0.037046466 0.030619433 0.011117503 0.35554853 0.93459165 0.037708499
-0.019777263 -0.037215572 0.030548437 0.12506919 0.34578437 0.92994136 0.028215652
-0.011128704 -0.031131865 0.030161427 -0.17366803 -0.10108653 0.9796024 0.011281035
0.0077886302 -0.030683763 0.030252244 0.22924362 -0.12404456 0.9654327 0.0089772884
-0.012452974 -0.028318159 0.030215381 -0.15358837 -0.056836639 0.98649895 0.011988857
-0.010921354 -0.028176924 0.030437823 -0.13385879 -0.068666853 0.98861855 0.010769716
0.0078932382 -0.028273582 0.030461531 0.13923939 -0.067184873 0.98797697 0.011453487
0.0093546649 -0.028280027 0.03012415 0.1909754 -0.039337348 0.98080623 0.01307807
-0.01268435 -0.025358498 0.030396018 -0.077328615 0.017600881 0.99685031 0.012679202
-0.010279851 -0.02538529 0.030612295 -0.16993247 -0.026193157 0.98510754 0.02266065
-0.0086228456 -0.024359664 0.031374391 -0.26283747 -0.10462822 0.95915031 0.016319927
0.0053244252 -0.024433494 0.031319495 0.35286078 0.025795914 0.9353202 0.018415
0.0074039553 -0.02527982 0.030513614 0.16873625 -0.023238933 0.98538721 0.019485964
0.0095795346 -0.025479693 0.030276451 0.19055034 -0.0470578 0.98054886 0.013008381
-0.012651381 -0.02251965 0.030368002 -0.094882324 0.015634878 0.99536568 0.014844097
-0.010082671 -0.022553861 0.030599872 -0.29772955 -0.0018859019 0.95464844 0.024229681
-0.007792708 -0.022028692 0.031536564 -0.35911134 0.11592578 0.92606705 0.0080085993
-0.0057910737 -0.021367665 0.032192934 -0.31000015 0.26598001 0.91277301 0.0049529835
0.0026963744 -0.021459321 0.032124434 0.30189854 0.26070538 0.91700059 0.0045169378
0.0046656537 -0.022228509 0.031449225 0.3987948 0.19784749 0.8954435 0.0037825487
0.0074037374 -0.022395011 0.030516315 0.24835424 0.012007874 0.96859485 0.021156883
0.0096538197 -0.022775052 0.030231589 0.19575576 0.00059208332 0.98065251 0.011633869
-0.012202329 -0.019748179 0.030233672 -0.19049987 0.083058655 0.97816724 0.013741651
-0.010531883 -0.019543346 0.0304703 -0.12509327 0.052986182 0.99072909 0.015066642
-0.0074646948 -0.019445814 0.030969242 -0.24258468 0.22034162 0.9447763 0.01616055
-0.0047236793 -0.019349381 0.03186243 -0.23798656 0.30415109 0.92241782 0.010449678
-0.0015739832 -0.019037968 0.032180171 -0.031652022 0.24393812 0.96927422 0.0064090462
0.0016125671 -0.019345449 0.031789247 0.23716764 0.29129565 0.92676765 0.0098234154
0.0042998078 -0.019594911 0.030927934 0.22350129 0.20830762 0.95218438 0.015653975
0.0078064171 -0.019486362 0.030431964 0.15203728 0.049373008 0.98714083 0.012143682
0.0095070545 -0.020416602 0.030081864 0.25201368 0.10805628 0.96167195 0.018581066
-0.010005366 -0.01684113 0.030342694 -0.12640478 0.079833955 0.98876095 0.010798807
-0.0073505179 -0.016305842 0.030507023 -0.12569667 0.13815819 0.98240149 0.0056051598
-0.0045444202 -0.0169129 0.030751787 -0.16509412 0.21376774 0.96283299 0.0087709669
-0.001588306 -0.016590225 0.030863037 0.006208682 0.2501131 0.96819669 0.0051850826
0.0013425027 -0.016895631 0.030701037 0.16949695 0.20346209 0.96429968 0.0087684626
0.0043161619 -0.01633535 0.030469753 0.17828856 0.16683179 0.96973211 0.0072334954
0.0068673673 -0.017001411 0.030314526 0.25126234 0.14614104 0.95682287 0.011707956
-0.0091763046 -0.01492132 0.030020446 -0.27073234 0.26877481 0.92437226 0.017782804
-0.0072832881 -0.014303484 0.030230021 -0.153841 0.17798208 0.97193378 0.0086959032
-0.0045349658 -0.013735603 0.03042732 -0.067928076 0.25763449 0.96385181 0.0046811439
-0.0013392187 -0.013430911 0.03045992 0.053356882 0.28988665 0.95557249 0.006225212
0.0015586277 -0.013798232 0.030412793 0.076695949 0.25653347 0.96348763 0.0053950474
0.0040696524 -0.014332621 0.030207656 0.19960792 0.32070455 0.92590785 0.0085998829
-0.012409126 0.02011664 0.030159511 -0.12574491 -0.10234771 0.98676908 0.010533758
-0.01117061 0.019581746 0.030433018 -0.12574384 -0.10234775 0.9867692 0.010533731
0.0081501473 0.01954161 0.030306496 0.22441493 -0.098365307 0.96951646 0.0096021388
0.009349579 0.020726802 0.030158285 0.24323153 -0.06838157 0.96755487 0.0098629165
-0.012781166 0.022799119 0.030314539 -0.044866759 0.011275207 0.99892938 0.012217906
-0.010922108 0.022773383 0.030523177 -0.0586395 -0.032631438 0.99774569 0.01422577
0.0079708118 0.022494193 0.030531257 0.13988145 -0.016575467 0.99002945 0.013593631
0.0096634431 0.022640856 0.030212075 0.2349166 -0.044160992 0.97101188 0.0095889922
-0.012709782 0.025542807 0.030392701 -0.19131252 0.024202041 0.98123074 0.0064811269
-0.010112912 0.025492892 0.030666932 -0.18133211 0.010364241 0.98336726 0.021116773
-0.0082623689 0.02625664 0.03144718 -0.2585682 0.049261499 0.96473616 0.011671831
0.0051494236 0.026256165 0.03133215 0.26932281 0.1318582 0.95398045 0.01937115
0.0072659687 0.025416924 0.030578122 0.15934585 0.0036726636 0.987216 0.021799441
0.0097191529 0.025537223 0.030252034 0.20122184 0.017466642 0.97938991 0.007802438
-0.012631739 0.028244102 0.030208349 -0.14602147 0.079502627 0.9860816 0.011777759
-0.01041833 0.028423861 0.030503189 -0.27559051 0.032209519 0.96073532 0.013960488
-0.0075551094 0.028645707 0.031242033 -0.25364369 0.17673925 0.95101422 0.013114069
-0.0049128737 0.029277556 0.031956479 -0.23275483 0.1926582 0.95326179 0.0087424321
-0.0015875729 0.029555121 0.032243203 -0.070423894 0.2464962 0.9665817 0.0063265269
0.0017512774 0.029242625 0.031926114 0.23975366 0.16521564 0.95667231 0.0081060734
0.004621279 0.028622529 0.031053668 0.25164872 0.1495917 0.9561879 0.012847263
0.0076397196 0.02832805 0.030488716 0.20354253 0.046836659 0.97794521 0.025602195
0.0093369437 0.028220963 0.030197876 0.12792702 0.0045881569 0.99177295 0.01223568
-0.012201166 0.030218136 0.030071752 -0.22751613 0.12996434 0.9650625 0.010368801
-0.010286584 0.031528924 0.030411018 -0.13378835 0.093585834 0.98658121 0.011176657
-0.0074452013 0.031198211 0.030528387 -0.22705114 0.11357548 0.96723747 0.015016022
-0.0046626003 0.031580035 0.030990237 -0.1599645 0.24919781 0.95515013 0.0076240608
-0.0016010031 0.031381618 0.031438123 0.0018922816 0.26531351 0.96416032 0.0028457437
0.0014657847 0.031556547 0.030969588 0.18504512 0.22060607 0.95764887 0.0085613457
0.0045008315 0.031385813 0.030508569 0.23977055 0.067702971 0.96846598 0.012088189
0.0072974376 0.031356417 0.030348038 0.1837448 0.094865717 0.97838563 0.015028222
0.0090583954 0.030151447 0.030013185 0.26018724 0.12020969 0.95804602 0.028001308
-0.025007162 0.035165071 0.030058112 -0.20476621 -0.16132119 0.96542543 0.012989946
-0.022624522 0.034962546 0.030095324 0.024429582 -0.2292788 0.97305411 0.0067747938
-0.020319693 0.035165988 0.030058939 0.1941849 -0.20129804 0.96008927 0.015532739
-0.0094707888 0.033567172 0.030098937 -0.19087765 0.19751936 0.96153623 0.010393674
-0.0073683718 0.034203015 0.03037761 -0.12290002 0.19505496 0.97306174 0.0076683187
-0.0046584844 0.034853213 0.030427555 -0.070583269 0.26493901 0.96167839 0.0018612087
-0.0016284792 0.034546573 0.030454731 -0.00017995814 0.22488114 0.97438616 0.0014270288
0.0014491995 0.034920607 0.030442594 0.09069442 0.28025311 0.95563209 0.0031411985
0.0043424983 0.034083817 0.030354911 0.15035759 0.25240618 0.95586801 0.0035561684
0.0063783471 0.033367652 0.030093957 0.28246599 0.21181671 0.93559957 0.018853176
-0.025639337 0.037667304 0.030105822 -0.25109082 0.034608096 0.9673447 0.008635222
-0.022623681 0.037711207 0.030190216 -0.0039966395 -0.0093779936 0.99994802 0.00018928466
-0.019614533 0.037662216 0.030101234 0.20747712 0.015262689 0.97812074 0.011122792
-0.0039530699 0.036407616 0.030050278 -0.07869833 0.37197998 0.92489862 0.0035761232
-0.0016476394 0.036465775 0.030102396 -0.00086295779 0.3885648 0.92142099 0.0044504581
0.00066028978 0.036405396 0.030048288 0.080351956 0.41985881 0.9040255 0.0052567753
-0.025295142 0.040419027 0.030079313 -0.2050249 0.18987241 0.96016312 0.018931681
-0.022544445 0.040689375 0.030134099 0.060518395 0.26279086 0.96295297 0.019688008
-0.019914161 0.040391348 0.03007788 0.21251342 0.20706715 0.9549666 0.010982682
-0.024274712 0.042428136 0.030001208 -0.15330689 0.3080979 0.93892103 0.01076098
-0.022499682 0.042445641 0.030017212 0.067524649 0.32281965 0.9440487 0.015174891
-0.036962323 0.047161814 0.030062003 -0.29440132 -0.13496239 0.94610411 0.017081223
-0.034452174 0.046637073 0.030105323 -0.026369883 -0.21132965 0.97705907 0.006402499
-0.031738017 0.047022335 0.030073972 0.24019474 -0.15311664 0.9585728 0.011501878
-0.015080845 0.047648869 0.030015964 -0.24560674 -0.10649452 0.96350205 0.013327867
-0.013159074 0.046864323 0.030081345 -0.13231383 -0.21102218 0.96848476 0.012617929
-0.010370967 0.04668197 0.030102201 0.10888321 -0.21238285 0.9711014 0.017738458
-0.007991069 0.047220279 0.030046161 0.38650751 -0.10252105 0.91657048 0.013163618
-0.037305955 0.049576174 0.030104147 -0.23196539 0.045869369 0.97164196 0.014250753
-0.034421321 0.049678147 0.030199744 -0.0089781014 -0.0031144987 0.99995488 0.0001987133
-0.031371869 0.049637809 0.030120943 0.21961153 0.044160694 0.97458738 0.013505747
-0.015268127 0.049659975 0.030035874 -0.40775734 0.046416812 0.91190982 0.017005073
-0.013303254 0.049630016 0.030154683 -0.14756753 0.017436637 0.98889822 0.013325278
-0.010303038 0.049674738 0.030196561 0.093540877 -0.0084129591 0.9955799 0.010683917
-0.0078035654 0.049560145 0.030089244 0.36522403 -0.022607442 0.93064517 0.015127101
-0.037151154 0.052070919 0.030055549 -0.23834738 0.24085742 0.94083911 0.0099641616
-0.034656774 0.052499857 0.030119302 -0.016067533 0.25074628 0.96791953 0.016074289
-0.031858318 0.052279484 0.030081769 0.15110663 0.25685924 0.95456284 0.016142778
-0.029986849 0.051299695 0.030011175 0.22548519 0.14573745 0.96328449 0.01517732
-0.015027365 0.051671535 0.030019907 -0.39145896 0.21800146 0.89399958 0.013857024
-0.01318626 0.052367829 0.030087618 -0.23596336 0.24871853 0.93939364 0.01320462
