# .PCD v0.7 - Point Cloud Data file format
VERSION 0.7
FIELDS x y z normal_x normal_y normal_z curvature
SIZE 4 4 4 4 4 4 4
TYPE F F F F F F F
COUNT 1 1 1 1 1 1 1
WIDTH 564
HEIGHT 1
VIEWPOINT 0 0 0 1 0 0 0
POINTS 564
DATA ascii
-0.0012471094 0.041355137 0.023407845 0.37344676 0.32234412 0.86984587 0.0504453
0.0016250726 0.04100839 0.022753241 0.34678447 0.67471051 0.65154141 0.04143779
0.0043247323 0.040328406 0.022099959 0.54574805 0.6003195 0.58461577 0.032964706
0.0062415097 0.039210387 0.021824334 0.56216133 0.75936246 0.32763293 0.0072961617
-0.051050801 0.043656904 0.021374324 -0.64492834 -0.32671085 0.690889 0.009592263
-0.049399246 0.04380098 0.022468325 -0.57935113 -0.26683253 0.77016407 0.0047696014
-0.047353268 0.043101341 0.023697248 -0.54102862 -0.16056387 0.82553452 0.0038143033
-0.0011551729 0.043505836 0.023362825 0.48187089 0.11480147 0.8686893 0.016671887
0.0016929142 0.04342898 0.022144662 0.39204973 0.08337757 0.91615784 0.0094341086
0.0034178905 0.0435712 0.021212514 0.5104118 0.082519807 0.85596162 0.010536972
-0.051362399 0.046779983 0.021893976 -0.6542027 -0.091595046 0.75075245 0.0097971931
-0.049504902 0.046435822 0.023065569 -0.50128663 -0.12497438 0.85620862 0.0080180131
-0.047978312 0.047031846 0.023893667 -0.43494868 -0.032891944 0.8998543 0.0038329901
-0.00096545264 0.046478447 0.023387471 0.50400442 -0.0337178 0.86304265 0.0064553791
0.0017345219 0.046466615 0.022225 0.40844232 -0.038411859 0.91197556 0.00031076506
0.0037919453 0.046722475 0.021275038 0.43895251 -0.06532985 0.89613211 0.00051490811
-0.05110516 0.049373977 0.022490565 -0.62368 0.024564875 0.78129369 0.019954564
-0.04947982 0.049401976 0.023099625 -0.39082327 -0.0022013085 0.92046309 0.0023912699
-0.047478694 0.049545303 0.023822986 -0.36043558 0.034899533 0.93213105 0.00075055391
-0.00080805435 0.049495324 0.023342483 0.52430803 0.016942542 0.85136008 0.0079313917
0.0016586876 0.049428511 0.022346402 0.38157824 0.012619735 0.92425042 0.00041465211
0.0040107411 0.049588833 0.02138108 0.39294931 -0.0045668785 0.91954881 0.0008119843
-0.051035654 0.052362259 0.022403806 -0.66359806 0.11109266 0.73979455 0.017877044
-0.049508587 0.052463241 0.022975737 -0.3886151 0.10519341 0.91537565 0.0019083845
-0.047556724 0.052478462 0.023829456 -0.35543412 0.078966059 0.93135971 0.0016977645
-0.0010242815 0.052675985 0.023256529 0.50405788 0.12509927 0.85456175 0.0089850528
0.0016484461 0.052562293 0.022155605 0.36865926 0.09630093 0.92456287 0.00036330274
0.0038421834 0.052341349 0.021283356 0.37151799 0.089427046 0.92410892 0.00038158419
-0.051180258 0.054937743 0.021631097 -0.687819 0.29510149 0.66318929 0.015002261
-0.04950776 0.055398013 0.022367295 -0.48266491 0.34123045 0.8065955 0.010496219
-0.046942931 0.055606812 0.023554027 -0.42162946 0.25163484 0.87115353 0.0038337936
-0.044911917 0.056908764 0.023919739 -0.443268 0.42907685 0.7870239 0.0057584606
-0.0032844646 0.056283221 0.023780935 0.62869221 0.25415382 0.73495036 0.0045437226
-0.0014924677 0.055435002 0.022976762 0.45369589 0.2230791 0.86278373 0.0070874211
0.0015548971 0.055672057 0.021701939 0.35131511 0.17371649 0.92000014 0.00054493028
0.0034347258 0.054935612 0.021106157 0.35140234 0.14748149 0.92453533 0.00033337192
-0.048493072 0.057923622 0.021826383 -0.47940511 0.51738697 0.70885926 0.0051308079
-0.046409126 0.058476657 0.022376493 -0.39569825 0.49612141 0.77284318 0.00937723
-0.044074755 0.05890879 0.023332905 -0.49975088 0.43662843 0.74806726 0.0065088039
-0.0040578838 0.058673073 0.023217885 0.53946537 0.39334595 0.74448371 0.014704046
-0.0015743284 0.058309957 0.022192204 0.33136198 0.28829557 0.89837903 0.0023290319
0.0009958673 0.058348048 0.0213231 0.30896646 0.21903822 0.92550641 0.0010553179
-0.045567263 0.060375702 0.021236459 -0.37893835 0.71100831 0.5923453 0.0042907544
-0.043122277 0.060950067 0.022241017 -0.43711695 0.6603561 0.61062151 0.0057181441
-0.040906809 0.061981801 0.022896111 -0.46865144 0.75405473 0.46018174 0.0019413684
-0.038738094 0.06297867 0.023811147 -0.49598438 0.76669753 0.40764493 0.0041722707
-0.0069989064 0.062099125 0.023035135 0.57026786 0.60690075 0.5535937 0.016222471
-0.0044914605 0.061368465 0.022097474 0.34097153 0.46921763 0.81459999 0.008053367
-0.0017425154 0.06092919 0.021418288 0.26695195 0.3328076 0.90442014 0.0023942608
0.00026868129 0.060207769 0.021077858 0.25500351 0.27208027 0.92787153 0.0012396732
-0.040079582 0.063332148 0.0216345 -0.44320846 0.77793521 0.44540203 0.0032472247
-0.037619613 0.064319648 0.022510139 -0.49104306 0.790066 0.36697742 0.0023027137
-0.035206694 0.065618135 0.022456506 -0.44222581 0.85686547 0.26498654 0.0022394322
-0.012540618 0.065832876 0.023477565 0.3890596 0.872841 0.29458621 0.0063418411
-0.010286308 0.064878032 0.022510421 0.391408 0.82779622 0.40193686 0.010425964
-0.0076774303 0.063935935 0.02176364 0.29658636 0.59737581 0.74510312 0.0049583162
-0.0049961885 0.063357159 0.021223024 0.24169123 0.48845017 0.83845198 0.004485575
-0.033586901 0.066353656 0.022328585 -0.40038237 0.88804519 0.22598591 0.0033337614
-0.031410974 0.067081444 0.022628717 -0.31964377 0.93557519 0.15008983 0.0025182574
-0.028377414 0.067925997 0.022393135 -0.23728582 0.96739 0.088611834 0.0010776666
-0.025395304 0.068447948 0.022375327 -0.13497981 0.98787969 0.076642305 0.00034284321
-0.022465851 0.068743102 0.022468751 -0.0042271693 0.99581581 0.09128511 0.0015485333
-0.019439267 0.068456084 0.022470055 0.15511435 0.98023522 0.12279413 0.0011782857
-0.016462792 0.067709677 0.02249966 0.29250875 0.93908417 0.18044263 0.0039811851
-0.013563756 0.066690415 0.022230523 0.33234951 0.90256983 0.27369937 0.0086343214
-0.011117007 0.066050507 0.021248883 0.29622206 0.78711659 0.54101759 0.01293917
-0.040274836 -0.060645014 0.024545131 -0.59459776 -0.44363257 0.6705547 0.0042992728
-0.007200446 -0.060700905 0.024372866 0.64970744 -0.53714496 0.53791779 0.023791708
-0.042921986 -0.057905119 0.024394287 -0.5065791 -0.43735987 0.74303025 0.0050972197
-0.041092504 -0.05830314 0.025729012 -0.58490336 -0.43461093 0.68483669 0.0050552515
-0.0063605136 -0.059101548 0.025226889 0.7415204 -0.45912662 0.48923427 0.0096737407
-0.0053866603 -0.057825398 0.025001345 0.6394701 -0.46335435 0.61349881 0.0157826
-0.045393899 -0.054992694 0.024134314 -0.41136998 -0.25302055 0.8756457 0.0032952959
-0.043570284 -0.055373613 0.025057478 -0.52145338 -0.2770406 0.80705315 0.0070955013
-0.04168823 -0.055489548 0.02656284 -0.60460663 -0.23034246 0.76249141 0.0046268129
-0.0043074945 -0.055429444 0.025227865 0.74685532 -0.35632348 0.561463 0.011787583
-0.045985017 -0.052340336 0.024277408 -0.40319595 -0.097077332 0.90995002 0.0031955007
-0.043611705 -0.052509654 0.025607996 -0.54878575 -0.13597207 0.82483071 0.0062845587
-0.0037681314 -0.052587703 0.02576554 0.83036315 -0.15872899 0.53413683 0.010075958
-0.002719912 -0.052351203 0.024349945 0.77092618 -0.16844328 0.6142472 0.011052652
-0.046040338 -0.049466964 0.024283204 -0.42565942 -0.049405906 0.9035337 0.0014102407
-0.043563467 -0.049512874 0.025798017 -0.54855794 -0.058780689 0.83404374 0.0022223499
-0.0034749571 -0.049585827 0.025820008 0.82527089 -0.024937883 0.5641861 0.0070605036
-0.0025616349 -0.049443148 0.024569647 0.77160704 -0.027579594 0.63550133 0.0085685756
-0.046163362 -0.046376653 0.024575137 -0.45451576 -0.026826521 0.89033461 0.001471049
-0.043643378 -0.046437021 0.025959212 -0.53573012 -0.038244549 0.84352273 0.0025429314
-0.0036695311 -0.046315726 0.025912547 0.8135736 0.078577518 0.57612801 0.0068911836
-0.0025834444 -0.046434842 0.024478134 0.75971961 0.063197374 0.64717245 0.0094410935
-0.045960546 -0.043567196 0.024635825 -0.51298529 0.059185963 0.85635459 0.0021396733
-0.043575633 -0.04349149 0.026097683 -0.55900955 0.019534105 0.82893109 0.00075898465
-0.004028528 -0.043332983 0.025625918 0.7742542 0.064985074 0.62952954 0.015614976
-0.002745487 -0.043751154 0.024284963 0.73037529 0.12573807 0.67137307 0.011976816
-0.045715414 -0.040649574 0.024452373 -0.58431298 0.16887526 0.79376286 0.0085947411
-0.043902367 -0.040456537 0.025860641 -0.60378683 0.011430016 0.79706389 0.0012801681
-0.004811022 -0.041234735 0.025843902 0.56706107 -0.53861809 0.6231631 0.080224618
-0.0029397383 -0.041751936 0.024131438 0.77426445 0.065007716 0.62951452 0.01561967
-0.045629129 -0.03757792 0.024467668 -0.70749432 0.21923454 0.67185414 0.010061573
-0.043669473 -0.03730578 0.025888612 -0.57335705 0.23223856 0.78570151 0.022497471
-0.040924668 -0.036378395 0.026602006 -0.46210054 -0.080870517 0.88313246 0.054739516
-0.043332025 -0.034914151 0.025470909 -0.68664694 0.011480878 0.7269004 0.059153523
-0.040898424 -0.035461385 0.026617741 -0.38400897 -0.19364363 0.90279531 0.048782904
0.0087813577 -0.035543136 0.026831573 0.60974187 -0.5284639 0.59071213 0.022540031
0.01095872 -0.033086654 0.026622998 0.78647256 -0.41109729 0.46093369 0.018145056
-0.043686885 -0.03118703 0.025030132 -0.82747674 0.1134041 0.54992884 0.019212725
0.011586322 -0.032684453 0.025276812 0.82559466 -0.49982265 0.26186019 0.0036545666
0.012427367 -0.031083316 0.025416441 0.8699258 -0.36762497 0.32875681 0.0054112663
-0.043227397 -0.028548351 0.0253346 -0.73237169 -0.041721091 0.67962575 0.049807262
-0.040701009 -0.028183281 0.026702628 -0.40517017 0.08616361 0.91017199 0.062595658
0.01338229 -0.028596908 0.025382088 0.91266865 -0.29012698 0.28785819 0.0060684797
-0.046039663 -0.02443991 0.024872649 -0.75016516 -0.21943361 0.62377965 0.0085307164
-0.043934055 -0.025615521 0.025764415 -0.57050377 -0.34377018 0.74588698 0.01003207
-0.04118941 -0.026685139 0.026474828 -0.42039964 -0.25245774 0.87150973 0.018972816
0.013853543 -0.025592538 0.025842428 0.95111209 -0.077038191 0.29908338 0.0086497469
-0.045960136 -0.0225995 0.024977833 -0.76393038 -0.089435011 0.63907105 0.0088031366
-0.044330414 -0.02247398 0.026660915 -0.59799492 -0.080674164 0.79742944 0.0069172201
0.013801591 -0.022417648 0.025856636 0.94751388 0.10952327 0.30036977 0.0089647966
-0.045830518 -0.019546267 0.025143992 -0.75276554 -0.0144882 0.65812933 0.0044502723
-0.044594057 -0.019297635 0.026446138 -0.58315933 -0.0079656458 0.81231874 0.0047317836
0.013217712 -0.019444844 0.025527878 0.93134069 0.28949323 0.22090329 0.0026891052
-0.045705192 -0.016512319 0.025296669 -0.73707098 -0.0034602701 0.67580646 0.0034304482
-0.044489585 -0.016297013 0.026534107 -0.71336627 0.0020157804 0.7007885 0.0037773794
-0.01477387 -0.015661184 0.026937984 -0.37338424 0.37390214 0.84898841 0.033896152
0.011484907 -0.015873469 0.02582722 0.8235783 0.50879681 0.2506882 0.0035771735
0.012386379 -0.017177656 0.025167761 0.8464219 0.46725056 0.25543475 0.0037513017
-0.045585327 -0.01349878 0.025431758 -0.7484327 -0.0075005577 0.66316825 0.0028669822
-0.044385761 -0.013309846 0.026621055 -0.69802827 0.0019920585 0.71606749 0.0033607536
-0.01382893 -0.013354731 0.026684919 -0.23039547 0.25023696 0.94037187 0.058221374
-0.011390058 -0.01223692 0.026933908 -0.3266764 0.61976367 0.71356541 0.031386759
0.0085094683 -0.012379187 0.025843428 0.63104451 0.73626924 0.24431629 0.0056494079
0.010005575 -0.013827759 0.025556002 0.72612005 0.62377667 0.28922704 0.0055470946
-0.045466091 -0.010499273 0.025565997 -0.73213303 -0.0086148567 0.6811071 0.0025995076
-0.044282321 -0.01033573 0.026707832 -0.68280017 0.0069103227 0.73057252 0.0025911196
-0.013352089 -0.010546912 0.026557039 0.10208924 0.22563624 0.96884781 0.043005098
-0.010575323 -0.010299272 0.025920372 -0.097552344 0.36973736 0.92400098 0.071125999
-0.0077748923 -0.0095694112 0.025571017 -0.19643432 0.68353146 0.70299232 0.048361335
-0.0053544589 -0.0091409599 0.026383216 -0.097261235 0.81551176 0.5705092 0.016259091
0.002255718 -0.00916084 0.026027499 0.26275098 0.87689775 0.40250757 0.01207344
0.004516867 -0.0098143918 0.025404679 0.3964906 0.86055779 0.31974304 0.012368485
0.0070809373 -0.011222362 0.025439585 0.57573915 0.7800132 0.2451608 0.004181175
-0.046005182 -0.0070973258 0.024919793 -0.69973838 0.0027491709 0.71439391 0.0026733016
-0.044560976 -0.0075067589 0.026464188 -0.67629015 0.0061491849 0.73660964 0.0021182226
-0.015739262 -0.0064392788 0.026045665 0.26982707 0.064050719 0.96077615 0.010484356
-0.013463062 -0.0073824194 0.026587488 0.19825892 0.031244978 0.97965157 0.0095023969
-0.01048283 -0.0073532988 0.025788603 0.20760737 0.18483296 0.96059144 0.031526718
-0.0075660134 -0.0074306861 0.025007328 0.18402858 0.14134179 0.97270554 0.019521894
-0.004633287 -0.0078892531 0.024810206 0.18400933 0.28935951 0.93936771 0.035750035
-0.0015128913 -0.008561098 0.02555801 0.072936624 0.90237176 0.42474169 0.0067744898
0.0010886336 -0.0087226294 0.025164656 0.25259873 0.90702379 0.33690017 0.0042514331
-0.046082616 -0.0043368088 0.024811197 -0.75169617 0.044750765 0.65798956 0.0051777279
-0.044454735 -0.0045522824 0.026560729 -0.59855515 -0.00066445675 0.80108136 0.0051386692
-0.015905976 -0.0041857106 0.026499869 0.27722165 -0.0053511388 0.96079111 0.016397517
-0.013357898 -0.0044776793 0.026514195 0.16444698 -0.01294852 0.98630089 0.0086177103
-0.010477101 -0.0044765635 0.025763489 0.28776571 0.044622209 0.95666075 0.0060586431
-0.0075613437 -0.0045446539 0.025006238 0.2213026 0.016065853 0.97507286 0.015083419
-0.0048318836 -0.0045291162 0.024372831 0.22974569 -0.057504371 0.97155041 0.0086025279
-0.0024047762 -0.0032960286 0.024335802 0.27895224 -0.16033831 0.94682485 0.0039357743
-0.045950983 -0.0013585669 0.024987066 -0.76895505 0.02376288 0.638861 0.0057933442
-0.044353727 -0.0016164053 0.026640151 -0.59669626 -0.0053965966 0.80244899 0.0050187409
-0.016132198 -0.0016580069 0.026657939 0.27286437 0.0012570147 0.96205175 0.00950957
-0.013398287 -0.0014904374 0.026450286 0.18044107 -0.0019475035 0.98358387 0.0037929039
-0.010343097 -0.0014708963 0.025744151 0.32934979 0.034238257 0.94358701 0.016603574
-0.0075574415 -0.0016233599 0.025151465 0.22758088 0.041788671 0.97286212 0.032177959
-0.0044907136 -0.0014654099 0.025069261 -0.021217719 -0.069076791 0.99738568 0.02513616
-0.0019344755 -0.0014432212 0.024423465 0.34112895 -0.099394463 0.93474686 0.0057202633
-0.04582347 0.0016014464 0.02514993 -0.7485835 0.021047877 0.66270632 0.0040494665
-0.044515312 0.0013085415 0.026506703 -0.58559752 -0.0039138584 0.81059253 0.0045820349
-0.016383015 0.0014805972 0.026672149 0.26361632 0.00033842432 0.96462756 0.0086319521
-0.013379634 0.0013294773 0.026461016 0.19740601 0.018285885 0.98015124 0.0048223455
-0.010308751 0.0016358384 0.025742374 0.2864013 -0.019380525 0.9579137 0.01055141
-0.0075357505 0.0016000279 0.025171429 0.21005526 -0.083096631 0.97415179 0.029028639
-0.0044833766 0.001408744 0.025114307 -0.01990483 0.030619344 0.99933296 0.025354475
-0.0018226268 0.0014161787 0.024426715 0.33343503 0.10513322 0.93689275 0.0048478902
-0.045700707 0.004542972 0.025297686 -0.7661801 -0.010356014 0.64254248 0.0032393197
-0.044500921 0.0046894392 0.026521582 -0.7123574 0.0010373789 0.70181608 0.0035695792
-0.016364694 0.0046085352 0.026641987 0.24323726 -0.0041656778 0.96995789 0.015517995
-0.013396644 0.0044535254 0.026505349 0.15994062 0.0032600742 0.98712128 0.0066383285
-0.010395657 0.0047322516 0.025766052 0.24205945 0.0047392906 0.97024983 0.00017564617
-0.0075465757 0.0046156165 0.025002472 0.21742962 0.064108573 0.97396839 0.0032928211
-0.0047128294 0.0042613503 0.02455035 0.19535168 0.14223546 0.97036421 0.0050267531
-0.0023067938 0.0035756859 0.024337742 0.30594355 0.15947098 0.93859869 0.0035106225
-0.045582421 0.0074666506 0.025431212 -0.74909288 -0.0077067525 0.66242009 0.0027816384
-0.044398505 0.0075897113 0.02660734 -0.69812465 0.0022628887 0.71597266 0.0031841141
-0.016434323 0.0061961128 0.026258357 0.27683228 -0.063222021 0.9588362 0.012069941
-0.013359117 0.0075542708 0.026560534 0.18257411 -0.065518722 0.98100662 0.0063296524
-0.010489823 0.0075686495 0.025791449 0.25500104 -0.0041119312 0.966932 1.158232e-05
-0.0075420197 0.0074549918 0.025001202 0.25462085 0.017250836 0.96688706 0.00054025539
-0.0049726218 0.0072681513 0.024313241 0.25792363 0.07628303 0.96314913 0.0034594983
-0.045464713 0.010376944 0.02556402 -0.73182738 -0.0062986705 0.68146098 0.0026110031
-0.044412613 0.010727198 0.026590375 -0.68298459 0.010099826 0.73036295 0.0024293361
-0.013559669 0.010423479 0.026614482 0.18504977 -0.18760358 0.96465611 0.03736772
-0.010859717 0.010180257 0.025891066 -0.070115775 -0.47577199 0.87676954 0.072949462
-0.0080261687 0.0093266154 0.025130659 -0.0605698 -0.44547102 0.8932451 0.088738821
-0.046079114 0.013702772 0.024814334 -0.69787037 0.0048030913 0.71620792 0.0026207208
-0.044560596 0.013529454 0.026462574 -0.67619127 0.0065197907 0.73669732 0.0021438333
-0.013817201 0.013190125 0.026683465 -0.037693765 -0.31639278 0.94787908 0.060760055
-0.011982303 0.012077665 0.026191358 -0.43737277 -0.33118269 0.83607596 0.051149983
0.0079648215 0.012406405 0.025533864 0.58943146 -0.74307835 0.31686753 0.010142584
0.0096041802 0.014107969 0.026297256 0.71446902 -0.60333467 0.35428983 0.012270152
-0.04607182 0.016409036 0.024822831 -0.7918418 0.036119666 0.60965717 0.0072904709
-0.044417515 0.01653582 0.026589787 -0.59100246 -0.0083495826 0.80662656 0.0059452951
-0.014573392 0.015504558 0.026885344 -0.40706453 -0.39463049 0.82375073 0.036107101
0.011259294 0.015940377 0.025581446 0.79410028 -0.55436403 0.24916913 0.0040997337
0.012343409 0.017503979 0.025009265 0.83041084 -0.49683768 0.25213122 0.0020368847
-0.045896336 0.019442618 0.025052959 -0.7634486 0.022330442 0.64548254 0.0054529649
-0.044346448 0.019530952 0.026643628 -0.59446663 -0.0086722914 0.80407351 0.0047988202
0.013146578 0.019631876 0.025405753 0.89625627 -0.33555281 0.29004994 0.0063564065
-0.045805335 0.022452747 0.025167625 -0.74500602 0.078803256 0.66238666 0.0038039985
-0.044505715 0.022381125 0.026512219 -0.5949111 0.043012764 0.8026399 0.0037715312
0.013766171 0.022377459 0.025739646 0.94756985 -0.12915792 0.29228339 0.0080167102
-0.045736566 0.025169846 0.025029074 -0.76060385 0.090420075 0.64288872 0.0033260186
-0.044105049 0.025919201 0.026244164 -0.58611137 0.10498682 0.80339974 0.0039678458
0.014067754 0.02543781 0.025103301 0.96748757 0.042077668 0.24939373 0.0010723025
-0.045518689 0.028492128 0.024581635 -0.73233783 0.044375759 0.67949402 0.0049285344
-0.044004355 0.028482214 0.026115803 -0.63962668 0.075141065 0.76500428 0.01038655
0.013501431 0.028523099 0.025654929 0.91966289 0.25212231 0.30108881 0.0084117781
-0.045390122 0.031330109 0.024758156 -0.7313509 -0.020798882 0.68168414 0.001932801
-0.043899931 0.031444699 0.026210256 -0.72684228 -0.0041632191 0.68679172 0.0036942542
0.011795531 0.032575186 0.026118631 0.82678127 0.49673867 0.26397601 0.0055698152
0.012604829 0.031317629 0.025259553 0.86988753 0.42086515 0.25723174 0.0048458842
-0.045259353 0.034427859 0.024916677 -0.71983302 0.0010548652 0.69414651 0.0015424521
-0.043703835 0.034448143 0.026364116 -0.67058545 0.060015719 0.73940068 0.0090131909
0.010460573 0.034661103 0.025424831 0.72772479 0.62065363 0.29190016 0.0053496454
-0.045369182 0.037824739 0.024756949 -0.67937934 7.1686547e-05 0.73378724 0.0019670634
-0.043703157 0.037490152 0.0263128 -0.58739555 0.040251147 0.80829841 0.0028280788
0.0053186072 0.038675766 0.026003191 0.42842075 0.8621574 0.27044472 0.0034127904
0.0075617395 0.037431329 0.025389928 0.57708859 0.7622236 0.29323021 0.0058709895
0.0091696121 0.036236756 0.0249063 0.66533464 0.70343024 0.25003117 0.0029296833
-0.045416318 0.040560834 0.024651738 -0.61968714 -0.047606751 0.78340375 0.0039744815
-0.043610297 0.040448118 0.026115734 -0.56245172 0.014471781 0.82670343 0.0021690698
-0.0063229436 0.039799973 0.026847258 0.33163986 0.31233916 0.89020181 0.09919893
-0.0043777828 0.040849961 0.025455559 0.43994233 0.53281575 0.72288185 0.12075962
-0.0015708201 0.040459916 0.025433643 0.2102838 0.76080179 0.61397183 0.062900707
0.001483703 0.040100228 0.025512572 0.21652509 0.93600845 0.27749786 0.0031447557
0.0039774398 0.039414816 0.025359068 0.40089491 0.87331504 0.27677444 0.0032636698
-0.046169296 0.04364188 0.024463544 -0.53148019 -0.12451874 0.83786869 0.0043990505
-0.043865155 0.043537285 0.025877833 -0.55625868 -0.021310257 0.83073592 0.00086812343
-0.0039669252 0.043385938 0.025441902 0.75045031 0.024422294 0.66047549 0.030951148
-0.0026508959 0.044097554 0.024209909 0.5433585 0.048045918 0.83812481 0.023073437
-0.046379603 0.046517625 0.024496676 -0.44580087 0.012325145 0.89504731 0.0027207616
-0.043822315 0.046498355 0.025884395 -0.52661151 0.033195011 0.84945774 0.0034981321
-0.0037040801 0.046420842 0.025894225 0.72707188 -0.06211685 0.68374556 0.016584359
-0.0026226141 0.046596039 0.02449459 0.74119371 -0.071886085 0.66743106 0.0087009659
-0.046043277 0.049480226 0.02429973 -0.41555834 0.054871511 0.90790993 0.0013751183
-0.043774828 0.049493887 0.025631784 -0.55580175 0.056134537 0.82941747 0.0027273479
-0.0035551928 0.049510874 0.026020439 0.75919008 0.032212581 0.65007138 0.012199555
-0.002444231 0.049582802 0.024490038 0.76180106 0.011278291 0.64771289 0.0088321911
-0.046006557 0.052515656 0.02428004 -0.40208289 0.068366952 0.91304725 0.0018937696
-0.043824032 0.05252355 0.025467349 -0.54276705 0.075869054 0.83644944 0.0058910702
-0.041963957 0.053788524 0.026912495 -0.55836433 0.088308893 0.82488239 0.010848621
-0.0037103251 0.052740861 0.025827233 0.8161602 0.1465414 0.55893487 0.008764633
-0.0026763154 0.052245412 0.024482857 0.75835305 0.15621935 0.63284767 0.0099147689
-0.045632478 0.054864954 0.024182731 -0.4154363 0.23140951 0.8796944 0.0040219189
-0.043481383 0.055520706 0.025236603 -0.52223659 0.25581673 0.81352735 0.0083862366
-0.041557319 0.055906292 0.026694592 -0.57548153 0.17622265 0.79860288 0.017320272
-0.0041134772 0.055529479 0.025222063 0.80631745 0.27105024 0.52572221 0.012646141
-0.042936455 0.057952773 0.024646049 -0.51862776 0.41126317 0.74959183 0.0048075067
-0.041066479 0.058862995 0.025707988 -0.58569825 0.45588851 0.67016649 0.0052231732
-0.0063905818 0.059424371 0.025684284 0.70297176 0.53931707 0.46364614 0.0097547704
-0.0052798083 0.05813884 0.025076216 0.74583066 0.44248873 0.4979361 0.0075281598
-0.03990851 0.061048977 0.025016923 -0.58196121 0.59284276 0.55664945 0.0043899911
-0.038117863 0.062058091 0.025997415 -0.6103549 0.57658535 0.54315388 0.013798591
-0.0093104178 0.062724918 0.026344776 0.64154291 0.69121885 0.33262482 0.0085347267
-0.0077521284 0.061380714 0.025337951 0.6888724 0.58467597 0.42849606 0.0075528608
-0.037024748 0.063591354 0.025076156 -0.55988967 0.73092538 0.39021987 0.0049162274
-0.034653988 0.06501954 0.025500044 -0.45768541 0.81192809 0.362349 0.0047420352
-0.012692964 0.065554246 0.025522312 0.49269214 0.83607006 0.2413324 0.0052347286
-0.010546374 0.064037815 0.02537802 0.57710242 0.7418465 0.34149152 0.0088575548
-0.031564854 0.066626586 0.025408726 -0.38116497 0.88541871 0.2659829 0.010011021
-0.028432202 0.067682765 0.025528112 -0.21029592 0.90356946 0.37327993 0.043971345
-0.025544716 0.06825567 0.025184492 -0.13970281 0.94603378 0.29240945 0.023236156
-0.02251488 0.068478137 0.02550518 -0.0063955169 0.97771293 0.2098486 0.0040195407
-0.019794794 0.068237484 0.025471359 0.16428329 0.94083011 0.29639426 0.024445612
-0.016577257 0.06737911 0.025589691 0.29394507 0.91552663 0.27460384 0.028673913
-0.014226212 0.066384256 0.025626687 0.37703589 0.87650502 0.2993041 0.035635281
-0.028270319 -0.06645216 0.028513569 -0.00058714289 -0.00053323212 0.9999997 0
-0.025131533 -0.066791527 0.028513603 -0.0001826958 -0.0001651502 1 0
-0.022481591 -0.066747457 0.028513666 -0.032931045 -0.29077253 0.95622528 0.013794162
-0.019434495 -0.066691659 0.028513268 -0.0048459535 0.021876322 0.99974895 0.00017449468
-0.016775006 -0.066320792 0.028512778 -0.0074785817 0.019006586 0.99979138 0.00022564326
-0.033851024 -0.063439347 0.028513292 -0.00030629014 0.00025787047 0.99999994 4.6690434e-06
-0.031576686 -0.064177349 0.028513107 -2.9633813e-05 -4.6776318e-06 1 0
-0.028597273 -0.06464383 0.028513545 -0.12625144 -0.223977 0.96638232 0.020054759
-0.025558986 -0.064474128 0.028514132 -0.15010142 -0.3091135 0.93910509 0.024939967
-0.02224067 -0.064585462 0.028520761 -0.016045285 -0.30130985 0.95339125 0.034421626
-0.019413002 -0.064509049 0.028513499 0.17454293 -0.28067985 0.94379741 0.034601033
-0.016586078 -0.064367235 0.028513551 0.10956795 -0.18385758 0.97682714 0.02814029
-0.013711434 -0.064211674 0.028514214 -0.012066284 0.0097159892 0.99987996 0.00020576855
-0.01141603 -0.063429751 0.028514236 -4.5511771e-07 4.8409256e-05 1 0
-0.036530279 -0.060896646 0.028513033 -0.31394938 -0.2125292 0.92534703 0.044050209
-0.034496408 -0.06141701 0.02851334 -0.00042122364 0.00010644075 0.99999988 1.7465392e-06
-0.031641696 -0.061465621 0.028513405 0.0072227181 0.010746068 0.99991614 0.00010684616
-0.028855832 -0.061687969 0.028513271 -0.23479322 -0.1609896 0.95862114 0.034219217
-0.026959985 -0.062682025 0.028513312 -0.27123198 -0.19391622 0.94277769 0.02771643
-0.018519627 -0.061774816 0.028309444 0.33755541 -0.21624666 0.91612971 0.052765448
-0.016462736 -0.06152403 0.028513724 0.13793027 -0.02715659 0.99006957 0.039539948
-0.013598864 -0.061516639 0.028513707 6.3763728e-05 0.00012378657 1 0
-0.010846365 -0.061332583 0.028513687 0.29044944 -0.17944659 0.93991387 0.078216918
-0.0087958192 -0.060686246 0.028512621 0.46780756 -0.12334049 0.87518179 0.075564347
-0.039557848 -0.057881672 0.027770625 -0.49415782 -0.34305832 0.79882354 0.027482299
-0.037286028 -0.058459569 0.028506536 -0.40167579 -0.2397778 0.88383436 0.044343356
-0.034485016 -0.058359772 0.02851297 -0.00045151834 7.5795077e-05 0.99999988 4.8491302e-06
-0.031489264 -0.05861681 0.028513294 -0.11148402 0.011886683 0.99369508 0.021426983
-0.028730139 -0.058505595 0.028363675 -0.25224507 0.0072449883 0.96763629 0.033368357
-0.018389443 -0.058199234 0.02837302 0.58540481 0.024580821 0.81036842 0.031418748
-0.016416779 -0.058620084 0.028513864 0.14140266 -0.017942399 0.98978966 0.032249719
-0.01358025 -0.058428098 0.028513629 -0.0061686905 0.0036868579 0.99997425 0.00012459731
-0.010679047 -0.058553737 0.028513195 -0.00019776801 0.0023757271 0.99999714 9.8381715e-06
-0.007883192 -0.058366634 0.028513685 0.57363492 -0.36624187 0.73267311 0.063155673
-0.039838005 -0.055366907 0.02829208 -0.38624996 -0.14934333 0.9102239 0.030104822
-0.03735365 -0.055503722 0.028513251 -0.28724876 -0.17894019 0.94099337 0.018879825
-0.034522582 -0.055592168 0.028512841 -0.13393547 -0.25599343 0.95735508 0.02055377
-0.031512383 -0.055632569 0.02851297 0.1358982 -0.30825201 0.94154787 0.023991439
-0.028530406 -0.055330172 0.028424535 -0.22974215 0.083695613 0.96964616 0.074770644
-0.026495177 -0.054343868 0.028729917 -0.10553658 0.22665544 0.96824038 0.065190755
-0.018740537 -0.055219974 0.028729089 0.43144768 0.13671286 0.8917188 0.033187892
-0.016441006 -0.055595223 0.028513687 0.13416918 -0.21593533 0.96714556 0.03407754
-0.013563594 -0.055658989 0.028513366 0.00049514126 -0.23815186 0.97122782 0.042590138
-0.010606606 -0.055661306 0.028463185 0.17132142 -0.2066782 0.9632929 0.038716804
-0.0075406772 -0.055455696 0.028513396 0.39776722 -0.23849984 0.88594526 0.067697987
-0.0052645979 -0.054686897 0.028237939 0.51168299 -0.22432132 0.82937354 0.067239501
-0.040187389 -0.052514352 0.028330728 -0.43964958 -0.033741102 0.89753544 0.013087866
-0.037389919 -0.052499413 0.028513756 -0.32906777 -0.16762283 0.92930996 0.017361965
-0.027305044 -0.052768819 0.028274354 0.035852302 -0.086102754 0.99564093 0.09070535
-0.025370652 -0.052619088 0.028481141 -0.01670791 -0.025640706 0.99953157 0.080362365
-0.022414714 -0.05231037 0.02916356 -0.050396629 0.24054065 0.96932983 0.019241471
-0.019677544 -0.052683916 0.028771186 0.020475674 0.016453642 0.99965501 0.059789769
-0.01757866 -0.053849053 0.028513011 0.13931535 -0.23836276 0.96113181 0.043039866
-0.0098647419 -0.052754819 0.028009448 0.34419513 -0.17478888 0.92248499 0.074486263
-0.0075342054 -0.052398492 0.028514149 0.146018 0.032543194 0.98874652 0.0553363
-0.0050784857 -0.052334294 0.028426072 0.67331934 -0.098834187 0.73271602 0.041580454
-0.04034128 -0.049614325 0.028440243 -0.42815143 -0.040227141 0.90281123 0.015884716
-0.03775258 -0.049319547 0.028519752 -0.36924645 0.08667735 0.92528057 0.031107632
-0.027230496 -0.04952608 0.029899618 0.36877275 -0.012046767 0.92944157 0.027022084
-0.02546745 -0.049520921 0.029005688 0.22152758 0.052985568 0.97371358 0.042833265
-0.022533923 -0.049326517 0.028313596 0.048257168 -0.014240492 0.99873346 0.013403902
-0.01946025 -0.049296834 0.029269012 -0.25644213 0.0081814658 0.96652496 0.015118659
-0.017791271 -0.049248118 0.02998922 -0.34903124 0.0086121159 0.9370715 0.027665082
-0.0097304033 -0.049377359 0.027476674 0.50300515 -0.050079618 0.86283135 0.063297421
-0.0075268652 -0.049351502 0.028519442 0.1433381 -0.035563622 0.98903465 0.052748095
-0.0046970365 -0.049645752 0.028191576 0.62519509 -0.0019891949 0.78046596 0.038035255
-0.042196937 -0.046628229 0.027144978 -0.48691723 -0.019213255 0.87323672 0.012013333
-0.040440533 -0.046490893 0.028384706 -0.24732408 0.037094779 0.9682225 0.02714202
-0.037661493 -0.046439979 0.028467508 -0.24275629 0.090374261 0.96586847 0.034246586
-0.03569651 -0.045788046 0.027913492 -0.36677048 0.20150168 0.90822709 0.038076229
-0.03041086 -0.045040999 0.028692314 0.14936525 0.60015649 0.78581309 0.023523048
-0.028337307 -0.045522615 0.028934201 0.038779259 0.27189833 0.96154433 0.076614745
-0.025748743 -0.046859097 0.028809715 0.10880277 -0.1521201 0.98235506 0.029878326
-0.022367556 -0.046184119 0.029186659 -0.059039678 -0.28541008 0.95658523 0.012032364
-0.019423254 -0.046624556 0.028571622 -0.072989143 -0.060124304 0.99551874 0.054135393
-0.016711596 -0.045388069 0.028779341 -0.047139417 0.33694744 0.94034261 0.087022692
-0.014607972 -0.045006387 0.028672123 -0.1029764 0.59736139 0.79533339 0.018609026
-0.0099492557 -0.046333771 0.028705345 0.43861258 0.045493502 0.897524 0.065146886
-0.0075707226 -0.046367217 0.028514015 0.17982173 -0.04289861 0.98276341 0.046811409
-0.0048506432 -0.046743214 0.028282175 0.63527948 0.06753774 0.76932347 0.033593073
-0.042104878 -0.043532752 0.027201882 -0.45443088 0.019790998 0.89056218 0.0099410182
-0.040356517 -0.043411516 0.028268943 -0.33489844 0.017257886 0.94209617 0.010374796
-0.037696984 -0.043432187 0.028513728 -0.094986245 -0.0070718182 0.99545348 0.0093445266
-0.034434177 -0.043649964 0.028600145 -0.16425012 0.27592304 0.94704193 0.081919126
-0.031412683 -0.043614481 0.028532404 0.14092691 0.29184794 0.94602555 0.045873493
-0.028433716 -0.043550678 0.028513819 -0.0066931495 0.16490844 0.98628616 0.064597301
-0.025374115 -0.044714667 0.029237323 -0.066738904 -0.20224185 0.97705889 0.039803758
-0.022620171 -0.044498984 0.029948356 0.10290246 -0.34002295 0.93477029 0.021042258
-0.018577451 -0.043646071 0.028338986 0.25993744 0.047741923 0.96444452 0.07700447
-0.01634438 -0.043396682 0.028513433 0.10964464 0.28839663 0.95121264 0.054940946
-0.013460226 -0.043640118 0.028456822 -0.17834648 0.35382473 0.91815066 0.032659031
-0.010610916 -0.043577898 0.028554408 0.21741229 0.28429386 0.93376064 0.042226117
-0.0075155282 -0.043401778 0.028513974 0.20977528 0.12476947 0.96975613 0.027321691
-0.0052023618 -0.043676555 0.02810731 0.66838014 0.093590222 0.73790842 0.035040081
-0.042040154 -0.040785629 0.027189475 -0.50607449 0.064318433 0.86008823 0.0084671956
-0.040368162 -0.040449828 0.028070416 -0.33421117 0.022532806 0.94222879 0.0079474365
-0.037609253 -0.040513679 0.028510228 -0.12999618 0.028419383 0.99110711 0.0044287979
-0.034712523 -0.040592529 0.028513378 -0.032238774 0.12040421 0.99220127 0.019809483
-0.031528335 -0.040346995 0.028513258 0.0086806882 0.018947182 0.99978274 0.00014160479
-0.028604159 -0.040662531 0.028513337 -0.29594973 0.0061083278 0.95518392 0.015057911
-0.018344004 -0.040441353 0.028250644 0.43396327 -0.023689907 0.90061897 0.039318908
-0.0163204 -0.04037746 0.028513659 0.13350561 -0.016973114 0.99090272 0.031210458
-0.013448833 -0.040580694 0.028513273 -0.0039852764 0.004627144 0.99998134 0.00023985318
-0.010629335 -0.040536262 0.028514065 -0.006351796 0.057874206 0.99830365 0.018836377
-0.0074928985 -0.040412694 0.028361894 0.13608153 -0.1520061 0.97896677 0.053381424
-0.005096287 -0.040693372 0.027820617 0.45703575 -0.40758824 0.79056323 0.10676739
-0.0023200558 -0.039058685 0.029073209 -0.036474578 -0.37811449 0.92504001 0.030795727
-0.042551145 -0.037201762 0.027126038 -0.5734567 0.16103946 0.80325192 0.020806776
-0.040404696 -0.037440054 0.027837785 -0.36562347 0.053418402 0.9292286 0.019940358
-0.037514798 -0.037631046 0.028443916 -0.23452386 0.071349069 0.96948844 0.015288709
-0.034651529 -0.037562799 0.02851316 -0.04283645 -0.013002229 0.99899739 0.0022860966
-0.031473741 -0.037321892 0.028513398 0.014842875 -0.0062634461 0.99987024 0.00016725301
-0.028438728 -0.03765782 0.028409053 -0.20197178 0.14297974 0.96889842 0.035421476
-0.025427774 -0.036561653 0.02851457 -0.14123467 0.30360821 0.94227105 0.044156771
-0.022384278 -0.036268409 0.028603552 0.022357609 0.45315331 0.8911522 0.043280419
-0.019072857 -0.036972906 0.028640809 0.2956965 0.16067226 0.94167298 0.062084772
-0.016361898 -0.037329204 0.028513739 0.11081032 -0.0090105506 0.9938007 0.03309669
-0.013454709 -0.037632924 0.028513664 -0.099837378 -0.076804914 0.99203503 0.0045090322
-0.01067519 -0.037611734 0.028593387 -0.083290838 -0.16803469 0.982256 0.0056915218
-0.0077318265 -0.037424006 0.029095389 -0.067668736 -0.26580241 0.96164966 0.0047876728
-0.0044997875 -0.037771761 0.029467501 -0.056006189 -0.3711246 0.92689258 0.03455871
-0.0012920166 -0.037775341 0.029582964 0.040882163 -0.57921642 0.81414795 0.010249687
0.0013437249 -0.037660282 0.029494917 0.071403906 -0.30897054 0.94838738 0.001642034
0.0041706176 -0.037130181 0.029333051 0.29002273 -0.52202666 0.80210662 0.019169776
0.006364306 -0.036585838 0.029108895 0.35143134 -0.45368779 0.81894046 0.019873668
-0.042079087 -0.033297513 0.028504206 -0.70968872 -0.15719727 0.68675393 0.05602758
-0.040099133 -0.034005567 0.028171653 -0.13853826 -0.26306674 0.95477909 0.025731115
-0.037255872 -0.034557272 0.028622922 -0.169709 -0.11711698 0.97851032 0.014555267
-0.034545191 -0.034473766 0.028686035 -0.012332858 -0.05383832 0.99847347 0.0029402785
-0.031641591 -0.034371749 0.02851331 0.02901921 -0.033554096 0.99901551 0.00077863049
-0.028502041 -0.03456758 0.028513517 -0.089864314 0.10469461 0.99043602 0.028050581
-0.025397727 -0.03445955 0.028514354 -0.030115528 0.14096852 0.98955595 0.034351118
-0.022583449 -0.034296803 0.028520264 0.0088296803 0.16069677 0.98696429 0.03365938
-0.019640973 -0.034577817 0.028514042 0.030732224 0.14355125 0.9891656 0.029793652
-0.016557194 -0.03439657 0.028513931 0.046344485 0.05722449 0.99728507 0.033990704
-0.013397885 -0.034563314 0.028699575 -0.16697462 -0.15772159 0.97326428 0.0064548701
-0.010596213 -0.034846906 0.029435791 -0.16051377 -0.19268982 0.96804237 0.0029884847
-0.0083944872 -0.035688676 0.029702941 -0.12195296 -0.20359762 0.97142965 0.0031678476
0.0049035866 -0.035542522 0.029761041 0.16396834 -0.28493935 0.94441718 0.00086049439
0.0074484805 -0.034479249 0.029507427 0.38518441 -0.37795362 0.84189314 0.024956891
0.0097260764 -0.033588436 0.028806129 0.62408578 -0.43872365 0.64655894 0.029538501
-0.042205386 -0.031594343 0.02849062 -0.70377731 0.060420163 0.7078467 0.056094788
-0.040254287 -0.031535003 0.028674876 -0.1868552 0.038224958 0.98164356 0.052339815
-0.037281755 -0.031548794 0.02900723 -0.0648375 0.039576046 0.99711066 0.0058817863
-0.034401875 -0.031340621 0.029001046 0.013909384 0.022839604 0.99964243 0.0029566698
-0.031649105 -0.031323791 0.028526522 0.050811999 0.0060988702 0.99868959 0.001080757
-0.028503614 -0.031596784 0.028513776 0.00067526457 0.00013361784 0.99999976 3.3295858e-06
-0.0253559 -0.031465508 0.028513761 0.00079458271 0.0013086309 0.99999881 1.7650725e-06
-0.022502195 -0.031375788 0.028512673 0.0042465525 0.0098142326 0.99994284 4.5253433e-05
-0.019658977 -0.031643897 0.028512171 -0.0010329613 0.011436118 0.99993408 9.0182446e-05
-0.016638961 -0.031491973 0.028494766 -0.16916023 -0.066356592 0.98335218 0.0077475994
-0.013505201 -0.031417307 0.029449258 -0.26721299 -0.14808723 0.95219088 0.004421568
-0.011439205 -0.03241466 0.029916042 -0.26710191 -0.22639339 0.93669766 0.00086680014
0.0085343551 -0.032134555 0.029838515 0.2263331 -0.15813707 0.96112746 0.014911417
0.01032959 -0.031289835 0.029388785 0.48890939 -0.2984066 0.81970799 0.024210431
-0.039939452 -0.029032473 0.027928079 -0.4072459 0.16598453 0.89810908 0.044300266
-0.037529379 -0.028761461 0.028297884 -0.24375631 0.1626564 0.95609921 0.016861595
-0.034453396 -0.028520977 0.028575482 -0.045000374 0.036329955 0.99832618 0.0052562673
-0.031597923 -0.028339744 0.028513767 0.027805179 -0.027140148 0.99924487 0.0019006507
-0.028455514 -0.028610261 0.028513601 0.0016104537 -0.017646303 0.999843 0.00013401301
-0.025314502 -0.028483823 0.028512098 0.013135318 -0.018726615 0.99973834 0.00011221314
-0.02242633 -0.028351586 0.028493084 0.013183185 0.0048258784 0.99990147 0.00041312375
-0.019644279 -0.028695412 0.028442537 -0.07666041 0.0029236679 0.99705297 0.0062671509
-0.016863484 -0.028563395 0.028530898 -0.23986138 -0.029422835 0.97036117 0.0070721344
-0.014380278 -0.028583206 0.029636933 -0.34920964 -0.10836893 0.93075711 0.002050692
0.005897949 -0.029790562 0.029938594 0.058288179 0.01800766 0.99813735 0.013329751
0.0067112613 -0.028579794 0.029879915 0.073767342 -0.014099715 0.99717587 0.01520788
0.011107012 -0.028520232 0.029601602 0.30098662 -0.051764634 0.95222235 0.013891989
0.012692283 -0.028203759 0.028515127 0.7847845 -0.2895045 0.54799676 0.020553295
-0.042793147 -0.02457954 0.027618129 -0.51485872 -0.30528903 0.80107367 0.01017051
-0.040510237 -0.02496892 0.028202305 -0.34295377 -0.20952776 0.91568601 0.02077697
-0.03746194 -0.025684841 0.028491095 -0.22629251 -0.18148352 0.9570033 0.017287418
-0.034489468 -0.02543865 0.028689491 -0.019656578 -0.085054524 0.99618238 0.00070239254
-0.031568311 -0.025540439 0.02864725 0.00031725201 -0.07172437 0.99742448 0.00057607354
-0.028472606 -0.025669428 0.028699877 0.013179991 -0.092424534 0.99563247 0.00040925559
-0.025529535 -0.025510767 0.028628966 0.035149854 -0.095204979 0.99483687 0.0010788393
-0.022578327 -0.025498934 0.028544439 0.047569692 -0.044986621 0.99785441 0.0035086332
-0.019646436 -0.025496412 0.028285334 -0.063079506 -0.015320485 0.99789089 0.013123282
-0.016811423 -0.025556505 0.028607123 -0.30215347 0.012492374 0.95317739 0.0064077857
-0.014588159 -0.025665779 0.029812789 -0.42890859 -0.018260175 0.90316331 0.00099121395
0.0075310227 -0.026159197 0.029927885 0.03653216 -0.033515625 0.9987703 0.01207401
0.011397967 -0.025450226 0.029745011 0.38204545 -0.043077156 0.92313904 0.0051691942
0.01291301 -0.02540506 0.028851043 0.7529794 -0.04714084 0.65635335 0.028329942
-0.042897359 -0.022310594 0.02765717 -0.52748454 -0.091754772 0.84459525 0.0086746179
-0.040583629 -0.022464259 0.028613362 -0.27065587 -0.064232334 0.960531 0.0060151252
-0.03752223 -0.022600278 0.029035566 -0.11970437 -0.077618338 0.98977077 0.0032679837
-0.034388099 -0.022414034 0.029070182 -0.010464886 -0.056178283 0.99836594 0.0011578643
-0.031380393 -0.0225989 0.029056173 -0.0036428103 -0.068779312 0.99762523 0.00054949021
-0.028505554 -0.022572055 0.029080741 0.0092686303 -0.067980491 0.99764365 0.00067889178
-0.025602715 -0.02240137 0.029059114 0.013209571 -0.076531276 0.99697965 0.0008188397
-0.022527954 -0.022585062 0.029091174 0.11462615 -0.04482045 0.99239701 0.0029412957
-0.01918494 -0.022288475 0.02815732 -0.017603032 0.0038948262 0.99983752 0.019887296
-0.016437858 -0.02249038 0.028622448 -0.31788039 0.058829647 0.9463039 0.0091743935
-0.014525601 -0.022372283 0.029815247 -0.31831646 0.077032082 0.94484955 0.016508171
-0.010827316 -0.021911906 0.029920634 -0.13186987 0.12290785 0.98361778 0.016029863
0.0075051691 -0.022362936 0.029952139 0.084806956 -0.0032788408 0.99639201 0.016528893
0.011327677 -0.022460921 0.029746769 0.32350323 0.062871903 0.94413596 0.014292356
0.012929751 -0.022645416 0.028772263 0.74702948 0.0007922927 0.66479033 0.026791714
-0.043158911 -0.019424142 0.027483048 -0.51120543 0.0020166177 0.85945612 0.0041399607
-0.040550772 -0.019430585 0.028624784 -0.30718431 -0.00027447083 0.95164996 0.0057792468
-0.037512902 -0.01961684 0.029049596 -0.13491838 -0.0025019441 0.99085361 0.0050663208
-0.034539003 -0.019562563 0.029080797 -0.001343074 -0.024711236 0.99969369 0.00051525806
-0.031448994 -0.019401334 0.029067671 -0.0015857328 -0.00019839473 0.99999875 1.1287473e-05
-0.028456643 -0.019623026 0.029084111 -0.0020203576 -0.0015057942 0.99999684 1.1585187e-05
-0.025559317 -0.01945583 0.02906375 -0.003280408 -0.0015947374 0.99999332 1.4282849e-05
-0.022458233 -0.01948807 0.029112641 0.10490787 -0.0068803462 0.9944582 0.0041124336
-0.01934455 -0.019467754 0.028217036 0.052060977 0.064180627 0.99657947 0.026189938
-0.016445143 -0.019424831 0.028073244 -0.20137654 0.19369701 0.96017128 0.033013351
-0.014164588 -0.019341411 0.029639585 -0.34627545 0.10180691 0.93259245 0.016139347
-0.0096952552 -0.019393126 0.029943569 -0.057508901 0.061722845 0.99643517 0.013472685
0.0058310828 -0.018696364 0.029985907 0.15184794 0.13734049 0.9788155 0.022550387
0.006650914 -0.019830026 0.029899579 0.10626839 0.059638053 0.99254745 0.02056947
0.011017346 -0.019389523 0.029559446 0.34880817 0.20932192 0.91351914 0.020695012
0.012591471 -0.019750342 0.028435618 0.8044461 0.26834503 0.52995986 0.022938389
-0.043066155 -0.016442046 0.027539223 -0.50146246 -0.0017469862 0.86517763 0.0036604679
-0.040472314 -0.016469978 0.028647959 -0.30649194 -0.0033909434 0.95186722 0.0051289233
-0.037546523 -0.016641408 0.029085504 -0.12992598 0.0017016403 0.99152225 0.0051071146
-0.034596398 -0.016550025 0.029044082 -0.00071760884 9.7413787e-05 0.9999997 5.1905594e-05
-0.031428717 -0.016344458 0.029076727 -0.0073483209 0.00021926257 0.999973 1.207999e-05
-0.028407188 -0.016684646 0.029090421 0.0041164048 -0.00030488285 0.99999142 1.564517e-05
-0.025518665 -0.016525896 0.029057708 -0.0028657701 -0.00072852959 0.99999559 4.4497276e-05
-0.022346932 -0.016365815 0.029114207 0.13298243 -0.018122619 0.99095267 0.0034180998
-0.019536851 -0.016492637 0.028267611 0.25534692 0.041490871 0.96595883 0.0021600993
-0.016648076 -0.016412441 0.027409762 -0.0084699607 0.23602732 0.97170949 0.045151919
-0.013585555 -0.016604608 0.029213523 -0.47445586 0.34976831 0.80780792 0.011688273
-0.011570507 -0.015700972 0.029783426 -0.22844358 0.17069934 0.95847553 0.011292529
-0.0072760587 -0.016712045 0.029934734 -0.044553638 0.061836626 0.99709141 0.013410645
-0.0049635628 -0.015402047 0.029922049 -0.072739258 0.11077328 0.99118024 0.0099412799
0.0011185764 -0.015282336 0.029923461 0.06700673 0.164423 0.98411131 0.014980758
0.0033298123 -0.016283922 0.029934786 0.13466795 0.14467503 0.98027223 0.01950819
0.0081845997 -0.015785415 0.029806517 0.22981852 0.18609677 0.95527554 0.020058516
0.010268661 -0.016546197 0.029067915 0.5941931 0.38127652 0.70821089 0.016833017
0.012054678 -0.01767676 0.027639629 0.74513149 0.36990443 0.55493224 0.023770433
-0.042974669 -0.013473732 0.027592113 -0.49246094 -0.0021513463 0.87033194 0.0034372257
-0.040394425 -0.013521799 0.028670149 -0.29951316 0.0030380154 0.95408732 0.0048529278
-0.037452389 -0.013531989 0.029090868 -0.12546217 6.2253202e-05 0.99209839 0.0049821674
-0.034482408 -0.013581288 0.029014327 -0.0244985 -0.0011343592 0.99969923 0.0006996991
-0.031363573 -0.013393062 0.029093767 -0.0082952958 0.0024970211 0.99996245 3.2377779e-05
-0.028414797 -0.013573558 0.029099228 0.0019675854 0.00032865829 0.99999803 1.7795974e-05
-0.02547935 -0.013543372 0.029042933 -0.00091627723 0.0011170179 0.99999899 3.2172433e-05
-0.022384675 -0.013407505 0.029095609 0.128727 -0.017400293 0.99152744 0.0031150228
-0.019532545 -0.013477456 0.028242614 0.27870277 0.0047657778 0.96036559 5.4352127e-05
-0.016628606 -0.013582819 0.027393494 0.1467119 0.041574933 0.98830521 0.030260788
-0.012575957 -0.014201286 0.028639518 -0.47772279 0.46275902 0.74674964 0.013971303
-0.010456405 -0.013426025 0.029327789 -0.36922002 0.46116701 0.80684668 0.011462586
-0.0076221195 -0.012596943 0.02977447 -0.14185219 0.31336963 0.93897676 0.018828997
-0.005804948 -0.012018379 0.029851623 -0.092019491 0.26110792 0.96091372 0.014057797
0.0019326383 -0.012060617 0.029924834 0.097539663 0.31320935 0.9446618 0.012907293
0.0046769627 -0.01267826 0.029717207 0.21152687 0.30410796 0.92885673 0.01554664
0.0075409925 -0.013400549 0.02909998 0.44358033 0.51860207 0.73095036 0.017525127
0.0096979365 -0.014318711 0.02817901 0.63061041 0.52183723 0.57447064 0.020798493
-0.042883907 -0.010518396 0.027643574 -0.48664862 0.003744167 0.87358969 0.003168575
-0.040362861 -0.010525795 0.028678648 -0.29154786 0.0021375816 0.95655382 0.0046965578
-0.037296753 -0.010386891 0.02909408 -0.12269918 -0.0056136656 0.99242806 0.0046365266
-0.034470957 -0.010626139 0.029059591 -0.022345269 -0.00019205727 0.99975032 0.00074052758
-0.031524602 -0.010586797 0.029082213 -0.0061159381 0.0018450987 0.99997956 3.2178159e-05
-0.02841921 -0.010335824 0.029078739 0.0016777341 0.0017108417 0.99999714 1.7835981e-05
-0.025434187 -0.010629429 0.029057203 0.045455322 0.0024386412 0.99896342 0.0023027051
-0.022564651 -0.010566923 0.029103508 0.12796104 0.019207586 0.99159318 0.0029892046
-0.01971047 -0.010508395 0.028349232 0.22725686 0.00051825464 0.97383475 0.0030764509
-0.016606908 -0.010678138 0.027384769 0.28151149 0.05664945 0.95788419 0.006655741
-0.0097207576 -0.011518792 0.028279413 -0.32841071 0.65189594 0.68350434 0.020345453
-0.0074219867 -0.010769128 0.028765516 -0.27413389 0.71269137 0.64569461 0.016729491
-0.0044805296 -0.010429231 0.029156374 -0.1450669 0.66470999 0.73288214 0.013143978
-0.001437524 -0.010227752 0.029213946 0.072580062 0.6835593 0.72627735 0.02563799
0.0014571374 -0.01030024 0.028985262 0.15977901 0.74276376 0.65020967 0.021243922
0.0044379029 -0.010750965 0.028535364 0.33342299 0.74934006 0.57211751 0.022870436
0.006567128 -0.011537203 0.028079493 0.46857449 0.71205223 0.52289534 0.02704739
-0.042793371 -0.0075753168 0.027695378 -0.51693463 0.0024726239 0.85602134 0.0052415226
-0.040287986 -0.0075949989 0.028703911 -0.30093446 -0.002687443 0.95364106 0.0060471199
-0.037357051 -0.0073120752 0.029091157 -0.12096944 -0.0014085114 0.99265522 0.0041077347
-0.034531739 -0.0075807697 0.029070137 -0.020831393 -0.00053335039 0.99978286 0.00066025485
-0.031531382 -0.0075725797 0.02902491 -0.0015263924 0.0012261771 0.99999803 1.6306503e-05
-0.028440351 -0.0074043781 0.029075855 -0.0014966866 -0.00039122906 0.99999881 2.7101161e-05
-0.025513003 -0.0075949207 0.029068198 0.047622677 -2.4375198e-05 0.99886543 0.0025200681
-0.022646144 -0.0075975005 0.02907622 0.095100291 0.00074634264 0.99546742 0.0031804333
-0.019658625 -0.0075061475 0.028316723 0.32739747 0.01580536 0.94475454 0.0059091137
-0.016646268 -0.0075799068 0.027390629 0.31633219 0.062139776 0.94661111 0.0093419701
-0.0014906446 -0.008996686 0.027782243 0.0083940299 0.8549031 0.51871985 0.015319381
-0.042791735 -0.0046266066 0.027699186 -0.52641428 -0.0060994122 0.85020626 0.0054361457
-0.040543195 -0.0045131766 0.028642016 -0.29576796 0.0019744227 0.95525771 0.0056307595
-0.0375163 -0.0044786474 0.029071283 -0.12118866 0.0042506703 0.99262035 0.0038904387
-0.034341414 -0.0044109966 0.029077617 0.0016666788 -0.00065187336 0.99999845 3.1174688e-05
-0.03156846 -0.0045847036 0.029072316 0.00037306696 -0.0037702774 0.99999279 1.8605087e-05
-0.028444625 -0.0045378148 0.0290782 -0.0026364659 -0.0013609428 0.99999565 3.6563433e-05
-0.025342047 -0.0044347271 0.02908108 0.045106325 0.0011006431 0.9989816 0.0023546275
-0.022663757 -0.0045815166 0.029105498 0.094045579 -0.0024981778 0.99556476 0.003122193
-0.019706253 -0.0044424697 0.028343573 0.30811599 -0.0031879449 0.95134342 0.0026445834
-0.016737828 -0.0042754216 0.027417159 0.35245839 -0.01298567 0.93573743 0.012307531
-0.042937543 -0.0015089519 0.02763176 -0.52269799 0.0022116508 0.85251504 0.0045868768
