# .PCD v0.7 - Point Cloud Data file format
VERSION 0.7
FIELDS x y z normal_x normal_y normal_z curvature
SIZE 4 4 4 4 4 4 4
TYPE F F F F F F F
COUNT 1 1 1 1 1 1 1
WIDTH 571
HEIGHT 1
VIEWPOINT 0 0 0 1 0 0 0
POINTS 571
DATA ascii
0.01347225 0.078534365 -0.0015015573 -0.18562394 0.98262 -0.0013342004 0.0035801146
0.016396342 0.079084277 -0.0015212544 -0.14704061 0.98242354 0.11499151 0.0037374301
0.019472258 0.079492591 -0.0015546253 -0.10506726 0.97537696 0.1939088 0.0036753546
0.022509981 0.079721093 -0.0015223469 -0.048116915 0.95274192 0.29994592 0.0047211749
0.025480522 0.079797134 -0.0015256718 -0.0063346489 0.93605173 0.35180524 0.003308448
0.02850174 0.079664476 -0.0015170777 0.099589646 0.87370473 0.47615328 0.0024251556
0.031522304 0.079224817 -0.001517857 0.19510801 0.82115382 0.53632009 0.0039193085
0.03420816 0.078797549 -0.0021129204 0.33523887 0.76858348 0.54488015 0.0045308196
0.036352918 0.078215852 -0.002759187 0.43665591 0.69827688 0.56722224 0.0039162785
-0.051334683 0.05761975 0.0017778188 -0.30295363 0.91023248 -0.2823045 0.0035562722
-0.049614862 0.057581544 0.0014763846 -0.24164931 0.91655123 -0.31865251 0.0065713753
-0.0465267 0.058949742 0.001529674 -0.31240529 0.85868514 -0.40627915 0.0030805438
-0.043707937 0.059649989 0.00093012821 -0.26932791 0.88439441 -0.38119408 0.003236854
-0.041447397 0.059903786 0.00029869413 -0.17590807 0.9108966 -0.37326095 0.00043231022
0.039174169 0.05978198 0.0017944251 0.57415074 0.081287265 0.81470442 0.00061054312
-0.043190598 0.060278513 0.0023483299 -0.24354602 0.91026604 -0.33481511 0.00018730189
-0.040388603 0.060607031 0.0015363006 -0.19193369 0.90528524 -0.37897247 0.0001770254
-0.037459623 0.061204374 0.0015159255 -0.18558866 0.89478898 -0.4060905 0.00053621671
-0.034506448 0.061793458 0.0015305785 -0.17022334 0.87801123 -0.44734809 0.00057984673
-0.031657405 0.062245466 0.0013585294 -0.15296148 0.85859221 -0.48930782 0.00053643249
-0.028668979 0.062463768 0.00085656147 -0.13830477 0.83540112 -0.53195554 0.0004940792
-0.025643039 0.062693536 0.00040236331 -0.13623987 0.80680633 -0.57489318 0.00049276353
-0.023292458 0.062849775 7.3276213e-05 -0.13718304 0.77766746 -0.61352593 0.00027079828
0.038088802 0.060532566 0.0024303666 0.56237227 0.093605645 0.82156885 0.00044679706
-0.030738395 0.063191123 0.0026939283 -0.18488991 0.85397184 -0.48636183 0.00034180857
-0.028260345 0.063483231 0.0023086444 -0.17570199 0.83127838 -0.52735674 0.00033078872
-0.02534497 0.06380251 0.0018901007 -0.15688494 0.79987019 -0.57930541 0.00032164386
-0.022478329 0.064192273 0.0015981724 -0.16032304 0.7750628 -0.61120719 0.00018876178
-0.019647619 0.064730398 0.0014221841 -0.20716828 0.74375659 -0.63553715 0.00041798205
-0.016787278 0.065156959 0.00093989464 -0.23723224 0.70796233 -0.66521442 0.00041900898
-0.014206915 0.065599553 0.00042516208 -0.28509635 0.68166947 -0.67382997 0.00056079566
0.040204719 0.065192312 0.00031704945 0.61506754 0.15215991 0.77365321 0.0006057219
-0.018573143 0.066272788 0.0028476305 -0.23578979 0.74055976 -0.62926507 0.00023070574
-0.01637985 0.066591218 0.0023765564 -0.26155326 0.71638626 -0.64682347 0.00038523594
-0.013484252 0.067186132 0.001756547 -0.3105821 0.69197166 -0.65170085 0.00079698616
-0.010794061 0.06774237 0.00095817039 -0.35600844 0.65541917 -0.66609597 0.00035205923
-0.0084862132 0.068443172 0.00034456694 -0.42048505 0.63511449 -0.64793676 0.00041022411
0.037589967 0.066415779 0.0018800511 0.5411523 0.14939988 0.82754689 0.00035005377
0.039389715 0.066128135 0.00077577098 0.60645962 0.17042241 0.77663571 0.0004331783
-0.010158552 0.069442324 0.0023236265 -0.37801296 0.68381464 -0.62410241 0.00067904859
-0.0074692005 0.070321374 0.0015742125 -0.43660522 0.69676065 -0.56912255 0.0015765651
-0.0051167384 0.07137645 0.00095323642 -0.44901624 0.72056162 -0.52837044 0.003135286
0.035358399 0.070096485 0.0025320472 0.51268476 0.20482992 0.83378595 0.00033521329
0.03759886 0.069964625 0.0011469277 0.55260259 0.21479706 0.8052904 0.00048583103
0.039281435 0.069259591 0.00013694359 0.58082443 0.20603885 0.78752208 0.00050532684
-0.0060017668 0.072268233 0.0028401022 -0.44331408 0.72683722 -0.52457631 0.0030943777
-0.0040800003 0.072784856 0.0019521781 -0.43100691 0.7574085 -0.49047467 0.0033091698
-0.0014735757 0.073980995 0.0014638555 -0.43831307 0.8214308 -0.36487386 0.0019241287
0.00064972427 0.074679308 0.00055967405 -0.39818165 0.86376637 -0.30880243 0.0036852446
0.032407299 0.074406251 0.0026600373 0.38101044 0.46395063 0.79973799 0.0034701964
0.034504812 0.073598288 0.0019487791 0.43162218 0.36507201 0.82487857 0.0045354147
0.037138689 0.073256887 0.00051171676 0.52708131 0.34360334 0.77725291 0.002841942
-0.00043471725 0.075031646 0.0028577207 -0.38127366 0.86169302 -0.33483642 0.0035618129
0.0016558548 0.075526543 0.0017306388 -0.31868589 0.91428751 -0.25003552 0.0040943786
0.0044954731 0.076469019 0.0015059848 -0.28789473 0.94793165 -0.13616988 0.0032445267
0.0075432155 0.077294499 0.0015032693 -0.23661572 0.97031969 -0.049928449 0.0042206054
0.010113855 0.07782416 0.0015756418 -0.15274148 0.98674834 0.054752015 0.0014293877
0.012140849 0.077960826 0.0029137894 -0.097153001 0.98703569 0.12775674 0.0020846038
0.023157408 0.077799186 0.0027976187 0.10397363 0.86184162 0.49640572 0.0041022371
0.025689116 0.07759767 0.0023998944 0.17071134 0.81520152 0.55344754 0.0033823887
0.028612543 0.077134468 0.0020114668 0.22632983 0.74356663 0.62919271 0.0027488677
0.031457219 0.076608643 0.0014556947 0.27044088 0.64058304 0.71868992 0.003141029
0.034224674 0.076005876 0.0006934572 0.41407648 0.55242002 0.72344506 0.0031491572
0.036162984 0.075267613 0.00015889799 0.46190524 0.53180099 0.70981073 0.0022708883
0.011535035 0.078099594 0.0012195453 -0.14630774 0.98471069 0.094546519 0.0035831747
0.013528942 0.078338213 0.0014174745 -0.097364411 0.98712248 0.12692286 0.0020960805
0.016507439 0.078576267 0.001506086 -0.081936404 0.97128224 0.22337729 0.0030894396
0.019488618 0.078675799 0.0014573713 -0.0053824089 0.94766444 0.31922275 0.0036257408
0.02244471 0.078646518 0.001311925 0.04348845 0.90932083 0.41381696 0.003346876
0.025446184 0.078569591 0.00098153751 0.089968957 0.85710633 0.50722224 0.0040745488
0.028182765 0.078428514 0.00056958152 0.15340213 0.79447979 0.58759654 0.0041123354
0.030266138 0.078211218 0.00027846577 0.23751293 0.72433394 0.64724636 0.003330861
-0.051393487 0.058345996 0.0046197358 -0.37488011 0.8807196 -0.28947866 0.0055519049
-0.04967114 0.05868667 0.0043775332 -0.37161028 0.8879261 -0.27109611 0.0061330455
-0.047145728 0.059791066 0.0039729914 -0.31552535 0.88280803 -0.34798509 0.0011023368
0.034366507 0.059161652 0.0048191776 0.50789636 0.10762214 0.85466874 3.0391e-05
-0.048149023 0.06009702 0.0058960021 -0.39989957 0.89665461 -0.18997557 0.005891365
-0.046130419 0.060354069 0.0048519615 -0.29597175 0.89748573 -0.32698643 0.0010493454
-0.043526676 0.060976967 0.0045410488 -0.24963669 0.91072142 -0.32904103 0.00030340991
-0.040506557 0.061759066 0.0044765808 -0.2329279 0.90405273 -0.35837576 0.00034601492
-0.037648149 0.062386028 0.0042581977 -0.21928887 0.89514321 -0.38811225 0.00040140102
-0.034810632 0.062762544 0.003520655 -0.19727992 0.88216847 -0.42762047 0.00033716753
0.036525786 0.060175419 0.0034219387 0.52653337 0.11328837 0.84257245 0.0002347125
-0.036847979 0.063167818 0.0055615678 -0.24227059 0.89121002 -0.38347065 0.00015437091
-0.034399886 0.063483402 0.0048180148 -0.2199029 0.87976086 -0.42150155 0.00031189865
-0.031568188 0.064008117 0.0044913511 -0.21227197 0.86541271 -0.45387381 0.00055576162
-0.028581109 0.064777486 0.0045054299 -0.21511944 0.84865957 -0.48321891 0.0008943018
-0.02573375 0.06525097 0.0041396511 -0.21047309 0.82511377 -0.52429789 0.0010179097
-0.022887729 0.065601788 0.0035555579 -0.21260343 0.7834416 -0.58396834 0.00049142027
-0.020922525 0.065709688 0.0030725955 -0.22176215 0.75643402 -0.61532849 0.00038390313
0.031898476 0.065436617 0.0054689921 0.48450944 0.17982134 0.85610455 6.3881242e-05
0.033270903 0.065859221 0.0045940066 0.4953436 0.17321417 0.85125303 7.2441559e-05
-0.025254153 0.066307336 0.0055664056 -0.23616795 0.83220959 -0.50164908 0.00077807717
-0.022443004 0.066752583 0.0049781101 -0.24295107 0.80645204 -0.53908247 0.0011835393
-0.019569919 0.067320459 0.0045451648 -0.23661226 0.79421264 -0.55967939 0.0015467971
-0.016798424 0.068032689 0.0041941106 -0.28988647 0.7675705 -0.57166559 0.0016704171
-0.014289419 0.068437368 0.0034583856 -0.32273212 0.70740694 -0.62882382 0.00052102015
0.030839223 0.06874498 0.0054066023 0.47265881 0.19517304 0.85936087 0.00040176263
0.034849748 0.066299655 0.0035897642 0.50745654 0.16206697 0.84629905 7.9717589e-05
-0.015728328 0.069481544 0.0055584884 -0.2995387 0.79167151 -0.53247809 0.0018323089
-0.013315164 0.069870941 0.0047154683 -0.33190626 0.7729224 -0.54076737 0.0022395586
-0.010591791 0.070927083 0.0044498583 -0.36776054 0.79110897 -0.4887726 0.0021243836
-0.0082608834 0.071591169 0.0036795582 -0.38040379 0.80124742 -0.46183935 0.0042027961
0.029339507 0.071088992 0.0056725773 0.43473616 0.32696685 0.83910501 0.0029455915
0.031633265 0.070728309 0.0044726962 0.45831299 0.29517144 0.83834541 0.0010307119
0.033805296 0.069703676 0.00351636 0.48198578 0.21732083 0.8488 0.00079885212
-0.0092293452 0.072211891 0.0055944994 -0.39169541 0.81216514 -0.43239158 0.003679984
-0.0071947342 0.072709076 0.0047508064 -0.36957887 0.84730422 -0.38142735 0.0062060845
-0.0044749184 0.073803663 0.0044895015 -0.36062273 0.89518195 -0.26191705 0.0038042094
-0.0022041989 0.074670069 0.0041214093 -0.37413642 0.90267485 -0.21260308 0.0043397732
0.025926538 0.074351594 0.0055995528 0.3488313 0.50568497 0.78904969 0.0030071221
0.02852401 0.07375177 0.0048322817 0.35097766 0.48471546 0.80116522 0.003417671
0.031180136 0.073491454 0.0037033025 0.38412145 0.43564591 0.81404138 0.0025447533
0.033419434 0.072346725 0.0030797313 0.45012853 0.33377925 0.82823646 0.0020598937
-0.00090928766 0.07531023 0.0048220842 -0.32125461 0.9364019 -0.14123343 0.0033705831
0.0015466276 0.075997658 0.0044477521 -0.29271275 0.94718862 -0.13096914 0.0023210379
0.0045177308 0.076691724 0.0045258305 -0.21901865 0.97568011 0.008903251 0.0049022855
0.0075188885 0.077181078 0.0045331316 -0.14130947 0.98261905 0.12038032 0.0041856868
0.010528189 0.077492811 0.0044885315 -0.098176785 0.96524388 0.24220987 0.0052706865
0.013508417 0.077586718 0.0046007414 -0.034192104 0.95843017 0.28327122 0.0024528836
0.016561039 0.077415973 0.0047792946 0.074064068 0.9003036 0.4289147 0.0028400752
0.019612107 0.07721398 0.0045654178 0.11832289 0.85791487 0.49998179 0.001862282
0.022440912 0.076760255 0.0044543114 0.21693633 0.75476795 0.61908311 0.0036091364
0.025355874 0.076195069 0.0041568116 0.23148695 0.70999664 0.66507035 0.0025940661
0.028221296 0.075687036 0.0035811237 0.29033315 0.64396811 0.70782179 0.0029498208
0.030527895 0.075051658 0.0031173781 0.37469977 0.56802517 0.73276699 0.0029870532
0.013763218 0.078036539 0.0031473469 -0.063285194 0.97108781 0.23018155 0.0025126406
0.016428329 0.078074433 0.0032305047 -0.0038978211 0.94343793 0.33152625 0.0020505984
0.018398918 0.078065641 0.0031645894 0.056594316 0.88481891 0.46248522 0.0023149357
-0.051285379 0.058767572 0.0064342325 -0.40516317 0.88750404 -0.21949825 0.0075556966
-0.050156157 0.058980737 0.0072286981 -0.42567804 0.87906688 -0.2145686 0.0061883065
0.032480739 0.057593163 0.0060754172 0.50698948 0.10645473 0.85535318 2.3148235e-05
-0.048502427 0.060445432 0.0074368054 -0.42814162 0.87178713 -0.23807994 0.0060991393
-0.046438541 0.061132185 0.0075266832 -0.28743097 0.91544449 -0.28168228 0.00034274728
-0.043452967 0.062026598 0.007452115 -0.2767891 0.91053319 -0.30711085 0.00020331792
-0.040778603 0.062683396 0.0070408513 -0.26019913 0.90571517 -0.33462888 0.00034256175
-0.040126681 0.063356459 0.0082905293 -0.27635267 0.90178758 -0.33227777 0.00031735373
-0.037518013 0.063798599 0.0074823098 -0.25518179 0.89758563 -0.35947499 0.00015027293
-0.034501985 0.064641796 0.0074784127 -0.24354023 0.89470953 -0.3744103 0.00029360197
-0.031623438 0.065355033 0.0072876015 -0.2416043 0.88771307 -0.39190924 0.0004027329
-0.02903262 0.065737635 0.006516248 -0.23941551 0.87855572 -0.41330379 0.00082496495
0.026857188 0.063262329 0.0087149581 0.48469412 0.15658782 0.86055326 1.0948753e-05
0.028556688 0.064022548 0.0076192939 0.48643148 0.1611543 0.85872793 6.9667003e-06
0.030486841 0.064886443 0.0063749086 0.48762199 0.16232742 0.85783136 5.412996e-06
-0.030691529 0.066148214 0.0085240975 -0.25273666 0.90308237 -0.34722659 5.8178979e-05
-0.028276728 0.066511504 0.0077591143 -0.25288615 0.88786858 -0.38436699 0.00057543261
-0.025432112 0.06722077 0.0074715395 -0.25900534 0.87457305 -0.40992454 0.0010448886
-0.022479434 0.068103224 0.0074106422 -0.2704488 0.8674441 -0.41761011 0.0016042759
-0.019826043 0.068644971 0.006697237 -0.28986624 0.8537187 -0.43259916 0.0022613406
0.026193198 0.067188188 0.0083701899 0.48251039 0.18473478 0.85618734 0.00023150652
0.028548745 0.068054408 0.0068638083 0.47578669 0.19915387 0.85671741 0.00045798445
-0.021068424 0.069121912 0.0086396001 -0.29399568 0.86728698 -0.40172118 0.002056588
-0.019141018 0.069486082 0.0079867123 -0.28976551 0.87761432 -0.3818756 0.0023806326
-0.01648044 0.070201285 0.0075070113 -0.29036134 0.88257742 -0.36979374 0.0036045124
-0.013576495 0.071233697 0.0074182875 -0.34097433 0.88188303 -0.32560539 0.0038142134
-0.011506938 0.071756378 0.0066665346 -0.33209047 0.89367867 -0.30175224 0.0065435106
0.023025649 0.071256123 0.0088469936 0.37525898 0.42584065 0.82331067 0.0032326584
0.025430074 0.070758849 0.0078184586 0.43796155 0.34359968 0.83073997 0.0036555273
0.027727555 0.070564955 0.006698302 0.43115813 0.3189989 0.8440038 0.003135555
-0.012136178 0.072146073 0.0084442254 -0.35216081 0.88994032 -0.28980857 0.0067772167
-0.010315143 0.072546043 0.0076394398 -0.27842155 0.93530637 -0.2183657 0.0080885068
-0.0075204908 0.073472142 0.0074933013 -0.3022384 0.94014657 -0.15740542 0.0087084761
-0.0045391042 0.074393973 0.007403194 -0.29474512 0.95479822 -0.038544141 0.0064446251
-0.0026809264 0.074899442 0.0079092924 -0.30263412 0.95307934 0.0072322828 0.0047788927
0.017238712 0.074721619 0.0087467479 0.23552293 0.72631645 0.64575028 0.0030122274
0.019722141 0.074300684 0.0082261628 0.26457596 0.63209248 0.72832596 0.0032984682
0.022527717 0.07365606 0.0075829504 0.31297085 0.56398094 0.76418245 0.0029350987
0.025032125 0.073239066 0.0067812931 0.3567701 0.51348025 0.78041863 0.0031672942
0.027512204 0.072177351 0.0062058009 0.41822267 0.38060391 0.82476091 0.0041775783
-0.0012755308 0.075315148 0.0073948563 -0.24209544 0.9688186 0.052727994 0.0040475666
0.0014734486 0.076006614 0.0074597937 -0.18278274 0.9745518 0.12976599 0.0032355327
0.0045163613 0.076416261 0.0074690524 -0.098209068 0.97259402 0.2107504 0.0048637385
0.0075044911 0.076545492 0.0076086479 -0.031123083 0.95629281 0.29074958 0.0042279037
0.010502929 0.076566249 0.0074712234 0.026747625 0.9251861 0.37856999 0.0041766432
0.013516122 0.076349594 0.0074511832 0.094310991 0.88004118 0.46543831 0.0044538202
0.016401805 0.075964309 0.0073847556 0.14422953 0.82415342 0.54769427 0.0039961305
0.019275548 0.075684652 0.0068889465 0.19964938 0.75612664 0.62322766 0.0039695427
0.022069754 0.075402513 0.0062446999 0.25187692 0.69118458 0.67736381 0.0025501794
-0.049993578 0.059722044 0.010278935 -0.51123959 0.84447074 -0.15969722 0.0054974062
-0.048498161 0.061242532 0.01055443 -0.52497536 0.83181 -0.18025818 0.0039179949
-0.046512749 0.061993755 0.010479867 -0.37320873 0.89751124 -0.23492283 0.0043262499
-0.044037651 0.062683731 0.010090686 -0.30889612 0.91782665 -0.24935403 0.0005065914
0.02310475 0.061385799 0.011144273 0.47357237 0.13203524 0.87080187 5.4580763e-05
0.025142632 0.062494703 0.0098203542 0.47957313 0.14715983 0.86507434 4.5490015e-05
-0.042841721 0.063389063 0.011050574 -0.30093196 0.91517913 -0.26811779 0.00047619085
-0.040425155 0.064024679 0.010517111 -0.29687646 0.91107112 -0.28603119 0.00048628688
-0.03750737 0.064942248 0.010469665 -0.27487826 0.91411877 -0.29804149 0.00041323079
-0.03481026 0.065597355 0.010178492 -0.26125631 0.91471094 -0.30830017 0.00033538073
-0.03257826 0.065913171 0.0093339663 -0.24681336 0.91563743 -0.31731886 0.00077032635
0.020962104 0.064613737 0.011747962 0.46127105 0.16964108 0.87089092 7.0850387e-05
0.022300396 0.06551902 0.010871504 0.46813309 0.16801091 0.86753887 8.3425395e-05
0.026368689 0.063043281 0.0090298988 0.48468179 0.15664203 0.86055034 6.5342601e-06
-0.03385701 0.066223383 0.011243346 -0.25275239 0.92363071 -0.28813642 0.00047544419
-0.031459514 0.066655092 0.010582175 -0.25148347 0.92113072 -0.2971099 0.00052271003
-0.028500082 0.067485899 0.010514737 -0.24759635 0.92825341 -0.27756363 0.0016440396
-0.025532253 0.068350986 0.010445387 -0.2962068 0.92436707 -0.24043092 0.0026912687
-0.023332508 0.068756349 0.0096059991 -0.30003709 0.92663544 -0.22654915 0.0055351495
0.020294484 0.067610107 0.011454272 0.45228699 0.22768807 0.86231935 0.00057863817
0.022350583 0.068015471 0.010270452 0.44893977 0.2444784 0.85946691 0.00032112721
0.024524212 0.066553354 0.0094385566 0.47984701 0.19468999 0.85547805 0.0004221967
-0.024197597 0.069046386 0.011341984 -0.28441668 0.93281466 -0.22127809 0.0052828016
-0.022319073 0.069409087 0.010732077 -0.2314277 0.9586249 -0.16576935 0.0073476918
-0.019498693 0.070199966 0.010513801 -0.23866351 0.96156371 -0.13577472 0.0097070206
-0.016498948 0.071084134 0.010484231 -0.27888083 0.95965856 -0.035790581 0.010456114
-0.01417308 0.071736805 0.010593005 -0.30102319 0.95341671 0.019533863 0.010960499
0.017055724 0.071290642 0.011620535 0.33899063 0.49893123 0.79759204 0.0030543811
0.019453218 0.070749804 0.010789498 0.41140613 0.35911793 0.83772272 0.0014333916
0.022279102 0.070474833 0.0095310081 0.4186292 0.34298185 0.84090012 0.0031385773
-0.012668652 0.072172314 0.010249947 -0.23802131 0.97117841 0.012584365 0.011588465
-0.010472353 0.07269083 0.010425022 -0.21748258 0.97192091 0.089839272 0.013904612
-0.0074516931 0.073387221 0.010498516 -0.228038 0.95046419 0.21122621 0.007257883
-0.0044659888 0.074079774 0.010432065 -0.23253007 0.9426825 0.23933142 0.0042606676
-0.0017214217 0.074584089 0.010769126 -0.19523461 0.93007958 0.31118414 0.0038838841
0.00085447426 0.074846186 0.011465578 -0.13413481 0.93102634 0.33940807 0.0050780894
0.0055441014 0.07491567 0.0119256 0.022494934 0.84296209 0.53750253 0.0030701132
0.007905432 0.074775852 0.011589329 0.12816699 0.86297745 0.48871574 0.0036672954
0.010770227 0.074410424 0.011272782 0.18311341 0.80963689 0.55763572 0.0029380403
0.013655628 0.073980667 0.010781274 0.22132339 0.72303236 0.65440053 0.0041499552
0.016397405 0.073509142 0.010212602 0.26278001 0.6491614 0.71381807 0.0031187865
0.019192336 0.072945453 0.0095825493 0.33082977 0.57278001 0.74998319 0.0029124632
0.021012008 0.072520636 0.0091177318 0.32509702 0.56630439 0.75737131 0.0031172875
-0.00067897246 0.075174741 0.0095530208 -0.23293097 0.94005543 0.24907643 0.0031094842
0.0017171424 0.075471908 0.010221864 -0.12844141 0.94334865 0.30593476 0.0037515431
0.0045021139 0.075616039 0.010436024 -0.034047022 0.93657875 0.34879932 0.0028215938
0.0073995632 0.075560279 0.010243624 0.055245362 0.90334094 0.42535058 0.0042061424
0.01031485 0.075477719 0.0097861812 0.1158489 0.85214823 0.5103159 0.0036226255
0.01318048 0.075260893 0.0093709463 0.16520114 0.79470813 0.58407849 0.0030709205
-0.051465556 0.059600774 0.013067776 -0.49545395 0.8670485 -0.05246168 0.018377725
-0.050475985 0.059595007 0.012495046 -0.49568635 0.86691314 -0.052504096 0.018337058
0.020158837 0.057921994 0.013153542 0.46570814 0.12846686 0.87556398 2.4291296e-05
0.021535518 0.059676293 0.012207634 0.46820235 0.13205425 0.87369806 3.5870893e-05
-0.051258013 0.060310572 0.014162791 -0.49542457 0.86706769 -0.052422896 0.018380679
-0.049607459 0.060833771 0.013566448 -0.5257743 0.8431043 -0.11285652 0.0092240525
-0.046710689 0.062537268 0.01343823 -0.42533901 0.90162033 -0.078534365 0.0047384501
0.016950252 0.061340224 0.014403239 0.46065778 0.14019828 0.87643534 8.8526089e-05
0.018436566 0.062661305 0.013414092 0.46035635 0.15139002 0.87473035 7.2850227e-05
-0.045272082 0.063080102 0.013450768 -0.33399919 0.94061249 -0.060767867 0.0070031048
-0.04349646 0.063725919 0.013532525 -0.31067094 0.94174445 -0.12884489 0.0024048185
-0.040501799 0.064785898 0.013435364 -0.33350685 0.93416613 -0.126913 0.0025210998
-0.037795104 0.065690234 0.013315986 -0.31003925 0.93706721 -0.16056363 0.0030830738
0.014959198 0.064292111 0.01492603 0.4487226 0.17522457 0.8763243 0.00021828015
0.016588069 0.065342933 0.013864243 0.45206934 0.18883608 0.87176502 0.00015326864
0.019857008 0.063794442 0.012475262 0.46047649 0.15621479 0.87381822 0.00013193738
-0.036532413 0.066173807 0.013893781 -0.26633969 0.95053911 -0.15980764 0.0026207971
-0.034399543 0.066677317 0.013488058 -0.23011309 0.96072137 -0.15512082 0.0020353473
-0.031413026 0.067409806 0.013472166 -0.23636767 0.95967859 -0.15214302 0.0026380497
-0.028469207 0.06811592 0.013511649 -0.24078372 0.96561944 -0.097991236 0.0021050097
-0.0257848 0.068734556 0.013623219 -0.23837534 0.97036278 -0.039663743 0.0032221589
0.013951833 0.067812428 0.014594004 0.42478746 0.27469724 0.86261064 0.0013588134
0.016587241 0.068301976 0.013161428 0.41319156 0.29843849 0.86035299 0.0010992738
0.018713729 0.066639401 0.012482268 0.44675645 0.19249143 0.87370223 9.4703777e-05
-0.024290992 0.069067955 0.01326923 -0.20215143 0.97926301 -0.013373907 0.0038351102
-0.022465708 0.069432624 0.013486372 -0.14898632 0.98861086 0.021248957 0.0051150215
-0.019524224 0.069974616 0.01351133 -0.15556331 0.97029561 0.18527418 0.0060935598
-0.016557081 0.070475861 0.013488706 -0.14545953 0.94122696 0.30484959 0.007033349
-0.013576563 0.071027726 0.013423969 -0.17790489 0.90455139 0.38747469 0.006274967
-0.01071973 0.071322247 0.013885759 -0.18742067 0.86814946 0.45955414 0.0062546539
-0.0078094527 0.071624354 0.014374852 -0.15928578 0.83757627 0.52258408 0.0046543847
-0.0057338742 0.071629032 0.014971817 -0.15735726 0.73944396 0.65456951 0.0015351695
0.010746533 0.071119413 0.014471376 0.32369745 0.51584399 0.79317403 0.0051280065
0.013507697 0.070744917 0.013500039 0.35015735 0.44970366 0.82167912 0.0029256989
0.015967313 0.070414551 0.012580575 0.33643255 0.48893946 0.80482996 0.0032119455
0.018335463 0.069082484 0.012040839 0.42300975 0.32437003 0.84607726 0.00216964
-0.010023318 0.072247438 0.01250314 -0.24706848 0.90558082 0.34479067 0.011303362
-0.0073554269 0.072592437 0.012936369 -0.18070814 0.87433904 0.45041749 0.0049633863
-0.0044331392 0.072869577 0.013470067 -0.16709018 0.8644172 0.47419789 0.0036857661
-0.001415555 0.073462255 0.013411311 -0.16033037 0.84937191 0.50285333 0.0049429038
0.0014996865 0.073806606 0.013503284 -0.083492681 0.85163885 0.51743633 0.0022732303
0.0044835969 0.074009463 0.013460086 0.018292608 0.82833153 0.55993944 0.0020389312
0.0074265245 0.073512256 0.013453088 0.1725816 0.76205415 0.62409061 0.0025305969
0.010255539 0.073045701 0.013023728 0.23917472 0.68303859 0.6901114 0.0034635335
0.013093416 0.072554022 0.012413213 0.29705101 0.6393615 0.70920908 0.0021038079
0.01233092 0.056323934 0.017522795 0.44893968 0.12818293 0.88432026 8.2144921e-05
-0.051228482 0.059909154 0.016490793 -0.55513281 0.79649401 0.23963474 0.015969491
-0.050301839 0.059710141 0.01712681 -0.55483305 0.79670912 0.23961404 0.015848124
0.013763614 0.058095872 0.016544478 0.45451951 0.12854891 0.88141203 7.6961362e-05
0.015156728 0.059764851 0.015595883 0.45509923 0.13810082 0.87966627 5.62036e-05
-0.051102638 0.060229652 0.015249275 -0.55318803 0.82216626 0.13425933 0.023410605
-0.049321081 0.060874496 0.016156476 -0.53260857 0.81406528 0.23157267 0.014636751
-0.046540514 0.06235709 0.016611241 -0.42618129 0.88530892 0.18600428 0.0027540294
-0.044647634 0.062843442 0.017759334 -0.41708651 0.87335271 0.25158268 0.011282123
0.010873631 0.061084285 0.017616903 0.44278938 0.14513057 0.88480204 0.00014416293
0.012370488 0.062323287 0.016627926 0.44926569 0.14862852 0.88094831 6.7771885e-05
0.015754828 0.060284588 0.015198442 0.46312115 0.14145677 0.8749336 9.0433539e-05
-0.045338087 0.06310039 0.015243534 -0.40876696 0.89793986 0.16313638 0.0040501487
-0.043472085 0.063676402 0.016301662 -0.34576848 0.92571753 0.15326801 0.0050507896
-0.040496923 0.06483072 0.016458428 -0.35335127 0.92999166 0.10128384 0.0024973156
-0.038076419 0.065722898 0.01663553 -0.35769257 0.9299565 0.0850702 0.0030095486
0.010457793 0.064769015 0.01712784 0.42152312 0.20651309 0.88298959 0.00020316782
0.013414212 0.064105079 0.015752347 0.45406088 0.17563948 0.87348694 0.00020978748
-0.036529094 0.066274501 0.016183006 -0.29757243 0.95253241 0.064285271 0.0031322972
-0.0344272 0.06684681 0.01648457 -0.2620047 0.96332067 0.058023386 0.0013825645
-0.031464525 0.067527473 0.016547235 -0.22421238 0.97425455 0.023598991 0.00055072963
-0.028454781 0.068139099 0.016516434 -0.19949771 0.97937453 0.032033306 0.00033544147
-0.025495648 0.0686827 0.016527761 -0.17222336 0.98385608 0.048644982 0.00035064996
-0.023610877 0.06895446 0.01703842 -0.11537056 0.9909153 0.069111966 0.0011682555
-0.018858375 0.068915591 0.017516231 0.054540191 0.97607881 0.21046498 0.0018467954
-0.016502228 0.068767704 0.017320134 0.068756856 0.93878567 0.33757079 0.0044285166
-0.013579267 0.06860403 0.017296772 0.037631772 0.87952715 0.47435838 0.0064405734
-0.010620416 0.068507329 0.017427184 -0.011275896 0.79718375 0.60363144 0.006033259
-0.0075519923 0.068705253 0.017547557 -0.060561594 0.70910567 0.70249653 0.0037346343
-0.0052094827 0.068737283 0.017821981 -0.08083301 0.63505763 0.76822394 0.0021787863
0.0055341222 0.068955973 0.017723935 0.15131056 0.51182348 0.84566057 0.0019869721
0.0077374964 0.067830212 0.017540196 0.32240042 0.35987514 0.8755272 0.0042631929
0.010119308 0.067948915 0.016436435 0.37996057 0.35720116 0.85325098 0.001456609
0.012690118 0.067345016 0.015341593 0.40938541 0.29740652 0.86252707 0.0022310391
-0.022247232 0.069149435 0.016366724 -0.088444136 0.98940873 0.11510015 0.0038052141
-0.019692533 0.069210418 0.016280618 -0.0038091878 0.98482245 0.17352323 0.0027960874
-0.016632725 0.069350354 0.01579689 -0.041578434 0.92643827 0.3741436 0.0058660121
-0.013532149 0.069505729 0.01580702 -0.06922999 0.86312729 0.50021845 0.0038833756
-0.010461809 0.069840237 0.01589193 -0.10909218 0.79734546 0.59358156 0.002150153
-0.007502526 0.07012479 0.016167946 -0.13194838 0.75022751 0.64787978 0.0018211792
-0.0045020669 0.070575863 0.01631967 -0.13490336 0.69685477 0.70441061 0.0022721207
-0.001591327 0.070652895 0.016741669 -0.093672998 0.6743263 0.73246801 0.0024960085
0.0016427455 0.070786655 0.016871847 0.0051463274 0.64162278 0.76700306 0.0041896803
0.0045311861 0.070684887 0.016784804 0.12161738 0.54824221 0.82742953 0.0030763464
0.0075213877 0.070683964 0.016101366 0.27230558 0.55292875 0.7874766 0.0033745302
0.010162712 0.070018381 0.015444098 0.36084551 0.47507057 0.80255747 0.0027051098
-0.0011068799 0.072215155 0.015283194 -0.092964567 0.72488612 0.68256706 0.0024463753
0.0016784881 0.07231424 0.015479983 -0.041129831 0.71769226 0.69514477 0.0024509334
0.0045931437 0.072407536 0.015365394 0.075716458 0.6860227 0.72362965 0.0043028151
0.0065377112 0.072172239 0.015294464 0.2180668 0.64186156 0.73516017 0.002925725
0.015560387 0.023519011 0.019337257 0.97735524 0.064993799 0.20137663 0.0019768169
0.015498187 0.026008086 0.019412711 0.97363222 0.12002683 0.19399466 0.0050718747
0.014804171 0.029208785 0.019929422 0.92273808 0.29656911 0.24617325 0.0041854032
0.015263715 0.028238248 0.01895535 0.95101756 0.24992315 0.18194546 0.00666219
0.014060323 0.031363998 0.019740636 0.90063828 0.39797351 0.17455049 0.005737463
0.011461775 0.035393268 0.020258553 0.76561725 0.60272634 0.22483592 0.0051594945
0.012670388 0.033871058 0.019960389 0.83056861 0.52744091 0.17877893 0.0044408604
0.010207574 0.036644198 0.020553719 0.67037773 0.72050792 0.17737576 0.0039022604
0.01134984 0.054590017 0.018218691 0.41665912 0.11192199 0.9021467 0.00069259922
-0.051104888 0.058465403 0.019329822 -0.56295687 0.68437427 0.46336973 0.0088559845
-0.049857356 0.058772191 0.019468836 -0.53126287 0.6970998 0.48146826 0.0087601934
-0.047360457 0.059875194 0.020741167 -0.44656274 0.6528756 0.61182928 0.0026047667
0.0028906809 0.059580434 0.020903943 0.25342435 0.21394074 0.94340098 0.0011095369
0.0094832033 0.05950439 0.018556325 0.43846086 0.13596876 0.88840568 0.00016734558
-0.048487343 0.060633082 0.01891006 -0.47741717 0.77680641 0.41066363 0.0047670403
-0.046414383 0.061256222 0.019402992 -0.40405759 0.77611363 0.48413321 0.0042171809
-0.043710019 0.062304311 0.019877583 -0.404266 0.81879032 0.40761694 0.0026900587
-0.041402355 0.062970519 0.020837288 -0.44176012 0.77286237 0.45555654 0.00071486132
-1.6108232e-06 0.06263677 0.020828797 0.17526031 0.31451952 0.93293154 0.002331367
0.00082779228 0.061679151 0.020932481 0.2023202 0.2587887 0.94450772 0.0015828548
0.0078539271 0.062188528 0.018863646 0.36634633 0.16457474 0.91580868 0.00097956997
-0.042906266 0.063334577 0.018508144 -0.39338279 0.85424155 0.33988419 0.0036861536
-0.040502734 0.064048521 0.019395476 -0.37437093 0.86656719 0.33001179 0.0025156038
-0.037520286 0.065243006 0.01967483 -0.38609609 0.89095253 0.23902619 0.0014612209
-0.035495311 0.065972552 0.020009961 -0.35523391 0.91202337 0.20499358 0.0017635134
-0.0095154373 0.065975875 0.020809405 0.29001388 0.77721864 0.5584113 0.0073801102
-0.0073554935 0.065514468 0.020649092 0.1963854 0.66809887 0.71768844 0.0089217713
-0.0045478251 0.065247491 0.020370562 0.098984398 0.54921621 0.82979733 0.005722417
-0.0014165523 0.064586066 0.020332899 0.1022494 0.39179334 0.91435391 0.003393112
0.0020902862 0.064050369 0.020054752 0.13328782 0.31468254 0.93979216 0.0028137506
0.0049854843 0.064504035 0.019389644 0.22162126 0.26084629 0.93959737 0.0019157713
0.007492736 0.064334877 0.018606247 0.3587175 0.23368612 0.90372151 0.0021865221
-0.03650891 0.066003069 0.018289797 -0.3056266 0.94215459 0.13761242 0.0021321899
-0.034205902 0.066549681 0.019319871 -0.28344083 0.94636846 0.15507407 0.00095515326
-0.031458054 0.067291543 0.019503204 -0.25017136 0.96258897 0.10409969 0.00059492921
-0.028495319 0.067951888 0.019533124 -0.19473016 0.97784454 0.076812647 0.00037821883
-0.025506748 0.06847731 0.019474767 -0.15187758 0.98528391 0.07841403 0.00019480617
-0.022443814 0.068841033 0.019620147 -0.019416921 0.99363756 0.11093867 0.0013571774
-0.019510139 0.068710133 0.019532006 0.073469386 0.9902783 0.1181151 0.00079050846
-0.016524123 0.068287067 0.019503733 0.17347533 0.95461476 0.24210946 0.0035249544
-0.013480023 0.067709886 0.019530138 0.17012154 0.91546851 0.36465901 0.0072098342
-0.01054034 0.067156635 0.019503674 0.087616757 0.8163262 0.570907 0.0063873096
-0.0075038099 0.067171253 0.01906025 0.037532847 0.70375252 0.70945305 0.0050894837
-0.0045229667 0.067327052 0.018950539 0.032558151 0.59070337 0.80623168 0.0041126385
-0.0016296267 0.067679182 0.01884231 -0.04732123 0.55044925 0.83352643 0.0022565813
0.001374385 0.067627147 0.018857127 0.058420271 0.43824565 0.89695472 0.0045762016
0.0043765195 0.067567691 0.018567527 0.17273372 0.35675895 0.91808832 0.0031317146
0.0064267246 0.06683138 0.018394776 0.31460372 0.35049087 0.88214552 0.0044585983
-0.022310033 0.069012344 0.018203177 -0.046574067 0.99570906 0.079965375 0.001874938
0.001271939 0.069119453 0.018085254 0.011330755 0.58191663 0.8131696 0.0025099232
0.0145438 0.02179455 0.023208134 0.97627449 0.058590263 0.20845944 0.0017680544
0.014747278 0.025511993 0.023163201 0.97474134 0.073498026 0.21089679 0.0020414125
0.015096148 0.025357513 0.021394998 0.97735131 0.065012828 0.20138946 0.0019720504
0.014411794 0.028563671 0.022490514 0.95156932 0.22964266 0.20440203 0.0016879345
0.013296418 0.031638812 0.022519365 0.88251764 0.42501134 0.20131566 0.0020903465
0.011077789 0.0350658 0.022629607 0.77437937 0.59768879 0.2076167 0.0016147173
0.012309515 0.033552513 0.022278912 0.81474644 0.54815978 0.18896876 0.0013435595
0.0077309366 0.038060535 0.022843901 0.56097919 0.80163074 0.20661689 0.0033481941
0.0096370168 0.036695555 0.022287903 0.65837282 0.72665596 0.19625621 0.0033791673
0.0026684923 0.040205393 0.023720905 0.25093794 0.94850129 0.19332723 0.0027018001
0.0049990318 0.039460439 0.023323461 0.39366248 0.89667404 0.20249826 0.0023106015
0.0061499686 0.039190039 0.022216737 0.49869591 0.84922284 0.17355973 0.0033543322
-0.0012400306 0.052769881 0.023761548 0.60926712 0.1232527 0.7833277 0.019775769
0.0021967464 0.053988419 0.022168821 0.41046068 0.23026589 0.8823263 0.0075877095
-0.049739741 0.056432191 0.022046439 -0.49579132 0.67786098 0.54285866 0.0072592269
-0.0016860183 0.055588741 0.023442749 0.46353966 0.26857314 0.84439296 0.010216163
0.0011074543 0.056305654 0.022152387 0.34773666 0.21831056 0.9118222 0.0010936714
0.0034869362 0.056504603 0.021254774 0.30954805 0.22599338 0.92363793 0.0010798422
-0.0483834 0.058484223 0.021602953 -0.49577385 0.6778301 0.54291314 0.0072918595
-0.046428185 0.058943126 0.022147819 -0.44489962 0.64858711 0.61757517 0.0027158058
-0.043734252 0.059440605 0.023336131 -0.43146622 0.71232814 0.55355716 0.0017180617
-0.0039527919 0.058874369 0.023418229 0.55586833 0.41412634 0.7207703 0.0151667
-0.0018281393 0.058160428 0.022719136 0.40976498 0.33792374 0.84728992 0.012067957
0.00087439059 0.059074704 0.021592714 0.31777915 0.25205687 0.91404802 0.00099469593
-0.045296174 0.060490452 0.021317387 -0.37278321 0.7503227 0.54593825 0.0030385181
-0.043274287 0.06115349 0.021910151 -0.44053802 0.73669136 0.51304191 0.0025747132
-0.040824488 0.062002275 0.022876348 -0.48665318 0.72978425 0.4801912 0.0028773367
-0.0069944197 0.062096026 0.023334753 0.57976091 0.57983655 0.57242203 0.012382826
-0.0048864987 0.061209064 0.022695085 0.48854068 0.54861474 0.67849088 0.016658224
-0.0016702443 0.061245319 0.021625368 0.25942376 0.34102112 0.90355074 0.0018202487
-0.039691322 0.063406751 0.021707928 -0.45679888 0.79373848 0.40163907 0.0027047731
-0.037403028 0.064315751 0.022486007 -0.49485725 0.80345315 0.33102763 0.0034532282
-0.034966476 0.06553629 0.02253481 -0.40389547 0.87778658 0.25760287 0.0020524242
-0.012385947 0.065841079 0.023258548 0.38687909 0.85933179 0.33447495 0.0084276889
-0.01047975 0.065006167 0.022752585 0.39910892 0.81607348 0.41801444 0.013953052
-0.0079507232 0.064060099 0.022123612 0.30391043 0.62728131 0.7170471 0.011589043
-0.0046486058 0.06355615 0.02135141 0.22372653 0.50913388 0.83110112 0.0040455214
-0.033473574 0.066257052 0.02216886 -0.34695631 0.9214285 0.17490254 0.0013639062
-0.031409744 0.066913679 0.022445796 -0.2875101 0.94760203 0.13924241 0.001037108
-0.028479101 0.067708649 0.022528196 -0.24243674 0.96534157 0.096644588 0.0011563959
-0.02544415 0.068267852 0.022496192 -0.14361002 0.98656178 0.077922724 0.00030818544
-0.022452557 0.068585247 0.022546887 -0.019044098 0.99503607 0.097675614 0.0014190637
-0.019464497 0.068355545 0.022510547 0.13901851 0.98214978 0.12671047 0.0012764767
-0.016442182 0.067648284 0.022533782 0.2767708 0.94507176 0.17388897 0.004205395
-0.013720728 0.066706277 0.022461878 0.36808062 0.88245106 0.29291072 0.0078260899
-0.011510264 0.066217005 0.021447314 0.34526286 0.86393595 0.36661726 0.010792966
0.014229355 0.023265067 0.025512155 0.97611374 0.068426698 0.20620324 0.0016248013
0.014183719 0.026058838 0.025667373 0.96900624 0.10668743 0.22281078 0.0039261323
0.013712486 0.028730512 0.02556224 0.93928325 0.27194947 0.20926176 0.0027302245
0.011811584 0.032875769 0.026082434 0.80062437 0.56115872 0.21000355 0.0015891615
0.012707012 0.03146138 0.025423083 0.88490897 0.42053714 0.20021163 0.0023274932
0.010614942 0.034655705 0.02548877 0.74070078 0.63468754 0.22030453 0.0030201632
0.0053930213 0.038705233 0.025804598 0.43345216 0.87554514 0.21340078 0.0010713977
0.0074978154 0.037517384 0.025535697 0.51673853 0.83045071 0.20816532 0.0013607966
0.009222649 0.036311232 0.024970828 0.68203026 0.69377494 0.23132463 0.00137723
-0.0036963257 0.039970528 0.02661198 0.09797772 0.8144815 0.57185686 0.01922874
-0.0012740147 0.040228866 0.026094649 0.047401447 0.94652945 0.319116 0.0069826874
0.0015428807 0.040031012 0.025583014 0.21991624 0.94896758 0.22604701 0.002710226
0.0039364346 0.039452784 0.025260253 0.36695084 0.90326357 0.22240068 0.0022454783
-0.0036898099 0.046784919 0.026745638 0.82618505 0.060984824 0.56008852 0.0060077524
-0.0033873436 0.049734004 0.026419278 0.83505964 0.025199769 0.54958194 0.00484491
-0.0028446165 0.049343199 0.025503561 0.83506 0.025198435 0.54958147 0.0048447931
-0.0035371589 0.052822899 0.026112616 0.81103796 0.11551411 0.57347524 0.008449357
-0.0023306701 0.052958198 0.024546994 0.81104296 0.1155114 0.57346869 0.0084516183
-0.0040245708 0.055619318 0.025601747 0.79032522 0.32268301 0.52082795 0.009543336
-0.040416069 0.059993461 0.025523135 -0.53254873 0.69284028 0.48617309 0.0023269795
-0.0063599679 0.059363727 0.026247827 0.73701417 0.5222137 0.42907223 0.0089254687
-0.0052139098 0.058325641 0.025278231 0.68919146 0.49598315 0.52821952 0.015096898
-0.03992616 0.061480924 0.024453111 -0.50956827 0.72121233 0.4692471 0.0035499171
-0.038586024 0.061801683 0.025623679 -0.5627957 0.71251321 0.41902977 0.002973557
-0.0092560034 0.062859446 0.026094154 0.61833721 0.75103283 0.23153532 0.0033044971
-0.0076703038 0.061457992 0.025463186 0.70084202 0.61084276 0.36836332 0.012397286
-0.036970537 0.06344907 0.025144296 -0.53994554 0.76181298 0.35791036 0.0033344266
-0.034385696 0.06500949 0.025488991 -0.50019115 0.82939857 0.24881083 0.0022577662
-0.032511264 0.065826379 0.026431754 -0.42399541 0.88485259 0.19303842 0.0014420671
-0.012672809 0.065498985 0.025790626 0.46960464 0.86840141 0.15921848 0.0029271427
-0.010636332 0.064163491 0.025458327 0.61651415 0.76694191 0.17807437 0.002857957
-0.0089150099 0.06317763 0.024276532 0.63129294 0.72155589 0.28429976 0.0072258203
-0.033021502 0.066049241 0.024057012 -0.42657906 0.88282645 0.19659035 0.0014450107
-0.031201236 0.066595152 0.02536758 -0.37717515 0.9109022 0.16732013 0.00088076998
-0.028394323 0.067503557 0.025474954 -0.26832867 0.95783544 0.10271786 0.0015500534
-0.025433667 0.068078704 0.025510963 -0.09651228 0.97295988 0.20984401 0.015313571
-0.022431226 0.06833186 0.025528533 -0.032347493 0.9772529 0.20959607 0.015536025
-0.019476518 0.068079926 0.025479902 0.14491411 0.95493591 0.25903153 0.024258126
-0.016497498 0.067309052 0.025473841 0.31957215 0.94153106 0.1067368 0.002075
-0.014168757 0.066355698 0.02547856 0.44794881 0.88626665 0.11778507 0.0026895215
0.013699818 0.025180152 0.028225226 0.89122415 0.083567359 0.44579822 0.033573631
0.013184182 0.028444318 0.028314428 0.84844148 0.26432204 0.45856398 0.030447144
0.011520597 0.032389514 0.028305598 0.64929944 0.39661384 0.64892817 0.0266596
0.01245327 0.030716641 0.028059913 0.79064387 0.31314033 0.526142 0.028868267
0.0083596976 0.035425484 0.029107755 0.50563961 0.57904351 0.63956016 0.034892365
0.010035125 0.034462661 0.0281513 0.60156924 0.54456115 0.58443791 0.02667165
-0.0061256839 0.038847607 0.029244116 0.087586313 0.72681797 0.68122268 0.032013319
-0.0044005751 0.038402565 0.029732205 0.087588958 0.72683674 0.68120223 0.032012332
-0.00099609816 0.03861101 0.029749958 0.004854484 0.57650316 0.8170805 0.0085133389
0.0023724914 0.03815585 0.029717326 0.19792233 0.54562485 0.81432205 0.0095693665
0.0046241134 0.038375136 0.028447585 0.42697844 0.70778096 0.5627926 0.024559824
0.0072752382 0.036973644 0.028173324 0.46248412 0.69361979 0.55226803 0.023834769
-0.0044030114 0.039490111 0.028235808 0.087605342 0.72679555 0.68124413 0.032045852
-0.0015314529 0.039768118 0.028235335 0.031687666 0.82729399 0.56087482 0.023536777
0.001384813 0.03949352 0.028189847 0.16766274 0.86128062 0.47967154 0.022303913
0.0033887872 0.039137427 0.027594324 0.30629116 0.85744494 0.41348991 0.021588236
-0.0041465811 0.046670657 0.028239116 0.82515681 0.0063046911 0.56486851 0.004409011
-0.0038752325 0.049523372 0.027928615 0.82618439 0.060984738 0.56008959 0.0060063619
-0.0063650417 0.051746283 0.029961657 0.67201877 0.15599839 0.72391665 0.018955635
-0.0041362522 0.052594136 0.027883755 0.77223742 0.1753041 0.61067003 0.0095866844
-0.004923535 0.055595323 0.027914163 0.74827468 0.26237339 0.60929894 0.015068844
-0.0065562725 0.059036013 0.02799955 0.80209702 0.5399335 0.25517094 0.0040975558
-0.0057521905 0.057591446 0.027936086 0.7961157 0.41732091 0.43822727 0.0096623842
-0.037244875 0.061624955 0.027673384 -0.57607961 0.71354491 0.39873046 0.0029109812
-0.035634842 0.062952161 0.028273236 -0.55495948 0.78028965 0.28838876 0.0027357666
-0.017720662 0.062910356 0.029993173 0.23209898 0.44657448 0.86411887 0.0051204273
-0.0094081881 0.062677309 0.027961373 0.69609118 0.67654663 0.24029496 0.0038290666
-0.0080347015 0.061139509 0.027872274 0.74594414 0.62982184 0.21654518 0.0036547496
-0.034098461 0.064411253 0.027851235 -0.54087156 0.79637843 0.27062777 0.0045908955
-0.032382406 0.065451249 0.028109688 -0.4443543 0.86207074 0.24368699 0.0060765487
-0.024888227 0.065557294 0.02982495 -0.014220477 0.81226635 0.58311337 0.022605065
-0.02391261 0.065978199 0.029606979 0.019327749 0.81058568 0.58530098 0.026296616
-0.019666819 0.065204263 0.029776229 0.1929757 0.50457984 0.84152216 0.014053121
-0.012954438 0.065438814 0.028026598 0.50276238 0.84943646 0.16027372 0.0037792167
-0.01084974 0.06395296 0.027897609 0.61484659 0.76457697 0.19335388 0.0026378024
-0.030962944 0.066263899 0.027892802 -0.40324652 0.8975125 0.17850384 0.0022600645
-0.028536592 0.067193054 0.027934799 -0.1966856 0.84486532 0.49751121 0.018035261
-0.025379851 0.067919157 0.027918307 -0.10927582 0.85970157 0.49897087 0.020975044
-0.022421112 0.067640498 0.028340051 0.070708603 0.83384991 0.54744363 0.024041826
-0.019494822 0.067867361 0.027912691 0.14351337 0.85077357 0.50555742 0.020650862
-0.016429899 0.067076281 0.027917953 0.19017662 0.77193677 0.60658586 0.035207577
-0.014478801 0.066259623 0.028023291 0.29424629 0.65957689 0.69164842 0.04971141
-0.0012192541 0.029331032 0.032928251 0.065787151 0.99621493 -0.056814037 0.12625466
0.0011156199 0.028823487 0.03275362 0.60943359 0.79273313 0.012837392 0.031196622
0.0073923613 0.029999832 0.031230552 0.43430603 0.30241475 0.84848315 0.0027203546
0.0092213908 0.02877989 0.030789567 0.4865402 0.22981989 0.84288877 0.0032919673
-0.0016910951 0.030233197 0.032540265 0.49157685 0.48649076 0.72227341 0.14939161
0.005354356 0.032978255 0.031061603 0.26862606 0.38165602 0.88440871 0.0045445967
0.0071808188 0.032034371 0.030805031 0.41142955 0.34192446 0.84487474 0.0034235704
-0.0017803322 0.035382949 0.031041812 0.037945215 0.474188 0.87960553 0.0056422492
0.0016140223 0.034774181 0.03112231 0.10557555 0.32931626 0.93829876 0.0010369006
0.0043394696 0.034879342 0.030643024 0.24594507 0.40906179 0.87873739 0.0027694511
0.006244733 0.03433321 0.030409295 0.32349047 0.38263729 0.86541468 0.0057975645
-0.0034507394 0.03674816 0.030461866 0.029664811 0.66541731 0.74588192 0.023678711
-0.0013207451 0.03720215 0.030341458 0.05630701 0.51416457 0.85584128 0.0081159621
0.0009843969 0.036572874 0.03047855 0.086778678 0.46007997 0.88362658 0.0066553713
0.0031665936 0.036236838 0.030365007 0.2443594 0.51838082 0.81949359 0.0093730586
-0.0060841506 0.050462648 0.030452115 0.6998316 0.14502938 0.69942987 0.022065384
-0.0074287136 0.053088255 0.030256402 0.65659398 0.23139495 0.71787238 0.017737148
-0.0092799123 0.054256607 0.030454479 0.59815425 0.28950188 0.7472617 0.015613502
-0.025320975 0.065076068 0.030294446 -0.014220477 0.81226635 0.58311337 0.022605065
-0.021978373 0.065941863 0.030365422 0.019236185 0.64924186 0.76033872 0.0098257819
-0.019436717 0.065020397 0.030273691 0.1929757 0.50457984 0.84152216 0.014053121
-0.01797084 0.063463405 0.030127231 0.23210692 0.44657829 0.86411476 0.0051167281
-0.022867799 0.066130243 0.03012838 0.019245135 0.6492157 0.76036084 0.0097738951
0.0032129206 0.023948165 0.035564736 0.40357742 -0.12638555 -0.90617436 0.045170937
-0.0059101856 0.026309498 0.035420846 -0.30991974 0.087944277 -0.94668669 0.031052342
0.0027920769 0.026629444 0.034549274 0.77060765 0.14771083 -0.6199559 0.056752149
0.003162872 0.025337739 0.034407597 0.92875111 0.23919412 -0.28320962 0.050411738
-0.0041421363 0.028427023 0.034450423 -0.56457561 0.41797706 -0.71172291 0.09406253
-0.0015365608 0.029258842 0.034541562 0.065785222 0.99621528 -0.05681048 0.12624103
0.0013236413 0.028287524 0.034428556 0.60943341 0.79273337 0.012837742 0.031197328
0.0017266069 0.017067116 0.03668708 0.3010219 -0.19808966 -0.93281627 0.021914085
0.003158801 0.017951554 0.036685802 0.3010219 -0.19808966 -0.93281627 0.021914085
-0.0094183655 0.02040576 0.036687098 -0.2140245 0.039571453 -0.97602642 0.0090426449
-0.0083861221 0.020395989 0.036687165 -0.21400891 0.039568707 -0.97602999 0.0090437969
0.0024743658 0.01943168 0.036684863 0.30102295 -0.19809006 -0.93281591 0.021913998
0.0045913383 0.019782605 0.036684655 0.30102104 -0.19808812 -0.93281692 0.021914223
-0.0096345702 0.022762684 0.036684807 -0.21394773 0.039545234 -0.97604436 0.0090217432
-0.0081224814 0.023041114 0.036684517 -0.21400891 0.039568707 -0.97602999 0.0090437969
0.0027418418 0.021482272 0.036683917 0.3010219 -0.19808966 -0.93281627 0.021914085
0.0046255998 0.0226303 0.036682192 0.3261441 -0.12672706 -0.93678725 0.038057767
0.0068394854 0.0228146 0.036857828 0.53049511 -0.008383546 -0.84764653 0.058922
-0.0099034747 0.025676146 0.036682986 -0.46120515 0.2040765 -0.86350596 0.043544821
-0.0078622894 0.025652446 0.036682587 -0.36484119 0.27111629 -0.89072263 0.051823594
-0.0057154885 0.026720697 0.036543395 -0.34296012 0.14685546 -0.92779952 0.035270646
0.0028209016 0.026557829 0.036252413 0.55050838 0.10766538 -0.82785791 0.053405527
0.0040522283 0.025473867 0.036569543 0.46279824 0.17843249 -0.86832011 0.050595336
0.0071443995 0.025601039 0.037485082 0.53841764 0.24228258 -0.80709696 0.053147443
-0.0091192639 0.028827831 0.037064169 -0.31566775 0.43113098 -0.84526908 0.058924653
-0.0074488996 0.028842181 0.036861371 -0.31563482 0.43107927 -0.84530789 0.058910459
-0.0044418182 0.028594119 0.036571916 -0.25326896 0.35695797 -0.89913058 0.045938827
-0.0012352641 0.029332886 0.036399025 -0.12575479 0.91093498 -0.39291617 0.15163034
0.0016562718 0.028425822 0.036459778 0.49380776 0.47033387 -0.73139596 0.11383092
0.0050618821 0.028896589 0.037048411 0.44179493 0.36912999 -0.81765538 0.056768626
0.0065240166 0.028311975 0.037712809 0.58012789 0.31962523 -0.74919373 0.065058112
-0.0071194787 0.03129356 0.037538249 -0.43712956 0.6219461 -0.64969289 0.062195648
-0.0047715176 0.032008737 0.037221085 -0.27937505 0.65654969 -0.7006368 0.084295288
-0.0014342362 0.031637926 0.036676098 0.045938242 0.64395761 -0.76368076 0.040877778
0.0019017296 0.032155387 0.037364941 0.30383334 0.60991031 -0.73191172 0.06436751
0.0042873742 0.031228367 0.037709083 0.54260695 0.55231655 -0.63286978 0.054807883
-0.003755606 0.033206318 0.03785719 -0.25008738 0.92848468 -0.27454054 0.04094718
-0.0014857524 0.033478562 0.037714519 -0.11403283 0.9560734 -0.27003747 0.041013688
0.00071341591 0.033235062 0.037759539 0.25431001 0.95308107 -0.16420375 0.046910968
0.0070595723 0.025946284 0.039313581 0.5384534 0.24229488 -0.80706948 0.053162709
-0.0088341366 0.029058671 0.039617825 -0.35354039 0.37340271 -0.85765934 0.057492077
0.0057037268 0.029163521 0.039580092 0.58012944 0.31962425 -0.74919301 0.065056466
0.0064514121 0.02797674 0.03952273 0.58012944 0.31962425 -0.74919301 0.065056466
-0.0067416942 0.031440832 0.039403826 -0.43716148 0.6219731 -0.64964551 0.062196549
-0.0045633004 0.032625969 0.039456729 -0.25008091 0.92848575 -0.27454296 0.040949643
-0.0023492225 0.032780774 0.039993066 -0.11403118 0.9561305 -0.26983544 0.040985025
0.0017448254 0.032500405 0.039545879 0.25430652 0.95310116 -0.16409245 0.046880595
0.0040732152 0.031101773 0.03950762 0.65179539 0.75680065 -0.049148291 0.01399301
