# .PCD v0.7 - Point Cloud Data file format
VERSION 0.7
FIELDS x y z normal_x normal_y normal_z curvature
SIZE 4 4 4 4 4 4 4
TYPE F F F F F F F
COUNT 1 1 1 1 1 1 1
WIDTH 550
HEIGHT 1
VIEWPOINT 0 0 0 1 0 0 0
POINTS 550
DATA ascii
-0.025606476 0.034398858 -0.0019892531 0.087651744 0.074829862 -0.99333662 0.00013972043
-0.022501076 0.034602445 -0.0016866367 0.094753996 0.020935711 -0.9952805 0.0019392265
-0.019315464 0.034477174 -0.0014028865 0.092638999 0.053642612 -0.99425375 0.00010065462
-0.016508687 0.034531642 -0.0011655069 0.086427063 0.043550707 -0.99530584 8.0211452e-05
-0.013717241 0.034514431 -0.00092132873 0.087596051 0.032789484 -0.99561632 7.3823991e-05
-0.010450251 0.034485422 -0.00061097078 0.093002759 0.020316258 -0.9954586 7.6417135e-05
-0.0075586261 0.034596793 -0.00034121081 0.092521496 0.0099624777 -0.99566084 7.6075099e-05
-0.0049870387 0.034385018 -0.00012109332 0.097224496 0.0054261237 -0.99524772 5.405421e-05
-0.040151007 0.037567917 -0.0011456492 -0.73719037 -0.15877527 -0.6567654 0.038724165
-0.037511874 0.037322745 -0.0024901454 -0.22102384 -0.0013222428 -0.97526753 0.011843133
-0.034325436 0.037445225 -0.0026786996 0.048889488 0.003309597 -0.99879873 0.0035916723
-0.031450298 0.03748779 -0.0024920378 0.081390917 -0.040496703 -0.99585921 0.0020764954
-0.028621802 0.037506618 -0.0020743546 0.091643646 -0.062951714 -0.99380004 0.002120872
-0.0256711 0.037517574 -0.0018476546 0.081446216 -0.088076428 -0.99277848 0.0033996201
-0.022502733 0.037610345 -0.0015800692 0.085796282 -0.10346481 -0.99092579 0.0040399018
-0.019314945 0.037485249 -0.0013113124 0.08192464 -0.1104566 -0.99049872 0.0041284873
-0.016494028 0.037609924 -0.0010766838 0.083611734 -0.11852606 -0.98942441 0.0045788339
-0.013571916 0.037579227 -0.00084398565 0.078370988 -0.13296314 -0.98801762 0.0048778062
-0.010440175 0.037509173 -0.00059644826 0.089391164 -0.095706485 -0.99138772 0.0017745139
-0.0074589062 0.03767857 -0.0003615109 0.081151642 -0.12374731 -0.98898989 0.002837714
-0.0047931941 0.037589282 -0.00013790729 0.10910656 -0.12122132 -0.98661095 0.0033382825
-0.0021271405 0.038800847 -0.00012204184 0.090967476 -0.24045718 -0.96638775 0.0094328625
-0.045568425 0.041365448 -0.00050934573 -0.41177779 -0.69478959 -0.58966643 0.0092152311
-0.043346446 0.041126054 -0.0013373448 -0.36384681 -0.6957913 -0.61926574 0.0074624387
-0.040535599 0.040395934 -0.0019265761 -0.35663465 -0.51141012 -0.78183854 0.041777365
-0.037548088 0.040438961 -0.0026442339 -0.048040748 -0.40045357 -0.91505688 0.024646243
-0.034594126 0.04033915 -0.0026934894 0.0036808674 -0.21249548 -0.97715515 0.014529846
-0.03135084 0.040414084 -0.0026313001 0.054981366 -0.23655915 -0.97006023 0.014253449
-0.028299959 0.040567569 -0.0024768235 0.064683184 -0.2577934 -0.96403247 0.008957725
-0.025413763 0.040619768 -0.0023097228 0.062877975 -0.28170246 -0.9574393 0.0060080653
-0.022531712 0.040537529 -0.0020568168 0.075900428 -0.28535277 -0.95541245 0.0047695749
-0.019547587 0.040512964 -0.0017969746 0.079027154 -0.28364795 -0.9556666 0.0036234397
-0.016436489 0.040636562 -0.0015751976 0.071587041 -0.29469422 -0.95290643 0.003975661
-0.013514901 0.040551197 -0.0013481657 0.052978776 -0.31305966 -0.9482547 0.0039981552
-0.01058238 0.040490441 -0.0011836268 0.040242363 -0.34230119 -0.93872809 0.0043733786
-0.0075194421 0.040578101 -0.0010746921 0.0298452 -0.38805011 -0.92115492 0.005526274
-0.0044826437 0.040633991 -0.0010068428 0.028002581 -0.38329506 -0.92320138 0.0053122491
-0.001518669 0.040559541 -0.00091627456 0.054748688 -0.44335857 -0.89467072 0.010269638
0.0014879605 0.040786877 -0.0010292578 0.0055111176 -0.61222845 -0.79066181 0.009266587
0.0045241821 0.040789064 -0.0014671081 -0.12510836 -0.77121246 -0.62416279 0.0033820174
0.0075070951 0.04037926 -0.0015058736 -0.057016436 -0.87178278 -0.48656338 0.0022213708
0.010497735 0.040198583 -0.001491488 0.012896369 -0.91943198 -0.39303756 0.0040856884
0.013443175 0.040374637 -0.001599814 0.098792031 -0.9410032 -0.32365578 0.004641471
0.016571844 0.040825296 -0.0015786197 0.18412954 -0.95818961 -0.21901831 0.003907538
0.019450918 0.041450549 -0.0014781302 0.2442085 -0.96411473 -0.1041393 0.004824616
0.021159299 0.041930795 -0.0018701631 0.27612531 -0.95774466 -0.08049757 0.0030979097
-0.05134045 0.04393677 -0.0014142521 -0.62891996 -0.76450127 -0.14141262 0.052550491
-0.049558602 0.043621656 -0.0015223686 -0.26906782 -0.90754527 -0.3224346 0.045692243
-0.046497256 0.04349985 -0.0014751466 -0.21954279 -0.83271122 -0.50832379 0.024525613
-0.044200335 0.043153543 -0.0022978606 -0.32521737 -0.76267898 -0.55906576 0.014092158
-0.040818926 0.042098213 -0.0029317441 -0.19604832 -0.6682058 -0.71768105 0.0090677673
-0.025476441 0.0421631 -0.0028923918 0.065003254 -0.55988872 -0.82601398 0.0048585259
-0.022257924 0.042482048 -0.0028214336 0.084325753 -0.52004641 -0.84996533 0.0041277185
-0.019311965 0.042655151 -0.002624864 0.084229156 -0.49847502 -0.86280245 0.0034790891
-0.016621981 0.042880651 -0.0025039893 0.065270849 -0.49652272 -0.86556625 0.0034835294
-0.013536898 0.043051317 -0.0023878044 0.034425769 -0.50055104 -0.86502224 0.0029696818
-0.01046528 0.043036886 -0.0023378013 0.0037313588 -0.52321458 -0.85219282 0.0029729009
-0.0074327495 0.043051858 -0.0024049596 -0.019973539 -0.56558436 -0.82444859 0.0032069564
-0.0044435002 0.04279967 -0.0023748265 -0.044213701 -0.62081063 -0.78271282 0.0032280756
-0.0015851451 0.042610221 -0.0024064449 -0.067191564 -0.68625343 -0.7242524 0.0037974122
0.001208175 0.04234622 -0.0024895915 -0.12484233 -0.72084266 -0.68176258 0.0037385952
0.0031578839 0.042052876 -0.0028172114 -0.14615467 -0.75892818 -0.63456041 0.0030878629
0.022715174 0.042419851 -0.0018217653 0.25888386 -0.96362454 -0.066384777 0.0031270692
0.025344731 0.043347277 -0.0016997055 0.34598139 -0.93509132 0.076819025 0.0031266753
0.02804127 0.044408541 -0.0018211975 0.3772687 -0.91141522 0.16428834 0.0020579787
-0.051864862 0.046419699 -0.00090925477 -0.95156419 -0.26008117 -0.16396172 0.037913296
0.029446825 0.045412611 -0.00047888295 0.40779066 -0.89321959 0.1893819 0.00087447255
0.031488284 0.04602731 -0.0018565893 0.39296722 -0.89764321 0.19953293 0.0008990498
0.034287632 0.047290739 -0.0023848996 0.39478844 -0.89720029 0.1979237 0.00040479502
-0.052021746 0.049338739 -0.0012014152 -0.99797541 -0.0040499666 -0.063471928 0.0015718424
-0.051835142 0.052857965 -0.0013564784 -0.98743093 0.097003751 -0.12478145 0.0022610386
-0.051436272 0.055551916 -0.0010962735 -0.97389817 0.17482659 -0.14476857 0.0010876949
-0.018135123 0.063809387 -0.00080057891 -0.19756778 0.69903934 -0.68724883 0.0012719472
-0.01735742 0.064405143 -0.00039914102 -0.23843986 0.68839782 -0.68502182 0.00087249361
-0.013424087 0.065179698 -0.00097293762 -0.26994953 0.65885592 -0.70216537 0.00053583505
-0.01109298 0.064672835 -0.0024366432 -0.34422335 0.64107203 -0.68595695 0.00051188422
-0.0091186445 0.067670986 -0.00063466141 -0.39156929 0.64527267 -0.65597004 0.0012185499
-0.0078293988 0.067197725 -0.0019035552 -0.43395126 0.63034922 -0.64369726 0.00068586925
-0.0050750938 0.068384342 -0.0027394788 -0.50498134 0.6116333 -0.60901439 0.00054023456
-0.0065409346 0.069280952 -0.00068023469 -0.45401591 0.63458842 -0.6254335 0.00048167977
-0.0044702478 0.070301086 -0.0012231637 -0.49811709 0.62270784 -0.60341883 0.00034110318
-0.0027786202 0.071072757 -0.0019131734 -0.50693101 0.61994332 -0.59890842 0.00029743122
-0.0011767718 0.072315618 -0.0020296942 -0.52895021 0.62571657 -0.57331526 0.00030110581
0.013883049 -0.078133799 0.00049235678 -0.13285267 -0.98183537 0.13545978 0.0029417505
0.016478794 -0.078245111 0.0011242906 -0.082052581 -0.97243398 0.21826485 0.0019103395
0.01862715 -0.078497492 0.00063574227 -0.081574336 -0.96742648 0.23964894 0.0015348684
0.021803817 -0.078386031 0.00089472497 -0.058022819 -0.96517712 0.2550813 0.00047602988
0.0019193927 -0.075404018 0.0017648885 -0.42289501 -0.88962042 -0.17243941 0.014493152
0.0044766534 -0.076175123 0.0013999253 -0.28626359 -0.94975483 -0.12656555 0.0041400241
0.0074858642 -0.07695245 0.0014496231 -0.24583805 -0.96832579 -0.043689143 0.0042088334
0.010447583 -0.077527367 0.0014634192 -0.17409354 -0.98315954 0.055576388 0.0033185934
0.013265513 -0.077828854 0.0018108957 -0.069344185 -0.98409063 0.16357595 0.0026766411
0.017282423 -0.077834114 0.00256923 -0.04345597 -0.96612513 0.25438905 0.00084811373
-0.0012289325 -0.073211938 0.00168231 -0.55033243 -0.80362731 -0.22653335 0.014540509
0.00081047282 -0.074680679 0.00083335344 -0.45023856 -0.84928173 -0.27569136 0.0033139493
-0.010053128 -0.069352448 0.0020660909 -0.39427274 -0.81435657 -0.42587835 0.011504263
-0.0073890183 -0.069815464 0.0012872447 -0.35934055 -0.83167249 -0.4233146 0.0090314541
-0.0044669611 -0.071019791 0.0017365209 -0.41598833 -0.8392781 -0.35009414 0.0032678482
-0.0022216826 -0.071541652 0.00085645978 -0.54860485 -0.77882916 -0.3040688 0.0062867957
-0.018564731 -0.066202395 0.0026508672 -0.22726099 -0.78562438 -0.57545364 0.0016843058
-0.016215103 -0.066707037 0.0023093566 -0.24290508 -0.79239929 -0.55955374 0.0041428143
-0.013350108 -0.067345649 0.001736109 -0.33257195 -0.80779606 -0.48668414 0.0095251761
-0.010752319 -0.067936085 0.0010096061 -0.38469473 -0.75980926 -0.52411819 0.0091470983
-0.008353929 -0.068654723 0.0003618435 -0.39501894 -0.66359586 -0.63529563 0.0014817186
-0.030568693 -0.063284256 0.0028288215 -0.20054445 -0.85557586 -0.47725469 0.00050033676
-0.028254157 -0.063562438 0.0023968422 -0.18478413 -0.83374465 -0.52031207 0.00031619455
-0.025290463 -0.063851483 0.0018869754 -0.17973958 -0.81558383 -0.55001527 0.00021945121
-0.022419281 -0.06423872 0.0015111364 -0.17481104 -0.79591864 -0.57961595 0.00053365587
-0.019522699 -0.064814515 0.0013669088 -0.21369849 -0.76796228 -0.60379374 0.0015656751
-0.016632831 -0.06527397 0.00088026299 -0.24355224 -0.75587875 -0.60772491 0.0028743083
-0.014082215 -0.065755971 0.00040530087 -0.29520819 -0.68615115 -0.66486746 0.00043422502
-0.042668812 -0.060259882 0.002401643 -0.25009182 -0.90578896 -0.34205306 0.0002930389
-0.040380336 -0.060493868 0.0016061479 -0.20962197 -0.9091953 -0.35975352 0.0003728811
-0.037434846 -0.061105512 0.001515893 -0.18643089 -0.89869225 -0.39698336 0.00023074502
-0.034441739 -0.061682962 0.0014645905 -0.17623504 -0.8820008 -0.43705356 0.00065431971
-0.031515416 -0.062251594 0.0014099694 -0.19645429 -0.85834366 -0.47397453 0.00037025294
-0.028586492 -0.062544554 0.00099803449 -0.14955458 -0.83601987 -0.52792448 0.00051537057
-0.025853409 -0.062713474 0.00045883411 -0.15163742 -0.81467754 -0.55973786 0.0005913697
-0.023814982 -0.062842324 4.4685508e-05 -0.15081139 -0.7864396 -0.59897304 0.0003881334
-0.051339686 -0.057432801 0.0020523884 -0.48661327 -0.82656705 -0.2828328 0.022213634
-0.04935183 -0.057573631 0.00154124 -0.47694811 -0.83287638 -0.28078014 0.021236101
-0.046627533 -0.058603566 0.0013467422 -0.34082729 -0.85650778 -0.38759667 0.0030702269
-0.043752681 -0.059553429 0.0011716114 -0.26401186 -0.8940686 -0.36185506 0.0010223404
-0.041376904 -0.059754644 0.00030657797 -0.19368024 -0.91351599 -0.35773793 0.00042605901
-0.051798191 -0.05559675 0.0015902558 -0.87745941 -0.36587593 -0.31016093 0.035952605
-0.052236702 -0.052539304 0.0014256645 -0.97565687 -0.13567886 -0.17229331 0.0015389787
-0.052409027 -0.049441416 0.0013224587 -0.99027181 -0.0099411579 -0.13879043 0.0019855273
-0.05236442 -0.046470586 0.0017491761 -0.98031825 0.097843669 -0.17147256 0.00077842898
-0.051964846 -0.04355973 0.001821178 -0.98451328 0.096110307 -0.14661653 0.00099236623
-0.042194765 -0.037320223 0.0026509643 -0.84452301 0.39574638 -0.36078483 0.017388768
-0.041521333 -0.037181549 0.0010245297 -0.71800339 0.46724164 -0.51590353 0.041559823
-0.0037068606 -0.036716636 4.2621425e-05 0.050967321 0.17753376 -0.98279411 0.0063894964
-0.0015627273 -0.037105124 0.00016575467 0.11112098 0.18536194 -0.97636729 0.0068387156
0.0014281331 -0.037219338 0.00064957398 0.17893913 0.27709132 -0.94403452 0.019409239
0.0037017548 -0.037822071 0.0014560585 -0.055165812 0.5270645 -0.84803289 0.028728003
-0.040794235 -0.034474384 0.0017259076 -0.93814939 0.16320777 -0.30535045 0.009285369
-0.0036646498 -0.034898009 3.0936873e-05 0.081538506 0.018189605 -0.99650425 0.00088530628
-0.0017114661 -0.034469556 0.00020986662 0.1391712 0.027260894 -0.98989302 0.0015738917
0.001398087 -0.03455532 0.00081643317 0.2045265 0.05102798 -0.97753012 0.003821189
-0.040669709 -0.031471658 0.002517144 -0.96615762 0.020639336 -0.25712565 0.0020225844
-0.0017094269 -0.031452309 0.00017680408 0.16231884 -0.014481304 -0.98663211 0.00030302131
0.0014713352 -0.031551573 0.00086946419 0.23872773 0.018343057 -0.97091329 0.0017204195
-0.04056637 -0.028614827 0.0022488257 -0.97130209 -0.007692581 -0.23772499 0.0020075301
-0.0015090613 -0.02861019 0.00017718678 0.16816641 -0.019674491 -0.98556226 0.0002929951
0.0012211052 -0.028627671 0.00072987925 0.27430665 0.02001144 -0.96143407 0.0032238148
0.0030491173 -0.027989527 0.0017518549 0.66914767 -0.08473713 -0.73828244 0.036608741
-0.040522747 -0.025505943 0.0021361813 -0.97288835 0.0025362477 -0.2312613 0.0029361174
-0.0012955086 -0.025511617 0.00018962611 0.17686546 -0.0065037897 -0.98421353 0.00017121372
0.0012714439 -0.025579253 0.00072700484 0.3094894 0.0031171006 -0.95089775 0.0040201312
0.003126547 -0.025357218 0.0018210764 0.64918727 -0.023290478 -0.76027197 0.047322314
-0.040283419 -0.022518516 0.0015133421 -0.97385311 0.018211225 -0.2264477 0.0029027094
-0.0012765214 -0.022526175 0.00017287229 0.18547815 -0.0067593814 -0.98262513 0.00016323732
0.0012636632 -0.022481438 0.00073007564 0.32747227 0.0049913567 -0.94484764 0.0044099316
0.0032172189 -0.022367056 0.0019063797 0.36251253 -0.0010111326 -0.93197834 0.0027011363
-0.040205795 -0.019375445 0.0013129124 -0.96873426 0.055277571 -0.24186443 0.0041973782
-0.0010855633 -0.019625133 0.00018569337 0.19605474 -0.004992093 -0.98058027 0.00019259982
0.0013009413 -0.01943779 0.00073846319 0.35103738 0.0023810857 -0.93635845 0.0047303578
0.003318388 -0.019335646 0.0020158323 0.39151213 0.01330399 -0.92007679 0.0032434221
-0.040248901 -0.016526312 0.0014271373 -0.92884052 0.044502199 -0.36779717 0.0064996104
-0.00088914053 -0.016532108 0.00020359139 0.20605786 -0.0044232896 -0.97852981 0.00018968992
0.0014371721 -0.01645153 0.00078977109 0.37003475 -0.0028301531 -0.92901355 0.0054018577
0.0034144456 -0.016609259 0.0021268299 0.40555677 -0.0032228795 -0.91406417 0.0030324215
-0.040296976 -0.013484359 0.0015542988 -0.93134838 -0.005476817 -0.36408818 5.6277637e-05
-0.00085058407 -0.013550719 0.00019485688 0.21811363 -0.0067186789 -0.97590017 0.00017577589
0.0014177472 -0.013444198 0.00077861117 0.34741035 -0.015189614 -0.93759018 0.0049910815
0.0034991328 -0.014206576 0.0022247348 0.41308269 -0.0011775604 -0.91069275 0.003172175
-0.040349849 -0.01049242 0.0016930832 -0.89718306 0.0076419162 -0.44159266 0.0051625026
-0.00081449666 -0.010550727 0.00017935646 0.231993 -0.0068046888 -0.97269368 0.00022289722
0.0014928761 -0.010491423 0.00080380496 0.31437364 -0.036234818 -0.94860756 0.0032566439
-0.040278818 -0.0074836691 0.0015080975 -0.89707524 -0.049418971 -0.43910575 0.0070331837
-0.00067498814 -0.0077151619 0.00018042099 0.24678269 -0.0081760772 -0.96903634 0.00021953009
0.0016564395 -0.0075100679 0.00087735895 0.2553623 -0.0053880536 -0.96683043 0.00013182848
-0.040638562 -0.0044089095 0.0018276874 -0.89031392 -0.10076436 -0.44405827 0.0048622964
-0.00045385666 -0.0045187874 0.00020635285 0.26283476 -0.0093376935 -0.96479571 0.00022748015
0.0015768495 -0.0045164311 0.00084980467 0.2724939 -0.005914262 -0.96213937 0.00013473192
-0.041109331 -0.0016184694 0.0023039181 -0.87959123 -0.073365219 -0.47003925 0.0049818722
-0.00034510606 -0.0014584876 0.00020132083 0.27948469 -0.0048712818 -0.96013778 0.0002350258
0.0016778165 -0.0015675743 0.00089053338 0.28881711 -0.0038132176 -0.95737666 0.00014007972
-0.042010456 0.0023424423 0.0026739456 -0.8714087 0.032674003 -0.4894684 0.012998032
-0.041196842 0.0012988007 0.0022827692 -0.87140793 0.032675166 -0.48946956 0.012997114
-0.00045634434 0.0012002027 0.00016048948 0.28290206 -0.0032422708 -0.95914328 0.00017489507
0.0016006281 0.0015904024 0.00089711696 0.33070603 0.0119713 -0.94365788 0.0010799619
-0.042052675 0.0045001768 0.0028222655 -0.78446668 0.075897172 -0.61550933 0.011140957
-0.040822998 0.0042479122 0.002437911 -0.89376366 0.12658399 -0.43030563 0.01528386
-0.00062184315 0.0044910153 0.00013145605 0.32827225 0.0068717245 -0.9445582 0.0014770139
0.0011553088 0.0044958703 0.00066526554 0.3565681 0.0084054507 -0.93423152 0.0016890692
0.0030476614 0.0047864905 0.0017266975 0.37106618 0.023770483 -0.92830217 0.0012683859
-0.0403505 0.0078223739 0.0017019378 -0.88696992 0.057634141 -0.45821688 0.011589801
-0.00089627551 0.0075401175 9.4338029e-05 0.25185022 0.0090058036 -0.96772426 6.8348461e-05
0.0011692632 0.0075071119 0.00066795805 0.37261802 0.011662444 -0.92791152 0.0024290008
0.0031352991 0.007675536 0.0018151535 0.37261811 0.01166247 -0.92791152 0.0024289943
-0.040217932 0.010561314 0.0013572767 -0.89675158 -0.011877975 -0.44237486 0.0058778222
-0.00084325997 0.010397119 0.00012954242 0.24209641 0.0084927138 -0.97021508 5.647372e-05
0.0011469199 0.010531715 0.00066993845 0.37628981 0.009117065 -0.92645711 0.0029826378
0.0032242006 0.010588496 0.0019056855 0.37628976 0.0091170324 -0.92645717 0.0029825997
-0.040237173 0.013484713 0.0014080423 -0.93168247 0.0060968106 -0.36322236 3.1275795e-05
-0.00082369178 0.013460532 0.00015891346 0.23086379 0.0055766506 -0.97297013 0.00011463944
0.0012668787 0.013502425 0.00071646174 0.38419813 0.0064644627 -0.92322803 0.0035802838
0.0033179892 0.013532753 0.0020069596 0.41995206 0.015147941 -0.90741986 0.0020681866
-0.040308695 0.016510395 0.0015957815 -0.92460519 -0.015996976 -0.38059083 0.0040735304
-0.0007391551 0.016520491 0.00018122711 0.22271632 0.0099618845 -0.97483236 0.00014251453
0.0013017006 0.016491495 0.00072887918 0.38993129 0.0089139473 -0.92080081 0.0042231409
0.0034136709 0.016502896 0.0021117972 0.41845042 0.0054691141 -0.90822321 0.0025211223
-0.040298935 0.019375594 0.0015708935 -0.96280724 -0.035993919 -0.2677812 0.0029851594
-0.0010113398 0.01944207 0.00016877946 0.20843545 0.014449876 -0.97792935 0.00022754558
0.001382935 0.019501898 0.00076598697 0.35102791 -0.015990265 -0.93622839 0.0051252209
0.0034989894 0.019122934 0.0022065397 0.41188538 0.0085784402 -0.91119528 0.0031857234
-0.040270641 0.022480557 0.0014980385 -0.96790189 -0.03407364 -0.24900791 0.0023366753
-0.0010587743 0.022451539 0.0001878508 0.18587567 0.023063127 -0.98230255 0.00039168255
0.0014399184 0.022444736 0.00079033244 0.29503667 -0.003713378 -0.95547873 0.0044843708
-0.040331803 0.025486602 0.0016584815 -0.97111595 -0.026631625 -0.23711699 0.0031416139
-0.0015148149 0.02552525 0.00018499461 0.17465267 0.016738778 -0.98448777 0.00034924169
0.0014979077 0.02541122 0.00081619574 0.18508892 0.0077994913 -0.98269081 0.00024628639
-0.040421467 0.028443843 0.0018930845 -0.96152085 -0.019025242 -0.27407247 0.0040461505
-0.001504794 0.028638458 0.0001829173 0.16319671 0.0079579661 -0.98656148 0.00036662552
0.001556741 0.028401362 0.00084325601 0.17651689 0.006429988 -0.98427659 0.00020117234
-0.040621627 0.031741612 0.0024159453 -0.96903461 -0.009873935 -0.24672757 0.0029030612
-0.0033969879 0.032140039 1.7450424e-05 0.1019481 0.011102233 -0.99472773 2.1769711e-05
-0.0014599551 0.031639285 0.00020154445 0.16361947 0.0036311087 -0.98651683 0.00048585312
0.0016163753 0.031415291 0.00087132049 0.17027751 -0.0027643724 -0.98539227 0.00030267364
-0.040722396 0.034573089 0.002122015 -0.96496844 -0.11780247 -0.23443241 0.0098994924
-0.0033696191 0.034403957 2.8729986e-05 0.08923395 -0.0010554697 -0.99601012 7.9206417e-05
-0.0013818581 0.034590922 0.00022226787 0.14993893 -0.026557814 -0.98833853 0.0013359805
0.0016762998 0.034452252 0.00089921488 0.22024034 -0.047540862 -0.97428638 0.0049321633
-0.042329784 0.038159765 0.0025273825 -0.79181278 -0.49450153 -0.35847002 0.019608175
-0.041373231 0.037652753 0.0012944804 -0.87706965 -0.33817998 -0.34114963 0.032721933
-0.0035493432 0.036746625 4.2065625e-05 0.053224098 -0.14698899 -0.98770511 0.0055737519
-0.0013382469 0.037413865 0.00015901147 0.12864506 -0.14915705 -0.98040938 0.0058727181
0.0016760963 0.037612412 0.00073002296 0.23004293 -0.23096454 -0.94537586 0.017681275
0.0046733222 0.038251191 0.0019408857 0.15589219 -0.88281709 -0.44309333 0.016023254
0.0074876929 0.038598843 0.0019824544 0.10319226 -0.9143737 -0.39149991 0.0045411331
0.010363231 0.038828686 0.002349176 0.19274434 -0.94565475 -0.26189071 0.0039361739
-0.048236601 0.041142385 0.0024340833 -0.36936727 -0.82231873 -0.43285072 0.011662638
-0.046460744 0.040740747 0.0015370365 -0.36654755 -0.8191582 -0.44116062 0.015135988
-0.043610577 0.039949674 0.0013988833 -0.4822118 -0.80409884 -0.34770229 0.011869933
-0.041915812 0.039278097 0.00018519124 -0.5142287 -0.69707781 -0.49965134 0.03497253
0.0019436456 0.039279602 0.00018788697 0.13062194 -0.59754324 -0.79112571 0.015273789
0.0044202143 0.039390422 0.00043272838 0.068490013 -0.82936537 -0.55449265 0.021092247
0.0074995938 0.039241914 0.00054229918 0.012628205 -0.89615089 -0.44356954 0.0047858013
0.010521733 0.039258242 0.00091059005 0.091047026 -0.95400441 -0.28563261 0.0050052735
0.013481694 0.03961245 0.0014833997 0.23347998 -0.95289987 -0.19356872 0.0046056132
0.016407611 0.040362507 0.001489678 0.26013404 -0.96275407 -0.073721573 0.003059926
0.019605275 0.041396908 0.001312819 0.33048406 -0.94185406 0.060755365 0.0044857087
0.021029273 0.041850653 6.7032131e-05 0.32348004 -0.94533986 0.041150052 0.006344324
-0.051727694 0.043441877 0.0016750435 -0.8663156 -0.41527373 -0.27756983 0.030911786
-0.049546953 0.042569853 0.0014899563 -0.31425217 -0.86396921 -0.3934499 0.013894076
-0.047225129 0.042763997 0.0006858983 -0.32419896 -0.7827847 -0.53117156 0.015162378
0.022573145 0.042593352 0.0013666971 0.35624865 -0.92831582 0.1063801 0.0017851308
0.025572972 0.043977316 0.0012945873 0.39683193 -0.90315044 0.16384029 0.00075933151
0.027513202 0.044928484 0.0011300043 0.41709313 -0.89147794 0.17691921 0.00058857619
-0.052247509 0.046444505 0.0016948881 -0.9516995 -0.23996793 -0.19152935 0.027454218
0.028784797 0.045554686 0.00096027483 0.40596119 -0.89403844 0.1894484 0.00088726991
0.030401837 0.046133086 9.4223142e-05 0.40358996 -0.89435667 0.19297969 0.00078153115
-0.052419957 0.049405996 0.0016247724 -0.98242366 0.020554444 -0.18552959 0.0018089844
-0.052308496 0.0524414 0.0015099891 -0.97739303 0.10399422 -0.1840872 0.0015130189
-0.051941417 0.055290591 0.0016016408 -0.98153001 0.1172929 -0.15113324 0.0021294046
-0.051540688 0.057286568 0.0018537163 -0.98153043 0.11729251 -0.15113074 0.0021297806
-0.015781378 0.065636672 0.00044253704 -0.26995832 0.65885818 -0.70215976 0.00053334393
-0.0096705351 0.068437457 0.00046169618 -0.40043387 0.65449959 -0.64131349 0.00089959975
-0.010453276 0.069351844 0.0018162774 -0.35336441 0.64242822 -0.68001443 0.0012038125
-0.0070308764 0.070201442 0.00056898693 -0.44441196 0.62751043 -0.63931888 0.00058521196
-0.0048706196 0.071437553 0.0002392186 -0.48132348 0.63306928 -0.60625988 0.00084194652
-0.00054638542 -0.075126387 0.004927265 -0.48141634 -0.86227262 -0.15723926 0.01625756
0.0014701005 -0.075674064 0.0044422885 -0.33581883 -0.93987232 -0.062175967 0.018484445
0.0043521868 -0.076315977 0.0044433479 -0.24582638 -0.96857285 0.037895944 0.0092895674
0.0073573971 -0.076783054 0.0044135498 -0.11633744 -0.98377579 0.13656794 0.0040530697
0.010373926 -0.077089131 0.0043450426 -0.1190538 -0.982059 0.14624004 0.0032086112
0.013005113 -0.077265508 0.0041862451 -0.055307869 -0.96638858 0.251066 0.00074244506
0.016793642 -0.077275656 0.0039557298 -0.044591807 -0.96509862 0.25806251 0.00054785167
-0.0060683587 -0.072044142 0.0056787161 -0.46021399 -0.81822175 -0.34455213 0.0059544789
-0.0040766154 -0.072566807 0.0047703795 -0.40441406 -0.84509951 -0.34965131 0.0039575133
-0.0016100085 -0.073589876 0.0045529627 -0.44427428 -0.849464 -0.28465995 0.012013091
0.00030337885 -0.07420776 0.0052656224 -0.41840047 -0.90311706 -0.096543446 0.024171995
-0.012587355 -0.069261692 0.0056779101 -0.33160418 -0.88099974 -0.33745828 0.0041758162
-0.010398248 -0.069732174 0.0048945653 -0.34714332 -0.86910355 -0.35235006 0.0040135984
-0.0075315717 -0.070761599 0.0044181556 -0.35196567 -0.86878246 -0.34833488 0.0032983746
-0.0052520181 -0.07157214 0.0038016229 -0.37709609 -0.85207874 -0.36298805 0.00091460522
-0.022014547 -0.066312514 0.0043519363 -0.25347322 -0.91284204 -0.32011053 0.0086226938
-0.019428847 -0.066736907 0.0041725691 -0.22417694 -0.89588314 -0.38358566 0.0056837965
-0.016516043 -0.067621373 0.004360354 -0.25682351 -0.88099223 -0.39735928 0.0043100878
-0.013724405 -0.068525016 0.004669026 -0.27849889 -0.88636279 -0.36986405 0.001391379
-0.011758961 -0.068671539 0.0042600194 -0.35711107 -0.86248833 -0.35858816 0.004681604
-0.033955634 -0.063248098 0.0043502375 -0.22671551 -0.94516242 -0.23509152 0.010019002
-0.031413309 -0.063678354 0.0039278879 -0.18500604 -0.93106937 -0.31445584 0.010109428
-0.028475247 -0.064446643 0.004014743 -0.18657117 -0.93067384 -0.31470186 0.0070456895
-0.025463628 -0.065142222 0.0040070815 -0.22048935 -0.89798802 -0.38079125 0.012502176
-0.022776127 -0.065657146 0.0038060399 -0.23545757 -0.89642483 -0.37547603 0.011584184
-0.020582069 -0.065824851 0.0030270196 -0.31155729 -0.79508114 -0.52036333 0.011404919
-0.045442555 -0.060155857 0.0041939616 -0.28474307 -0.95135707 -0.11764803 0.0088227941
-0.043535966 -0.060524393 0.0039413837 -0.21815866 -0.96443784 -0.14921948 0.0096294247
-0.040491432 -0.06135783 0.0038458661 -0.22714949 -0.95296335 -0.20065865 0.0045465049
-0.037486177 -0.062114965 0.0039711185 -0.25431019 -0.94970357 -0.18272768 0.0068854201
-0.0347418 -0.062690921 0.0037760732 -0.2363748 -0.94048762 -0.24415179 0.0093442462
-0.032591403 -0.062938109 0.00315339 -0.26401478 -0.91695935 -0.29913515 0.0087386454
-0.051475052 -0.057995487 0.0042588832 -0.63281631 -0.77238077 -0.054510549 0.039212573
-0.049483996 -0.058413729 0.0043089967 -0.41739658 -0.89640903 -0.14910032 0.018172387
-0.046824101 -0.059635539 0.0038206815 -0.32944593 -0.93162781 -0.15341111 0.008965278
-0.052263319 -0.055792488 0.00375208 -0.88960242 -0.44015849 -0.12193455 0.046047967
-0.05282389 -0.052283935 0.003882431 -0.98842275 -0.15130365 0.011297256 0.0081219319
-0.052953221 -0.049778003 0.0036622912 -0.99715585 -0.049655531 -0.056696903 0.0089873346
-0.052821945 -0.046410874 0.003560198 -0.99536383 0.086756922 -0.041520476 0.0071759587
-0.052412555 -0.043640226 0.00352909 -0.99536425 0.086753801 -0.04151823 0.0071592564
-0.052124068 -0.041798968 0.0039827283 -0.99332952 0.099459969 -0.05834578 0.0067683663
-0.042648219 -0.036810186 0.0041842451 -0.90960282 0.21692607 -0.35435265 0.0050722566
-0.041362725 -0.034114074 0.0043228208 -0.93885994 0.16482145 -0.30228466 0.0067140115
-0.041429751 -0.03161573 0.0044993493 -0.93629277 0.096048594 -0.33783206 0.0059728483
-0.041486878 -0.028524047 0.0046500508 -0.93373525 0.0001573224 -0.35796434 0
-0.042001437 -0.026474386 0.005993335 -0.93046325 -0.029092493 -0.36522835 0.00088544266
-0.041435339 -0.025492536 0.0045175105 -0.92432785 -0.024876479 -0.38078755 0.00079074729
-0.041350212 -0.022477943 0.0042972988 -0.90613621 -0.050421804 -0.41996995 0.0020904806
-0.041407343 -0.019547315 0.0044474453 -0.88406456 -0.044194128 -0.46527067 0.0033580104
-0.042752557 -0.01592806 0.005746278 -0.85045791 -0.038549412 -0.52462882 0.0046650134
-0.041460644 -0.016518131 0.0045865942 -0.86868429 -0.023700256 -0.49479884 0.005053746
-0.04273311 -0.013580647 0.0053348322 -0.83605498 -0.044515382 -0.54683667 0.0066245808
-0.041393694 -0.013466509 0.0043648947 -0.85127479 -0.032972336 -0.52368319 0.0074000326
-0.042708568 -0.01059535 0.004830075 -0.83864015 -0.046570886 -0.54269141 0.0073253238
-0.041395862 -0.010528966 0.0041477815 -0.83869392 -0.04729991 -0.54254526 0.007349188
-0.042696171 -0.0075037442 0.0044906405 -0.85060191 -0.032734506 -0.52479029 0.0081175221
-0.041365061 -0.0076070251 0.0035575309 -0.83361918 -0.046854351 -0.55034858 0.0076368949
-0.042646363 -0.0045846053 0.0043289829 -0.86687237 -0.027625548 -0.49776405 0.0060195313
-0.041185901 -0.005348702 0.0032093856 -0.86804557 -0.048928455 -0.4940677 0.0077458941
-0.042698473 -0.0015988977 0.0044664494 -0.86887455 -0.071336143 -0.48986548 0.0038997594
-0.042751022 0.0014116913 0.0046048104 -0.88425875 -0.023189778 -0.46642116 0.0079069594
-0.042691816 0.0044529792 0.0044516069 -0.85304618 0.077134557 -0.51610315 0.015124731
-0.041054353 0.0053989179 0.0030645665 -0.869654 0.095392972 -0.48435751 0.020023441
-0.042731516 0.0074173892 0.004598178 -0.85604584 0.065122455 -0.5127812 0.012729106
-0.041278757 0.0076181921 0.0034488756 -0.78583658 0.054595973 -0.61601973 0.010523158
-0.042814344 0.010533183 0.0048904521 -0.84381437 0.039159201 -0.53520459 0.0076917349
-0.041318011 0.010489712 0.0039471849 -0.83771366 0.037988804 -0.54478675 0.0078751985
-0.042853769 0.013531264 0.0053434889 -0.84287047 0.047807362 -0.53598863 0.0083318641
-0.041368976 0.013575397 0.0043357788 -0.85005498 0.047883641 -0.52451289 0.0074453396
-0.042685807 0.016018325 0.0057389108 -0.85492486 0.053618211 -0.51597333 0.0051185908
-0.04143038 0.01653366 0.0045202826 -0.8621012 0.033455294 -0.50563061 0.0054708691
-0.041405905 0.019593168 0.0044570942 -0.87820357 0.037870023 -0.47678548 0.0034015223
-0.041399792 0.022467416 0.0044422746 -0.90401959 0.050329391 -0.42451787 0.0023825879
-0.041465886 0.025486356 0.0046156826 -0.92217869 0.032168098 -0.38542402 0.0012318357
-0.041368198 0.02849222 0.0043620211 -0.93368083 0.00012706699 -0.35810617 0
-0.041401908 0.031423427 0.0044506979 -0.93730426 -0.0092061097 -0.34839064 0.0001788826
-0.041405614 0.034553494 0.0044611287 -0.92573625 -0.18984117 -0.32706666 0.013453272
-0.043153003 0.038099829 0.0045599625 -0.63371021 -0.67849612 -0.37155667 0.02869354
-0.041454308 0.037049953 0.0044709188 -0.82617855 -0.4779613 -0.29829854 0.017659996
0.0052692546 0.037433837 0.0042059859 0.27422166 -0.85477209 -0.44064391 0.023613654
0.0074883364 0.037636284 0.0044664661 0.19388111 -0.94282001 -0.27110964 0.004027158
0.010465174 0.038452182 0.0044543487 0.26501912 -0.94416785 -0.1957342 0.0034419785
0.01227584 0.038929176 0.0045463429 0.29400542 -0.95083767 -0.097306915 0.0041681603
-0.051347129 0.041590668 0.0043097329 -0.64086598 -0.76297367 -0.084628776 0.035761524
-0.049299341 0.041000262 0.0045924848 -0.41324544 -0.86585492 -0.28199911 0.0068893754
-0.046456221 0.039851706 0.00450153 -0.34038293 -0.88723195 -0.31138217 0.0046144924
-0.044342104 0.03938558 0.0042816098 -0.46296069 -0.84082127 -0.28051195 0.0051926682
0.013723413 0.039407201 0.0045318566 0.32252881 -0.94652373 0.0082385959 0.0044029918
0.016208626 0.040331718 0.0045798002 0.36645579 -0.92600328 0.090708353 0.0035870986
0.018923247 0.04142981 0.0040419088 0.40078989 -0.9015274 0.1631436 0.0025623762
-0.052181624 0.043117337 0.0041019679 -0.88077503 -0.46643367 -0.081699885 0.036501221
-0.050701357 0.042003166 0.0031144142 -0.39119455 -0.84148788 -0.37264591 0.018480476
0.020632889 0.042333186 0.0043684319 0.42481849 -0.88407737 0.19477302 0.0013138964
0.022555977 0.043206677 0.0039456761 0.39932957 -0.90042758 0.17252816 0.001644708
-0.052774977 0.046781436 0.0036737609 -0.98470968 -0.17091225 0.033702888 0.012235725
-0.052912671 0.049285527 0.0036517428 -0.99697298 -0.07772702 0.0018249048 0.0086904662
-0.052851986 0.05263589 0.0037694098 -0.978504 0.11408663 -0.17179675 0.0016454398
-0.052422635 0.05541582 0.0036613499 -0.97850525 0.11408748 -0.17178901 0.0016249567
-0.051943891 0.057465285 0.0035800589 -0.9803856 0.13143666 -0.14686237 0.0013691731
-0.00055492372 -0.07517048 0.0070085237 -0.33994094 -0.9398486 0.033536568 0.026369294
0.0014926427 -0.075623162 0.0073953662 -0.25895521 -0.96217513 0.084624767 0.014898214
0.0042624539 -0.075992353 0.0074139289 -0.12380567 -0.97548252 0.18195051 0.0024600481
0.0072554126 -0.076219611 0.0072030313 -0.073486581 -0.9797076 0.18647467 0.0017395602
0.011397998 -0.076290675 0.006882722 -0.071685426 -0.97809035 0.19544949 0.001684038
-0.010415251 -0.072465025 0.0085880784 -0.32378224 -0.92625374 -0.1929227 0.03144066
-0.0069948742 -0.072877541 0.0077640349 -0.25263187 -0.92125839 -0.29573667 0.023881411
-0.004522081 -0.073527023 0.0072575458 -0.35617676 -0.89397311 -0.271938 0.0072886534
-0.0020084609 -0.074394532 0.0072839586 -0.38440442 -0.91310525 -0.1359119 0.017292835
-0.01579397 -0.069240555 0.0082201529 -0.31524339 -0.86945111 -0.38036343 0.00028312442
-0.01341977 -0.069853336 0.0075495308 -0.28108004 -0.88540208 -0.37021226 0.0024510967
-0.010527873 -0.070824772 0.0073547815 -0.2872377 -0.86764753 -0.40581045 0.021486072
-0.0080383029 -0.071671717 0.0071854722 -0.31127205 -0.8745749 -0.37179106 0.022801356
-0.024856115 -0.066294536 0.0083212079 -0.25458297 -0.91209346 -0.32136118 0.0038062611
-0.022427682 -0.066688284 0.0075406642 -0.28560168 -0.91229516 -0.29351187 0.0035295151
-0.019508144 -0.067574501 0.0073866555 -0.27724564 -0.91823661 -0.28280109 0.0013476959
-0.016696762 -0.06841749 0.0071065598 -0.31912687 -0.88030297 -0.35103369 0.00085629331
-0.014557538 -0.068788193 0.0062209051 -0.28474724 -0.89161026 -0.35206553 0.0014415428
-0.036621355 -0.063104942 0.0087459907 -0.26971722 -0.89278531 -0.36081442 0.00046663161
-0.034229349 -0.063447885 0.0079462947 -0.25992116 -0.93562061 -0.23886213 0.0069264662
-0.031492289 -0.063980639 0.0074275397 -0.2562809 -0.94111258 -0.22051571 0.0046088574
-0.028481157 -0.064849749 0.0074729994 -0.24917842 -0.93712664 -0.24434371 0.0041289283
-0.025788784 -0.065473534 0.0071293153 -0.23568745 -0.93788821 -0.25459218 0.0041474449
-0.02336755 -0.065742522 0.0061947014 -0.26804298 -0.93450254 -0.23421766 0.0035896054
-0.048607245 -0.060226049 0.0088384328 -0.51441085 -0.7974664 -0.31532353 0.043360107
-0.045484696 -0.060190886 0.0083849998 -0.17803313 -0.95569068 -0.23443435 0.018427055
-0.043461386 -0.060590167 0.007646828 -0.27750784 -0.94450754 -0.1757693 0.010291146
-0.04050402 -0.061438348 0.0074519459 -0.30334073 -0.93501186 -0.18367659 0.0040398412
-0.037496343 -0.062258422 0.0073102117 -0.26764828 -0.93766254 -0.22170544 0.0062567033
-0.035076089 -0.062721238 0.0068023065 -0.25154698 -0.94986182 -0.18570592 0.0061210208
-0.049495135 -0.058790948 0.0076073213 -0.69711137 -0.71570456 -0.042456705 0.053148616
-0.046646304 -0.059516188 0.0074086701 -0.23050448 -0.962138 -0.14545824 0.018039936
-0.04473114 -0.059865627 0.0066167633 -0.23294985 -0.96483618 -0.12176037 0.013308502
-0.0513556 -0.055454113 0.0084672887 -0.94801402 -0.31249544 0.060134258 0.022973167
-0.051838212 -0.052388687 0.0083433315 -0.9869343 -0.16036175 0.015643818 0.010420707
-0.052018773 -0.046752632 0.0089032622 -0.99971068 -0.013780293 0.019716499 0.010574103
-0.042591296 -0.033952698 0.0075282115 -0.93219137 0.15626273 -0.32649845 0.006100635
0.0055711269 -0.033082739 0.0067952075 0.49654311 0.02779093 -0.86756712 0.035120815
0.0067692893 -0.033221502 0.0083140545 0.49654138 0.027785625 -0.86756819 0.035117615
-0.042632628 -0.031517163 0.0076370398 -0.93371487 0.00016575336 -0.35801747 0
0.0056372108 -0.031425934 0.0068783113 0.49654415 0.027783193 -0.8675667 0.035119738
0.0068375645 -0.031561073 0.0083988747 0.49654305 0.02779318 -0.86756694 0.035119504
0.010212142 -0.030781746 0.0088142185 0.25386122 -0.06186365 -0.96526021 0.026880302
-0.042602006 -0.028645499 0.0075585204 -0.93368846 0.00016144896 -0.35808641 0
0.005756577 -0.028425019 0.0070279762 0.58794373 -0.013315127 -0.80879217 0.013506756
0.0072439946 -0.028407704 0.0086950678 0.38321322 -0.095770918 -0.91868144 0.031510886
0.010561088 -0.02844831 0.0085595939 0.22285774 -0.11565589 -0.96796596 0.024839841
-0.042515673 -0.025419196 0.0073348912 -0.92034847 -0.053622141 -0.38740587 0.0014818942
0.0058765812 -0.025399428 0.0071780225 0.54607767 -0.030953288 -0.83716244 0.0059428285
0.0077565378 -0.025552018 0.0087928753 0.32354775 -0.061626047 -0.9442029 0.025774205
0.010838153 -0.025504222 0.0084248651 0.14018986 -0.010320994 -0.99007082 0.020322194
-0.043027587 -0.022354905 0.0075146044 -0.87785357 -0.11529434 -0.46484444 0.0031626006
0.0059703575 -0.023028329 0.0072949319 0.34974003 0.061301943 -0.93483907 0.028922232
0.0075446437 -0.022599677 0.0086732898 0.34973401 0.061309397 -0.9348408 0.028920662
0.010777242 -0.022631941 0.0084107248 0.093255743 0.028786603 -0.99522597 0.02533946
0.012043336 -0.021979809 0.0089470726 0.23657875 0.088674434 -0.96755749 0.022590196
-0.043333236 -0.019493939 0.0072052609 -0.86419261 -0.078552909 -0.49699152 0.0026502339
0.006811575 -0.019868068 0.0081870919 0.37416181 0.046158291 -0.92621404 0.027414193
0.010248739 -0.019769302 0.0084895408 0.17338812 0.056422815 -0.98323601 0.029360464
-0.04362547 -0.016644346 0.0073347846 -0.87898988 -0.044964518 -0.47471553 0.0037870347
0.0062280581 -0.016508956 0.0076161027 0.44082832 0.095247887 -0.89252353 0.027485728
0.0098959124 -0.017265098 0.0087971194 0.32334855 0.15513429 -0.93347687 0.029109111
-0.043848313 -0.013585731 0.0074596652 -0.88549829 -0.0068065408 -0.4645929 0.0047528655
0.006339361 -0.0137252 0.0077563529 0.61119622 0.097808562 -0.78541237 0.025282348
-0.043845665 -0.010374262 0.0074536013 -0.89643937 0.01196598 -0.44300479 0.0051741726
0.0052730227 -0.0094468482 0.0064026145 0.78505963 -0.00026832992 -0.61942017 1.1541891e-06
0.0064638169 -0.010569685 0.0079111215 0.73373055 -0.037805948 -0.67838794 0.0039101518
-0.04383437 -0.0074853776 0.0074253879 -0.93133527 -0.0072990176 -0.36408973 6.3067469e-05
0.0053529688 -0.0073276944 0.0065020076 0.78520036 -0.00059718563 -0.61924154 8.7089199e-07
0.0065904693 -0.0073849703 0.0080698924 0.73339683 0.0014303346 -0.67979932 0.0050481642
-0.043891586 -0.0045097456 0.0075757126 -0.93344373 -0.00051337358 -0.35872337 2.6857538e-06
0.0054612705 -0.0044815955 0.0066377856 0.78493488 -0.00035004196 -0.61957818 0
0.0067040906 -0.0045294221 0.0082124099 0.7131272 0.013389698 -0.70090669 0.0078237224
-0.043840013 -0.0015396749 0.0074422648 -0.93366355 0.0001454403 -0.35815123 0
0.0055703381 -0.0016128634 0.0067744078 0.78495258 -0.00035639107 -0.61955583 0
0.0068185232 -0.0016510896 0.0083558261 0.72174042 0.043826994 -0.69077486 0.0062635136
-0.043848317 0.0016359109 0.0074649854 -0.93366343 0.000141422 -0.35815164 0
0.0056800013 0.0012784352 0.0069114519 0.78496087 -0.00046510887 -0.61954516 0
0.0069335871 0.0012499632 0.0084997183 0.78494722 -0.00046116725 -0.61956251 0
-0.04380944 0.004490362 0.0073647411 -0.93338722 0.00099114946 -0.35886955 0
0.0057898662 0.0041918247 0.0070479806 0.78492469 -0.0005389658 -0.619591 0
0.0070488192 0.0041730925 0.0086429138 0.78492284 -0.00053955399 -0.61959326 0
-0.043912597 0.0074725389 0.0076346309 -0.9325844 0.0025149565 -0.36094329 1.501317e-05
0.0059146481 0.0074983463 0.0072031417 0.844087 -0.0067476644 -0.53616369 0.0025921965
0.0071797133 0.0074908147 0.0088057183 0.78489554 -0.00052484166 -0.61962783 0
-0.043843925 0.010336242 0.0074565765 -0.92934871 0.0087132426 -0.36910033 0.00012036986
0.0059990361 0.0097188344 0.0073088282 0.78458315 -0.00071473111 -0.62002313 0
0.0066766166 0.010836627 0.008166329 0.70740598 -0.02978765 -0.70617944 0.0050256401
-0.043896716 0.0134606 0.0075954543 -0.88791257 0.0096317939 -0.45991129 0.0055702836
0.0061558341 0.013830008 0.0075058555 0.62431455 -0.1074533 -0.77374738 0.023124736
-0.043655567 0.0167739 0.0072591351 -0.88373429 0.047486361 -0.46557361 0.0044517624
0.0062699728 0.016846538 0.0076481295 0.42424917 -0.12561566 -0.89679056 0.039752144
0.0099249613 0.017237553 0.0089081693 0.37970251 -0.27566284 -0.88308328 0.025663523
-0.043395147 0.019538091 0.007271118 -0.85721797 0.041850008 -0.51325047 0.0025467994
0.0070351646 0.019975267 0.0083587384 0.25807953 -0.0058046463 -0.96610624 0.028936256
0.010386299 0.01958592 0.0086187972 0.22929735 -0.1203902 -0.96588248 0.027031727
-0.04317899 0.022298001 0.0075661014 -0.86931479 0.11720514 -0.4801611 0.0045867558
0.007468388 0.022492675 0.0085496809 0.38827083 -0.068567753 -0.91899085 0.029667573
0.010783461 0.022530932 0.0084339539 0.16278543 -0.064078495 -0.98457849 0.022442518
-0.042609375 0.025485702 0.0075966432 -0.90602952 0.094152644 -0.4126085 0.0055022333
0.0053000744 0.025217725 0.0064138668 0.46409783 -0.016615571 -0.8856281 0.035270456
0.007627015 0.025316147 0.0085982811 0.41776884 0.031130565 -0.9080199 0.03608321
0.010693002 0.025423298 0.0083318558 -0.041741032 0.00064118468 -0.99912828 0.017597653
0.012023879 0.026220737 0.0088673364 0.1135953 0.06081507 -0.99166411 0.037766442
-0.042516407 0.028540475 0.0073552253 -0.93367839 0.00014039208 -0.35811251 0
-0.04199969 0.027496833 0.006007724 -0.93368155 0.00014414074 -0.35810423 0
0.0054123262 0.028318584 0.0065540564 0.60987908 0.059867635 -0.79022998 0.0068307496
0.0073851063 0.028282177 0.0086188708 0.43489394 0.067426167 -0.89795375 0.036339555
0.010583058 0.028462678 0.0084878495 0.055747192 0.10788207 -0.99259943 0.024928965
0.01207267 0.02702805 0.0089363866 0.11359341 0.06079508 -0.99166554 0.037767205
-0.042584177 0.031455904 0.0075329915 -0.93367231 9.9992125e-05 -0.35812846 9.0617423e-06
0.0055258153 0.03144595 0.0066961255 0.59961528 0.077448085 -0.79653209 0.027541293
0.0068256189 0.031521138 0.0083414018 0.5366711 0.094497867 -0.83848333 0.032888893
0.010044661 0.03126774 0.0087323934 0.25996208 0.12121431 -0.95798057 0.02493332
-0.042583387 0.034487367 0.0075319526 -0.93144846 -0.1435363 -0.33436671 0.011456565
0.0056389458 0.034596857 0.0068362723 0.84717166 -0.24456714 -0.47168538 0.040665522
0.0069453306 0.034685064 0.0084906537 0.69064993 -0.074967675 -0.71929312 0.021674972
-0.04841296 0.038882807 0.0082192682 -0.52695262 -0.80931258 -0.25948814 0.019239355
-0.046216272 0.038756307 0.0082271015 -0.38335469 -0.885701 -0.26186442 0.0078340638
-0.043668702 0.03766251 0.0073493673 -0.65066499 -0.66067553 -0.37435678 0.026354572
0.0055201524 0.036916915 0.0064366912 0.52671778 -0.69040328 -0.49589464 0.028030679
0.0076213311 0.03694554 0.0073495368 0.55643415 -0.67733479 -0.48124686 0.035832014
0.010399235 0.038076784 0.0074432567 0.42724708 -0.90082151 -0.077334993 0.012739724
0.012043191 0.03887393 0.0065787169 0.49270517 -0.86940432 -0.037118509 0.012914903
-0.049691543 0.040458933 0.0075599407 -0.72207463 -0.68470335 -0.098941416 0.033247635
-0.046711043 0.039212905 0.0068680653 -0.34395871 -0.88377088 -0.31724033 0.0050289691
0.013617634 0.039633114 0.0074281539 0.38723001 -0.91345912 0.12508146 0.0042255935
0.016462779 0.040970195 0.0070832036 0.42479551 -0.88332492 0.19820654 0.0012283603
0.019051975 0.041994166 0.0060372329 0.39846903 -0.90188777 0.16679609 0.0023624797
-0.051375501 0.043667693 0.0083873104 -0.95953935 -0.28088105 0.019750854 0.022525879
-0.050990071 0.042277426 0.0082213087 -0.90467775 -0.42453539 -0.036439821 0.026437001
0.019383391 0.042822145 0.0075122765 0.43455666 -0.87571406 0.21044093 0.00085784768
-0.051778082 0.046320859 0.0083148479 -0.98692298 -0.15300524 0.050719395 0.013314477
-0.051945623 0.048878875 0.0082063982 -0.99470276 -0.099133722 0.027182026 0.01390507
0.0017765728 -0.075258143 0.0093684532 -0.16852625 -0.98346215 0.066341355 0.014765731
0.0055539105 -0.075212456 0.010170051 -0.066431619 -0.97195935 0.22556999 0.0010020983
0.006194165 -0.075632907 0.009029639 -0.066427633 -0.97194427 0.2256363 0.0011154502
-0.010268344 -0.07234247 0.010163375 -0.23081438 -0.96502596 -0.12429633 0.032094549
-0.0075065088 -0.072993606 0.010141004 -0.26848775 -0.9631899 -0.013398345 0.028351616
-0.0045031551 -0.073579773 0.01043523 -0.29447329 -0.94943094 0.10893267 0.016397096
-0.0014736922 -0.074311733 0.010186714 -0.25468418 -0.95916927 0.12300526 0.017511519
0.0015384507 -0.074708521 0.010728856 -0.17532329 -0.94609123 0.2723473 0.004063623
-0.02202183 -0.069335863 0.011375338 -0.20940195 -0.97044444 -0.1199521 0.036015745
-0.019142188 -0.069864392 0.011122181 -0.2278541 -0.95114702 -0.20833105 0.034049295
-0.016487999 -0.070002683 0.010307817 -0.29428193 -0.93429953 -0.20120235 0.020647168
-0.013630068 -0.070880122 0.010171277 -0.36901256 -0.91617131 -0.15639678 0.020725569
-0.010810641 -0.0712521 0.0099424524 -0.31925946 -0.91610748 -0.24252947 0.028192794
-0.0081891324 -0.071741745 0.0094470698 -0.27115321 -0.958413 -0.088996805 0.041046225
-0.033933513 -0.06619288 0.011811829 -0.25611153 -0.81611156 -0.51804328 0.022826912
-0.031385709 -0.066880718 0.011767841 -0.21152382 -0.84465599 -0.4917458 0.020937119
-0.028231731 -0.066641524 0.011239909 -0.22523522 -0.87722683 -0.42396015 0.010955717
-0.025489179 -0.067131698 0.010615841 -0.28577495 -0.88028324 -0.37872699 0.0075855679
-0.022554126 -0.067795917 0.010392375 -0.26966918 -0.90316916 -0.33401212 0.026390556
-0.019645242 -0.068536758 0.010172167 -0.25559264 -0.91817838 -0.30268946 0.033526443
-0.017758621 -0.068968557 0.0093620066 -0.34141091 -0.89963859 -0.27219301 0.019391842
-0.04280876 -0.063336581 0.011508476 -0.27978626 -0.83298075 -0.47734964 0.014852922
-0.040352914 -0.06385114 0.011579241 -0.25393459 -0.83271658 -0.49203694 0.013529978
-0.037418712 -0.063852467 0.010873232 -0.2196113 -0.87402052 -0.43342701 0.0038867381
-0.034551673 -0.064437106 0.010637473 -0.19715233 -0.86755276 -0.45659941 0.012428103
-0.031558353 -0.065117024 0.010513428 -0.24052657 -0.85447556 -0.46045452 0.019636672
-0.028897328 -0.06564673 0.0098680882 -0.25418562 -0.87561619 -0.41071388 0.0089629497
-0.048442107 -0.061036922 0.011062996 -0.40637752 -0.85805166 -0.31401381 0.021198431
-0.046412464 -0.061021835 0.010850175 -0.25484821 -0.90078795 -0.35161552 0.013107195
-0.043541953 -0.061614349 0.010557903 -0.27699664 -0.85836965 -0.43182689 0.013891599
-0.040655948 -0.062383171 0.010379563 -0.25096342 -0.85926986 -0.44572717 0.014505563
-0.038367927 -0.06283465 0.0094770771 -0.26891625 -0.88397884 -0.38244665 0.0059426976
-0.051067699 -0.057266362 0.010944586 -0.86769909 -0.40135002 -0.29328558 0.0078763543
-0.049847569 -0.059173081 0.010551842 -0.68867671 -0.66742259 -0.2833223 0.025240717
-0.04770587 -0.059829216 0.0096064545 -0.29720783 -0.89887506 -0.32201123 0.017708916
-0.051435132 -0.055626038 0.010776407 -0.93040389 -0.28989437 -0.22429864 0.0086216582
-0.051934171 -0.052540824 0.010769292 -0.97972059 -0.14119162 -0.14217091 0.0049663889
-0.052122772 -0.049448125 0.010878585 -0.98749572 0.042323139 -0.1518587 0.0059976131
-0.052015692 -0.046526786 0.010526832 -0.97521311 0.073684551 -0.2086385 0.0056101414
-0.051601749 -0.043702856 0.011958368 -0.98593611 0.13467351 -0.098959953 0.0049511404
-0.043516275 -0.033238929 0.0099409577 -0.93368185 0.00010544255 -0.35810372 0
-0.043668345 -0.031411558 0.01033767 -0.93365753 0.00014736131 -0.35816696 2.2955208e-05
0.0082359174 -0.031397976 0.0095743556 0.34314659 -0.051086228 -0.9378916 0.047749415
0.010209877 -0.03141984 0.0096622957 0.25386292 -0.061868269 -0.96525949 0.026878575
0.012955993 -0.030744385 0.010418125 0.39751393 -0.24492313 -0.884305 0.03112122
-0.043678328 -0.028500758 0.010364402 -0.93365085 0.00010239704 -0.3581844 6.7919473e-06
0.0082052136 -0.028862515 0.0091332849 0.2889761 -0.070980206 -0.95470124 0.04157351
0.010075987 -0.028564025 0.0093393987 0.16187549 -0.1255663 -0.97878975 0.026013821
0.013586881 -0.028501865 0.010286176 0.56418014 -0.15011714 -0.81189013 0.01132945
-0.043718308 -0.025431925 0.010469315 -0.92903733 -0.11003547 -0.35324472 0.0068958113
0.009400405 -0.025545789 0.009199447 -0.044458143 -0.028321762 -0.99860972 0.012546336
0.013413193 -0.025560498 0.0097020864 0.50094217 -0.097105615 -0.86001599 0.020374568
0.015481577 -0.025201477 0.01163755 0.62959188 -0.059516724 -0.774643 0.0053367713
-0.04533276 -0.02166797 0.011327326 -0.95487225 -0.16117612 -0.24948192 0.012595855
-0.044207469 -0.022716612 0.010151958 -0.9273777 -0.21229102 -0.30806339 0.0069101569
