# .PCD v0.7 - Point Cloud Data file format
VERSION 0.7
FIELDS x y z normal_x normal_y normal_z curvature
SIZE 4 4 4 4 4 4 4
TYPE F F F F F F F
COUNT 1 1 1 1 1 1 1
WIDTH 561
HEIGHT 1
VIEWPOINT 0 0 0 1 0 0 0
POINTS 561
DATA ascii
-0.043793324 -0.058900416 0.023060516 -0.46281567 -0.50828427 0.72625667 0.005199498
-0.0035315626 -0.058755752 0.022494035 0.23523434 -0.31226629 0.92041004 0.0011332512
-0.0013995601 -0.05864289 0.021796724 0.26959586 -0.26162273 0.92675328 0.0012539536
0.00073610258 -0.058018755 0.021287475 0.28484118 -0.24647699 0.92634475 0.0008635277
-0.051285591 -0.054839298 0.021163791 -0.66154587 -0.33492801 0.67095476 0.012571324
-0.049271159 -0.055282604 0.022198725 -0.52059257 -0.35029557 0.77863753 0.010951588
-0.046692356 -0.055715419 0.023344358 -0.42773485 -0.27535257 0.86094356 0.0038383519
-0.044710394 -0.056769412 0.023794182 -0.48964828 -0.2978639 0.81946433 0.0071128667
-0.0015131731 -0.055456605 0.022765381 0.3439706 -0.23040454 0.91027361 0.0019421607
0.0014545253 -0.055580705 0.021579055 0.3359431 -0.1810804 0.9243117 0.00067421002
0.0034150295 -0.05434344 0.021055976 0.33430856 -0.15658966 0.92936397 0.0003950469
-0.051361155 -0.052204326 0.021744354 -0.72062314 -0.14585999 0.67781061 0.014827532
-0.049418919 -0.052498925 0.02281129 -0.43110222 -0.11870697 0.89446044 0.0017983079
-0.047188319 -0.052476503 0.023816416 -0.41966596 -0.097729683 0.90240204 0.0030273534
-0.0011413767 -0.05258882 0.023192754 0.39947715 -0.11676966 0.90927601 0.0017867464
0.0015257865 -0.052543722 0.022076223 0.36654678 -0.1139952 0.92338973 0.00043023634
0.0035888953 -0.052260019 0.021278532 0.36796442 -0.10375032 0.92403358 0.0003032753
-0.051447093 -0.049551785 0.021843785 -0.66001821 -0.012356782 0.75114793 0.019849731
-0.049281597 -0.049556158 0.023040283 -0.42377394 -0.022070266 0.90549904 0.0012200595
-0.047145303 -0.049515065 0.023820607 -0.40821484 -0.036773074 0.91214496 0.0011550534
-0.00095862907 -0.049640503 0.023341766 0.41815108 -0.038280156 0.90757054 0.0013018419
0.0013006727 -0.049475238 0.022419523 0.40170434 -0.029762162 0.91528565 0.00092559593
0.0038877898 -0.0494266 0.021363499 0.3866941 -0.01409949 0.92210025 0.00084646576
-0.051361993 -0.046705306 0.021810737 -0.68152344 0.085227974 0.72681642 0.014606277
-0.049337618 -0.046505764 0.022975087 -0.47893313 0.063509315 0.8755511 0.0025331667
-0.047545899 -0.046746209 0.023894014 -0.44078621 0.018375548 0.89742404 0.0034057128
-0.001169545 -0.046438012 0.023441179 0.46344596 0.010168372 0.88606685 0.001477031
0.001435551 -0.046496764 0.022329269 0.40391994 0.033602491 0.91417694 0.00029093039
0.0035521167 -0.046671238 0.021380179 0.42903882 0.059569769 0.90131968 0.00052590831
-0.051307857 -0.043955341 0.021241285 -0.70178437 0.2953572 0.64827681 0.013329004
-0.04937781 -0.043531124 0.022320727 -0.61494166 0.25263301 0.74700963 0.0062492858
-0.047390144 -0.042936847 0.023679636 -0.60042328 0.14783297 0.78589904 0.0061112503
-0.0011840205 -0.043378636 0.023324411 0.41826215 -0.16868784 0.8925252 0.044506811
0.0013644407 -0.043487832 0.022239082 0.41402838 0.0053647486 0.9102481 0.0021042824
0.0033550516 -0.043503791 0.021198347 0.48263079 0.0075497366 0.87579137 0.0023937654
-0.048643824 -0.040512975 0.02180296 -0.69828695 0.35163158 0.62349856 0.010825332
-0.047130354 -0.040426023 0.023182657 -0.64092863 0.15621601 0.75153649 0.0046088365
-0.0015115762 -0.041013703 0.023383498 0.35996574 -0.62781286 0.69012731 0.058425386
0.0013742904 -0.041117251 0.02234561 0.43608665 -0.5272631 0.72926134 0.042858735
0.003793522 -0.040586784 0.021408822 0.49133772 -0.27343142 0.82693565 0.029042112
-0.046698485 -0.037669871 0.022686822 -0.78842843 0.30844268 0.53220648 0.011106711
-0.044590689 -0.036273096 0.023703851 -0.76723778 0.28488424 0.57461917 0.011511882
-0.04551398 -0.034505703 0.022185093 -0.83475935 0.14959143 0.52990496 0.015851367
-0.044591647 -0.034416009 0.023707002 -0.86286408 0.11595894 0.49195436 0.014096182
-0.045535587 -0.031482931 0.02214193 -0.88765657 0.0009637085 0.46050504 0.0033980561
-0.044592973 -0.031497836 0.02371132 -0.84290451 -0.002918927 0.53805518 0.0043201828
-0.045494135 -0.028574441 0.022227313 -0.84956402 -0.11655666 0.51444685 0.012836559
-0.04459402 -0.028579786 0.023714781 -0.83520889 -0.095676616 0.54154605 0.012417897
-0.046554845 -0.025311049 0.022491727 -0.85404354 -0.29947922 0.425349 0.0072350637
-0.04459469 -0.026457623 0.023716902 -0.78768003 -0.31157809 0.53148782 0.013447744
-0.047129519 -0.022468299 0.022958396 -0.90445411 -0.071945377 0.42046008 0.0035965664
-0.047129523 -0.019551884 0.022958396 -0.90125263 -0.00064632745 0.43329358 0.0035869181
-0.047129523 -0.016370345 0.022958392 -0.90095526 -2.0595748e-05 0.43391195 0.0036762264
-0.047129519 -0.013453933 0.022958398 -0.90094846 -0.00067193946 0.43392548 0.0037267546
-0.047129523 -0.01053752 0.022958392 -0.90094197 -0.0026400196 0.43393153 0.0036151793
0.0053174216 -0.0091084857 0.021544522 0.5240283 0.59971941 0.60475701 0.081530392
0.0063664755 -0.009401245 0.021209477 0.76104355 0.3310498 0.55786979 0.070088796
-0.047129523 -0.0073559801 0.022958396 -0.90087777 0.00087768008 0.43407199 0.0036469887
-0.0034078527 -0.0070758844 0.023831209 0.1275391 0.36960059 0.92039621 0.077623375
-0.0014060595 -0.0070964689 0.023293477 0.20520698 0.31301603 0.92731392 0.056442868
0.0016769572 -0.0072526154 0.022533173 0.34792107 0.5661332 0.74729115 0.061208595
0.0046632411 -0.0074362978 0.021666102 0.29467502 -0.0014591644 0.95559639 0.00094641943
0.0063665695 -0.0074544502 0.021209259 0.3127183 0.0016547869 0.94984448 0.00096268242
-0.047129519 -0.0044395672 0.022958396 -0.90089214 0.00019866119 0.43404299 0.0037800106
-0.0034076299 -0.0048807426 0.023830688 0.24555902 -0.014312114 0.96927595 0.031892788
-0.0013317392 -0.0047427532 0.02327352 0.2527234 -0.13935684 0.95745003 0.0039077597
0.0016165186 -0.004640772 0.022482727 0.30889356 -0.047199607 0.94992477 0.0028266471
0.0047122147 -0.0045825965 0.021652207 0.28361821 0.00055020169 0.95893711 0.00041955092
0.0063669425 -0.004395206 0.021208378 0.33541015 0.0031278306 0.94206703 0.00044714499
-0.047129523 -0.0015231543 0.022958396 -0.90054923 -0.0015551544 0.43475127 0.0036479903
-0.00038574633 -0.0015934341 0.023703663 0.383221 -0.081363603 0.92006606 0.0031499176
0.0017998273 -0.0016866967 0.022484701 0.35352287 -0.05460101 0.93383092 0.0035012881
0.0046192668 -0.001549 0.021677066 0.28616494 -0.0055938181 0.95816398 0.00043107331
0.006366943 -0.0013359438 0.021208378 0.30892977 -4.8186448e-05 0.95108485 0.00066301122
-0.047129516 0.0016583864 0.022958398 -0.9000178 -0.00022524224 0.435853 0.0034456989
-0.00029072855 0.0016689489 0.023782361 0.39632523 0.054945331 0.91646457 0.0033383593
0.0019072558 0.0014383399 0.022503056 0.36473504 0.008865118 0.93106914 0.0026910626
0.0046636895 0.0014426109 0.021665055 0.28598052 0.002602434 0.95823193 0.00043111929
0.0063671293 0.0014452054 0.021207938 0.3148419 -9.6762211e-05 0.94914412 0.00058348017
-0.047129519 0.0045747985 0.022958396 -0.90184426 -0.0011894548 0.43205959 0.0039351899
-0.0034076299 0.0052718366 0.023830688 0.21613719 0.15525576 0.96393996 0.0032201076
-0.001269748 0.0047962763 0.023363527 0.27119067 0.14459966 0.9516021 0.0033713009
0.0016164848 0.0044773412 0.022482814 0.32189193 0.056825191 0.94506955 0.0029983292
0.0046636122 0.0044947402 0.021665232 0.28282166 0.0054811006 0.95915687 0.00044827105
0.0063670203 0.0045044669 0.021208195 0.30239615 -0.00024965321 0.9531824 0.00076185737
-0.047129523 0.0074912119 0.022958396 -0.9010604 0.00025334011 0.43369347 0.0037037754
-0.0034078085 0.0074669807 0.023831105 0.13843317 -0.17109998 0.97547996 0.041794389
-0.0014060882 0.0074868007 0.023293542 0.19269468 -0.4429242 0.87560666 0.035107736
0.0016163795 0.0075167073 0.022483062 0.35737216 -0.3176316 0.87829107 0.035358097
0.0046633752 0.0075468598 0.021665793 0.36949253 -0.052743275 0.92773563 0.0080031017
0.006366943 0.0075637274 0.021208378 0.42633441 -0.035531938 0.90386748 0.0027715794
-0.047098398 0.010550905 0.023022152 -0.90093231 0.00046896818 0.43395936 0.0037463929
0.0024510431 0.0091643846 0.023344342 0.2426911 -0.84171736 0.4822996 0.027098943
0.0048972894 0.0095232222 0.0220252 0.48527554 -0.19120164 0.8531996 0.026607711
0.0063669425 0.0095105302 0.021208378 0.36566514 -0.041990571 0.92979878 0.0075598056
-0.04716064 0.013445884 0.022894643 -0.90093058 -0.00020049354 0.43396333 0.0037188327
-0.047129523 0.016505575 0.022958398 -0.90093523 0.0012444339 0.43395168 0.0036286267
-0.047098402 0.019564237 0.023022152 -0.90092283 0.00056591176 0.43397889 0.0037377747
-0.04716064 0.022461286 0.02289464 -0.90581292 0.049564581 0.42076868 0.003292395
-0.046896722 0.025534311 0.022795418 -0.87941247 0.097883739 0.46588898 0.0072135935
-0.046504889 0.028533669 0.022848397 -0.89765441 0.057872009 0.43688378 0.0086234333
-0.046552934 0.031439219 0.022757115 -0.90386742 -0.00032046094 0.42781261 0.0071057095
-0.046530221 0.034563448 0.02280142 -0.89885372 -0.015315544 0.43798101 0.0070064371
-0.046648655 0.037616652 0.022734756 -0.8425765 -0.12273084 0.52440625 0.018223831
-0.048613802 0.040908918 0.021763487 -0.71713775 -0.33867598 0.60910749 0.012691226
-0.047044881 0.040289503 0.023005532 -0.77372915 -0.23182862 0.58957505 0.017491667
-0.0014202303 0.041327499 0.023328114 0.47825104 0.34347931 0.80826843 0.061577041
0.0014665851 0.041415673 0.022363462 0.48387012 0.19169527 0.85388684 0.034078591
0.0036187784 0.041098092 0.021524714 0.49484676 0.27180517 0.82537782 0.022503117
-0.051299009 0.04435904 0.021210497 -0.69816512 -0.317532 0.6416688 0.013140638
-0.049278844 0.043750763 0.022317981 -0.58572173 -0.2588602 0.76806343 0.0071981116
-0.047295548 0.043136109 0.023648312 -0.61262524 -0.16423184 0.77312237 0.0062499717
-0.0013039035 0.043412395 0.023355121 0.43814909 0.15516172 0.88540965 0.040272035
0.0014356734 0.043456193 0.022198871 0.41479927 0.0020389815 0.90991062 0.0026444462
0.0033603101 0.043615792 0.021185834 0.48852995 0.017204192 0.87237751 0.0029042845
-0.051329989 0.046773154 0.021794965 -0.68746716 -0.099437192 0.71937555 0.014514357
-0.049372196 0.046570964 0.022936454 -0.48566589 -0.07006634 0.87133199 0.0029384191
-0.047610074 0.046802796 0.023911411 -0.44570738 -0.027054209 0.89476979 0.0037145494
-0.0011608688 0.046555646 0.023420112 0.45947516 -0.015798571 0.88805008 0.0013583658
0.0013871836 0.046483655 0.022314848 0.40846208 -0.03725864 0.91201454 0.00025012004
0.0035221719 0.046589706 0.021337669 0.43809679 -0.060460754 0.89689225 0.00050020876
-0.051491033 0.049408115 0.02176493 -0.66483206 -0.0052826898 0.74697423 0.02014327
-0.049345724 0.049501587 0.022973124 -0.42947528 0.013579021 0.90297651 0.0013408286
-0.0471505 0.049627423 0.023821523 -0.41046578 0.034481421 0.91122389 0.0012601857
-0.001007317 0.049486585 0.023380481 0.41868258 0.030085355 0.90763414 0.0011693749
0.001347841 0.049512308 0.022408891 0.40482873 0.012198086 0.91431117 0.00084909314
0.0037976364 0.049576513 0.02139865 0.39270845 -0.001936094 0.91966093 0.00072800997
-0.051360037 0.052350912 0.021803943 -0.72176379 0.12329833 0.68106872 0.013813449
-0.049326237 0.052468937 0.022936562 -0.43628293 0.087904483 0.89550549 0.0017615692
-0.047223132 0.052511625 0.023827566 -0.42014909 0.073194765 0.90449834 0.0023665554
-0.0010410366 0.052533012 0.023219777 0.40587869 0.099239878 0.90852296 0.0014188075
0.0013731702 0.052448165 0.022217831 0.36854294 0.096646518 0.92457318 0.00039261524
0.0035654206 0.0523635 0.021334182 0.3739984 0.084755376 0.9235484 0.00044702293
-0.051313102 0.054961462 0.021259591 -0.67744237 0.3052744 0.66923791 0.01366605
-0.049407747 0.055297982 0.022275383 -0.53226417 0.32478157 0.78180033 0.013224919
-0.046786834 0.055609237 0.023539424 -0.42815751 0.23677793 0.87213379 0.0035563374
-0.04494638 0.056518741 0.023963293 -0.4868376 0.2628594 0.83300298 0.0073883682
-0.0030870817 0.055781886 0.023770884 0.61932063 0.27887276 0.73394275 0.032175653
-0.0014136482 0.055492476 0.022865226 0.37609288 0.21482292 0.90133524 0.0027714302
0.0016137791 0.055541452 0.021641461 0.36137483 0.16218416 0.91820723 0.00025628699
0.0033771126 0.054441914 0.021145973 0.36067906 0.14062145 0.92202836 0.00046589377
-0.04864011 0.057878848 0.021711202 -0.48900828 0.49160516 0.72055209 0.0055726296
-0.046375617 0.058338877 0.022404253 -0.41978973 0.48405477 0.76776791 0.010385565
-0.043892678 0.058992252 0.023316221 -0.4714396 0.48053157 0.73948228 0.005713833
-0.0034495869 0.05873251 0.02271839 0.27868038 0.32300454 0.90443641 0.0014937894
-0.001577545 0.058534756 0.022063859 0.322651 0.29420191 0.89963406 0.001906985
0.00089405908 0.058165535 0.021340488 0.29411739 0.24355003 0.9242177 0.00075815944
-0.045753483 0.060295179 0.021142248 -0.42162994 0.64953011 0.63272333 0.003998477
-0.043173429 0.060948707 0.022158641 -0.41599905 0.65536332 0.63043129 0.0057619978
-0.040867947 0.062002152 0.022807544 -0.50082064 0.71247441 0.49148634 0.0032313818
-0.0041031716 0.061712202 0.021693615 0.18351641 0.36494681 0.91276258 0.0017959324
-0.0017564094 0.060982089 0.021346821 0.25523239 0.31216514 0.91510075 0.0013436981
-0.039467894 0.063583292 0.021737086 -0.47336429 0.76491016 0.43685088 0.0036758902
-0.037545346 0.064277351 0.022633735 -0.46339557 0.81734496 0.34236199 0.0043737455
-0.035145022 0.065604627 0.022535345 -0.4208999 0.8695336 0.25836915 0.0021606926
-0.0065350933 0.063898668 0.02129834 0.10309734 0.51163375 0.85299581 0.0084371418
-0.0051854616 0.063284896 0.021259278 0.17010458 0.48296586 0.85895777 0.0052623306
-0.033390228 0.066336773 0.022772931 -0.37785438 0.91033393 0.16887361 0.0016979862
-0.031700537 0.067086041 0.021953633 -0.34685296 0.92407912 0.16053292 0.00058361673
-0.031325191 -0.066262059 0.02502821 -0.37008289 -0.85753262 0.35731855 0.026664771
-0.036585942 -0.063472889 0.024793318 -0.54069066 -0.7451362 0.39041725 0.0035167651
-0.034457635 -0.064516611 0.025678657 -0.49794203 -0.74246943 0.44809911 0.011211844
-0.03197965 -0.065798625 0.026130937 -0.37007725 -0.85754085 0.35730454 0.026605839
-0.039835833 -0.060549226 0.02503668 -0.58960283 -0.5729019 0.56934333 0.0049552722
-0.037871268 -0.061935954 0.025691666 -0.56673503 -0.62350309 0.53856784 0.007972599
-0.042582646 -0.058023915 0.024477633 -0.53376311 -0.4279412 0.72935814 0.005574848
-0.040825065 -0.058673859 0.025642781 -0.59247506 -0.46695453 0.65645015 0.0057659452
-0.04523699 -0.054645948 0.024191661 -0.49297237 -0.27438286 0.82564658 0.0040685176
-0.043363266 -0.055498779 0.025058007 -0.52254772 -0.28652567 0.80302364 0.0077464902
-0.0415597 -0.055747569 0.026498856 -0.6642952 -0.23452926 0.70972371 0.0030207927
-0.045753926 -0.05229691 0.024283757 -0.41896048 -0.090162769 0.90351689 0.0028195577
-0.043459211 -0.052545782 0.025618121 -0.59793121 -0.11286011 0.79356217 0.0033221582
-0.041971102 -0.053260319 0.026847649 -0.65293121 -0.10099752 0.75065321 0.0013196565
-0.0026531008 -0.052895103 0.024159392 0.70065159 -0.039406642 0.71241444 0.019850591
-0.045621172 -0.049419951 0.024365665 -0.43433198 -0.049407724 0.89939684 0.0015163576
-0.043543953 -0.049625818 0.025690475 -0.57239449 -0.042490937 0.81887674 0.0026010952
-0.0020108924 -0.049092364 0.024039879 0.43478298 -0.024034973 0.90021443 0.0010478825
-0.046130605 -0.046400789 0.024486875 -0.46164116 -0.02908143 0.88658988 0.0018184137
-0.04361061 -0.046429023 0.025905978 -0.56964558 -0.036794886 0.82106644 0.0012515454
-0.0026323595 -0.046280723 0.024470976 0.64706534 0.043739025 0.76117891 0.024615077
-0.046066049 -0.043569203 0.024488315 -0.5320124 0.061641093 0.84448987 0.0021125413
-0.043630891 -0.043515582 0.025971552 -0.56132007 0.019659268 0.82736528 0.00073267921
-0.0037398357 -0.043003529 0.025081594 0.78555787 -0.14087451 0.602539 0.058135949
-0.0026704017 -0.043836087 0.024201658 0.61810094 0.02676044 0.7856431 0.027063757
-0.045579307 -0.040680069 0.02445456 -0.63376236 0.08573465 0.76876193 0.0053617833
-0.043627862 -0.040611122 0.025961567 -0.56839108 0.0052978466 0.82274145 0.0016482433
-0.0043286574 -0.04052382 0.025272761 0.21968335 -0.61657828 0.75602275 0.060361203
-5.9503724e-05 -0.039611079 0.026486767 0.16619237 -0.83255279 0.52842784 0.02605197
0.0010876112 -0.03976132 0.025167041 0.31272802 -0.76938099 0.55700469 0.035619389
-0.045413516 -0.037763488 0.024589907 -0.70146555 0.22618657 0.67585921 0.0093093021
-0.043704633 -0.037506748 0.025931694 -0.57114846 0.20705754 0.79430258 0.017006015
-0.040777575 -0.03615905 0.026572019 -0.41400692 0.12767725 0.90127504 0.027541481
-0.0067466972 -0.038806524 0.026985703 0.10067051 -0.52664518 0.84410328 0.051790364
-0.04315652 -0.03438827 0.025210435 -0.73147178 -0.022607442 0.6814968 0.04161052
-0.040925253 -0.034892857 0.026552822 -0.40658417 -0.14068304 0.9027167 0.051263183
-0.04322952 -0.031414401 0.025419673 -0.78231716 0.080387309 0.61767113 0.016819699
-0.0431531 -0.028511981 0.025322849 -0.72750503 0.11411297 0.6765461 0.029074302
-0.040881012 -0.028203906 0.026534297 -0.49804348 0.10688217 0.86053991 0.048569459
-0.045683179 -0.024729177 0.025086781 -0.72927779 -0.28357783 0.62268573 0.011663548
-0.043567654 -0.025805613 0.025658863 -0.53773004 -0.36611903 0.75947559 0.018890096
-0.040777128 -0.026375109 0.026570609 -0.38966709 -0.26900858 0.88079166 0.024382941
-0.045621742 -0.022644885 0.025272822 -0.74555874 -0.14858541 0.64966494 0.010755958
-0.044358205 -0.022604795 0.026542606 -0.58612978 -0.092511863 0.80491829 0.0099149439
-0.045621742 -0.019475557 0.025272818 -0.76682103 0.0013153546 0.64185965 0.0032846511
-0.044358205 -0.019440996 0.026542606 -0.57417172 0.0012143773 0.81873399 0.0040494972
-0.045650546 -0.016495684 0.025238086 -0.76695353 0.00053452846 0.64170241 0.003394217
-0.044358205 -0.016540848 0.026542608 -0.57349753 -0.00047559658 0.81920719 0.00422739
-0.014664744 -0.015512203 0.026891865 -0.37501061 0.39584514 0.83825636 0.035927445
-0.04559546 -0.013606971 0.02530453 -0.76690972 -5.9721762e-05 0.64175493 0.0033669141
-0.044358205 -0.013640699 0.026542606 -0.57343256 -0.0010421391 0.81925201 0.0040709944
-0.013798716 -0.013210497 0.026648177 -0.067314602 0.36586562 0.92823005 0.06736102
-0.011611833 -0.012313753 0.026495479 -0.33978379 0.56386304 0.75273198 0.042665102
-0.045621749 -0.010495794 0.025272816 -0.76693344 0.00063422509 0.64172637 0.0032759842
-0.044358205 -0.010476899 0.026542604 -0.57328475 0.0023513241 0.81935287 0.0039855088
-0.013570003 -0.010488301 0.02655633 0.053728547 0.13022137 0.99002808 0.042976424
-0.010472203 -0.01043716 0.025871122 -0.099031545 0.368815 0.92421216 0.072325252
-0.0076000593 -0.0097400201 0.025897503 -0.1554829 0.72486699 0.67111319 0.029108118
0.0021347296 -0.0090053752 0.025509389 0.23032854 0.88253313 0.40998042 0.0045892107
0.0039649885 -0.0095708519 0.025413595 0.36620632 0.85057235 0.37738541 0.0097521599
0.0062809335 -0.010688202 0.025601694 0.45099688 0.77997839 0.43386117 0.013973168
-0.045648549 -0.0073841577 0.025242899 -0.76694745 -0.00027901799 0.64170986 0.0033427679
-0.044358205 -0.0075767525 0.026542608 -0.57328987 0.00060290599 0.81935233 0.0042170561
-0.015047649 -0.0061615556 0.025872821 0.23350225 0.056123864 0.97073519 0.011949636
-0.013570017 -0.0075125122 0.026556373 0.23538271 0.039430983 0.9711026 0.0081459647
-0.010322831 -0.0075483569 0.025685221 0.19229417 0.19114093 0.96254253 0.029359072
-0.0073752333 -0.0075809001 0.024894156 0.084654778 0.23191819 0.96904463 0.044025883
-0.0048879357 -0.0078487815 0.024721472 0.17232974 0.38076192 0.90847284 0.058190748
-0.0018055702 -0.008437736 0.024983291 0.10368714 0.6776309 0.72805578 0.05085355
0.00061836536 -0.0087176738 0.0255739 0.16822383 0.88147312 0.44125482 0.0032312842
-0.045592394 -0.0044964054 0.025305584 -0.76697433 -0.00089414086 0.64167708 0.003402743
-0.044358205 -0.0046766032 0.026542606 -0.57336962 4.3172367e-05 0.81929678 0.0040726862
-0.015372843 -0.0042579905 0.026727404 0.31491557 0.031310033 0.94860309 0.017819609
-0.013508174 -0.0045886566 0.026539527 0.21416999 0.05833621 0.97505289 0.014051805
-0.010319442 -0.0045590564 0.025676511 0.19898437 -0.0221946 0.97975129 0.004869272
-0.0073754713 -0.0045791655 0.024894759 0.20734358 -0.022449773 0.97801054 0.0039409176
-0.0049187099 -0.0044660876 0.02434022 0.23857836 -0.055822745 0.96951753 0.0075993645
-0.0023822936 -0.003508772 0.024222314 0.27816859 -0.16052632 0.94702351 0.0034697824
-0.045621742 -0.0015160305 0.025272818 -0.76708692 -0.0001937757 0.64154309 0.0032421823
-0.044358205 -0.0015128045 0.026542606 -0.57265919 0.001036647 0.81979287 0.0038304159
-0.015044477 -0.0012911594 0.025864495 0.24101152 0.021270774 0.97028911 0.012359706
-0.013587906 -0.0015284756 0.026482344 0.24099547 0.021270189 0.9702931 0.012356499
-0.010209427 -0.0014924259 0.025608113 0.18597694 -0.0073319171 0.98252678 0.0049905949
-0.0072230464 -0.0014992792 0.025038144 0.14662588 -0.052636314 0.98779052 0.0022359942
-0.0045715757 -0.0016659041 0.024961036 0.14591055 -0.097517908 0.98447973 0.0031692218
-0.002033076 -0.0014781931 0.024383862 0.27070141 -0.12681802 0.95427346 0.003953754
-0.045621753 0.0016532982 0.025272818 -0.76694447 0.00062170619 0.64171326 0.0033016941
-0.044358205 0.0016509941 0.026542606 -0.57342339 0.00063243898 0.81925893 0.0040094135
-0.015217047 0.00087333925 0.026317982 0.32228649 0.0041035158 0.94663328 0.014217927
-0.013565327 0.001415035 0.026544467 0.22769678 -0.048794363 0.97250873 0.0093913721
-0.010249221 0.0014651446 0.025621096 0.20169055 0.005643859 0.97943306 0.0016395062
-0.0071633346 0.0014241036 0.025098655 0.13853772 0.032632817 0.98981941 0.0018731875
-0.0044959956 0.0014265801 0.025054444 0.14013816 0.076968797 0.98713583 0.0038633514
-0.0019689465 0.0013387047 0.024420492 0.26762748 0.096771739 0.95865041 0.005137552
-0.045621745 0.0045585153 0.02527282 -0.7669422 5.3849566e-05 0.64171612 0.0034679521
-0.044358205 0.0045511425 0.026542608 -0.57337284 7.3613752e-05 0.81929463 0.004256824
-0.015130221 0.0057417513 0.026089834 0.30966544 0.0085565969 0.95080709 0.011996984
-0.013642863 0.0043915268 0.026455751 0.19288471 0.031468652 0.98071665 0.0094004683
-0.010228673 0.0044872309 0.02565757 0.20337352 0.021798983 0.97885847 0.003111863
-0.0073757456 0.0044259969 0.024895437 0.21100676 0.065113395 0.97531348 0.0033353614
-0.004794945 0.0042330404 0.024517419 0.18977238 0.13744418 0.97216022 0.0041548535
-0.0023200575 0.0034420367 0.024311842 0.29158521 0.159787 0.94310451 0.0029412857
-0.045621749 0.0074637332 0.025272818 -0.76612496 -0.0017540334 0.64268929 0.0033056128
-0.044358205 0.0074512917 0.026542606 -0.57337874 -0.00050478947 0.81929028 0.0040316205
-0.015156684 0.0068224343 0.026159322 0.26554558 -0.050859883 0.96275586 0.0094979219
-0.013614601 0.0075897654 0.02656823 0.23234518 -0.050680242 0.97131211 0.0085154735
-0.010322878 0.0073985588 0.025685346 0.1942741 -0.043852072 0.97996658 0.003017857
-0.0073755062 0.0074277245 0.024894862 0.21019052 -0.068992764 0.975223 0.0078142332
-0.0050663557 0.0074505713 0.024275826 0.17261906 -0.19162208 0.9661696 0.031556122
-0.045621753 0.010633062 0.025272818 -0.76698852 0.0010308588 0.64165998 0.003339143
-0.044358205 0.010615091 0.026542606 -0.57338196 0.00077076489 0.81928778 0.0040359288
-0.013520216 0.010550916 0.026542949 0.072088785 -0.086262695 0.99366087 0.026951352
-0.010345981 0.010367011 0.02579323 -0.043860868 -0.3193529 0.94662029 0.066767879
-0.0074493545 0.0098243142 0.025382204 -0.025366042 -0.72988832 0.68309551 0.04200808
-0.0046071969 0.0092948303 0.025326649 0.036803886 -0.72372478 0.6891067 0.041041464
-0.0014210342 0.009096534 0.025487375 0.22647715 -0.77828813 0.58564132 0.037595201
0.0016532312 0.0093977414 0.025237964 0.20867994 -0.88874382 0.40815073 0.01482351
0.0032964281 0.010198491 0.026981652 0.31132793 -0.83692652 0.45014319 0.024541402
-0.045621745 0.013538279 0.025272816 -0.76699281 0.00047567385 0.64165556 0.0034217008
-0.044358205 0.013515239 0.026542608 -0.57337159 0.00021325759 0.81929541 0.0042566671
-0.013706837 0.013454336 0.026632532 -0.1733204 -0.2111702 0.96196008 0.061565686
-0.011393297 0.012621629 0.026432546 -0.41347399 -0.46894437 0.78046811 0.03081907
-0.045621749 0.016443495 0.025272818 -0.76697844 -0.002893483 0.64166635 0.0033019825
-0.044358205 0.016415387 0.026542606 -0.57338536 -0.00036257293 0.81928575 0.0040358137
-0.014621665 0.015890518 0.026880074 -0.32942265 -0.39112967 0.8593592 0.039211731
-0.045621749 0.019612823 0.025272818 -0.76698136 0.0011227705 0.64166844 0.0033390226
-0.044358205 0.019579185 0.026542606 -0.57341748 0.00092201604 0.81926274 0.0040090941
-0.045621745 0.022518041 0.025272816 -0.7648834 0.057080645 0.6416347 0.0038436018
-0.044358205 0.022479335 0.026542608 -0.58582276 0.052845832 0.80871439 0.0043196757
-0.045589603 0.025201883 0.025024513 -0.76049161 0.094485722 0.64243668 0.0030006997
-0.044134278 0.025731852 0.026051316 -0.705773 0.10571889 0.70050555 0.0036545612
-0.045417476 0.028639443 0.02460284 -0.73888284 0.048048727 0.6721186 0.0054206969
-0.043938186 0.028582728 0.026073325 -0.60118115 0.038398065 0.7981897 0.0082225017
-0.045417409 0.031549491 0.024602611 -0.76887691 0.00022378971 0.63939685 0.0017290226
-0.043937542 0.031487089 0.026071209 -0.65031499 -0.0018334913 0.75966245 0.0020293531
-0.045416966 0.034459654 0.024601152 -0.74731094 0.00024426894 0.66447455 0.0031979138
-0.043939069 0.034390893 0.02607616 -0.62785459 0.028408812 0.77781206 0.0032535398
-0.045415174 0.037634805 0.024595296 -0.71211314 -0.012666143 0.70195043 0.0038672739
-0.043839555 0.037627243 0.026088635 -0.58824408 0.029704496 0.80813771 0.0027549374
-0.04552041 0.040683195 0.024487816 -0.6582551 -0.065204874 0.74996567 0.005624814
-0.043637507 0.04048105 0.02599266 -0.57064265 0.014167024 0.82107633 0.0019413381
-0.0061586932 0.039491348 0.026980955 0.30538365 0.4678753 0.82935727 0.064244956
-0.0041899099 0.04074296 0.025361836 0.15223829 0.73474997 0.66103399 0.059799969
-0.001578963 0.040218692 0.0265835 0.11675434 0.83069587 0.54434615 0.040915415
0.00051221851 0.040412046 0.025119981 0.17310293 0.87602592 0.45012668 0.039728552
-0.045924746 0.043595131 0.024496675 -0.54626089 -0.076169051 0.83414465 0.00311918
-0.043626517 0.043390129 0.025957381 -0.5611164 -0.019018456 0.8275184 0.00072397047
-0.0037305746 0.043157823 0.024986589 0.68046838 0.037865948 0.73179847 0.058557544
-0.0026552409 0.044231329 0.024164647 0.46241933 0.17617631 0.86898237 0.046262931
-0.046174549 0.046564471 0.024497451 -0.46406692 0.018829269 0.88560003 0.0023054834
-0.043618537 0.046563148 0.025931632 -0.57069486 0.026107423 0.82074708 0.0013154462
-0.0028248348 0.04610496 0.024578784 0.72591132 -0.079812609 0.68314183 0.02036592
-0.045689147 0.049487554 0.024362434 -0.43877241 0.052797671 0.89704585 0.0013946919
-0.043549694 0.04949607 0.02570899 -0.5526275 0.051241077 0.83185166 0.0022131929
-0.0020076297 0.049484216 0.024031933 0.65375048 0.033480316 0.75596911 0.024393486
-0.045757901 0.052431338 0.024296824 -0.41831279 0.067486532 0.90579247 0.0022195126
-0.043479048 0.05242075 0.025649482 -0.60511982 0.072667293 0.79281116 0.0025391174
-0.041978888 0.053394526 0.026872426 -0.57085782 0.079010457 0.81723845 0.0090090791
-0.0026305388 0.053567812 0.024104333 0.7099244 0.062051624 0.70153898 0.026728883
-0.045416597 0.054801404 0.024211565 -0.42752662 0.22201549 0.87631625 0.0035226818
-0.043386355 0.05549207 0.025209136 -0.52157784 0.2499004 0.81578571 0.0083595868
-0.041591909 0.055870332 0.026600976 -0.6590544 0.20309079 0.72415566 0.002391872
-0.042996697 0.057825215 0.024596227 -0.52961183 0.40146047 0.74722207 0.005098511
-0.040914912 0.058773119 0.025837099 -0.58011931 0.39683422 0.71132559 0.0032426047
-0.039849762 0.060890418 0.025179675 -0.59216654 0.584961 0.55421954 0.0047787288
-0.038207963 0.061990175 0.025885127 -0.569318 0.58805317 0.57451761 0.0091456613
-0.036988221 0.063532121 0.025169246 -0.52197731 0.7052983 0.47968102 0.013565782
-0.034859218 0.064824082 0.025658483 -0.52628189 0.72145855 0.45002773 0.0216564
-0.032864578 0.06586422 0.026255159 -0.42690563 0.84154636 0.33098537 0.014124567
-0.033054501 0.066013336 0.02514719 -0.43497062 0.86902136 0.23580176 0.0053455643
-0.031208793 0.066733599 0.025794009 -0.39056209 0.87392533 0.28933692 0.014891844
-0.029907914 0.06739673 0.024193851 -0.29087213 0.88353503 0.3670958 0.044879317
-0.03035941 -0.066152744 0.027974259 -0.42555645 -0.70354158 0.56914926 0.075246975
-0.028387384 -0.0664474 0.028331617 -0.27581587 -0.17863855 0.9444648 0.066512465
-0.025348291 -0.06687174 0.028407771 -0.029460909 -0.005438278 0.99955112 0.00088617881
-0.022221511 -0.066947676 0.028445769 -0.0094537744 0.010101652 0.99990433 0.00018563762
-0.019550893 -0.066649348 0.028447568 -0.0020848792 -0.0014469617 0.99999684 1.0883558e-05
-0.01708083 -0.066467591 0.028447105 0.00062049262 -0.00057737122 0.99999958 0
-0.033959582 -0.063690081 0.028102439 -0.42315805 -0.61564547 0.66476905 0.039172936
-0.031363212 -0.064423122 0.02838112 -0.3270807 -0.37597191 0.8669852 0.076668665
-0.028490363 -0.064473078 0.028447887 -0.14551295 -0.12760696 0.98109245 0.029607732
-0.025445929 -0.064490676 0.028448351 -0.036501925 -0.19351289 0.98041844 0.035695665
-0.022386435 -0.064560369 0.028455127 -0.015169404 -0.2088024 0.97784019 0.037093878
-0.019469278 -0.064547382 0.028447976 0.04840323 -0.20791851 0.97694784 0.037530154
-0.016601734 -0.064433947 0.028446995 0.12208641 -0.21396092 0.96918297 0.023691481
-0.013896547 -0.064263403 0.02844684 0.0001201316 2.1025251e-05 1 0
-0.011551199 -0.063491717 0.028446462 6.2983469e-05 9.4266088e-06 1 0
-0.037125584 -0.061029635 0.027866814 -0.51919997 -0.49667192 0.69552016 0.033163983
-0.03441542 -0.061475944 0.028399216 -0.24963036 -0.27367255 0.92886388 0.043451399
-0.031363618 -0.061514769 0.028448261 -0.013500774 -0.038656849 0.99916136 0.0012142702
-0.028490447 -0.061507042 0.028430434 -0.30932012 -0.021344604 0.9507184 0.073540129
-0.025815533 -0.062290851 0.028256802 -0.10554901 -0.50511408 0.85657406 0.036445368
-0.022322539 -0.062788315 0.028447246 -0.028784025 -0.44940367 0.89286494 0.04627407
-0.019254623 -0.062749006 0.028447527 0.096488453 -0.3038846 0.94781011 0.045408119
-0.016445054 -0.061559066 0.028447026 0.24122015 -0.16251965 0.95676553 0.031199571
-0.013658791 -0.061455928 0.028446605 6.3534062e-05 6.7161127e-05 1 0
-0.010698811 -0.06139306 0.028446706 -0.00096560951 0.0055342708 0.99998426 1.965157e-05
-0.0083061671 -0.060461301 0.028446274 -0.003321002 0.0047656433 0.99998313 1.5418551e-05
-0.039575439 -0.057805348 0.027695088 -0.55953836 -0.35601383 0.74844575 0.017092813
-0.037569072 -0.058598291 0.028339814 -0.31230316 -0.23329522 0.92089099 0.03238225
-0.034509595 -0.058537845 0.028449023 -0.064019345 -0.028839825 0.99753189 0.0025456022
-0.03130351 -0.058427196 0.028448161 -0.0077456799 -0.0010147794 0.99996954 0.0003108212
-0.028374873 -0.058558855 0.028378742 -0.40283594 0.20956606 0.89095753 0.039777089
-0.026922993 -0.057727098 0.028623773 -0.61810577 0.14815292 0.77200776 0.0258743
-0.016424915 -0.0584477 0.02844689 0.33749047 0.091770954 0.93684483 0.018930541
-0.013784774 -0.058509916 0.028446482 0.0041302093 0.0053971992 0.99997693 1.3351839e-05
-0.010535409 -0.058548644 0.028446648 -0.002832579 0.0053752805 0.99998146 2.0229027e-05
-0.0076948823 -0.058171317 0.028445933 -0.0028820613 0.0020205157 0.99999386 1.5318416e-05
-0.040198665 -0.055440288 0.027960895 -0.48079124 -0.15912409 0.86227566 0.019720972
-0.0375003 -0.05538553 0.028448492 -0.17088719 -0.043682877 0.98432177 0.014077325
-0.034439709 -0.055529915 0.028448509 -0.14303729 -0.21023814 0.96712995 0.035848513
-0.03138892 -0.055470329 0.028405329 -0.071048982 -0.21169023 0.97475088 0.027483398
-0.028602103 -0.055483494 0.028402044 -0.17077246 -0.20480353 0.9637906 0.028716743
-0.026555087 -0.055182371 0.028723257 -0.32093477 -0.064540617 0.94489962 0.07377322
-0.022291502 -0.054055352 0.029917616 0.10536665 0.3367396 0.93568391 0.01792286
-0.01832445 -0.054411862 0.028447567 0.2072541 -0.053908136 0.97680074 0.046534557
-0.016557354 -0.05550551 0.028446626 0.26309204 0.071541093 0.96211451 0.05524724
-0.01370495 -0.055435617 0.028406242 -0.094711125 -0.27459419 0.95688444 0.027959464
-0.010509211 -0.055586662 0.028379705 0.15192567 -0.2380762 0.9592905 0.030044369
-0.0073335385 -0.055455007 0.028446104 0.20605035 -0.12126877 0.97099805 0.02312625
-0.0054631545 -0.055107176 0.028445721 0.45506549 -0.11124526 0.88348168 0.060382098
-0.042030856 -0.051651724 0.027037645 -0.6528731 -0.10092837 0.75071305 0.0013871819
-0.040425044 -0.05260564 0.028195228 -0.43432626 -0.11670946 0.89316273 0.013665581
-0.037500359 -0.052480761 0.028448675 -0.19991638 -0.063603275 0.97774643 0.030981697
-0.035276446 -0.052683804 0.028207714 -0.30402625 -0.24670967 0.92016429 0.049618654
-0.028122958 -0.053322166 0.028826773 -0.02113523 -0.22993159 0.97297734 0.06135416
-0.025357315 -0.052656632 0.028650876 0.03107081 0.049536604 0.99828887 0.049998462
-0.022608483 -0.052419778 0.029084509 -0.0052997363 0.25082436 0.96801811 0.015391395
-0.019446775 -0.052295655 0.028625896 -0.037236765 0.061389383 0.99741906 0.065118574
-0.017096277 -0.053436048 0.028081739 -0.048397347 -0.25254768 0.96637326 0.067328028
-0.0091992859 -0.053097598 0.028446713 0.28592354 -0.1711708 0.94284046 0.027039701
-0.0073338207 -0.052475967 0.028446814 0.29162672 -0.16470791 0.94224477 0.028945895
-0.0051621655 -0.052415572 0.028446449 0.45692751 -0.18610582 0.8698172 0.052576523
-0.042055592 -0.049530968 0.027116252 -0.62904674 -0.032676984 0.77668041 0.0006420351
-0.040487457 -0.049469814 0.028267682 -0.35343435 -0.012654521 0.93537372 0.016666314
-0.037502266 -0.049575288 0.028454533 -0.19930357 -0.02064798 0.97972023 0.032022182
-0.035621822 -0.049504664 0.028724091 -0.48060611 -0.023683675 0.87661678 0.042309191
-0.027368929 -0.049579713 0.029885214 0.35866067 0.036664624 0.93274766 0.028201191
-0.02538852 -0.049506031 0.028973021 0.15937696 0.15104695 0.97559404 0.022912158
-0.022470653 -0.049436767 0.028397545 -0.026790574 0.085190602 0.9960044 0.010288788
-0.019543339 -0.049445786 0.029075367 -0.20279798 0.092137299 0.97487622 0.016376724
-0.017741015 -0.049443107 0.029940894 -0.35350877 -0.060463533 0.93347508 0.033180404
-0.0073366715 -0.049496129 0.028453913 0.32775095 0.030697741 0.94426531 0.028945083
-0.0049946564 -0.049593307 0.028446293 0.58882862 0.027785027 0.80778027 0.044724923
-0.042072535 -0.04635876 0.027170097 -0.46369392 -0.010165119 0.88593715 0.014118287
-0.040452614 -0.046431988 0.028237082 -0.33239079 0.007488681 0.94311202 0.012959391
-0.037500616 -0.046407107 0.028449457 -0.19009691 0.046419092 0.98066735 0.028990202
-0.035365291 -0.046258293 0.028490167 -0.4575668 0.10313717 0.88317347 0.045344029
-0.027697163 -0.046023909 0.028145643 -0.016421193 0.13684912 0.99045581 0.062758617
-0.025318317 -0.046513446 0.028354349 0.094077513 -0.097793519 0.99075013 0.053623904
-0.02241648 -0.046486929 0.028918358 0.00053696055 -0.20917039 0.97787899 0.02091755
-0.019367371 -0.046730038 0.028699953 -0.11535931 -0.11838986 0.98624337 0.038815524
-0.017367968 -0.045828883 0.028760407 0.047684379 0.13847499 0.98921734 0.052198753
-0.009199365 -0.04574291 0.028446913 0.32540038 0.089405768 0.94134003 0.037166588
-0.007334054 -0.046517987 0.028447391 0.30292219 0.10638331 0.94705904 0.034161083
-0.0050677089 -0.046741556 0.028445791 0.59225971 0.15300708 0.7910862 0.047330245
-0.042060565 -0.043461092 0.027132064 -0.43838027 0.016054604 0.89864612 0.010752756
-0.040468652 -0.043566931 0.02812949 -0.32689366 0.020398252 0.94484097 0.0099922754
-0.037500426 -0.043502435 0.028448874 -0.17704737 0.078644022 0.98105514 0.027812278
-0.034393389 -0.043399297 0.028385751 -0.10665191 0.22820456 0.96775413 0.056251269
-0.031394672 -0.043481849 0.028265463 0.14980038 0.31504613 0.93717974 0.037305973
-0.028583702 -0.043480892 0.028362455 -0.11140434 0.043100003 0.99284011 0.053875886
-0.026113689 -0.043956202 0.028776975 -0.17720194 -0.12742655 0.97589034 0.068363167
-0.022692505 -0.044648863 0.029850211 -0.039290063 -0.35643563 0.93349344 0.017215721
-0.019039398 -0.0445522 0.028832093 0.076341666 -0.21424003 0.97379321 0.049355727
-0.016594285 -0.043438282 0.028322728 0.24351709 -0.044863805 0.96885842 0.045483068
-0.01369683 -0.043668278 0.028384101 -0.12080272 0.34630793 0.93031043 0.037558641
-0.010488364 -0.04343655 0.028326664 0.11199822 0.31499606 0.94246161 0.050772414
-0.007333654 -0.043539148 0.028446393 0.38074121 0.21672107 0.89892608 0.04611348
-0.0054132044 -0.043841299 0.028446332 0.60735881 -0.0088100974 0.7943787 0.058222145
-0.042051986 -0.040561978 0.027104797 -0.55901819 0.002435135 0.82915181 0.0017740522
-0.040391818 -0.040541105 0.027967427 -0.31472135 0.015928764 0.94905043 0.0083517767
-0.037499879 -0.040597867 0.028447181 -0.11872447 0.018432966 0.99275613 0.0044113095
-0.034509376 -0.04053586 0.028448381 -0.0081392461 0.13545971 0.99074942 0.027922614
-0.031363506 -0.040545039 0.028447935 -0.019334611 -0.01313794 0.99972671 0.0014448973
-0.028409507 -0.04032357 0.028340656 -0.38190156 -0.21014646 0.89999419 0.036403567
-0.026889348 -0.041088849 0.028847203 -0.59552211 -0.15704897 0.78783816 0.024664987
-0.016382845 -0.040574543 0.028446946 0.32553402 -0.084784821 0.94172138 0.017957449
-0.013656467 -0.040496282 0.028446577 -0.045615539 0.093202323 0.99460161 0.021917539
-0.010535445 -0.040452056 0.028446747 0.048085861 -0.010363681 0.99878943 0.016954511
-0.0075206645 -0.040699784 0.028388901 0.28372246 0.047816835 0.95771354 0.055056207
-0.0036496678 -0.03942341 0.027311224 0.056504052 -0.67535132 0.7353285 0.043554943
-0.002088052 -0.039431732 0.027810343 0.080095574 -0.83927375 0.53777713 0.012750607
-0.042281672 -0.037448462 0.027176913 -0.50069165 0.16453049 0.84984559 0.01034542
-0.040351734 -0.037594005 0.027926473 -0.36131385 0.085495219 0.92851645 0.023020431
-0.037497826 -0.037400413 0.028275745 -0.14902341 0.018211704 0.98866594 0.013166262
-0.034439817 -0.037526753 0.028448829 -0.029056365 0.0058863503 0.99956042 0.00078340288
-0.031363677 -0.037625149 0.028448429 -0.10922228 0.011714783 0.99394834 0.025226239
-0.028364113 -0.037513901 0.028426116 -0.2802206 0.1821242 0.94250047 0.083111167
-0.025705267 -0.036560357 0.028182156 -0.063392609 0.56453198 0.82297325 0.06496191
-0.022455614 -0.036133576 0.027247494 0.026258888 0.44874057 0.89327615 0.096533135
-0.019314541 -0.036278702 0.027589848 0.086128227 0.34308457 0.9353475 0.08345902
-0.016524119 -0.037450641 0.028404266 0.19174026 0.15469025 0.96917826 0.049002998
-0.013782717 -0.037552398 0.028447017 -0.10508118 -0.053408999 0.99302834 0.0047618705
-0.010569542 -0.037473075 0.028532656 -0.00059234869 -0.17373575 0.98479211 0.027352305
-0.0074382778 -0.03742604 0.029040392 -0.079667524 -0.32911816 0.94092208 0.030806998
-0.0044763708 -0.037608162 0.029459655 -0.10216728 -0.55959016 0.82244802 0.013406009
-0.0013684724 -0.037830934 0.029489197 0.0062830406 -0.54267949 0.83991635 0.038577225
0.0015235227 -0.037526239 0.029460019 0.084950067 -0.56906474 0.81789297 0.019659765
0.004409112 -0.036981482 0.029279662 0.16356812 -0.30864272 0.93700868 0.0006316558
0.0065567931 -0.036322013 0.029090596 0.20969896 -0.30937916 0.92752939 0.0014922258
-0.040204179 -0.033933748 0.028247589 -0.39783815 -0.13673791 0.90720856 0.049053922
-0.037562184 -0.034607656 0.028089324 -0.22187094 -0.099890523 0.96994597 0.020842152
-0.034419741 -0.034504589 0.028597508 -0.018866779 -0.062991098 0.99783576 0.0031985224
-0.03136361 -0.034439884 0.028448224 0.038661908 -0.01329986 0.99916381 0.00094862079
-0.028552946 -0.03452225 0.028447794 -0.036810089 0.11394916 0.99280441 0.027846253
-0.025512688 -0.034532707 0.028448628 0.058013402 0.093720414 0.99390697 0.051750563
-0.022325236 -0.034436695 0.028454628 0.042747077 0.073914066 0.99634802 0.067874976
-0.019469034 -0.034520276 0.028447311 -0.046406336 0.086102195 0.99520493 0.066143692
-0.016537879 -0.034485973 0.028447064 0.025959758 0.051940437 0.99831271 0.05020237
-0.013590804 -0.034344308 0.028637173 -0.1580198 -0.15356587 0.97542161 0.0064691976
-0.01070867 -0.034617428 0.029382147 -0.26109263 -0.26717719 0.92760277 0.00051255693
-0.0078664906 -0.03554219 0.029770803 -0.12097262 -0.19466133 0.97338206 0.011698632
-0.0044277981 -0.033221722 0.029921291 -0.024743138 -0.03602533 0.99904454 0.011756132
-0.0015287865 -0.03383885 0.02999923 -0.069181629 -0.14204608 0.98743951 0.0085032778
0.0048019513 -0.03536671 0.029780248 0.16355294 -0.30861133 0.93702155 0.00060583389
0.0075456412 -0.034397539 0.029440328 0.25650933 -0.28712991 0.92290807 0.00079925865
0.0097368276 -0.033307511 0.029112285 0.26217195 -0.22027074 0.93954605 0.0015122445
-0.042404283 -0.031665206 0.027786037 -0.70435768 0.026646325 0.70934492 0.031018971
-0.040580202 -0.031528324 0.028558701 -0.38867962 0.043441035 0.92034835 0.049857304
-0.037658792 -0.031580828 0.028933065 -0.093720362 0.040252741 0.99478447 0.0082838545
-0.034671251 -0.031582989 0.028944563 -0.0073407069 0.014910809 0.99986184 0.0060388902
-0.031363629 -0.031520043 0.028448306 0.031082835 0.0047690114 0.99950546 0.00098923955
-0.02849034 -0.031478841 0.028447809 0.0083631687 -0.014427913 0.99986094 0.00030936798
-0.025445556 -0.031412143 0.028447296 7.1003065e-05 -0.014614794 0.99989319 0.00034318259
-0.022322504 -0.031495251 0.02844714 0.0051056063 -0.062972106 0.99800223 0.0076132524
-0.019467689 -0.031571452 0.028443705 -0.0078713112 -0.05105881 0.99866456 0.0039495793
-0.016546439 -0.031487182 0.02845272 -0.17438009 -0.068335071 0.98230433 0.0075723538
-0.013652186 -0.031456959 0.029280365 -0.29755673 -0.12046481 0.94707352 0.0040247431
-0.01157824 -0.032130692 0.029867522 -0.21246473 -0.15074232 0.96547168 0.01125283
-0.0071973414 -0.031661086 0.029916503 0.010665717 -0.041977245 0.9990617 0.012978528
-0.0056105726 -0.032645825 0.029955266 -0.00023954218 -0.056164343 0.99842149 0.010573074
0.0084800944 -0.032083362 0.029807517 0.26215196 -0.22024901 0.93955666 0.0015011871
0.010243239 -0.031371463 0.029378377 0.28965604 -0.17074366 0.94177812 0.0017621932
-0.039941132 -0.02907245 0.027795428 -0.41228113 0.15367498 0.89800239 0.040383045
-0.037526734 -0.028420225 0.027927095 -0.2420975 0.17083479 0.95509386 0.015725475
-0.034463651 -0.02851983 0.028520253 -0.057977095 0.039345905 0.9975422 0.0068384102
-0.031363629 -0.028600207 0.028448293 0.034402758 -0.015614366 0.999286 0.0012445741
-0.02861332 -0.028572181 0.028447786 -0.0011310461 -0.035486549 0.99936956 0.00017472939
-0.025445113 -0.028477827 0.028446073 0.0029869375 -0.031809118 0.99948955 0.00025306165
-0.022315331 -0.028554574 0.028427534 0.030727917 -0.00030616901 0.99952775 0.00051132689
-0.01939467 -0.028407704 0.028353613 -0.089304633 -0.0035329596 0.99599808 0.0065694097
-0.016372338 -0.028418737 0.028598003 -0.24932273 -0.037219346 0.96770495 0.0064200852
-0.014080474 -0.028513681 0.029674912 -0.34340584 -0.091283254 0.93474048 0.0023848331
-0.0098043298 -0.028764226 0.029896032 -0.15303333 -0.051942546 0.98685497 0.014670429
0.011213779 -0.028715136 0.02947242 0.25022373 -0.068463907 0.96576428 0.00083198474
0.012555 -0.027706042 0.029081516 0.21900685 -0.042365834 0.97480315 0.0015496662
-0.042886354 -0.024654206 0.027503625 -0.49513593 -0.31868044 0.80825937 0.012898177
-0.040373493 -0.024928603 0.028282644 -0.33428165 -0.22096199 0.91620493 0.024746705
-0.037512921 -0.025580406 0.028263239 -0.16125716 -0.1460928 0.97603947 0.013596339
-0.03438421 -0.025514595 0.028715458 -0.03324471 -0.1110562 0.99325794 0.0018533184
-0.031381793 -0.025396608 0.028614402 0.0018996113 -0.069680378 0.99756759 0.0002410087
-0.028537581 -0.025395604 0.028706096 -0.0015913275 -0.074094057 0.99724996 0.0001789508
-0.025437245 -0.02559481 0.028656859 0.0093245786 -0.071507156 0.99739653 0.00046892409
-0.022354882 -0.025605688 0.028536443 0.071776479 -0.036994681 0.99673438 0.0019826989
-0.019419802 -0.025481727 0.028197054 -0.070241131 -0.026724378 0.997172 0.011700212
-0.016417185 -0.025455348 0.028714849 -0.29896176 -0.0031984053 0.95425969 0.0056815883
-0.014519679 -0.025436893 0.029768705 -0.32154244 -0.032712944 0.94632995 0.012026874
-0.010824046 -0.026046611 0.029910685 -0.15099366 -0.0074658995 0.98850656 0.018159445
0.011625317 -0.025642378 0.029586045 0.23224334 -0.017807148 0.97249472 0.001034025
0.012749383 -0.025300827 0.029151523 0.23224334 -0.017807148 0.97249472 0.001034025
-0.043000847 -0.022582844 0.027492106 -0.51798671 -0.10147963 0.84934783 0.010399428
-0.040575456 -0.022576498 0.028543059 -0.30494246 -0.16876617 0.9372983 0.014721845
-0.037490763 -0.022643385 0.029017944 -0.13563277 -0.15060036 0.97924632 0.012622205
-0.034492113 -0.022551235 0.028936943 -0.018858975 -0.080182314 0.99660182 0.0013261398
-0.031534884 -0.022466546 0.028948599 0.007209349 -0.056449696 0.99837941 0.00034902117
-0.02856298 -0.022540409 0.02899448 0.0040279366 -0.058282606 0.99829197 0.00030399385
-0.025417324 -0.022508785 0.028933031 0.012296874 -0.063628964 0.99789786 0.00047363853
-0.022529799 -0.022369264 0.029015329 0.10839277 -0.050716825 0.99281359 0.0018761313
-0.019378042 -0.022469673 0.028204581 -0.030560285 -0.00046891751 0.99953282 0.016340649
-0.016373279 -0.022506909 0.028598614 -0.30383959 0.045744747 0.95162439 0.0085979421
-0.014449891 -0.022382488 0.029759932 -0.3491154 0.066317238 0.93473023 0.013787217
-0.010828115 -0.022546571 0.02992098 -0.15574166 -0.0067481375 0.98777485 0.017093336
0.011340155 -0.022203783 0.029663833 0.30787617 0.041539997 0.95051914 0.0012705331
0.012728442 -0.022758352 0.029142313 0.27231464 0.0056302417 0.96219176 0.00060622086
-0.043000847 -0.019422071 0.027492106 -0.50657308 0.00035361803 0.86219698 0.0034687454
-0.04057546 -0.019416608 0.028543059 -0.302423 -0.00027656893 0.95317376 0.0048011867
-0.03744908 -0.019470779 0.029018793 -0.12602076 0.0020886052 0.99202538 0.004980911
-0.034403637 -0.019473946 0.029011317 0.001777958 -0.0019426118 0.99999654 6.9415044e-05
-0.031556267 -0.019547332 0.029011112 -0.0079241935 -0.024932003 0.99965781 0.00053894526
-0.028512638 -0.019590203 0.029023277 0.0014400203 -0.021760661 0.99976218 0.00026527693
-0.025445012 -0.019615879 0.028972907 0.0026741305 -0.025033481 0.99968308 0.0003874503
-0.022510761 -0.01943394 0.028963137 0.12733543 -0.017995577 0.99169642 0.0023587516
-0.019385988 -0.019517571 0.02822675 0.033763643 0.058979273 0.997688 0.02260997
-0.01621867 -0.019571224 0.028191637 -0.26350087 0.11409494 0.95788813 0.017947756
-0.013992101 -0.019455694 0.029644959 -0.43357143 0.16761313 0.8853935 0.0036811263
-0.0097735999 -0.019604241 0.029891571 -0.12679872 0.060771145 0.99006504 0.022109319
-0.008530126 -0.018003589 0.029974705 -0.056767706 0.082354814 0.99498498 0.017322011
0.01095656 -0.01932374 0.029516419 0.34934539 0.15635909 0.9238559 0.0009140264
0.012579806 -0.020286763 0.029026739 0.30498385 0.074985035 0.9494009 0.0013269411
-0.043000851 -0.016524702 0.027492102 -0.50804472 0.00035070904 0.86133069 0.00375441
-0.040575452 -0.016520033 0.028543061 -0.30245286 -0.0014374004 0.95316327 0.0050066123
-0.037508208 -0.016565001 0.029017804 -0.12591901 0.004944012 0.99202824 0.0051231091
-0.034383137 -0.016417198 0.028944394 0.0016801187 0.0081422357 0.99996543 6.3806816e-05
-0.031545989 -0.016367732 0.028981071 -0.0084679807 0.004125155 0.99995565 2.787467e-05
-0.02851245 -0.01643174 0.029022723 -0.00092445372 0.0079193022 0.99996817 6.2413645e-05
-0.025416972 -0.01642737 0.029005205 0.0046287067 0.0028295878 0.99998534 6.7189205e-05
-0.022534193 -0.016492952 0.029027374 0.12926401 -0.011971142 0.99153793 0.0025301769
-0.019375669 -0.016568022 0.028199105 0.22524445 0.058775153 0.97252786 0.002810207
-0.016241245 -0.016795807 0.02749503 -0.16142026 0.30497482 0.93858081 0.030981649
-0.013558183 -0.016608838 0.029089697 -0.47293046 0.31777719 0.82179958 0.0082879299
-0.011358563 -0.015814397 0.029799238 -0.22908421 0.21332784 0.94974291 0.014795093
