# .PCD v0.7 - Point Cloud Data file format
VERSION 0.7
FIELDS x y z normal_x normal_y normal_z curvature
SIZE 4 4 4 4 4 4 4
TYPE F F F F F F F
COUNT 1 1 1 1 1 1 1
WIDTH 567
HEIGHT 1
VIEWPOINT 0 0 0 1 0 0 0
POINTS 567
DATA ascii
-0.069757372 0.038921561 0.0028394395 -0.85336947 -0.35972291 0.37730625 0.0010780132
-0.068911165 0.037462283 0.0029899883 -0.83153367 -0.39696872 0.38854554 0.0013324374
-0.024487598 0.038827885 0.0017721712 0.40105209 0.91032594 0.10229262 0.0021321974
-0.022518238 0.038089413 0.00157125 0.35960433 0.92710882 0.10561195 0.0020645938
-0.019507697 0.036990147 0.001599228 0.31385887 0.94064569 0.12914419 0.0027770037
-0.017208179 0.036267255 0.0013742684 0.27515033 0.95620739 0.099798568 0.0023894229
0.023926213 0.036039367 0.00088674057 -0.28632492 0.9525581 0.10320422 0.0035110994
0.025599822 0.036440175 0.0015773835 -0.2895655 0.94574934 0.14734372 0.0024353939
0.028452074 0.03737342 0.0016016791 -0.31431651 0.9404543 0.12942483 0.0020046874
0.031278793 0.038373038 0.0016810311 -0.36408952 0.91775244 0.15864851 0.002572661
0.033178043 0.038925599 0.0026339653 -0.40342298 0.90512401 0.13416588 0.0032978773
0.071267098 0.037581056 0.0018305321 0.93415254 -0.25642011 0.24820916 0.0025247659
-0.070678674 0.040572595 0.0023966795 -0.84597892 -0.32533267 0.42246696 0.0015571569
-0.030746093 0.041642282 0.001693216 0.45345002 0.88557684 0.10068069 0.0018498286
-0.028494067 0.040595319 0.0015979512 0.41762257 0.90298021 0.10108455 0.001900828
-0.025932828 0.039479598 0.0014651556 0.37689844 0.9206053 0.1021441 0.0022026305
0.032838996 0.039102655 0.00089572172 -0.38927305 0.91426623 0.11217696 0.0033296321
0.034474138 0.039772641 0.001657498 -0.4279336 0.88903898 0.16273448 0.0028463975
0.037228696 0.041270204 0.0016639342 -0.50236595 0.85482949 0.12998089 0.0027962802
0.071813911 0.040208511 0.0020405995 0.94950306 -0.17142606 0.26278704 0.0035238259
0.072161384 0.041276358 0.0010979003 0.97094208 -0.13200866 0.19961247 0.0034736802
-0.072301432 0.044117209 0.0017765379 -0.85014844 -0.30102214 0.43201074 0.0011103785
-0.071729362 0.043001547 0.0023735431 -0.85105473 -0.30104294 0.43020815 0.0011941919
-0.036649831 0.044646576 0.0016720899 0.48677367 0.86724788 0.10455918 0.0019672785
-0.034503382 0.043533295 0.0015664696 0.45471066 0.88570189 0.093650088 0.0019739585
-0.032198161 0.042387147 0.0014147093 0.42656225 0.89844471 0.1041238 0.0020935079
0.038670916 0.042197675 0.0013329063 -0.53764981 0.8333025 0.12860622 0.0029712697
0.04053764 0.043319453 0.0015594757 -0.53425467 0.83621013 0.12379213 0.0031164733
0.042613484 0.04463559 0.0017361582 -0.5502696 0.8257727 0.12370446 0.0023338289
0.071973912 0.042825151 0.0029747819 0.95112991 -0.088967584 0.29569694 0.0018581264
0.072366923 0.043677699 0.0016727019 0.97276062 -0.078549951 0.21809776 0.0026094618
-0.073033817 0.046535522 0.0020269256 -0.83843386 -0.27434355 0.47091842 0.0013673118
-0.042377193 0.047774959 0.0018840447 0.50085503 0.85693735 0.12166591 0.0024709327
-0.040528219 0.046786379 0.0015833733 0.48184136 0.86877733 0.11425808 0.0024432822
-0.038148556 0.045478847 0.0014628173 0.46245456 0.87958086 0.11168393 0.0023506407
0.044065941 0.045616902 0.0015492328 -0.52622503 0.84036386 0.12990716 0.0027023887
0.046344202 0.04707798 0.0016252581 -0.53962857 0.82880408 0.14793482 0.003327443
0.048171274 0.047947612 0.0027168188 -0.5509218 0.8155691 0.17700908 0.0035462487
0.07253328 0.046531066 0.0017454479 0.975398 -0.041867957 0.21643889 0.0034545832
-0.075076327 0.050675716 0.00079740031 -0.82317346 -0.26877788 0.50014395 0.0018548608
-0.073994175 0.0494745 0.0022347323 -0.79528368 -0.2686871 0.54344374 0.0024797055
-0.048163783 0.050881181 0.0025770401 0.46330148 0.87207896 0.1575755 0.0045516286
-0.046442583 0.050108697 0.0015673689 0.49428686 0.86015368 0.12576236 0.0027748484
-0.043827016 0.048646066 0.0015224168 0.46855676 0.87447673 0.12547913 0.0027532841
0.047801804 0.048113544 0.0011054182 -0.53477174 0.83207065 0.14723338 0.0042633405
0.049510736 0.049177572 0.0015861951 -0.53666288 0.82661819 0.1693971 0.003768526
0.051597752 0.050571643 0.0018388263 -0.55474496 0.81692111 0.15779085 0.0034581986
0.072534606 0.049496986 0.0019179266 0.94720274 0.0015421779 0.32063171 0.0033456474
-0.075526319 0.052867144 0.0021722019 -0.79897034 -0.12311733 0.58863276 0.011659863
-0.074549176 0.051388234 0.0028730445 -0.72677207 -0.20175323 0.65658045 0.0040125949
-0.054196499 0.053900771 0.0026433642 0.38296267 0.89760071 0.21829465 0.0063185357
-0.052352916 0.053291697 0.0016670701 0.4358303 0.88025773 0.18761215 0.0039122859
-0.049535554 0.051828954 0.0015152161 0.45246136 0.87947905 0.14763187 0.0040550218
-0.047906615 0.051060487 0.00071030395 0.46422583 0.87959039 0.10399611 0.0044859452
0.053060852 0.051602103 0.0015911673 -0.52363902 0.82923234 0.19538626 0.003753403
0.055362616 0.053053293 0.0017313109 -0.55077392 0.81251019 0.19098499 0.0040938859
0.05713287 0.053932447 0.0027360125 -0.54376882 0.79047465 0.28189605 0.0060421471
0.072567567 0.05233141 0.0018642358 0.93005288 0.009480644 0.36730328 0.0042429129
-0.075968862 0.056047201 0.0021806399 -0.69479656 0.46493974 0.54871559 0.052276619
-0.06067048 0.056646418 0.0018991871 0.48917338 0.84939605 0.19808018 0.0084399497
-0.058500167 0.055784807 0.0016002102 0.36956286 0.90910894 0.19220902 0.0079352949
-0.055503611 0.054703895 0.0015602541 0.33978891 0.92349702 0.17803594 0.0040274081
-0.053727791 0.05409776 0.00094424799 0.40005648 0.904616 0.14705338 0.0067569884
0.056809716 0.054167908 0.00094598235 -0.54750508 0.81170493 0.20340426 0.0072380677
0.058584128 0.055229113 0.0017231564 -0.54408461 0.79484779 0.26868004 0.0068285149
0.060483586 0.056580942 0.0020753513 -0.65790373 0.70719773 0.25890931 0.010163061
0.072602049 0.055542208 0.0019271495 0.88544917 0.017802538 0.46439514 0.0096292328
-0.075442605 0.05753541 0.0014322842 -0.60381359 0.73682725 0.30412945 0.039182995
-0.073473975 0.058635019 0.001487992 -0.52092808 0.83420265 0.1809411 0.012839036
-0.071386762 0.059658904 0.0014464406 -0.3872256 0.90837777 0.15781684 0.0089407312
-0.066460654 0.059738051 0.0026436767 0.31390873 0.86263126 0.39664677 0.014308676
-0.064397864 0.059023704 0.0016927797 0.50913936 0.82599103 0.24190094 0.0072395527
-0.062061414 0.057617974 0.0014109742 0.46388155 0.85543174 0.23032673 0.0098119145
0.061831817 0.05811077 0.0016997216 -0.71384013 0.57740808 0.39627287 0.014972649
0.063361146 0.059540711 0.0024937047 -0.70939243 0.51697749 0.47905803 0.013222707
0.072655536 0.058731858 0.0019627011 0.76442814 0.015160266 0.64453071 0.013111739
-0.069707885 0.060410213 0.0017671701 -0.14598133 0.96070749 0.23607351 0.024339251
-0.067442767 0.060589608 0.0015887396 0.22804438 0.93923283 0.25658795 0.018777775
-0.065753073 0.06016333 0.00069042901 0.39034912 0.89637047 0.21011321 0.017487561
0.062920727 0.060145147 0.00024908275 -0.79904604 0.56013703 0.2185677 0.013440606
0.064148515 0.061405197 0.0019927819 -0.68387902 0.39239225 0.61509174 0.021197701
0.071957707 0.061277974 0.002949426 0.32766783 0.12877592 0.93597567 0.014099666
0.072800137 0.061579615 0.0020668481 0.57166332 0.014654849 0.82035732 0.018009683
0.065258123 0.064446613 0.0019325729 -0.61544877 0.26196736 0.74336797 0.010758326
0.066374034 0.065369241 0.0027865428 -0.41497675 0.24158752 0.87717146 0.025654871
0.071910433 0.063123949 0.0029306521 0.21880214 -0.02442391 0.97546351 0.0080330689
0.073088244 0.064541467 0.0021451104 0.46395141 -0.047711845 0.88457483 0.020175403
0.065632336 0.067291074 0.001304682 -0.59686065 0.20821129 0.77485836 0.011175745
0.066959858 0.06769146 0.0025509263 -0.43673372 0.20814142 0.87518048 0.013985321
0.069411576 0.068374388 0.00292566 -0.16365588 0.05506501 0.98497951 0.012737433
0.073707394 0.067366801 0.0021999173 0.48055756 -0.14510325 0.86487538 0.012507808
0.075094707 0.068718493 0.00049280142 0.81067652 -0.26458099 0.5223031 0.01855116
0.065883517 0.069548965 0.0006676534 -0.61652535 0.19342703 0.76320535 0.022174103
0.067591228 0.070402883 0.0022894109 -0.46860683 0.06284529 0.8811686 0.018304108
0.069234602 0.070067629 0.0028927464 -0.28909129 0.026670186 0.95692992 0.014773013
0.074422054 0.070009805 0.0025182685 0.47879452 -0.26825058 0.83594102 0.025435342
0.0753977 0.070881963 0.0015886729 0.84098643 -0.23881195 0.48550057 0.025638813
0.067682452 0.07333599 0.0020076423 -0.67412478 0.10403412 0.7312541 0.025270022
0.069123566 0.072464406 0.0029068326 -0.49272245 -0.029860578 0.86967397 0.02324624
0.074954197 0.072124392 0.0029551208 0.75077158 -0.077024505 0.65605587 0.067272916
0.076194994 0.074040145 0.0016857489 0.86689734 0.36579809 0.33864567 0.074568525
0.068065681 0.076610491 0.0015971035 -0.38509047 0.78395128 0.48695546 0.091253616
0.070323832 0.076645888 0.0016244369 -0.029910786 0.9100498 0.41341829 0.070154436
0.073475361 0.075685568 0.0015510748 0.37894595 0.9047963 0.19427702 0.024306064
0.075348526 0.07510715 0.001277902 0.57913768 0.78694206 0.21288882 0.049688816
-0.015677473 0.0026170742 0.0044498476 -0.18253781 -0.88770097 0.42269018 0.00029605092
-0.013842434 0.0025030496 0.0050101848 -0.16476041 -0.87414294 0.45686778 0.00038810133
-0.010441758 0.0019062447 0.0049725147 -0.13266094 -0.89018095 0.43586591 0.00054610544
-0.0073458683 0.0015840004 0.0049947649 -0.086783215 -0.87303859 0.47986701 0.00042226849
-0.0044769058 0.0013990472 0.0050186575 -0.045349251 -0.88471967 0.46391231 0.0011413905
-0.00095935678 0.0013198316 0.0052310759 -0.012240485 -0.8832491 0.46874428 0.0011034089
0.001137061 0.0012492043 0.0049416129 -0.0015878116 -0.88465202 0.4662492 0.00093148375
0.004013591 0.0013528569 0.0050656786 0.026790798 -0.87612522 0.48133862 0.0010728388
0.0075758477 0.0015924852 0.0052440837 0.081352122 -0.86988276 0.48650366 0.00074386288
0.011101102 0.0018068692 0.0051732645 0.097278386 -0.86990678 0.48352766 0.00088732323
0.014094502 0.0022549313 0.0053521586 0.11792008 -0.85748553 0.50081283 0.00096506439
0.016657123 0.0024632779 0.0052166772 0.12362987 -0.84339899 0.52287072 0.00085259293
0.01936247 0.0023960497 0.0041489173 0.14468643 -0.90690494 0.39571369 0.0039979424
0.021255225 0.0024965499 0.0033344342 0.19123751 -0.90117764 0.38898215 0.0042435247
-0.027069056 0.0059575122 0.0046957345 -0.29714239 -0.8620882 0.41050014 0.00040404071
-0.025080338 0.0055030771 0.0051351711 -0.27679512 -0.86310214 0.42242065 0.0001692692
-0.022670873 0.0046706703 0.0049557886 -0.25833058 -0.86500937 0.43014437 0.00020859505
-0.019874239 0.0039555142 0.0051979721 -0.23241715 -0.86830938 0.43820202 0.00022236799
-0.017274734 0.0033534267 0.0053296327 -0.19576879 -0.86480016 0.46238011 0.00032298284
0.019818438 0.0031367941 0.0056121945 0.14763133 -0.83182395 0.53504562 0.0014893343
0.022239463 0.0034956785 0.0053749159 0.16791196 -0.82768238 0.53548801 0.0012168151
0.025611449 0.0041887555 0.0052347048 0.19085418 -0.82186186 0.53676605 0.0017048537
0.028656064 0.0050106752 0.0052343914 0.22845298 -0.81667143 0.5299595 0.0018593955
0.031194821 0.0055673844 0.0047723767 0.27913541 -0.84146994 0.462614 0.0024340525
-0.033940718 0.0085394196 0.0048310757 -0.3337338 -0.8464582 0.41488582 0.00030451539
-0.031112384 0.0075646518 0.0051068347 -0.31135973 -0.85315287 0.41855136 0.00023315949
-0.028739702 0.0068232846 0.0053704227 -0.29346967 -0.85102206 0.43547329 0.00022560725
-0.026380979 0.0061924565 0.0058226138 -0.27977255 -0.85647976 0.43378523 0.0003002561
0.032296401 0.0061984509 0.0054855379 0.27469599 -0.84629005 0.45643756 0.0017668357
0.03465195 0.0067500435 0.0047700941 0.30171114 -0.85082465 0.430195 0.0018600472
0.037863273 0.0081739323 0.0052472935 0.33943608 -0.84042263 0.42246053 0.0019356244
0.039713293 0.0084622083 0.0039468673 0.38000014 -0.8649044 0.32793346 0.0023921647
-0.040153913 0.011133149 0.0043866811 -0.41701975 -0.82351786 0.38459438 0.00039026095
-0.03754615 0.010204557 0.0052239164 -0.37734407 -0.83745873 0.39531544 0.00031383202
-0.035382949 0.0093675172 0.0055300039 -0.34574166 -0.83813316 0.42189524 0.00030365604
0.041070253 0.0095642619 0.0052874251 0.38007191 -0.82993591 0.40835243 0.00244758
0.043417167 0.010581482 0.0049627195 0.41354278 -0.82277095 0.38991064 0.0019285089
0.045762599 0.0115793 0.0044077639 0.44511467 -0.81914288 0.36177054 0.0013986247
-0.046030678 0.014441965 0.0042203777 -0.49879631 -0.78170043 0.37436178 0.00029781903
-0.043444272 0.012833646 0.004212203 -0.45918766 -0.79998851 0.38621899 0.00034709816
-0.041390188 0.012341719 0.00585707 -0.42944774 -0.81075656 0.39780453 0.00043148606
0.047175705 0.012564208 0.0050154873 0.45430845 -0.80838221 0.37432891 0.0013066059
0.049382325 0.013771116 0.0047811233 0.47889301 -0.7913394 0.38005716 0.001773742
0.051407799 0.014757473 0.0041936832 0.51412231 -0.80904716 0.28481734 0.0031941161
-0.049381413 0.016830953 0.0045846142 -0.52447027 -0.75051296 0.40207109 0.00030182957
-0.047067706 0.015590148 0.0054196734 -0.49623317 -0.76570988 0.40919566 0.000771027
0.05267239 0.015890747 0.0048582191 0.52458435 -0.77364695 0.35536134 0.001421634
0.054736331 0.017277692 0.0047394088 0.53806567 -0.73084033 0.41994965 0.0019568806
-0.052524582 0.019291695 0.0049679033 -0.53899741 -0.72678047 0.42576051 0.00054229097
0.056176048 0.018504912 0.0050978563 0.56985867 -0.73292679 0.37159035 0.0016447887
0.058050975 0.01984131 0.0046967338 0.59566975 -0.6922183 0.40744507 0.0015060038
-0.0577695 0.023354743 0.0047133379 -0.61232191 -0.66009635 0.43512622 0.00052234577
-0.056053072 0.022231337 0.0054847756 -0.57069409 -0.69216532 0.44183198 0.0010415961
0.059497595 0.021346934 0.0052556135 0.62195688 -0.66707301 0.41010147 0.002411223
0.061370596 0.022842322 0.0046098162 0.66439843 -0.64954597 0.36968204 0.0018489127
-0.060692523 0.026321538 0.0049248436 -0.66568547 -0.61886644 0.41697401 0.00059797592
-0.059062421 0.024837643 0.0052206293 -0.63675886 -0.64416271 0.4237836 0.00067889428
0.062633023 0.02460652 0.0053089433 0.67844427 -0.5773707 0.45426482 0.0015511519
0.064092465 0.026160777 0.005076746 0.69683266 -0.54232258 0.46937242 0.0016885939
-0.063517831 0.029630292 0.0048013832 -0.70786601 -0.52314508 0.47459978 0.00051472487
-0.061974261 0.028106779 0.0053928243 -0.68776476 -0.55615282 0.46655518 0.00053756119
0.065300629 0.027761081 0.005052459 0.73759675 -0.50885636 0.44386518 0.0020321668
0.066517159 0.029200884 0.0046153744 0.76638526 -0.47191778 0.43582943 0.0017300845
-0.064808987 0.031823322 0.0052952943 -0.72379887 -0.4902018 0.48561031 0.00071250286
-0.0092243021 0.032991473 0.0059113861 0.1664713 0.92129099 0.35144034 0.0022647786
-0.0070462278 0.032822635 0.0054858034 0.16530716 0.92188048 0.35044259 0.0022468169
-0.0043148305 0.032631192 0.0049326173 0.1339469 0.92592865 0.35314927 0.0019926412
-0.0014675428 0.032442003 0.00452617 0.094137356 0.94178158 0.32277784 0.0025760059
0.0015111775 0.032207862 0.0045619924 0.049042434 0.9433049 0.32828474 0.0024775381
0.004466726 0.032137532 0.0045545581 0.0086599085 0.94236106 0.33448577 0.0028073837
0.0075083659 0.032150939 0.0045992844 -0.036631621 0.94456494 0.32627478 0.0028834145
0.010514263 0.032353111 0.0046154186 -0.093046084 0.93453258 0.3434985 0.0025759682
0.013368429 0.032583516 0.004843933 -0.14625746 0.92255706 0.3570675 0.0025510658
0.015895102 0.032782305 0.0055005532 -0.19703494 0.91170377 0.36051834 0.0025794164
0.067760438 0.031663649 0.0049378108 0.80150598 -0.40339541 0.44142982 0.002507282
0.069074661 0.032827124 0.0034147361 0.83814263 -0.42014602 0.34784225 0.0050920751
-0.066847444 0.034920394 0.0051295357 -0.76446259 -0.41219366 0.49567473 0.0016822381
-0.06574136 0.033478636 0.0057072146 -0.7165637 -0.45012495 0.53284526 0.0014997853
-0.018674241 0.035774924 0.00539091 0.31684461 0.89881676 0.30288276 0.002231268
-0.016475396 0.035329979 0.0046308283 0.28257862 0.9127962 0.29487687 0.0021700386
-0.013506395 0.034536887 0.004549311 0.23241185 0.92063248 0.31372061 0.0021984035
-0.010510632 0.033823214 0.0045663388 0.1926437 0.93335795 0.30287167 0.0019682141
-0.0076889209 0.033402085 0.0041727703 0.15877526 0.94061959 0.30004188 0.0022246095
-0.0050090975 0.033196878 0.0035267596 0.12893686 0.9453432 0.29950213 0.002977334
-0.002118666 0.033028271 0.0030364883 0.09068881 0.97181529 0.21760185 0.00052002218
0.014076427 0.033153381 0.0034624105 -0.14122534 0.95213491 0.27109867 0.0025423586
0.016660599 0.033393335 0.0042782123 -0.19684209 0.92775905 0.3170431 0.0024126088
0.019488109 0.033979591 0.0046133674 -0.2281196 0.91748226 0.32586467 0.0021105723
0.022519222 0.034800518 0.0046137916 -0.26472899 0.9090786 0.32170564 0.0018180097
0.025296936 0.035542689 0.0048846239 -0.29732203 0.89845294 0.32308164 0.0021873368
0.027411807 0.035871439 0.0056877839 -0.29257864 0.88747954 0.35605887 0.0021704365
0.068642288 0.033964299 0.0053765965 0.81898969 -0.3360787 0.46508822 0.0021784971
0.069547489 0.034931596 0.004362178 0.85189629 -0.32740021 0.40875643 0.0026891108
-0.069341443 0.03873818 0.0039497525 -0.82232249 -0.36148012 0.43945184 0.003774774
-0.067897923 0.037254576 0.0055631809 -0.78852093 -0.34114209 0.51171952 0.0020911538
-0.027156582 0.038909275 0.0057117757 0.37737104 0.86578315 0.3286497 0.0029007506
-0.02525007 0.038448405 0.0047364212 0.37911916 0.88128483 0.28214473 0.0018612932
-0.022496799 0.037420005 0.0045394744 0.32861385 0.89795977 0.29271346 0.0018272061
-0.019721931 0.036487106 0.0043027913 0.3109715 0.90690076 0.28430203 0.0020797022
-0.01775543 0.036111876 0.0033317336 0.27538395 0.93672603 0.21612017 0.0026083239
0.026283184 0.036220264 0.0037754748 -0.28562048 0.9184894 0.27349266 0.0014423634
0.028567603 0.036745273 0.0045063086 -0.29614827 0.90087038 0.31737763 0.0022707852
0.031495694 0.037741743 0.0046306672 -0.3519645 0.88351154 0.30907646 0.0027330266
0.033807661 0.038590062 0.0049481452 -0.42182791 0.85359132 0.30568463 0.0027454204
0.070319109 0.037565716 0.0046467003 0.86684364 -0.23875664 0.43769562 0.0025101395
-0.069623172 0.040599674 0.0051252102 -0.78527659 -0.27985057 0.55229014 0.0014975851
-0.068841867 0.03943054 0.0056290706 -0.78828454 -0.30978116 0.53164184 0.0029314242
-0.033224698 0.041837636 0.005545672 0.41769838 0.85541147 0.30626673 0.0025491787
-0.031343397 0.041226577 0.0046800799 0.42053828 0.86224014 0.28229326 0.001948841
-0.028544707 0.039961789 0.0045238701 0.38947487 0.87696385 0.28150266 0.0019682241
-0.026436986 0.039257709 0.00381107 0.37226492 0.88858628 0.26801714 0.0018022652
0.035093382 0.039469864 0.0042445813 -0.42173481 0.85163265 0.31122586 0.0030478656
0.037505344 0.040665966 0.0046139481 -0.45989779 0.82561249 0.3268913 0.002569448
0.039589603 0.041667864 0.0052206614 -0.49587116 0.80059683 0.33638749 0.0020988088
0.07092724 0.040603507 0.0047137556 0.88464767 -0.14096886 0.44443935 0.0023855784
-0.072221041 0.044893999 0.0030040385 -0.84144223 -0.2887398 0.45673233 0.0014711804
-0.070501164 0.043614745 0.0053317179 -0.7771731 -0.21060632 0.59299827 0.0015000629
-0.039234601 0.044855557 0.0056982143 0.43534595 0.82160032 0.36803082 0.0028984058
-0.037313331 0.044247549 0.0046758656 0.45196456 0.84323865 0.2909925 0.0020061026
-0.034576938 0.042889521 0.0044929767 0.42889902 0.8581751 0.2821013 0.0021210939
-0.03261441 0.042189971 0.0036234946 0.42808911 0.86250126 0.26987275 0.0019068277
0.04077385 0.042721242 0.0043959222 -0.48664379 0.80495262 0.33945429 0.0021906251
0.043295417 0.044169243 0.0047678645 -0.49730688 0.78986859 0.35887796 0.0024038812
0.045193981 0.044847727 0.0057094237 -0.46934897 0.78487438 0.40457839 0.0042738486
0.071264297 0.043615371 0.0047822837 0.86902988 -0.062209789 0.49083287 0.0023580801
0.072099015 0.044099808 0.0031406088 0.95802546 -0.093760602 0.27091748 0.0036379255
-0.072450638 0.047005046 0.0038183893 -0.77589709 -0.20537502 0.59649378 0.0019950401
-0.071353115 0.046536922 0.0052505806 -0.73796523 -0.14718552 0.65859216 0.0029992568
-0.045081772 0.047873802 0.0058692181 0.4296329 0.79879695 0.42111638 0.0032321014
-0.043180361 0.047367949 0.0047968389 0.45601222 0.82880056 0.32425681 0.0023091969
-0.040574431 0.046054583 0.0045226589 0.45095527 0.83851743 0.30582321 0.0022586996
-0.038596485 0.045248553 0.0037724979 0.45530331 0.84146506 0.29092163 0.0025172345
0.044528436 0.045349434 0.0038301684 -0.49467129 0.79756027 0.34525046 0.0024731152
0.046574596 0.046309795 0.0046147141 -0.50221044 0.78355014 0.36583313 0.0025432303
0.048815776 0.047500197 0.0050597307 -0.508214 0.77104712 0.38367277 0.0029797237
0.071286678 0.046358246 0.0049532331 0.8488946 -0.00091149186 0.52856123 0.002651891
0.07211335 0.046694953 0.0033061507 0.92356551 -0.019741818 0.38293219 0.0026681167
-0.072531298 0.050140925 0.0048451079 -0.63972366 -0.094262086 0.7628029 0.003245621
-0.071625091 0.049367253 0.0056856736 -0.61278027 -0.050067484 0.78866571 0.0047576101
-0.051234987 0.050959326 0.0059644012 0.40368778 0.77608144 0.48449332 0.002769588
-0.049037475 0.050441533 0.0049664299 0.43482861 0.82345468 0.36448112 0.0025469181
-0.04649685 0.049283311 0.0045317258 0.4482131 0.82323182 0.34841689 0.0024276737
-0.044311762 0.048339024 0.0039133029 0.44350508 0.83335221 0.32988989 0.0020936585
0.050097436 0.048651174 0.0044005248 -0.50242484 0.77311194 0.38712695 0.0027895195
0.052389327 0.0499609 0.0047619506 -0.48777285 0.76441908 0.42159352 0.0033862833
0.054341596 0.050732821 0.005533176 -0.47429112 0.7422061 0.47347453 0.0041827564
0.071222961 0.049565986 0.0049790121 0.83793825 0.049636122 0.54350328 0.0035482198
0.07210248 0.049429424 0.0033265189 0.89315307 0.022333385 0.4491981 0.0032103658
-0.075110234 0.053611923 0.0032560343 -0.76278335 -0.049896002 0.64472634 0.015820937
-0.073110133 0.052873954 0.0049685473 -0.55888999 -0.018040512 0.82904547 0.0045951065
-0.071807608 0.051954076 0.0058608339 -0.50723869 0.026684098 0.86139244 0.0051657483
-0.057684179 0.053790107 0.0057400595 0.23861574 0.79448539 0.55844039 0.0031519243
-0.055198763 0.053397585 0.0048991549 0.34914702 0.84933794 0.39588067 0.002764035
-0.052491024 0.052374389 0.0045716311 0.37460631 0.83328563 0.40657735 0.0027210526
-0.050110374 0.051430419 0.0039894073 0.41880581 0.83297628 0.36159685 0.0021742431
0.053558763 0.051286329 0.0036722235 -0.47963062 0.77818841 0.40543467 0.0019652639
0.055681143 0.052123014 0.0045119794 -0.4543258 0.77404523 0.44095582 0.0035284953
0.058179114 0.053270783 0.0050498755 -0.4332518 0.73592657 0.52029312 0.0056117997
0.060275756 0.05386119 0.005834532 -0.4080289 0.64489418 0.64623839 0.0042916792
0.071064554 0.052597523 0.0048924242 0.78140539 0.098765679 0.61615819 0.0058794287
0.072112523 0.052550267 0.0032135008 0.88047844 0.039843924 0.47240877 0.0043345327
-0.07535325 0.055903137 0.0033498742 -0.68421704 0.33712664 0.64667827 0.045996115
-0.073266089 0.055646021 0.0050597261 -0.51377541 0.20545031 0.83296162 0.015972523
-0.071167223 0.056461453 0.0058361464 -0.2240735 0.32258657 0.91963524 0.018655023
-0.067095473 0.0567641 0.0058440142 0.11253551 0.58339947 0.80435115 0.0063155792
-0.064220019 0.056324836 0.0053327768 0.25804725 0.69513738 0.67096627 0.0064325645
-0.061506685 0.05571368 0.0046062195 0.33349916 0.78199655 0.52655458 0.0082952967
-0.058644164 0.054807629 0.0044198693 0.27561 0.84870774 0.4513694 0.0038936622
-0.05617705 0.054319058 0.0038094101 0.33560824 0.86463112 0.37387192 0.0027201481
0.059175503 0.05461226 0.0039908243 -0.48994404 0.717269 0.49545935 0.0042841593
0.06143792 0.055584952 0.0047544632 -0.4262436 0.67368335 0.60371113 0.0055022561
0.06395001 0.056495775 0.0055905716 -0.28332359 0.56757218 0.77303916 0.0092069972
0.068584204 0.056711826 0.0059134066 0.29083216 0.31086549 0.90486419 0.018784506
0.070629589 0.055566948 0.0048982315 0.64263612 0.1719664 0.74662334 0.013865854
0.072117507 0.055913478 0.0031423708 0.8126508 0.019858049 0.58241254 0.011044396
-0.075171456 0.057056982 0.003001556 -0.79626584 0.41088581 0.4439972 0.035227496
-0.073001683 0.058016077 0.0044495645 -0.42525867 0.64837867 0.63147467 0.019218042
-0.07039497 0.058589339 0.0048664338 -0.11575216 0.65902621 0.74315935 0.021288432
-0.067493357 0.05849123 0.004523247 0.20495002 0.67743313 0.70645589 0.0070350771
-0.064733386 0.057840858 0.0039937166 0.36447001 0.72422254 0.58537459 0.0066554765
-0.062681198 0.057240184 0.0032691651 0.44775894 0.76322383 0.46583393 0.012915793
0.062550247 0.057512213 0.0036560809 -0.54223108 0.58814818 0.60005599 0.0083333906
0.064604416 0.058367033 0.0045816824 -0.45237163 0.48853141 0.74612123 0.015184867
0.067535773 0.058596503 0.0054006358 -0.0098671028 0.3793768 0.92518967 0.016040046
0.070474081 0.058483701 0.0044664699 0.51634496 0.20837824 0.8306421 0.015952729
0.072086446 0.057885192 0.0031143855 0.8180626 0.0015247136 0.57512724 0.015914591
-0.069597684 0.060135603 0.0033341374 -0.11815239 0.86539727 0.48695746 0.026317203
-0.068414696 0.06011444 0.0033032878 0.12674089 0.83094996 0.54171848 0.026316175
0.06535738 0.061077405 0.0036012724 -0.54331374 0.31272388 0.77911103 0.014624603
0.0675264 0.061474651 0.0043856907 -0.14880551 0.27341944 0.95031506 0.027072698
0.070427306 0.061454203 0.0039065457 0.36978114 0.11272814 0.92225498 0.018482024
0.072089039 0.061470434 0.0031140405 0.74300432 0.012670937 0.66916662 0.025131172
0.065735862 0.063198224 0.0030735084 -0.50624877 0.26853225 0.81951368 0.0059009874
0.067665726 0.064396434 0.0036023811 -0.20591931 0.20118879 0.95766401 0.016002217
0.070439138 0.064447828 0.0034647088 0.18186519 0.045717675 0.98226011 0.017371822
0.07218501 0.065003484 0.0030851876 0.45475376 -0.015332161 0.89048523 0.027913339
0.068257324 0.067054577 0.0032003464 -0.29073161 0.12431156 0.94869483 0.016266854
0.070447989 0.067398898 0.0032878921 0.0025957604 0.010795849 0.99993837 0.016505612
0.072495274 0.067817651 0.0032475165 0.28345129 -0.087448835 0.95499116 0.021839669
0.068633974 0.069262125 0.0030605469 -0.1996267 0.021036895 0.97964621 0.013545203
0.070679985 0.070454754 0.003545288 -0.074950814 -0.097979873 0.99236208 0.025620269
0.073101059 0.07062304 0.0035963005 0.26666155 -0.21849875 0.93869585 0.022607749
0.068805255 0.074611656 0.003074866 -0.49175504 0.11487396 0.86312282 0.042056721
0.070595875 0.073514648 0.0040852572 -0.31223309 0.0041976823 0.94999623 0.037911162
0.073552176 0.073670529 0.0043272604 0.4154737 0.11685895 0.90206736 0.076417267
0.075392157 0.074074358 0.0034115373 0.72482884 0.054533157 0.68676722 0.080621533
0.068785422 0.075900942 0.0032347573 -0.3577072 0.65033829 0.67015338 0.073181063
0.070583701 0.076004602 0.0040867249 -0.14979313 0.5080232 0.84821832 0.080076687
0.073238522 0.075530343 0.0041842777 0.27048311 0.715868 0.64371723 0.061170701
0.07517527 0.075060017 0.0033560712 0.57027048 0.59061813 0.57093066 0.087822452
-0.013258659 0.0029239173 0.0062375516 -0.15161769 -0.84662265 0.51013941 0.00081600173
-0.010350365 0.0027267777 0.0067625828 -0.11155236 -0.84901434 0.51645982 0.00071043393
-0.0071928687 0.0024558941 0.0069254218 -0.072360486 -0.84445173 0.53072149 0.00088665966
-0.0042639333 0.0022522602 0.0069491519 -0.035820171 -0.85162115 0.52293241 0.0011764753
-0.0014637312 0.0025906416 0.007660313 -0.018564891 -0.84525591 0.53403908 0.0015648842
0.0016213828 0.0021823521 0.0069492939 0.020255473 -0.84084815 0.54089195 0.0013653481
0.0043801893 0.0025401847 0.0074761785 0.043708328 -0.83737469 0.54487902 0.001277515
0.007205335 0.0024890762 0.0070399889 0.060047518 -0.84310615 0.53438401 0.0010311414
0.010322388 0.0026261706 0.0067431093 0.091402188 -0.8411383 0.53304029 0.00061987207
0.013131296 0.0027289076 0.0064043086 0.10841756 -0.8320905 0.54394031 0.00034807136
0.015347729 0.0026628366 0.0060060234 0.11661324 -0.83031243 0.54496121 0.00022583062
-0.024361838 0.0057655354 0.0063047092 -0.27860653 -0.84777278 0.45128667 0.00054842856
-0.022038558 0.0053520831 0.0068813749 -0.24407138 -0.84203893 0.48104024 0.00044494253
-0.019499948 0.0050516385 0.0076296316 -0.21635297 -0.83667666 0.50315368 0.00084110239
-0.016527392 0.0043706968 0.0076854047 -0.17473789 -0.83924311 0.51491529 0.0008209974
-0.013546865 0.0039925734 0.0080441153 -0.15290244 -0.83380896 0.53045595 0.0009298161
-0.010558225 0.0035163879 0.0080607999 -0.10948077 -0.83334166 0.54180777 0.001096852
-0.0077221501 0.0034311519 0.0084377406 -0.064595871 -0.82444125 0.56224906 0.0012817697
-0.0045384844 0.0032158124 0.0084788138 -0.051347248 -0.82195401 0.56723464 0.0015127825
-0.0014109568 0.0031063601 0.0085042529 -0.012073668 -0.83028978 0.55720103 0.0014000987
0.0017396965 0.0033416825 0.0088429628 0.014840761 -0.82499558 0.56494421 0.0020190012
0.0039659645 0.0032826785 0.0086847637 0.038628843 -0.82850647 0.55864555 0.0017322785
0.0076231919 0.0035157928 0.0087021543 0.066977091 -0.81190425 0.57993585 0.0014371898
0.010523286 0.0036417078 0.0084571186 0.094182752 -0.81474984 0.57211208 0.0012043578
0.013456525 0.0037426988 0.0079771793 0.11483205 -0.82290703 0.5564509 0.00053619727
0.01663428 0.00403006 0.0076416703 0.12862279 -0.81357419 0.56705654 0.00044958998
0.019606721 0.004449504 0.007496133 0.15317829 -0.79499429 0.58695865 0.00073488831
0.023014773 0.0051239342 0.0075529916 0.1749402 -0.7520349 0.63548362 0.00057175843
0.024908515 0.0054968703 0.0075268117 0.18470471 -0.74593252 0.63989753 0.0012027408
0.02815428 0.0055627022 0.0065895296 0.21073124 -0.786156 0.58099145 0.001816673
-0.033362102 0.0088742431 0.0062973103 -0.33959672 -0.83967614 0.42381373 0.00062277843
-0.030936092 0.0085667493 0.0074240603 -0.30021396 -0.82502037 0.47876179 0.00052735553
-0.028451478 0.0079113441 0.0078435792 -0.27860352 -0.82176942 0.49706656 0.0005250285
-0.025712863 0.006960317 0.0077522541 -0.26972827 -0.83213478 0.48456001 0.00040485675
-0.022939419 0.0063895215 0.0082888044 -0.24799989 -0.82140279 0.51360834 0.00048712597
-0.019924341 0.0060131275 0.0089680981 -0.20852977 -0.81609386 0.53898633 0.00070942799
0.023250472 0.0062543107 0.0087872744 0.16625059 -0.74450719 0.64658314 0.00061625801
0.025733154 0.0065071061 0.0084741609 0.17590138 -0.72409439 0.66689283 0.00077285618
0.028233496 0.0071298406 0.0085037649 0.19820461 -0.7253865 0.65918845 0.0011943819
0.031602573 0.0077496842 0.008147059 0.21987475 -0.72367966 0.65417337 0.001771445
0.034342013 0.0080781495 0.0074486583 0.25882521 -0.77187711 0.5807023 0.0025748997
0.036769297 0.0085039949 0.0067528859 0.30024984 -0.77211344 0.56008112 0.0028393804
-0.039557066 0.011560107 0.0061839027 -0.40402192 -0.81559992 0.41420174 0.00058413245
-0.037400924 0.011219692 0.0075050164 -0.37315586 -0.80905426 0.45407704 0.00085651502
-0.034203928 0.010110344 0.0079774885 -0.32892779 -0.81536341 0.47643355 0.00033361337
-0.032057267 0.0094434274 0.0082812114 -0.30024338 -0.80413014 0.51305813 0.0005072577
0.035348203 0.009427743 0.0087558199 0.23196022 -0.66924119 0.70591128 0.0013863726
0.037072122 0.0096476013 0.0082160477 0.27026412 -0.70736718 0.65313774 0.0017517174
0.040747244 0.011012767 0.0079856245 0.3041003 -0.71569234 0.62873495 0.0016955357
0.04317528 0.011558319 0.0071384078 0.37912375 -0.75797474 0.53079128 0.0017050944
0.045154206 0.011955151 0.0061385385 0.43534148 -0.80133885 0.41028517 0.0045379228
-0.045257472 0.014909544 0.006437127 -0.48092538 -0.76831287 0.42238149 0.00089030061
-0.04317829 0.014321425 0.007679671 -0.44527674 -0.75401902 0.48289123 0.00089559419
-0.040603649 0.01316212 0.0081726955 -0.39939111 -0.75705713 0.51706028 0.00084625743
-0.038561858 0.012214596 0.0083338805 -0.38607997 -0.79580528 0.46651506 0.00072182465
0.041800424 0.012051932 0.0087594055 0.34910792 -0.71725196 0.60305333 0.0027921919
0.043725759 0.012796391 0.0084994454 0.33505371 -0.68169791 0.65040517 0.0010801242
0.046469875 0.014012753 0.0081354585 0.3818956 -0.68547249 0.61990583 0.0012640556
0.048967637 0.014572294 0.0068683126 0.44796944 -0.73137599 0.51421058 0.0013472063
-0.048802063 0.017475177 0.0068474668 -0.51194799 -0.73209441 0.4493852 0.00073018379
-0.046978455 0.016993446 0.0081051793 -0.47976065 -0.71050042 0.51479983 0.00082706078
-0.044524603 0.015398595 0.0081955409 -0.46463892 -0.74723572 0.47513103 0.0018136605
0.047613069 0.015221004 0.0088487566 0.3785966 -0.65729201 0.65163779 0.0021190736
0.049626581 0.016051656 0.0083567323 0.42872658 -0.66557759 0.61090106 0.001555129
0.052107133 0.017168915 0.0076547503 0.46014673 -0.65775841 0.59633785 0.0015642544
0.054138247 0.017529186 0.0062529882 0.51724404 -0.7238791 0.45657158 0.0010023043
-0.051975418 0.020126937 0.0074157417 -0.52646786 -0.69448215 0.49043459 0.0007103642
-0.049802784 0.018981202 0.0081497068 -0.5101403 -0.70086402 0.49854437 0.00087849674
0.053118758 0.018387435 0.0083483923 0.47660178 -0.64255273 0.59998065 0.0014240551
0.055428252 0.019702133 0.0077615236 0.50622374 -0.63718623 0.58114654 0.0012062977
0.057511199 0.020481024 0.0066460571 0.55548078 -0.6560992 0.51085711 0.0013698644
-0.057149861 0.02355776 0.0062016011 -0.6064201 -0.65366846 0.45273861 0.00065264729
-0.05512014 0.023121262 0.0081767999 -0.55080265 -0.6369676 0.53934091 0.00079106988
-0.053397626 0.021872226 0.0084333904 -0.52782929 -0.65446424 0.54136211 0.00069573621
0.056482587 0.021294847 0.0086115915 0.50257033 -0.57289052 0.64747161 0.001834049
0.058607273 0.022456508 0.0077886945 0.55459619 -0.59193182 0.58484173 0.0013280177
0.060531411 0.023647219 0.0070518306 0.61192167 -0.56590366 0.552544 0.0017318742
-0.060283516 0.026741566 0.0063071833 -0.64702421 -0.5967195 0.47464263 0.00066782389
-0.058336724 0.025689652 0.0076520555 -0.60328978 -0.59698617 0.52881849 0.0009602544
-0.056249309 0.024439251 0.0086279595 -0.57842678 -0.61986947 0.53026813 0.0011966705
0.059812289 0.024516452 0.0086780032 0.56306601 -0.51869726 0.64335823 0.0016553592
0.061668202 0.025661966 0.0078085819 0.62810588 -0.51476806 0.58352113 0.0022533548
0.06345088 0.026440164 0.0064543555 0.66324192 -0.51145458 0.5463739 0.0013359771
-0.061224829 0.028815195 0.0075437073 -0.65499485 -0.52232385 0.54603994 0.0011191589
-0.059666857 0.027554849 0.0081658065 -0.63266635 -0.54915249 0.54604477 0.0010699565
-0.00062176283 0.029936247 0.008934414 0.076795191 0.78560466 0.61394447 0.00079617882
0.0016305925 0.029903794 0.0088760881 0.04670028 0.79412287 0.60596025 0.0014997737
0.0044122539 0.029842271 0.0088745011 0.010859855 0.80686462 0.59063649 0.0018629923
0.0073845908 0.029885452 0.008802061 -0.026097717 0.78102338 0.6239562 0.0015090487
0.01007338 0.029895037 0.0089373607 -0.07276696 0.77772588 0.62437761 0.0015099059
0.062644742 0.027767926 0.0085789626 0.62929511 -0.46024039 0.62623185 0.0014149783
0.064270452 0.028726816 0.0075071272 0.68606132 -0.45261949 0.56961 0.0017573397
0.066160463 0.029752351 0.0060607456 0.73363799 -0.4689143 0.49182788 0.0035500601
-0.063690811 0.032141242 0.0075115953 -0.68872124 -0.4486132 0.56956935 0.0010616378
-0.062276475 0.030936884 0.0082979025 -0.6714195 -0.45765594 0.58287799 0.0016832345
-0.015184269 0.032899644 0.0088275541 0.24781317 0.7831856 0.57027096 0.0012442232
-0.013135941 0.03263713 0.0083981361 0.21916495 0.83542132 0.50402176 0.0017993933
-0.010373418 0.032307599 0.0078184446 0.19187076 0.84893912 0.49243078 0.0014998488
-0.0075047635 0.031856436 0.0075583309 0.16204636 0.86260873 0.47921523 0.0015680391
-0.0044847331 0.031383652 0.0075533744 0.12349866 0.85766143 0.49916428 0.0024222292
-0.0014876981 0.031050658 0.0075013358 0.086631604 0.86044562 0.50212389 0.0021066323
0.0014868231 0.030864326 0.0074273366 0.043481927 0.86414343 0.50136358 0.0023032494
0.0044993837 0.030799868 0.0074023488 0.0084810825 0.86433893 0.50283808 0.002191155
0.0075157234 0.030814772 0.0074042617 -0.029140692 0.8607499 0.50819331 0.002316932
0.010551263 0.030952923 0.0074892784 -0.078197405 0.85558349 0.51172459 0.0023545756
0.013462037 0.031276137 0.0075250701 -0.13391164 0.84687579 0.51465434 0.0027641468
0.016480071 0.031787317 0.0075883679 -0.1869332 0.84909248 0.49406284 0.0018538861
0.019331982 0.032307126 0.0079114465 -0.21384315 0.82824695 0.51795572 0.0016360061
0.022065302 0.032656901 0.0085213268 -0.22985861 0.7811228 0.58052748 0.0011392309
0.024148569 0.032951809 0.0089289052 -0.24232924 0.74350441 0.62327981 0.0014245422
0.065169163 0.031211624 0.0082728881 0.67909163 -0.36300847 0.63801205 0.0018531432
0.066608913 0.031838559 0.0069432701 0.72858298 -0.38435197 0.56695712 0.0018814603
-0.066323079 0.035503987 0.006645551 -0.74596214 -0.38064891 0.54648584 0.0017711442
-0.064795703 0.034357253 0.0078504058 -0.69263756 -0.38761389 0.60828346 0.0014806883
-0.024277426 0.035951082 0.0089203566 0.32609653 0.76635402 0.55350018 0.00098892895
-0.022064989 0.035583261 0.0082353493 0.31092006 0.82692194 0.46853888 0.0016912111
-0.019431088 0.034982335 0.0076202024 0.30025527 0.84626102 0.44010115 0.0013947735
-0.016536301 0.034086753 0.007524638 0.24922185 0.84759104 0.46848473 0.0018407422
-0.01370855 0.033551484 0.0070447945 0.22164489 0.86046708 0.45877007 0.0019790479
-0.010995008 0.033217564 0.0063972636 0.19546206 0.87326324 0.44632497 0.0014568698
-0.0087417215 0.033053201 0.006038459 0.20121652 0.89809674 0.39106807 0.0051789675
0.019992588 0.033284109 0.0065548695 -0.22329281 0.85497624 0.4681409 0.0016499105
0.022682978 0.033664122 0.0071886978 -0.23621477 0.8397857 0.48883805 0.0019257739
0.025494173 0.034296699 0.0075572841 -0.25013241 0.82262176 0.51061457 0.0023738616
0.028366223 0.035124667 0.0077371714 -0.28990069 0.82633394 0.48283523 0.0016739565
0.030994242 0.035588656 0.0084824283 -0.29614139 0.76777923 0.5681684 0.0017479002
0.033089377 0.035966832 0.0087332558 -0.33102068 0.77624381 0.53653598 0.003019958
0.06581299 0.033338275 0.0087478608 0.69619763 -0.30411634 0.65024775 0.0026744732
0.067321651 0.034647744 0.0076533221 0.73883468 -0.28393489 0.61114997 0.0019882396
0.06907136 0.035844922 0.0060953726 0.79930383 -0.3141433 0.51227671 0.0066477512
-0.066892073 0.037879385 0.007453219 -0.70707273 -0.28415054 0.64753896 0.0011216763
-0.065618642 0.037277751 0.0086495355 -0.68737161 -0.28320837 0.6688149 0.0016008951
-0.030447738 0.03882226 0.0087201605 0.36995572 0.77248782 0.51613504 0.0012023019
-0.028185906 0.038322203 0.0078565544 0.36646852 0.81510979 0.44866106 0.0015872713
-0.02549593 0.037328046 0.0075327051 0.33235347 0.8243137 0.45830995 0.0019164946
-0.022794275 0.03652725 0.007020101 0.31670609 0.84092319 0.43879995 0.0016367579
-0.020594727 0.036138307 0.0061624884 0.32246014 0.85552967 0.40507844 0.0014829312
0.029394591 0.036224391 0.0064691068 -0.30477151 0.83922595 0.45034882 0.0018884371
0.03171568 0.036640089 0.007208847 -0.31460804 0.81841272 0.48085591 0.0022587702
0.034485862 0.037574302 0.0075805909 -0.36192852 0.80088019 0.47707292 0.0029949613
0.037005246 0.038420569 0.0082104057 -0.3974539 0.75117272 0.52703875 0.0028412268
0.039050825 0.038916424 0.0088460576 -0.3796232 0.70877182 0.59458274 0.0042433953
0.067998499 0.037482027 0.0080087725 0.73766768 -0.19353032 0.64683259 0.0023018445
0.069421656 0.037945252 0.0064074001 0.79085064 -0.21742931 0.57208371 0.0017734664
-0.069211476 0.041541737 0.0062858425 -0.77560943 -0.26235768 0.57410675 0.0036841587
-0.067615993 0.040833488 0.0079476032 -0.67848384 -0.16812204 0.71511865 0.001516727
-0.03643512 0.041772883 0.0086390041 0.39237905 0.76060641 0.51721996 0.0013807713
-0.034249064 0.041208584 0.0077842027 0.40524298 0.8012585 0.44018501 0.0012182404
-0.031568982 0.040091809 0.0074665197 0.36978874 0.80630529 0.46165794 0.0015312665
-0.029210642 0.039373416 0.0067574256 0.38574889 0.82084519 0.42120168 0.0014742129
0.035740744 0.039091773 0.0060574613 -0.43784001 0.80663139 0.39704144 0.0042370367
0.037910007 0.03965487 0.0071145962 -0.43101028 0.76364082 0.48071089 0.0022236411
0.04041107 0.04076286 0.0076466869 -0.44399911 0.75352502 0.48483488 0.0018800938
0.042719554 0.041551251 0.0084637282 -0.42298907 0.69118935 0.58595014 0.0018200596
0.068307817 0.040572163 0.008395792 0.71278638 -0.096913658 0.69465345 0.0025532329
0.069585659 0.040728811 0.0069566667 0.78232926 -0.11873286 0.6114437 0.0021306491
-0.069426522 0.043753162 0.0068696067 -0.67762792 -0.12602369 0.72452641 0.0016918629
-0.067905493 0.043803997 0.008356926 -0.63506299 -0.077099837 0.76860297 0.0022894181
-0.042357385 0.044732511 0.0086951246 0.39294943 0.73704469 0.54986888 0.0016600736
-0.040231314 0.044200581 0.0078339064 0.40052563 0.78228188 0.47708932 0.0016319522
-0.037614483 0.043095738 0.0074411859 0.38828006 0.78701526 0.47942218 0.0014812668
-0.035302859 0.042355716 0.0066647436 0.42013395 0.80098331 0.42651287 0.0013687614
0.04154069 0.042228412 0.0064458996 -0.45668471 0.75008428 0.47834364 0.0012392543
0.043747824 0.042991515 0.0073403628 -0.43966946 0.73316991 0.51879907 0.0023941267
0.046268493 0.044105183 0.0078925965 -0.423776 0.72265393 0.54606342 0.0026189557
0.048423391 0.044717595 0.0086772637 -0.38203004 0.66435677 0.64240414 0.0022028836
0.068482041 0.043594956 0.0084999828 0.70771194 -0.0098521691 0.70643246 0.0032632595
0.069776796 0.043618973 0.0070799678 0.76697522 -0.037160113 0.64059979 0.0025000891
-0.069784746 0.046837449 0.0070396382 -0.62148148 -0.040318463 0.78239065 0.0035457192
-0.067981638 0.046541877 0.0085016983 -0.56802958 0.0027382444 0.82300365 0.0028999965
-0.04851421 0.047793366 0.008649596 0.33777362 0.71465284 0.61251956 0.0012952655
-0.046218883 0.047235031 0.007907182 0.38254699 0.76306528 0.52095032 0.0022581699
-0.043578163 0.046180706 0.0074625234 0.38141781 0.77545798 0.50317532 0.0017258526
-0.041213069 0.045396615 0.006714005 0.42574459 0.7863515 0.44765258 0.0015985161
0.047204856 0.045525923 0.0067371372 -0.44876185 0.73355484 0.5104019 0.0019807494
0.049601737 0.046350718 0.0075187138 -0.39996901 0.72690523 0.55824149 0.0020105303
0.052144568 0.047261849 0.0081919385 -0.36800504 0.6866678 0.6269446 0.0025652002
0.054345369 0.047815662 0.008838295 -0.31935048 0.63870984 0.70004648 0.0028357925
0.068310112 0.046631273 0.0085361274 0.57910162 0.079663314 0.8113538 0.0042263158
0.069805324 0.046533946 0.0070816684 0.73343343 0.040655624 0.6785444 0.0040512895
-0.070077837 0.049530454 0.0070126927 -0.52481669 0.058636677 0.84919327 0.0066116774
-0.067587458 0.049879689 0.0084655285 -0.38283032 0.19251671 0.9035365 0.0061512929
-0.065677032 0.050641458 0.0088971322 -0.20171331 0.29380631 0.93433917 0.0084213894
-0.057244975 0.050907917 0.0088722417 0.14022622 0.68328249 0.71656239 0.0033182756
-0.055023301 0.050621275 0.0085967407 0.22266489 0.69312525 0.6855638 0.0018516091
-0.052321959 0.050103318 0.0079254378 0.31275994 0.74767292 0.58580416 0.0026072983
-0.049612116 0.049245805 0.0074401801 0.34648335 0.75926799 0.5508734 0.0015292228
-0.047162492 0.048499029 0.0067608426 0.40023726 0.77291572 0.49235296 0.0016757763
0.05066441 0.048013292 0.0063403123 -0.41710016 0.71268463 0.56401062 0.0019889297
0.052869737 0.048765525 0.0069688535 -0.41845456 0.70589542 0.57149571 0.0023440199
0.055452827 0.0495934 0.0076607889 -0.34160018 0.68175781 0.64692783 0.0022901266
0.058264282 0.050257307 0.0083540082 -0.2661837 0.63029683 0.72929561 0.0029267718
0.060989093 0.050763696 0.0087990882 -0.15151341 0.57185113 0.80624437 0.0052319434
0.065331168 0.050712597 0.0089212023 0.19756785 0.34979236 0.91575778 0.010060407
0.067750014 0.049698126 0.0083605256 0.46486095 0.1947524 0.8636989 0.0075615845
0.06975276 0.049492415 0.0068956525 0.67377281 0.10755055 0.73106974 0.0057705301
-0.070053786 0.052628014 0.0069360198 -0.34656033 0.1673605 0.92297691 0.0083308825
-0.067383304 0.052555691 0.0078559183 -0.2105843 0.34343791 0.9152621 0.011507799
-0.064486489 0.052667797 0.0081264507 -0.045824312 0.50675905 0.86086899 0.0094434517
-0.061455905 0.052773047 0.0079002744 0.091936462 0.64703363 0.7568984 0.004368084
-0.058508411 0.052552987 0.0075876773 0.17219338 0.73021501 0.6611622 0.0026726474
-0.055615529 0.052008886 0.0072392873 0.27167782 0.75345671 0.59874374 0.0021675418
-0.05301122 0.051437095 0.006612875 0.35233939 0.7651841 0.53884155 0.0018873364
0.056462437 0.051311385 0.0063848402 -0.40775406 0.70232213 0.58350682 0.0026051409
0.058726717 0.051947784 0.0069803656 -0.34327555 0.67324042 0.6549117 0.0028220618
0.061488349 0.052521497 0.0076059508 -0.22739781 0.59772253 0.76877695 0.0040700282
0.064506017 0.052550565 0.00815308 0.022792866 0.44725823 0.89411443 0.0093243876
0.067480199 0.052513033 0.0076900325 0.32221234 0.3086094 0.89495224 0.011481442
0.069595344 0.052454796 0.0065385173 0.64521593 0.16836902 0.74521697 0.0089812558
-0.070143521 0.0554826 0.0063697328 -0.21094865 0.30657616 0.92817652 0.012776378
-0.067514829 0.055345859 0.0067006373 -0.018876052 0.46136677 0.88700867 0.010376598
-0.064585589 0.05490176 0.0066467375 0.13118069 0.59967154 0.78942108 0.0098832939
-0.061779056 0.054378793 0.0063999761 0.18956549 0.69990289 0.68862236 0.0053401128
-0.059610229 0.054174781 0.0061153513 0.23733471 0.74444276 0.62408102 0.003823322
0.062277138 0.054460641 0.0064006369 -0.33901691 0.59917837 0.72529501 0.0064524296
0.064650372 0.055172082 0.0067039509 -0.15769325 0.4903858 0.85711992 0.011538113
0.06743966 0.05542491 0.0066517866 0.16778003 0.33828354 0.92596662 0.022635421
0.069332287 0.054800376 0.00621378 0.49993858 0.24042194 0.83202082 0.011306719
-0.069722943 0.0571394 0.0060034143 -0.0079706162 0.67539907 0.73740935 0.015934207
-0.068200454 0.057080425 0.0060510444 0.11349263 0.52292043 0.84479213 0.011313197
0.067118801 0.05718331 0.0060675992 0.10259116 0.37430802 0.92161196 0.027520396
-0.018609092 0.0057412889 0.0092133014 -0.21134293 -0.79612631 0.56702483 0.00086635235
-0.016148075 0.0055481461 0.0096515054 -0.16928212 -0.78252614 0.59916306 0.00099014805
-0.013397202 0.0052840747 0.0099648759 -0.13397978 -0.77728307 0.61471975 0.0010322664
-0.010250132 0.0050980938 0.010342099 -0.089847989 -0.74506766 0.66090959 0.00096666551
-0.0077562737 0.0052389186 0.010769208 -0.051673397 -0.68936211 0.72257167 0.0007825733
-0.0044550737 0.0052866023 0.011054808 -0.018196076 -0.67588776 0.73677993 0.00096645206
-0.0013937943 0.0050292932 0.01085266 0.004968544 -0.66720086 0.7448613 0.00088249182
0.0012192462 0.0050821039 0.010914281 0.012448682 -0.67171186 0.74070799 0.001081086
0.0043420265 0.0050859358 0.010809089 0.02817343 -0.67416525 0.73804307 0.0013066737
0.007499557 0.00523062 0.010743679 0.064846918 -0.6744532 0.73546427 0.0014420417
0.010330648 0.0052930084 0.010507666 0.08737646 -0.69409609 0.71456003 0.00094973081
0.013165013 0.0054722526 0.010316505 0.10914577 -0.71019059 0.69549727 0.00080515875
0.016494794 0.0055063632 0.0097345933 0.12828976 -0.70341945 0.69910145 0.0012019846
0.018835099 0.0056135487 0.0092546577 0.15881276 -0.74843276 0.6439153 0.00080949988
-0.02783454 0.00872894 0.0095275939 -0.27186993 -0.79107594 0.54798323 0.00085965608
-0.025356008 0.008241266 0.0099573843 -0.24648139 -0.78484225 0.56856793 0.00087041192
-0.022212006 0.008099827 0.010901445 -0.20348608 -0.73852068 0.64279127 0.00093948207
-0.019531157 0.0073972763 0.010926722 -0.1844006 -0.73808891 0.64901555 0.0011159661
-0.01668773 0.006781477 0.011043248 -0.1350355 -0.69281518 0.70835906 0.00064860872
-0.013397622 0.0065995818 0.011473672 -0.11133281 -0.72530836 0.67936206 0.00095152797
-0.010983464 0.0063112336 0.011552462 -0.080957167 -0.66791975 0.7398169 0.00092810439
-0.008023222 0.0061826864 0.011750278 -0.050581735 -0.68473876 0.72703111 0.0014852199
-0.0051963315 0.0060708369 0.011837314 -0.03423588 -0.69675225 0.71649444 0.0016065738
-0.0023892755 0.0060845381 0.011873584 0.0057993387 -0.61628288 0.78750354 0.00062790001
0.0020451038 0.0061254036 0.011838649 0.012455061 -0.65390378 0.75647515 0.0015233293
0.0049933884 0.0061415425 0.011838831 0.042940095 -0.61275834 0.78910291 0.0015305384
0.0075154696 0.0063794637 0.011882168 0.052439351 -0.63600248 0.76990324 0.0015818031
0.010601769 0.0064491294 0.011649136 0.079142965 -0.65635252 0.75029176 0.0012099622
0.01384405 0.0067718844 0.011543567 0.10522534 -0.65093285 0.75180721 0.0015492961
0.016462911 0.0069387909 0.011252698 0.12350891 -0.64056033 0.75791025 0.0014410224
0.019522421 0.0074195061 0.011102922 0.14724457 -0.63826346 0.75560504 0.0016090526
