# .PCD v0.7 - Point Cloud Data file format
VERSION 0.7
FIELDS x y z normal_x normal_y normal_z curvature
SIZE 4 4 4 4 4 4 4
TYPE F F F F F F F
COUNT 1 1 1 1 1 1 1
WIDTH 555
HEIGHT 1
VIEWPOINT 0 0 0 1 0 0 0
POINTS 555
DATA ascii
0.050239421 0.018503629 -0.0114346 0.43382147 -0.62372732 -0.65020239 0.00077156076
0.052573189 0.019402556 -0.010600171 0.4659763 -0.61258686 -0.63843828 0.0014686976
0.054806352 0.020284967 -0.0097147571 0.52059656 -0.62074876 -0.58621687 0.0013940646
-0.049231812 0.023167504 -0.010073875 -0.45232877 -0.58346999 -0.67450821 0.00070260669
-0.046762649 0.022505254 -0.011221246 -0.42456686 -0.56338143 -0.70876253 0.00050472328
-0.044534981 0.021409031 -0.011768736 -0.40543464 -0.57047558 -0.7142691 0.0006930785
0.053594127 0.021354109 -0.011666987 0.48381251 -0.57466793 -0.66006237 0.00090913213
0.055760566 0.022254439 -0.010789686 0.49883127 -0.54220527 -0.67615145 0.0015102421
0.057876293 0.023115259 -0.0098047918 0.56212711 -0.56632507 -0.60273468 0.0018171082
-0.054348283 0.026863378 -0.0097635072 -0.50085789 -0.5489642 -0.66916341 0.0015354133
-0.052310616 0.026072836 -0.010556735 -0.46226671 -0.54655564 -0.6982739 0.0015216324
-0.04978643 0.024934882 -0.011349042 -0.43623975 -0.55816633 -0.7057941 0.00097481202
0.056605496 0.024279865 -0.011766271 0.51582873 -0.50995761 -0.68837774 0.0010484577
0.058739625 0.025290567 -0.010810295 0.53270698 -0.46701217 -0.70577824 0.0011593718
0.060733534 0.026093097 -0.0097053386 0.59550488 -0.51139766 -0.61955339 0.0013672903
-0.057267465 0.029132184 -0.0093236845 -0.54287279 -0.52555329 -0.6550442 0.00088865886
-0.055098433 0.028763145 -0.010727444 -0.48512593 -0.48646331 -0.72664034 0.0015437136
-0.052929286 0.027766027 -0.011590098 -0.44374928 -0.4733265 -0.76095235 0.0012078237
-0.013084193 0.029699419 -0.011796415 0.18732175 0.65901393 -0.72843075 0.0017210203
-0.010414227 0.029403385 -0.011440188 0.16044913 0.68391436 -0.71170026 0.0015664143
-0.0075617242 0.028998025 -0.011190978 0.13459712 0.68121958 -0.71959949 0.0016600713
-0.0044071712 0.028777573 -0.010887478 0.11057287 0.70964909 -0.69582462 0.0016877372
-0.0015303064 0.028519701 -0.010761165 0.077150822 0.71099716 -0.69894975 0.002088754
0.0017567542 0.028340934 -0.010702634 0.014664218 0.70180619 -0.71221703 0.0019318202
0.0043696901 0.028320502 -0.010691417 -0.0098575549 0.71783924 -0.69613904 0.0023660404
0.0075978739 0.027955217 -0.011141403 -0.060679253 0.66209567 -0.74695873 0.0017461187
0.010580023 0.028702544 -0.010636069 -0.086177163 0.72237688 -0.68610859 0.0022302135
0.013478776 0.028811367 -0.010930006 -0.12154704 0.71876025 -0.684551 0.0017047998
0.016684029 0.029231215 -0.011153671 -0.15975899 0.71942884 -0.6759432 0.0012305381
0.019242691 0.029585585 -0.011449317 -0.19013833 0.73353571 -0.65251267 0.0016346555
0.021507651 0.029899586 -0.011806391 -0.21043544 0.69813228 -0.68434513 0.0020750321
0.059549402 0.027608108 -0.011694171 0.55591202 -0.38634962 -0.73599988 0.001672251
0.061551992 0.028474526 -0.010555266 0.57822758 -0.38290831 -0.72044021 0.00088840589
0.063402839 0.029302923 -0.0093984501 0.64549476 -0.42648894 -0.63359588 0.0015586007
-0.060132474 0.032283667 -0.0092569571 -0.62499833 -0.50529099 -0.59502786 0.0019727661
-0.058411844 0.031809613 -0.010364455 -0.5351513 -0.44803122 -0.71615714 0.0016221949
-0.056377634 0.030888056 -0.011340058 -0.49581271 -0.44773173 -0.74411434 0.0026718564
-0.021811562 0.032655291 -0.011745933 0.25802541 0.6711368 -0.69498074 0.0025263808
-0.019368395 0.032251514 -0.011266595 0.24446927 0.67540634 -0.69574505 0.0011606215
-0.016484024 0.031715438 -0.010773129 0.22893125 0.72198218 -0.65294123 0.0017104594
-0.013647861 0.031200813 -0.010393544 0.20245369 0.73433077 -0.64789718 0.0021173758
-0.010573625 0.030754527 -0.0099996654 0.17646433 0.74929166 -0.63829648 0.0019227643
-0.0076306816 0.030504489 -0.0095312921 0.14064929 0.75476903 -0.64073515 0.0016626993
-0.0046472568 0.030216809 -0.0092842774 0.10264714 0.75995409 -0.64182031 0.0011155811
-0.0022212628 0.030070189 -0.0090484349 0.082519516 0.76402253 -0.63989067 0.0011067642
0.011162195 0.030013707 -0.0091257486 -0.089232706 0.77791429 -0.6220023 0.0010630649
0.013842199 0.030137172 -0.0094075827 -0.1253462 0.77487606 -0.61956066 0.0012486223
0.016588487 0.030469246 -0.0096551375 -0.16836925 0.76835519 -0.61748052 0.001416803
0.019662151 0.030917108 -0.010050912 -0.20265822 0.76010603 -0.61738837 0.0017975607
0.022566425 0.031118805 -0.010812481 -0.21948799 0.71042162 -0.66867495 0.0017600554
0.025856232 0.032015745 -0.010961279 -0.24496035 0.74047136 -0.62585682 0.0014388687
0.028270151 0.032426789 -0.011414826 -0.24549662 0.71241528 -0.65741605 0.0012468933
0.030504763 0.032709166 -0.011984402 -0.25170806 0.65887684 -0.7088896 0.0014229831
0.062213767 0.031249352 -0.011402727 0.56361175 -0.28964007 -0.77359581 0.0016608447
0.064126298 0.031649571 -0.0099846516 0.64659643 -0.34023491 -0.68275422 0.0016831756
-0.060821675 0.034753352 -0.010215152 -0.55249363 -0.35565984 -0.75382817 0.001709338
-0.058838572 0.034371983 -0.011495966 -0.47475901 -0.29406661 -0.82953519 0.0012243935
-0.027896801 0.035464652 -0.011456784 0.29772255 0.67921859 -0.67083788 0.0020026693
-0.025294157 0.034893725 -0.010855758 0.29406342 0.71621317 -0.63290232 0.001123302
-0.022536105 0.034215584 -0.010348548 0.27595401 0.73312718 -0.62158984 0.0018383496
-0.019574769 0.033613134 -0.009786074 0.26315597 0.73515195 -0.62474048 0.0014695942
-0.017369268 0.03316405 -0.0093575437 0.24737361 0.76759744 -0.59127021 0.0014012797
0.025893977 0.033229649 -0.0094747283 -0.25141588 0.76823312 -0.58873427 0.00079434068
0.028913386 0.033847868 -0.0099789621 -0.26170903 0.75095284 -0.60628223 0.0012559019
0.031211877 0.034033444 -0.010745152 -0.26390412 0.72663683 -0.63431334 0.001544795
0.034280412 0.03503596 -0.010957654 -0.30345297 0.73051161 -0.6117754 0.0015659591
0.036961135 0.035643771 -0.011606343 -0.3136721 0.66329783 -0.67944521 0.0017104509
0.062760592 0.033741985 -0.011850921 0.55944651 -0.18437807 -0.80809915 0.0021377502
0.064561732 0.034457918 -0.010646909 0.60758179 -0.22268538 -0.76240116 0.0014478222
0.066348627 0.035163462 -0.0093413452 0.69081497 -0.25240484 -0.67754436 0.0017899518
-0.063356161 0.037504047 -0.0095239095 -0.58645236 -0.28473085 -0.75828886 0.0016384483
-0.060870618 0.037289422 -0.011284399 -0.50027043 -0.22376868 -0.83645505 0.0011732775
-0.059715427 0.036957279 -0.011955686 -0.50226039 -0.22090739 -0.83602297 0.0033081505
-0.036088686 0.038796611 -0.011886223 0.30362916 0.64894384 -0.69762546 0.003107616
-0.033987176 0.038358912 -0.011397361 0.31255898 0.66141915 -0.68178564 0.0010286925
-0.031345364 0.037737291 -0.010695789 0.33044767 0.70778006 -0.62438101 0.0014628865
-0.028690688 0.036928378 -0.010228769 0.31727958 0.73023176 -0.60505795 0.0019272369
-0.026203379 0.036278218 -0.0096697481 0.31814325 0.73264045 -0.60168338 0.0013230903
0.034862638 0.036375485 -0.0096152481 -0.32871217 0.75569844 -0.56645221 0.00095832185
0.037714429 0.037166692 -0.010309496 -0.36752889 0.70173001 -0.61032569 0.0019108956
0.040438086 0.037917994 -0.011067599 -0.35196984 0.6749692 -0.64848578 0.0019406248
0.042845979 0.038643606 -0.011648814 -0.33549351 0.63539118 -0.69550139 0.0011038287
0.064789541 0.037376706 -0.011097483 0.56588721 -0.099642992 -0.8184393 0.0013555071
0.066709869 0.037689086 -0.0096426271 0.66867405 -0.14380194 -0.72951764 0.0024580525
-0.063698746 0.040470332 -0.010331756 -0.53757691 -0.16836837 -0.82623434 0.0024514892
-0.061930887 0.040634025 -0.011458247 -0.41736948 -0.068671957 -0.90613836 0.00330516
-0.042327207 0.041837651 -0.011829019 0.29673597 0.6514771 -0.69823015 0.00099643203
-0.040251862 0.04145281 -0.011292216 0.30616245 0.65620393 -0.68968183 0.0012946099
-0.037414674 0.040694673 -0.010640304 0.32686159 0.69549698 -0.63987929 0.0012841115
-0.034701481 0.039881244 -0.010088373 0.34545153 0.71413201 -0.60883391 0.0014374709
-0.032325014 0.039304994 -0.0093921851 0.35782468 0.72680628 -0.58627135 0.0012787587
0.040868171 0.039529733 -0.0095574893 -0.40068585 0.69689536 -0.59480059 0.001240802
0.043633342 0.040270574 -0.010448607 -0.36171809 0.68055844 -0.63718146 0.001133029
0.046608597 0.040803529 -0.011480647 -0.26740128 0.58456635 -0.76601487 0.00090744981
0.048930705 0.041643996 -0.011744413 -0.25125533 0.58639401 -0.77007329 0.001597289
0.064806253 0.040457796 -0.011236158 0.50125718 0.034822177 -0.86459744 0.0037102923
0.066967107 0.040516149 -0.0097430982 0.63002676 -0.033781018 -0.77583832 0.0028018169
-0.066079684 0.043226123 -0.0092687178 -0.5591538 -0.10327135 -0.82260686 0.0034285053
-0.064705461 0.043930046 -0.01018044 -0.47117877 -0.0078137992 -0.88200313 0.0034084045
-0.062006284 0.043787885 -0.011545544 -0.34416461 0.10450186 -0.93307561 0.0053560673
-0.048740104 0.044681739 -0.011757533 0.21432292 0.59810197 -0.77223033 0.0017672268
-0.046245735 0.044177491 -0.011333283 0.26629266 0.61778927 -0.73988152 0.001651625
-0.043526698 0.043674454 -0.010613845 0.30616471 0.66377646 -0.68239576 0.0012107692
-0.04072402 0.042881746 -0.010032047 0.34109002 0.69292027 -0.63523155 0.0012598835
-0.038525421 0.042433187 -0.0092865014 0.36519533 0.71301544 -0.59853268 0.00110176
0.044483423 0.042000704 -0.009076179 -0.40270579 0.68903971 -0.60253835 0.0018887493
0.046867855 0.042760186 -0.0097454498 -0.3719531 0.66555655 -0.64705902 0.0012180714
0.050118543 0.043391563 -0.010708055 -0.26814881 0.59491479 -0.75774169 0.0012005899
0.052563321 0.043702479 -0.011383436 -0.21010247 0.54703748 -0.81031287 0.0017514662
0.055284221 0.044435591 -0.011605648 -0.15559804 0.50726318 -0.84762806 0.0026878738
0.05823531 0.044747278 -0.011821584 0.035933096 0.38393465 -0.92266083 0.0023744809
0.062078185 0.044160016 -0.011738858 0.21253732 0.26429373 -0.94073206 0.0054952935
0.064662725 0.043340359 -0.011022019 0.43541938 0.13707174 -0.88973111 0.0037981821
0.066992253 0.043433234 -0.0096679814 0.58352065 0.072234362 -0.80887938 0.0030865145
-0.066416003 0.04629999 -0.0092417141 -0.44656074 0.06695801 -0.89224446 0.0062811766
-0.063793525 0.047022741 -0.010442098 -0.29853618 0.23020037 -0.92622024 0.0048705582
-0.061314065 0.046623453 -0.011282716 -0.17228135 0.32830384 -0.92872798 0.0042596292
-0.058601864 0.047056187 -0.011510205 0.01482407 0.47459963 -0.88007694 0.004064295
-0.055430047 0.047095545 -0.011409682 0.089379884 0.51867616 -0.85028601 0.0027276627
-0.052322723 0.04682906 -0.011076566 0.1748236 0.57351166 -0.80032557 0.0013431129
-0.04942973 0.046481326 -0.010456782 0.26724461 0.64851815 -0.71274441 0.0018015648
-0.046554402 0.045903474 -0.0098192655 0.31946751 0.6878773 -0.65174019 0.0015931274
-0.044424672 0.045300432 -0.0093826205 0.35492316 0.69229335 -0.62829882 0.0018622509
0.050764218 0.045159493 -0.0094190557 -0.34043568 0.65078086 -0.67866617 0.0011911709
0.052902728 0.04586491 -0.009740714 -0.25215036 0.60998106 -0.75122786 0.0013997667
0.055816673 0.046289131 -0.01045325 -0.20689346 0.56494713 -0.79876769 0.0027786067
0.059015412 0.046308119 -0.011037588 0.01719722 0.42561185 -0.90474236 0.0019070518
0.061780173 0.046229575 -0.011018126 0.16066201 0.3408545 -0.9262861 0.0035089585
0.064709567 0.046325825 -0.010319814 0.36164439 0.24509868 -0.89952213 0.005392381
0.06672103 0.046227418 -0.0094311573 0.53021842 0.1599552 -0.83263606 0.0034221485
-0.064315692 0.049374651 -0.0095955878 -0.21565162 0.35181534 -0.91088986 0.0035258569
-0.061026748 0.049980897 -0.0098653808 -0.00099879445 0.5347091 -0.84503561 0.0029291995
-0.058316045 0.049631909 -0.010046484 0.080522262 0.56684667 -0.81987864 0.0037312929
-0.055386294 0.049204573 -0.0099250777 0.15034078 0.62244028 -0.76809227 0.0035710041
-0.052526101 0.0486551 -0.0096021304 0.23663875 0.65374386 -0.71876359 0.0027509867
-0.050372336 0.04820089 -0.0092444979 0.30384597 0.69100428 -0.65588915 0.0014895611
0.056827001 0.048083626 -0.0094040809 -0.21661295 0.59805775 -0.7716254 0.0036314791
0.059004854 0.048620768 -0.0095812418 -0.15305904 0.55472964 -0.81783128 0.004141002
0.061958965 0.048929483 -0.0097213117 0.089656383 0.41024902 -0.90755582 0.0037058187
0.064665824 0.048907783 -0.0094471071 0.26196122 0.33252025 -0.90598387 0.0059700441
0.06621775 0.048421767 -0.0091599589 0.38238874 0.29818878 -0.87456417 0.0058626109
-0.063544117 0.051079493 -0.0090612089 -0.15964308 0.39536515 -0.90454441 0.0075402805
-0.061373383 0.051102508 -0.0091567691 0.030598734 0.58584899 -0.80984241 0.005036945
-0.059320174 0.051138602 -0.0090813749 0.074198432 0.62042052 -0.78075147 0.0045177583
-0.009579435 0.0028724589 -0.0062785763 -0.16029653 -0.86925876 -0.46764752 0.0020992316
-0.0072988761 0.0026996075 -0.0065818019 -0.12066966 -0.85586244 -0.50292963 0.0016754299
-0.0043966379 0.0025461647 -0.0068880292 -0.083844528 -0.86285579 -0.4984476 0.0018388764
-0.0014105318 0.0023519606 -0.0069418582 -0.056865316 -0.86451328 -0.49938279 0.0016466936
0.0015260284 0.0023392062 -0.0071814856 -0.026750106 -0.86541653 -0.50033855 0.0017037157
0.0044771731 0.0023026133 -0.0071926224 0.0017963122 -0.86901218 -0.49478742 0.0017177477
0.0075175138 0.0023417699 -0.0071745915 0.029752245 -0.87243193 -0.48782912 0.0018419628
0.010552311 0.0024201474 -0.0070391004 0.058761582 -0.87596071 -0.47879016 0.0017556541
0.013279277 0.0025585778 -0.0068296455 0.08688613 -0.87797594 -0.47075379 0.0018250974
0.016427096 0.0027367091 -0.0064849304 0.11839644 -0.88040483 -0.45920536 0.0017014968
0.018809453 0.0029332137 -0.0061950134 0.15998231 -0.89411789 -0.41828084 0.00137838
-0.021155378 0.005827195 -0.0060224817 -0.28503042 -0.82014525 -0.49610424 0.00144896
-0.019116823 0.0055005741 -0.0067749517 -0.27701703 -0.8275277 -0.48832306 0.0013534457
-0.016080108 0.0051598726 -0.0076804431 -0.22968066 -0.82296968 -0.51958418 0.0028394563
-0.013339125 0.0045041894 -0.0076951664 -0.18711133 -0.81946778 -0.54172122 0.0023654124
-0.010360905 0.003826278 -0.007580501 -0.14974336 -0.83172989 -0.53460485 0.0015427524
-0.0074585821 0.0036015052 -0.0079858573 -0.1199842 -0.83197224 -0.54168797 0.0018577005
-0.0046211318 0.0035068814 -0.0083496701 -0.082159385 -0.81305707 -0.57635754 0.0011205761
-0.001727342 0.0033104254 -0.0084325904 -0.055302184 -0.82262397 -0.56589001 0.0013883844
0.0014724887 0.0032682114 -0.0086240396 -0.030807331 -0.81277299 -0.58176541 0.0010969784
0.004719201 0.0032495267 -0.0086901281 -0.0040674675 -0.82766318 -0.56121039 0.0015870057
0.0077379197 0.0032478475 -0.0086254962 0.026076244 -0.80639517 -0.59080195 0.0011143405
0.010588676 0.0033281601 -0.0085518258 0.052501384 -0.81523436 -0.57674658 0.001016296
0.01355738 0.0034846445 -0.008426833 0.080312088 -0.84135526 -0.53448236 0.0017672952
0.016615225 0.0035499225 -0.0079599908 0.10896575 -0.85167772 -0.5126124 0.0013819692
0.019575607 0.0038684749 -0.0077188509 0.15018971 -0.85595953 -0.49474871 0.0011522935
0.022566732 0.004291276 -0.007459959 0.18190032 -0.86890578 -0.4603422 0.0015749256
0.025525445 0.0050174538 -0.0075633838 0.20372774 -0.85998422 -0.46789116 0.0012365894
0.028406786 0.0054750014 -0.0070009734 0.24104661 -0.86489576 -0.44028616 0.0015355755
0.030430304 0.0057291449 -0.0063094236 0.27903152 -0.87236524 -0.40139779 0.001552555
-0.0278155 0.0087255761 -0.0067287362 -0.33231947 -0.82141364 -0.463512 0.0020781613
-0.025356501 0.0082662543 -0.0075490028 -0.3041724 -0.79970419 -0.51764107 0.0015140255
-0.022589726 0.0072860625 -0.0076569081 -0.30292055 -0.81310141 -0.49709684 0.0012128692
-0.01973217 0.0065097949 -0.0080714896 -0.26802123 -0.80635428 -0.52721655 0.0014316362
-0.01745069 0.0062887399 -0.0087896232 -0.22392552 -0.78514743 -0.57740873 0.0019546102
0.026601782 0.0060939807 -0.0089311861 0.20248127 -0.79826653 -0.56724948 0.0011285887
0.028945418 0.0063642636 -0.0083776182 0.23578916 -0.83505797 -0.49707302 0.0012514365
0.031631466 0.0068064821 -0.0076768119 0.27740416 -0.84708411 -0.45331603 0.0012153495
0.034524456 0.0077546942 -0.0075847763 0.30716372 -0.83745575 -0.45201588 0.0014816697
0.037131757 0.0084352409 -0.0069940211 0.33590084 -0.84086263 -0.42440632 0.0015283542
0.039293885 0.0089376438 -0.0062698596 0.36953059 -0.83580405 -0.40605265 0.0015943805
-0.036108073 0.011918307 -0.0060540363 -0.38801485 -0.80265886 -0.45297167 0.0021235878
-0.034031522 0.011599444 -0.0071983794 -0.34755054 -0.79391462 -0.49890697 0.0013793895
-0.031454731 0.010754805 -0.0076255715 -0.33542809 -0.79467207 -0.5059489 0.0016996192
-0.028714234 0.0099133365 -0.0080655739 -0.31959268 -0.78969234 -0.52368551 0.0020825397
-0.026230846 0.0093709882 -0.0087094465 -0.30168054 -0.76611006 -0.56750703 0.0014492227
0.037933823 0.0093851779 -0.0081764236 0.33624756 -0.82238656 -0.45893118 0.0016015276
0.040526006 0.010178787 -0.0075616986 0.37193835 -0.81889039 -0.43712747 0.0014989617
0.043269731 0.011301101 -0.0072319391 0.39500535 -0.80984741 -0.43372568 0.0014009363
0.045304321 0.011815472 -0.0062431046 0.43126902 -0.81453121 -0.38800266 0.0016267048
-0.040712517 0.014614467 -0.0066361702 -0.43379143 -0.76612765 -0.47420806 0.0019487761
-0.037652224 0.013644379 -0.0077599627 -0.38531983 -0.76259041 -0.51960045 0.0014373575
-0.034945909 0.012613022 -0.0081690075 -0.35463321 -0.7795074 -0.51633674 0.0014398498
-0.032900006 0.01226181 -0.0089502102 -0.30956817 -0.76275283 -0.56778145 0.0026482493
0.044306535 0.012421095 -0.0083199702 0.40622061 -0.77342528 -0.48661909 0.0014316888
0.046555225 0.013223365 -0.0075733112 0.44378519 -0.78844541 -0.42592078 0.0012129127
0.048993424 0.014373827 -0.0071043465 0.47391492 -0.76770258 -0.43132052 0.0011716958
-0.04533647 0.017492019 -0.0064328471 -0.51820654 -0.72710025 -0.45031905 0.0007914459
-0.043661866 0.016735308 -0.0070780227 -0.479978 -0.73873943 -0.47316501 0.0024432195
-0.04087634 0.015576911 -0.0080327531 -0.44565237 -0.74138504 -0.50173914 0.0015582247
-0.038967576 0.015053106 -0.0088835899 -0.38403735 -0.70396495 -0.59745193 0.00096372125
0.05007774 0.015593893 -0.0080333762 0.4823029 -0.74981546 -0.45294669 0.001674847
0.052374303 0.01673362 -0.0073903087 0.50888371 -0.73983449 -0.4400934 0.001719316
0.054421879 0.017664867 -0.0065583098 0.53210801 -0.72401202 -0.43893918 0.0010973868
-0.048585907 0.020311901 -0.0071295775 -0.52782339 -0.71047342 -0.46543542 0.00087640324
-0.046521835 0.019196508 -0.0077421539 -0.51131326 -0.71500903 -0.47678179 0.0017050488
-0.044394091 0.018028481 -0.0082883155 -0.50847244 -0.71648699 -0.47760046 0.0016216567
0.053606488 0.018336931 -0.0085182823 0.5148555 -0.67562222 -0.5276916 0.001648667
0.055652201 0.019300377 -0.007620865 0.55173159 -0.69845438 -0.45580021 0.0014885168
0.057696246 0.020415839 -0.0068077613 0.57693863 -0.66986626 -0.4673554 0.0012014799
-0.052268494 0.023207499 -0.0073175705 -0.54456896 -0.68975449 -0.47716188 0.001396105
-0.049999516 0.021795629 -0.0077563226 -0.53024369 -0.68939608 -0.49353287 0.0022241236
0.056810483 0.021203699 -0.0088185128 0.53788847 -0.61645514 -0.57502961 0.0010853872
0.058843505 0.022162544 -0.0077731055 0.59983283 -0.64008713 -0.48009273 0.0017605835
0.060712311 0.023294164 -0.0068937596 0.6273452 -0.60323727 -0.49248639 0.0011653354
-0.057398379 0.026793795 -0.0064102593 -0.59501916 -0.65308976 -0.46842921 0.00077246124
-0.055184841 0.025729515 -0.0076184031 -0.55530393 -0.6661824 -0.49783385 0.0024044593
-0.053221483 0.024599105 -0.0082417121 -0.52658975 -0.69044095 -0.49597842 0.0021184974
0.059733596 0.024087161 -0.00889917 0.59042972 -0.5771116 -0.56421179 0.0015717653
0.06184645 0.025280781 -0.0077499063 0.65835369 -0.54700911 -0.51706034 0.0020863442
0.063540921 0.02634955 -0.0067355768 0.67971474 -0.53880388 -0.49767274 0.0015705471
-0.060519569 0.029609816 -0.0060065738 -0.63216096 -0.6041013 -0.48521557 0.0011807489
-0.058277421 0.028565073 -0.0076340185 -0.61802506 -0.60067797 -0.50717944 0.0023387012
-0.056439117 0.027352128 -0.008280959 -0.57912856 -0.61964637 -0.52976269 0.00089622114
0.00098380202 0.029955195 -0.0088433353 0.058630474 0.75851488 -0.6490128 0.001921438
0.004467804 0.029837752 -0.008849822 0.004893105 0.81041163 -0.58584034 0.0016556905
0.0071949735 0.029863274 -0.0088536832 -0.041358594 0.83268589 -0.55219889 0.0033965637
0.062778167 0.027411776 -0.0087005636 0.63684911 -0.47876799 -0.60432148 0.0017062824
0.064510889 0.02851402 -0.0075193807 0.71387702 -0.45053387 -0.53609592 0.0019159041
0.066158086 0.029622899 -0.00633119 0.73029447 -0.44577 -0.51764762 0.0015207696
-0.06097012 0.031469464 -0.0075372993 -0.63754684 -0.52865249 -0.56041116 0.00080203795
-0.059250526 0.030373599 -0.0084958486 -0.60184997 -0.56590515 -0.56349623 0.0019467914
-0.015655989 0.032986108 -0.0089036869 0.24453768 0.78372216 -0.57094735 0.00049199018
-0.013012192 0.032593206 -0.0083467364 0.22297424 0.82593119 -0.51780325 0.0019848808
-0.010301449 0.032263383 -0.0078201313 0.19066188 0.83557117 -0.51523662 0.0012753347
-0.0074993162 0.031864479 -0.0075073731 0.14928529 0.83561891 -0.52863497 0.001612964
-0.0045176293 0.031254422 -0.0077443561 0.10612492 0.81985617 -0.56264853 0.0014253507
-0.0019839176 0.030771837 -0.0079973256 0.086110659 0.80088001 -0.59260112 0.0014703585
0.0012350695 0.030704999 -0.007706278 0.048946187 0.81682926 -0.57479924 0.0017539706
0.0045822919 0.030651977 -0.0076366542 -0.0085613495 0.83051187 -0.55693519 0.0020226596
0.0074445349 0.0308083 -0.0074164257 -0.036205798 0.8586455 -0.51128954 0.0021829291
0.010525833 0.030911395 -0.0076287384 -0.082545839 0.85954309 -0.50435287 0.0018511858
0.013482894 0.031216323 -0.0076549784 -0.13302757 0.85249227 -0.50552994 0.0024719958
0.016426444 0.031655792 -0.0078057223 -0.18598877 0.85131365 -0.49058455 0.002329679
0.019248657 0.032302689 -0.0078864545 -0.2247725 0.83733481 -0.49834508 0.0014559589
0.021872735 0.032615434 -0.0085687647 -0.24495019 0.81918001 -0.51859748 0.001355759
0.065452382 0.031071393 -0.0083308872 0.68935043 -0.35032883 -0.63408643 0.0013338911
0.066812426 0.031754252 -0.0070404853 0.74197125 -0.39780748 -0.53965539 0.0019747945
-0.064018756 0.034997225 -0.0072295889 -0.64176047 -0.46159789 -0.61243039 0.0018660091
-0.062554024 0.03395595 -0.0080343373 -0.6434893 -0.46048632 -0.61145228 0.0023088336
-0.022091528 0.035530038 -0.0083540995 0.30361044 0.81362748 -0.4958134 0.0017557218
-0.01938145 0.035040982 -0.0075203278 0.29860649 0.83415037 -0.46371046 0.001353616
-0.016530471 0.034058742 -0.0075859111 0.24889688 0.83364058 -0.49304539 0.0019147503
-0.013713505 0.03356931 -0.0070468849 0.22032326 0.84539145 -0.48659113 0.0017020968
-0.011100942 0.033157572 -0.006569372 0.191644 0.85182977 -0.48750249 0.0012634289
0.020212313 0.033357624 -0.0064503099 -0.23419021 0.85379267 -0.46496561 0.0012066216
0.022580145 0.033507127 -0.0073944223 -0.24591964 0.83722538 -0.48844358 0.001312661
0.02519959 0.03409059 -0.0077505843 -0.2607837 0.82946438 -0.49394399 0.001439107
0.028079279 0.034779523 -0.0081564607 -0.27806306 0.80332088 -0.52664644 0.0015740354
0.031165961 0.035740249 -0.0083899479 -0.29617772 0.79380375 -0.53118205 0.0013794252
0.065908283 0.033104107 -0.0088839969 0.68916309 -0.32435253 -0.6479581 0.0025539477
0.067651488 0.034489598 -0.0075624255 0.7579875 -0.28022587 -0.58900642 0.0018290934
0.069144532 0.035776768 -0.0062129381 0.78022826 -0.30473921 -0.54623973 0.0030312473
-0.066651128 0.037899166 -0.0062877624 -0.67397523 -0.38670701 -0.62945628 0.0032778501
-0.064748339 0.037406605 -0.0081824567 -0.64109147 -0.40999967 -0.64876962 0.0026857585
-0.03059827 0.038894355 -0.0087107485 0.36016601 0.75918925 -0.54213667 0.001256372
-0.028194072 0.038330846 -0.007953289 0.36611518 0.79248273 -0.48778144 0.0021419162
-0.025550932 0.037402313 -0.0075290003 0.34883404 0.80156571 -0.48559988 0.0018180003
-0.022814056 0.036557846 -0.007082602 0.31622863 0.82509929 -0.46819928 0.0017041118
-0.020771105 0.036114562 -0.0063946387 0.30755395 0.83393037 -0.45822558 0.0015698917
0.029493827 0.036140412 -0.0066135465 -0.30202949 0.85149866 -0.42863542 0.0015309071
0.031697363 0.036632158 -0.0071341665 -0.32119331 0.81663108 -0.47952956 0.001529841
0.034564339 0.037452661 -0.007765959 -0.3494356 0.78952754 -0.5045206 0.0017802713
0.037058547 0.038382821 -0.0082254643 -0.40407827 0.76594979 -0.50004166 0.0011486034
0.068204559 0.037353359 -0.0080481656 0.75658762 -0.17337225 -0.63048965 0.0022357332
0.069444299 0.037702844 -0.0066221864 0.79329783 -0.20695348 -0.57258087 0.0024334823
-0.066516131 0.041145533 -0.0082471091 -0.57965934 -0.16845764 -0.79725593 0.0033290498
-0.065445594 0.039951514 -0.0088370824 -0.6218226 -0.25714538 -0.73973846 0.0036128727
-0.036261585 0.041708168 -0.0086916937 0.38119799 0.75157988 -0.53834534 0.0027100076
-0.034180086 0.041227266 -0.0078338683 0.38550654 0.78695834 -0.4817481 0.0018999362
-0.031544037 0.040133521 -0.0075296666 0.37505212 0.79695106 -0.47350287 0.0017648123
-0.029112367 0.039428815 -0.0067396401 0.3736352 0.82201588 -0.42975178 0.0011601821
0.037323292 0.039365619 -0.0068234378 -0.40528995 0.75954884 -0.50874907 0.0011429794
0.040478595 0.040517196 -0.0079110675 -0.42135191 0.72857028 -0.54004431 0.0012322323
0.043157488 0.041639552 -0.0085481936 -0.42044511 0.71687323 -0.55616426 0.0011399677
0.068433009 0.0403946 -0.008412078 0.70458567 -0.075032055 -0.70564103 0.0022027651
0.069760315 0.040532693 -0.0069230241 0.78403169 -0.108059 -0.61124265 0.0022212276
-0.067252837 0.044038221 -0.0084126499 -0.55649805 -0.061489381 -0.82857049 0.0068096695
-0.042490963 0.044844944 -0.008739572 0.37290892 0.73264796 -0.56935573 0.0012829894
-0.040201392 0.044281617 -0.0078222947 0.40041152 0.78313613 -0.47578192 0.001949892
-0.037596811 0.043168068 -0.0074862768 0.39017525 0.77904022 -0.49077451 0.001809355
-0.03532359 0.042396098 -0.0068332972 0.41141903 0.78867203 -0.45687062 0.0016988792
0.041961767 0.04232353 -0.006410243 -0.4474183 0.74692857 -0.4918482 0.0017435303
0.044003174 0.04278158 -0.0076512797 -0.42034033 0.72416562 -0.54671574 0.0011154109
0.046387989 0.043961819 -0.0079877675 -0.40749913 0.71781898 -0.56451786 0.00094133947
0.048458979 0.04459019 -0.0086874515 -0.38092056 0.69873589 -0.60553086 0.0017864879
0.068467572 0.043533787 -0.0085044606 0.67610502 0.028845232 -0.73624051 0.0027635037
0.069927596 0.043449126 -0.0069764419 0.75744903 -0.01567254 -0.65270615 0.0028595207
-0.067347832 0.047996446 -0.0086131133 -0.50824738 0.057771444 -0.85927123 0.0034625854
-0.048415519 0.047761556 -0.0087152626 0.3181397 0.70162308 -0.63758302 0.0015400089
-0.046162561 0.047323216 -0.0078879744 0.37105966 0.75339693 -0.54286999 0.0022612463
-0.043608855 0.046366461 -0.0073724478 0.39070255 0.76801884 -0.50744319 0.0018589313
-0.041082986 0.04546351 -0.0066976259 0.41697696 0.78979659 -0.44983497 0.0013382824
0.047213927 0.045346431 -0.0067068189 -0.40955466 0.72765762 -0.55025381 0.00084877736
0.049671896 0.046001218 -0.0077508558 -0.39697284 0.70002156 -0.59361809 0.0012568424
0.052325659 0.047171533 -0.0081378678 -0.36334237 0.68426424 -0.63226956 0.0021686656
0.054364134 0.047779556 -0.0086887982 -0.25456983 0.61383629 -0.74726117 0.0016485569
0.068185858 0.046568152 -0.0084031885 0.58793867 0.11668105 -0.80044603 0.0031617431
0.06987223 0.046403781 -0.0069047762 0.71686834 0.063301586 -0.69432902 0.003399644
-0.069781885 0.050275445 -0.0068170186 -0.35878721 0.2015404 -0.91140181 0.0030912245
-0.066928908 0.050226014 -0.0084467102 -0.22191204 0.34570548 -0.91172516 0.0039429278
-0.0653712 0.05047182 -0.0089085801 -0.19414356 0.3617419 -0.91183943 0.003827628
-0.057187416 0.050897848 -0.0088872928 0.11051322 0.67213762 -0.73213238 0.0029976266
-0.054828964 0.050536778 -0.0086046197 0.21006909 0.67435688 -0.70789391 0.0024470412
-0.052261993 0.050188221 -0.0078760013 0.30402485 0.7324248 -0.60919851 0.0028091837
-0.049492367 0.049288213 -0.0074421354 0.35202929 0.75567764 -0.55229217 0.0018857833
-0.04704402 0.048493821 -0.0068543255 0.39283133 0.77244812 -0.49900657 0.0017182097
0.052886173 0.048505783 -0.0069903741 -0.39906874 0.69674182 -0.5960663 0.0016224007
0.056001931 0.049291193 -0.0079710241 -0.2670444 0.61939234 -0.73826855 0.0013640313
0.058583818 0.050058842 -0.0083395978 -0.20847507 0.60198426 -0.77081329 0.0027673524
0.061888937 0.05045525 -0.0087929731 0.019836146 0.4713766 -0.88170892 0.0034098767
0.064851686 0.050406277 -0.0087787826 0.17803626 0.37568426 -0.90948582 0.0048686471
0.067804568 0.049422942 -0.0080296099 0.48815289 0.21006703 -0.84710008 0.0041578021
0.069728881 0.049391828 -0.0066658785 0.69475567 0.12093613 -0.70900553 0.004249726
-0.069853559 0.053014431 -0.0065335217 -0.24336368 0.28022069 -0.92857444 0.0043279422
-0.067205906 0.05259468 -0.0076295272 -0.12163366 0.40742913 -0.90510041 0.0057739676
-0.064338244 0.052778747 -0.0079435408 0.05456388 0.59477508 -0.80203831 0.0052829445
-0.061566837 0.0529215 -0.0077139693 0.12583388 0.66330618 -0.73769289 0.0037923353
-0.058368579 0.05246862 -0.0076041766 0.17126945 0.72527587 -0.66681463 0.0028107096
-0.055588603 0.051964868 -0.0073271915 0.22690323 0.73558098 -0.63830686 0.0034775967
-0.052976973 0.051574145 -0.0065485346 0.33536118 0.75092381 -0.56889915 0.0019054543
0.056530915 0.051102687 -0.0063187834 -0.38690975 0.68447894 -0.61789107 0.0027452074
0.059187781 0.051591966 -0.0071765394 -0.26019213 0.61861157 -0.74136341 0.0024557721
0.06189112 0.052203435 -0.0075946702 -0.11781222 0.5408321 -0.83283901 0.0043338868
0.064941078 0.052189887 -0.0079351049 0.17149073 0.36790591 -0.91391259 0.0047961609
0.06786146 0.052303944 -0.0071898163 0.45870489 0.23323077 -0.85743403 0.0084709851
0.069464199 0.052219693 -0.0063438383 0.64015001 0.15263176 -0.75293529 0.0054550804
-0.069790587 0.05516151 -0.0062030479 -0.16886857 0.36463857 -0.91570854 0.010692973
-0.067479879 0.055357084 -0.0064664078 0.072434843 0.54448432 -0.83563757 0.004828501
-0.0646182 0.054831024 -0.0066259196 0.14623262 0.61238807 -0.77691489 0.006132775
-0.061639454 0.054351583 -0.0063870121 0.1814961 0.70053774 -0.69014925 0.0060086511
-0.059884503 0.054218281 -0.0060619134 0.2454429 0.76461059 -0.59592658 0.0032688589
0.062387139 0.054277334 -0.0061882418 -0.21368627 0.55444604 -0.80431813 0.0051376256
0.065215021 0.054868013 -0.0066018198 0.11592998 0.35663283 -0.92702389 0.0053311815
0.067717798 0.055012397 -0.0064079091 0.32251942 0.25426114 -0.9117744 0.0099651571
0.069150664 0.054342262 -0.0061595505 0.45492569 0.24803407 -0.85529041 0.01366812
-0.015345952 0.002967302 -0.0035576855 -0.26704934 -0.91461861 -0.30357453 0.0021412885
-0.013429564 0.0027686362 -0.0041959127 -0.20183337 -0.90756375 -0.36822739 0.0017301778
-0.010512328 0.0023691943 -0.0046859495 -0.16931197 -0.91306013 -0.37101844 0.002677107
-0.0073893643 0.0018051885 -0.004506628 -0.11218671 -0.92886239 -0.35302809 0.0025791375
-0.0045623919 0.0014944937 -0.0045446791 -0.093453147 -0.93117332 -0.35239574 0.0026001388
-0.00158801 0.0012779846 -0.0046275621 -0.058088992 -0.93181872 -0.35824504 0.0025510921
0.0014500037 0.0011646154 -0.0046855956 -0.022213075 -0.92856032 -0.37051621 0.0021157803
0.0045937616 0.0010615265 -0.004500092 0.0088758431 -0.94174695 -0.33620521 0.0021012654
0.0076349154 0.0011090807 -0.0044077728 0.041037451 -0.94101 -0.33588132 0.0019153481
0.010516241 0.0012896342 -0.0044621495 0.072406478 -0.94160295 -0.32884845 0.0021757009
0.013523791 0.0015829764 -0.0045006811 0.10093054 -0.94114596 -0.32257915 0.0018864913
0.016509226 0.001945454 -0.0044961413 0.12470815 -0.94495714 -0.30249596 0.0016682511
0.019534921 0.002437355 -0.0045250938 0.16219053 -0.94173837 -0.29465762 0.0015632367
0.022356994 0.0027675899 -0.0038483692 0.19956356 -0.94221443 -0.26908413 0.0016604244
0.024050435 0.0029390212 -0.0031193967 0.17492759 -0.9736402 -0.14637373 0.0029385604
-0.024224818 0.0058467695 -0.0032527309 -0.38179338 -0.88702184 -0.25966531 0.0032220616
-0.022111664 0.0055258712 -0.0045422292 -0.30982801 -0.8745687 -0.37300962 0.0016337327
-0.019229071 0.0046805651 -0.0049387147 -0.27434298 -0.87503946 -0.39880058 0.0017360154
-0.016319904 0.003766533 -0.0048689554 -0.24370244 -0.89107549 -0.38287538 0.0017997356
-0.013892983 0.0033620391 -0.0054349974 -0.21239951 -0.89194882 -0.39914131 0.001726865
-0.011769176 0.0031101145 -0.0059300391 -0.16016635 -0.87549162 -0.45591795 0.0030007246
0.02082275 0.0031058469 -0.0058424124 0.17206047 -0.91780126 -0.35782117 0.0015200652
0.022810001 0.0032987837 -0.0051870267 0.20906468 -0.92333412 -0.32209635 0.0017013537
0.025647776 0.0038033528 -0.0046928008 0.24228692 -0.91799772 -0.31397015 0.0013357033
0.028480344 0.0045535392 -0.0046593142 0.25737301 -0.9116922 -0.32027575 0.0017191292
0.031379327 0.005408098 -0.0045875562 0.28667849 -0.9098233 -0.30006173 0.0016819026
0.033379413 0.0057712737 -0.0036368538 0.32057753 -0.90698522 -0.27314439 0.0019665677
-0.030471347 0.0088026561 -0.0044921967 -0.33994016 -0.85231048 -0.39750174 0.0015285987
-0.028709849 0.0081758527 -0.0047114789 -0.34241658 -0.8688494 -0.35756338 0.0016292309
-0.025811082 0.0070566791 -0.0048298999 -0.33657175 -0.85919774 -0.38535532 0.0014423149
-0.022876287 0.006253235 -0.0056274161 -0.32596129 -0.8599875 -0.39264596 0.0016573733
0.032634631 0.0061900215 -0.0057209996 0.31303117 -0.88924509 -0.3335484 0.0021884739
0.03468981 0.0065851393 -0.0047442 0.34262368 -0.89268076 -0.29279715 0.0013701498
0.037513718 0.0076068058 -0.0045424462 0.35094669 -0.8895542 -0.29245478 0.0013529778
0.04001889 0.0085533941 -0.0042301849 0.38394576 -0.88425988 -0.26583865 0.0015296638
-0.036720704 0.011490844 -0.0043635913 -0.39394891 -0.851174 -0.34685314 0.0014850087
-0.03446658 0.010534902 -0.0045309239 -0.38317129 -0.85036498 -0.36063734 0.0013342453
-0.031879146 0.0096216025 -0.0050933543 -0.37057969 -0.85921866 -0.35272363 0.001417432
-0.02977358 0.0091387695 -0.0059685335 -0.34400481 -0.82024223 -0.45701572 0.00078725215
0.041369591 0.0094159925 -0.005011579 0.41144377 -0.8681621 -0.27750418 0.0016401521
0.043509219 0.010267491 -0.0045080651 0.4235324 -0.86603624 -0.26570946 0.0012440732
0.046032179 0.011441907 -0.0041648177 0.45013538 -0.851358 -0.26938385 0.0015909702
-0.042873852 0.01470708 -0.0040008454 -0.48234558 -0.81990361 -0.30838409 0.0024085101
-0.039988581 0.013407034 -0.0049235132 -0.44316527 -0.81549066 -0.37226287 0.0012055225
-0.038298365 0.012431336 -0.0048496216 -0.41496697 -0.83336139 -0.36511812 0.0017466977
0.047252845 0.012384808 -0.0049636597 0.47386408 -0.83262861 -0.28667471 0.0015964494
0.049530171 0.013547828 -0.0045064553 0.49782637 -0.81893438 -0.28550911 0.0017494891
0.051610496 0.014634433 -0.0039798799 0.51005441 -0.8091194 -0.29183942 0.0017053207
-0.046077318 0.017109904 -0.0045071519 -0.55309045 -0.76566851 -0.32839432 0.0015275051
-0.043896466 0.015797626 -0.0050321543 -0.50650984 -0.78865296 -0.34853166 0.002097148
0.052855846 0.015727572 -0.0047042673 0.53092772 -0.79345244 -0.29757166 0.0016676846
0.055150751 0.017192904 -0.004350408 0.55962384 -0.77458304 -0.29469031 0.0018045637
-0.049727399 0.019807128 -0.0045243423 -0.5731312 -0.75789297 -0.31163913 0.001654967
-0.047662627 0.018352518 -0.0047897412 -0.56004417 -0.76713604 -0.3128145 0.001607888
0.056478675 0.018450608 -0.0050311084 0.58745331 -0.75540632 -0.29027545 0.0015474503
0.058380648 0.019738631 -0.0044203373 0.61693466 -0.73234785 -0.28819823 0.0015620261
0.060141239 0.020770853 -0.0032966861 0.64300776 -0.71560681 -0.27285153 0.0021596507
-0.054905504 0.023597686 -0.0042524734 -0.58270472 -0.74172199 -0.33212 0.0020622665
-0.052707762 0.022123929 -0.0046945009 -0.56107992 -0.75146878 -0.34710804 0.0017587227
-0.050621919 0.021031637 -0.0057504969 -0.57887262 -0.75096774 -0.3177326 0.0016867741
0.059673354 0.021304151 -0.0054407762 0.63322854 -0.68923992 -0.35209382 0.0017220305
0.061432526 0.022534939 -0.0044622081 0.67455262 -0.68029761 -0.2866599 0.0013566646
0.063171014 0.023780098 -0.0033997665 0.70418537 -0.64085937 -0.30565059 0.0017288731
-0.058250479 0.026511006 -0.0044746138 -0.61501729 -0.69895548 -0.36498645 0.00205597
-0.056228448 0.024900056 -0.0048341765 -0.59178132 -0.72735041 -0.34750009 0.0028157977
0.062681906 0.024342136 -0.0054328623 0.69533509 -0.62126851 -0.36129564 0.0024666013
0.064236552 0.025580036 -0.0044136466 0.72680587 -0.6038177 -0.32734883 0.0021327862
-0.059459131 0.028157145 -0.0054370458 -0.63125801 -0.6174807 -0.46928772 0.00063875772
0.065526821 0.027610827 -0.0049829637 0.76086658 -0.5592677 -0.32909235 0.001987244
0.066750817 0.028901832 -0.0042892648 0.78616035 -0.51351887 -0.34387538 0.0026281753
-0.062352762 0.031689737 -0.0059793936 -0.64377815 -0.5468995 -0.53521085 0.0010941104
-0.0091964789 0.032999821 -0.0059445277 0.20006514 0.8446641 -0.49650443 0.00037129808
-0.0071739168 0.032815855 -0.0056067617 0.1583607 0.89293885 -0.42140499 0.0017805792
-0.0044179107 0.032653809 -0.0049835653 0.13526033 0.91821128 -0.37228033 0.0018432237
-0.0015474702 0.032402147 -0.0046879151 0.096445322 0.9297685 -0.3552869 0.0023267262
0.0014865947 0.032216068 -0.0045846179 0.044613138 0.93748766 -0.34514707 0.0024288695
0.0044791009 0.032117546 -0.0046125813 0.009997963 0.93601358 -0.35182187 0.002357993
0.0074223876 0.032161977 -0.0045301919 -0.026529975 0.94129056 -0.33655345 0.0023390769
0.010544218 0.03230254 -0.0047010425 -0.098160341 0.9301973 -0.35369128 0.0020492813
0.013486695 0.03253578 -0.004918505 -0.14273083 0.91229349 -0.3838599 0.0018411611
0.016447492 0.032791462 -0.0056219175 -0.21099167 0.89071536 -0.4026272 0.0018857786
0.068045497 0.031369153 -0.0046324925 0.82214117 -0.42749175 -0.37594506 0.0026760639
0.06917274 0.032550376 -0.0035326667 0.84000111 -0.40952045 -0.355937 0.0022418515
-0.063634463 0.033027079 -0.0056862901 -0.65760583 -0.49735439 -0.56585616 0.0010810355
-0.018358439 0.035847407 -0.0051361793 0.30375183 0.8821131 -0.36001572 0.0018723446
-0.016406236 0.0353215 -0.0048522661 0.26421082 0.8874706 -0.37760893 0.0022822598
-0.013309178 0.034446891 -0.0048673544 0.22775683 0.88833791 -0.39872625 0.0013687731
-0.010615482 0.033731796 -0.0050327545 0.18786751 0.89061671 -0.41413474 0.0017835366
-0.0081081782 0.033333156 -0.0047848402 0.17229968 0.89710253 -0.40684128 0.0014032185
-0.0050764871 0.033278581 -0.0034504731 0.12099364 0.94904244 -0.29099646 0.0034340278
0.013881668 0.033079274 -0.0034739722 -0.13509499 0.94957417 -0.28294554 0.0019646361
0.016652254 0.033349965 -0.0042384504 -0.19934586 0.90440279 -0.37724909 0.001438065
0.019804746 0.033824742 -0.0050675101 -0.23689908 0.88381165 -0.40343001 0.0010322853
0.022375852 0.034571312 -0.0049394523 -0.25125909 0.89049745 -0.3793194 0.0010212796
0.025098881 0.035438295 -0.0047561899 -0.27576476 0.88924736 -0.36495608 0.0011549013
0.027273435 0.035874192 -0.0054204417 -0.32252437 0.89478147 -0.30877867 0.002364466
0.068745069 0.033643994 -0.0054852236 0.83471203 -0.34808674 -0.42672184 0.003094113
0.069718271 0.034661207 -0.0043290453 0.85620964 -0.34101063 -0.38809371 0.0031886296
-0.025107382 0.038481936 -0.0048429999 0.37288523 0.86622119 -0.33259207 0.0015577122
-0.022507176 0.037471257 -0.0047694584 0.34820348 0.86931348 -0.35078263 0.0018255466
-0.019906389 0.036566913 -0.0045614592 0.30378637 0.88908046 -0.34241757 0.0016739306
-0.017455226 0.036093298 -0.0035696586 0.27571243 0.91516215 -0.29404226 0.0020584334
0.026532816 0.036153354 -0.0039460324 -0.30627578 0.90085411 -0.30766389 0.0023022322
0.028042121 0.036456864 -0.0045155557 -0.28409076 0.87931347 -0.38223073 0.0013796064
0.031354211 0.03756433 -0.0046730088 -0.35512808 0.87211466 -0.33660084 0.0022636761
0.033862565 0.038595371 -0.0046173809 -0.40527579 0.85489678 -0.32388741 0.0021201465
0.070615374 0.037493888 -0.0045066811 0.87547207 -0.24496405 -0.41658288 0.0031026229
-0.033063523 0.041808806 -0.0058157938 0.42558891 0.8330279 -0.35346663 0.0033347534
-0.031219218 0.041350022 -0.0046209493 0.42144901 0.86302501 -0.27851135 0.0019198925
-0.028536009 0.040108841 -0.0045697279 0.38966984 0.86806399 -0.30760747 0.0020946003
-0.026569279 0.039443336 -0.0039458261 0.37353975 0.87448525 -0.30942467 0.001924651
0.035316821 0.039444938 -0.0041633341 -0.43546942 0.83413589 -0.33850229 0.0024874709
0.037770469 0.040694419 -0.0044545806 -0.47315282 0.80450195 -0.35903063 0.0015607139
0.039942123 0.041659418 -0.0052996948 -0.46503621 0.76241285 -0.44996446 0.00077482761
0.071217686 0.040454399 -0.0045730127 0.8850171 -0.1438373 -0.44278175 0.0027169557
0.072091639 0.041665316 -0.0031144356 0.92518359 -0.14479326 -0.35081375 0.0041414965
-0.039350055 0.044917554 -0.0058331341 0.42061478 0.79752594 -0.43247607 0.00075966882
-0.037280537 0.044363007 -0.0047421129 0.45239398 0.8385002 -0.30373868 0.001800642
-0.034729619 0.043124385 -0.004510087 0.4318324 0.85029 -0.30087802 0.0018245908
-0.03248724 0.042266905 -0.003738777 0.41282335 0.86780953 -0.2765567 0.0017952484
0.04107213 0.042531367 -0.0048028883 -0.4568654 0.77102602 -0.44361353 0.00067189703
0.043896407 0.044168763 -0.0051717157 -0.46669585 0.75442165 -0.46156591 0.00029085466
0.071426183 0.043426082 -0.0048406725 0.86957449 -0.054528598 -0.49078187 0.0031470887
0.07217788 0.043746218 -0.0033774509 0.91130006 -0.079685859 -0.40395826 0.0029722862
-0.045030892 0.047969211 -0.0057826117 0.43287495 0.79408455 -0.4266721 0.0045089968
-0.042894967 0.047316454 -0.0049649547 0.44850084 0.81149703 -0.37459257 0.0025063183
-0.040490229 0.046188332 -0.0044935844 0.45636791 0.82605845 -0.33068985 0.0023116502
-0.038533192 0.045334339 -0.0039281985 0.43891707 0.84185702 -0.3140519 0.0020141706
0.046691511 0.046054516 -0.0048745465 -0.43966681 0.74279791 -0.50492024 0.00059848162
0.049120486 0.047256522 -0.0054567605 -0.42044058 0.72827816 -0.54114753 0.00058727409
0.071362145 0.046495941 -0.0050245821 0.84839785 0.018262714 -0.52904397 0.0034996981
0.07223098 0.046562243 -0.0035168373 0.88959849 -0.012847054 -0.45656249 0.0037461161
-0.048946302 0.050516646 -0.0050128722 0.4165512 0.81772447 -0.39725527 0.0030953747
-0.046516828 0.049456757 -0.0045325938 0.44303483 0.81895596 -0.36473456 0.002509821
-0.044113744 0.048374448 -0.0039852234 0.43857524 0.82878274 -0.3475211 0.0021299338
0.050705995 0.048955146 -0.0041476432 -0.45025676 0.7443862 -0.4931106 0.00050075888
0.052322492 0.049341209 -0.0053343647 -0.42145368 0.71219862 -0.56138217 0.00083019026
0.054828092 0.050725553 -0.0055570826 -0.40375772 0.71486402 -0.57091957 0.0011664964
0.071226224 0.049521804 -0.0049956734 0.81670278 0.063418061 -0.5735631 0.0044003832
0.07223241 0.049454417 -0.0034664581 0.8642354 0.02231078 -0.50259268 0.0042427764
-0.072491378 0.053783011 -0.0050749434 -0.29082304 0.26587304 -0.91909385 0.0070592659
-0.071205065 0.053776741 -0.0058871401 -0.27945629 0.20610511 -0.93777657 0.0021520806
-0.057794426 0.053766195 -0.0058080317 0.22587188 0.78313547 -0.5793795 0.0026192523
-0.055089813 0.053469308 -0.0048623937 0.33229709 0.84685212 -0.41523504 0.004233262
-0.05239848 0.052430116 -0.0046310853 0.38195023 0.83109838 -0.40421486 0.0027006897
-0.05012073 0.051598087 -0.0039687469 0.42548689 0.83348548 -0.35250926 0.0032799304
0.053621188 0.051257849 -0.0032827945 -0.44513479 0.74557561 -0.49595571 0.00088252011
0.056025095 0.051665656 -0.0051402994 -0.39818832 0.70578253 -0.58593267 0.0017257729
0.058408298 0.05300495 -0.0051894942 -0.37833485 0.693349 -0.6132943 0.002525588
0.060437463 0.053619534 -0.0058192667 -0.34167263 0.65207911 -0.6767959 0.0042515737
0.071025342 0.052498158 -0.0048610535 0.7444424 0.084631614 -0.66230124 0.0076271058
0.072220653 0.052467819 -0.003325636 0.83123201 0.037438679 -0.5546636 0.0065801307
-0.072490536 0.055722278 -0.00509904 -0.23245625 0.32723159 -0.91590589 0.011703268
-0.070386626 0.05626557 -0.0056847581 -0.095586888 0.44878805 -0.88851136 0.010999559
-0.067116909 0.056631997 -0.0057290969 0.13138811 0.56424111 -0.81508839 0.0064359168
-0.064232506 0.056215577 -0.0054414729 0.22343197 0.65091974 -0.72552156 0.0062708035
-0.061623715 0.055913251 -0.0044922191 0.32792562 0.77203727 -0.54444754 0.0075885421
-0.058582585 0.054886721 -0.0043715369 0.26708427 0.82754266 -0.4938007 0.0048977509
-0.055811889 0.054373428 -0.0035829737 0.35671389 0.86923927 -0.3423132 0.0033728923
0.059584834 0.054313518 -0.0043534664 -0.38741514 0.68266916 -0.61957437 0.0025300724
0.061599799 0.055257976 -0.0047819586 -0.39192846 0.61855245 -0.68101758 0.0049285837
0.064851657 0.056472976 -0.0055834125 -0.020003149 0.40409315 -0.91449916 0.0096651521
0.06834241 0.056320291 -0.0058596996 0.32063448 0.26028237 -0.9107396 0.010439121
0.070770591 0.055463895 -0.0046852105 0.65934557 0.094352134 -0.7458961 0.0094505642
0.072147422 0.055404663 -0.0033179577 0.78725922 0.033536159 -0.6157096 0.010516296
-0.072890997 0.057658024 -0.0044728587 -0.11809399 0.41652316 -0.90142238 0.0120108
-0.070012853 0.058117747 -0.005018455 0.092758417 0.62523288 -0.77490634 0.011174276
-0.067545481 0.058616817 -0.004357941 0.1694172 0.65759557 -0.73407489 0.0080091124
-0.064664461 0.057880085 -0.003984015 0.33193257 0.70745224 -0.62396485 0.0061481842
-0.062569931 0.057228349 -0.0034177557 0.34788448 0.73301601 -0.58452016 0.0076883747
0.064833879 0.058198657 -0.0044598626 -0.22640918 0.38967323 -0.89268899 0.0056801904
0.06804727 0.058442645 -0.0052837259 0.29735216 0.18917716 -0.93583852 0.0093861157
0.070792191 0.058446441 -0.0043138084 0.62260479 0.075109273 -0.77892357 0.015841298
0.072189413 0.058519073 -0.0032111392 0.7915656 0.010541968 -0.61099327 0.02291402
-0.069081947 0.060024608 -0.0034492228 0.24733129 0.66585743 -0.70389003 0.012752919
-0.068049699 0.060098749 -0.003167348 0.28020731 0.71859938 -0.63647372 0.017148986
0.065632179 0.060632266 -0.0036660987 -0.13964032 0.30566993 -0.94184202 0.011829801
0.068175197 0.061092902 -0.0045544384 0.29082617 0.13535069 -0.94715381 0.012398412
0.070847511 0.061505821 -0.0040358752 0.56518006 0.015326978 -0.82482511 0.018857459
0.072218388 0.061449394 -0.0032302635 0.66804892 -0.028531441 -0.74357021 0.020739373
0.068377718 0.063858062 -0.0040771603 0.22809504 0.043461621 -0.97266835 0.011139553
0.070933633 0.064472727 -0.0039265663 0.51384705 -0.065765403 -0.85535723 0.017256938
0.072414368 0.064729601 -0.0032918623 0.6306026 -0.097826272 -0.76991582 0.01995183
0.068396524 0.067380004 -0.0036438548 -0.065906852 0.018178262 -0.99766022 0.016605781
0.070958607 0.067519054 -0.0040322305 0.3746579 -0.12372394 -0.91887099 0.019956155
0.072809383 0.067601569 -0.0034308287 0.61573005 -0.15390797 -0.77277994 0.013444695
0.068272568 0.06968905 -0.0033246935 -0.065518387 -0.024304245 -0.99755538 0.016614795
0.07114993 0.070338272 -0.0042424565 0.33632219 -0.1837244 -0.92365187 0.016247097
0.073455788 0.070622295 -0.0036916723 0.51297235 -0.23465344 -0.82571012 0.014540279
0.075186692 0.071919739 -0.0030330853 0.63496083 -0.20916502 -0.74368995 0.010409669
0.068797819 0.073927186 -0.003402642 -0.5178076 0.3461473 -0.782341 0.042640489
0.07107944 0.073467389 -0.0045678723 0.20220247 -0.084574468 -0.97568506 0.031785708
0.073805958 0.073408812 -0.0043035625 0.5488686 -0.11853457 -0.82746166 0.036039259
0.075479858 0.073734723 -0.0034531532 0.69409347 -0.15440503 -0.70313114 0.044061851
0.068931259 0.075882912 -0.0034094448 -0.36795548 0.41817543 -0.83050472 0.10623316
0.071235053 0.075820796 -0.0045389244 0.2714515 0.18465959 -0.94457132 0.037233192
0.073586755 0.075393021 -0.0044222586 0.48581648 0.13074683 -0.86422658 0.03784686
0.075203896 0.075194456 -0.0033683872 0.61938155 0.17261857 -0.76587826 0.052367277
-0.015738076 0.0027295663 -0.0018270034 -0.25141528 -0.95050353 -0.18257435 0.0029843829
-0.013345609 0.002120052 -0.0016505588 -0.20887381 -0.96146882 -0.17874417 0.0027479001
-0.01049959 0.0015698413 -0.0017970366 -0.16978548 -0.96921688 -0.17830189 0.0027498896
-0.0074101724 0.0010042674 -0.0011859793 -0.13125132 -0.97412246 -0.18400688 0.0030982427
-0.0041139107 0.00065915013 -0.0013062534 -0.094338648 -0.97251487 -0.21287335 0.003435448
-0.0015952636 0.00055210665 -0.0018912692 -0.070772983 -0.98619556 -0.14969777 0.0039326297
0.0017506747 0.00038251016 -0.0018017734 -0.022127539 -0.98722386 -0.15779611 0.0025291108
