# .PCD v0.7 - Point Cloud Data file format
VERSION 0.7
FIELDS x y z normal_x normal_y normal_z curvature
SIZE 4 4 4 4 4 4 4
TYPE F F F F F F F
COUNT 1 1 1 1 1 1 1
WIDTH 548
HEIGHT 1
VIEWPOINT 0 0 0 1 0 0 0
POINTS 548
DATA ascii
0.02239551 -0.044295929 -0.010424676 0.019777386 0.88311291 -0.4687435 0.00075369218
0.025468888 -0.044321805 -0.010140611 0.060727075 0.89836305 -0.43503568 0.001755602
0.028084934 -0.044741079 -0.010456873 0.10600035 0.91163957 -0.39708593 0.0012682778
0.030463032 -0.044834416 -0.0093334327 0.21836723 0.96079475 -0.17084868 0.0024659443
0.011070721 0.044876933 -0.0091970488 -0.14764938 -0.83512414 -0.52987492 0.0001689968
0.013890923 0.04465707 -0.0094298692 -0.10229488 -0.84569353 -0.52377307 0.00013937606
0.016622655 0.044569775 -0.0097216815 -0.060235072 -0.85895568 -0.50849473 0.00021784384
0.019473335 0.04453535 -0.0099141803 -0.012165083 -0.87463862 -0.48462296 0.0006529789
0.02235507 0.044517279 -0.0099107372 0.041917183 -0.89406228 -0.44597718 0.0014662039
0.025388757 0.044656485 -0.0097797941 0.107513 -0.91504931 -0.38874882 0.0020715108
0.027991343 0.044834495 -0.0093819844 0.18193129 -0.93461722 -0.30560052 0.0028854511
-0.051774722 0.047250729 -0.0099642491 0.36545274 -0.54027689 -0.75798762 0.057076294
-0.049840216 0.047265034 -0.0097995857 0.31699324 -0.57383013 -0.75513852 0.023750437
-0.042851657 0.047825992 -0.009105593 -0.13298251 -0.34467465 -0.92925507 0.01318703
-0.040149387 0.047423631 -0.009169234 -0.21741039 -0.50000912 -0.83828616 0.010685693
-0.037392315 0.04672204 -0.0097503392 -0.058804262 -0.48049772 -0.87502229 0.015028946
-0.034683317 0.047315773 -0.0094869798 0.19134004 -0.49487084 -0.84763896 0.010536348
-0.0325533 0.047729861 -0.0091780284 0.24410218 -0.48677853 -0.83872581 0.014756866
0.0018080721 0.047554296 -0.0095407302 -0.30970615 -0.72397971 -0.6163891 0.0016638102
0.0046089529 0.047122449 -0.010260727 -0.25977919 -0.77386844 -0.57761794 0.00079590455
0.0075033898 0.046495389 -0.010500903 -0.20454741 -0.8104248 -0.54897344 0.00016310975
0.01046102 0.045900311 -0.010563176 -0.15483083 -0.82969928 -0.53630823 0.00011145735
0.013334651 0.045647144 -0.010902229 -0.11345553 -0.84018385 -0.53030074 7.5645141e-05
0.016437488 0.045513123 -0.011236031 -0.074753232 -0.85001969 -0.52141964 0.00010797216
0.019518225 0.045412023 -0.011414523 -0.035658319 -0.8612923 -0.50685686 0.00013818375
0.022526378 0.04532494 -0.011369434 0.0070592272 -0.87861884 -0.47747153 0.0005630778
0.02549383 0.045314252 -0.01120523 0.06521105 -0.90339661 -0.42381841 0.001838215
0.028546378 0.045442846 -0.010769792 0.1338733 -0.92892784 -0.34521168 0.0035644046
0.03143603 0.045846384 -0.01056296 0.19070962 -0.94276792 -0.27352998 0.0035978009
0.034481525 0.046530977 -0.010622781 0.26172781 -0.93991596 -0.21921824 0.0030955051
0.037166897 0.047394667 -0.010399599 0.40634677 -0.89924151 -0.16200939 0.0047634928
-0.051920801 0.04950757 -0.011240711 0.50277412 -0.1856477 -0.8442471 0.055779155
-0.049541 0.049483757 -0.010407326 0.41133705 -0.17347229 -0.89482355 0.025025198
-0.046240829 0.049757075 -0.009100521 0.11074916 -0.1420373 -0.98364627 0.047695421
-0.043418035 0.049440701 -0.0093927486 -0.11024132 -0.17444289 -0.97847658 0.015956877
-0.040514585 0.049402028 -0.0096987104 -0.19392857 -0.18910183 -0.96261734 0.013893142
-0.037427973 0.049434368 -0.010535312 -0.058392737 -0.1508556 -0.98682976 0.014002583
-0.034466136 0.049534243 -0.010092708 0.1834861 -0.16955978 -0.9682883 0.010483918
-0.031490825 0.049517225 -0.0093981102 0.21924144 -0.17360115 -0.96010202 0.0097844452
-0.029416807 0.050254539 -0.0091041354 0.19128469 -0.073148847 -0.97880512 0.0089380108
-0.0036263559 0.050554436 -0.0092328275 -0.4057703 -0.47033092 -0.78367037 0.0045155943
-0.0013190965 0.049743947 -0.0099717276 -0.39231014 -0.54319006 -0.74231887 0.0040020612
0.00126113 0.049113054 -0.010931973 -0.37615165 -0.6341635 -0.67553425 0.0038053412
0.0038864063 0.048363995 -0.011617526 -0.29669973 -0.73618174 -0.60828102 0.0018651495
0.038567834 0.048226058 -0.011021536 0.46455592 -0.86659962 -0.18218924 0.0036288139
0.04049699 0.049409781 -0.010602944 0.57165229 -0.80611569 -0.15294203 0.0029820621
0.042201892 0.050724637 -0.010402685 0.65362072 -0.7453562 -0.13124043 0.0033529017
-0.051871013 0.052147966 -0.011214592 0.41484967 0.093710884 -0.90505141 0.033538118
-0.049529437 0.05235444 -0.010280016 0.39022848 0.22825509 -0.89197606 0.011315084
-0.045905419 0.051261924 -0.0090745799 -0.026543662 0.17949638 -0.98340046 0.026972456
-0.0433705 0.051869679 -0.0093436921 -0.13810506 0.13660589 -0.98095149 0.0063399896
-0.04048666 0.05225211 -0.00958231 -0.19534588 0.23395436 -0.95242077 0.011823832
-0.037324328 0.052386243 -0.010444167 -0.053962305 0.18304385 -0.98162264 0.010633171
-0.034507539 0.05248211 -0.0099394815 0.16178823 0.18446542 -0.96943128 0.0047873431
-0.031563163 0.052235086 -0.0093684578 0.19024007 0.14873451 -0.97040546 0.0041807308
-0.02952775 0.051759597 -0.0090930788 0.21788394 0.071271554 -0.97336888 0.0056959419
-0.0062750876 0.053652838 -0.0091107329 -0.4627178 -0.16220878 -0.87153918 0.0080248136
-0.0043117255 0.05261128 -0.0097855674 -0.46613076 -0.28596002 -0.83722693 0.0063928436
-0.0018232596 0.052204251 -0.011209317 -0.51916605 -0.36878636 -0.77101445 0.0052920724
0.043654706 0.052271802 -0.010962497 0.71510977 -0.68773699 -0.1250432 0.0024077503
0.04508625 0.053865705 -0.010973535 0.74582285 -0.65041167 -0.14391994 0.0023878266
-0.05166284 0.054426804 -0.0098567642 0.37684059 0.30284211 -0.87537295 0.017612908
-0.049763117 0.054444354 -0.0095302789 0.40592176 0.30162486 -0.86269921 0.012723793
-0.039204121 0.054943219 -0.0092237247 -0.18508014 0.47174895 -0.86208951 0.010414643
-0.037434485 0.054859638 -0.0096449889 -0.10065401 0.45012027 -0.88727701 0.01467026
-0.03463475 0.054598927 -0.0093402835 0.14579307 0.38667387 -0.91061938 0.0034689566
-0.032349106 0.054171134 -0.009106175 0.17457326 0.32839984 -0.92826599 0.0066944608
-0.0063267979 0.055584017 -0.0091695553 -0.43293032 -0.032433804 -0.90084368 0.0066527002
-0.0044678482 0.055523273 -0.010323401 -0.56492102 -0.051755764 -0.82352024 0.0063806432
-0.0026062606 0.055061173 -0.011624277 -0.61366159 -0.11272427 -0.78148115 0.0041242107
0.046074849 0.055329558 -0.010712244 0.83926761 -0.54332781 -0.020611931 0.0035267917
-0.0063010417 0.05780609 -0.0090861423 -0.53512931 0.14859632 -0.83159834 0.0061066691
-0.0045360811 0.058437318 -0.010139949 -0.58216023 0.16091368 -0.796992 0.0054193619
-0.0026570272 0.05886041 -0.011650427 -0.66134632 0.10282288 -0.74299973 0.003258504
0.047531001 0.05799558 -0.010781107 0.90403318 -0.42706698 0.018379556 0.0039740666
0.048202489 0.059457071 -0.011515232 0.92996436 -0.36753988 0.008985742 0.0042773215
-0.0038213339 0.061084133 -0.0098648611 -0.62210649 0.3243697 -0.71257824 0.0037024301
-0.0020398519 0.061565563 -0.011345615 -0.658871 0.26842728 -0.70273453 0.0020997396
0.048643872 0.061447751 -0.010852762 0.96013588 -0.27945274 -0.0067311525 0.0032542858
-0.0012102751 0.064131945 -0.010462248 -0.63737267 0.49301064 -0.59219635 0.0013334455
0.00067515334 0.065337285 -0.011399858 -0.61337894 0.55634677 -0.56057519 0.00061525637
-0.00054128829 0.066135243 -0.0090771262 -0.59416252 0.58318996 -0.55394977 0.00024045323
0.0015745553 0.067265078 -0.010316232 -0.5903309 0.59117329 -0.54956669 0.00028786412
0.0037661716 0.068355367 -0.011426793 -0.56370056 0.62357634 -0.54165876 0.0003020349
0.0029139975 0.069211662 -0.0096654063 -0.56052411 0.62941557 -0.53819025 0
0.0047732508 0.07017377 -0.010284543 -0.53532881 0.65358061 -0.53502846 0.00014623464
0.0068848049 0.071089044 -0.011242852 -0.51292682 0.67779225 -0.52678627 0.00017341008
0.0077019935 0.072762787 -0.0098337606 -0.49254766 0.69882262 -0.51869434 0.00018892385
0.010192189 0.073719352 -0.010802899 -0.47206503 0.71549493 -0.51499671 0.00015212083
0.012342478 0.074839219 -0.011161976 -0.44397449 0.7415415 -0.50299394 0.00024744141
0.011278749 0.075339258 -0.0095313024 -0.45528331 0.73599339 -0.50102979 0.00028298915
0.013634743 0.076072879 -0.010517207 -0.43220419 0.75641823 -0.49094909 0.00030616127
0.016231723 0.077020161 -0.01130677 -0.42014921 0.76502812 -0.48806411 0.00024283095
0.018499102 0.07793045 -0.011617549 -0.40237632 0.78553027 -0.47014424 0.00029241192
0.01725805 0.078121051 -0.010207768 -0.41198832 0.77310407 -0.48226112 0.00014536061
0.019067369 0.07855837 -0.010823152 -0.40241724 0.78547734 -0.47019759 0.00030473364
0.031531479 0.081351608 -0.011058178 0.011726554 0.92857158 -0.37096807 0.0046014921
0.028539455 -0.081194416 -0.0079679759 -0.075474277 -0.99709266 0.010481577 0.0036233917
0.031196294 -0.081157319 -0.0078765964 0.065875933 -0.99458247 0.080412127 0.0031401434
0.014747395 -0.078018054 -0.006219585 -0.36773869 -0.8858369 -0.28295106 0.0023581902
0.016818428 -0.078406423 -0.0074099153 -0.30172357 -0.9297623 -0.21096206 0.0030473671
0.019498833 -0.079218976 -0.007582006 -0.26798153 -0.95234013 -0.14571984 0.0025570542
0.022499539 -0.080023035 -0.0074822195 -0.25433457 -0.96035147 -0.11418852 0.0030083132
0.025582695 -0.080695778 -0.007693042 -0.20278682 -0.97671455 -0.070044391 0.0027802002
0.027489303 -0.080885708 -0.0061278483 -0.051744979 -0.98140335 0.18485117 0.0028244527
0.032445937 -0.08094418 -0.0073374556 0.14335246 -0.98689216 0.07412114 0.004491149
0.033898905 -0.080647066 -0.0079954304 0.20633174 -0.97790527 -0.033592325 0.0023668581
0.037445959 -0.079371475 -0.0076144487 0.39489511 -0.9039771 0.16396114 0.0032699348
0.039494459 -0.078369848 -0.0077988971 0.50479919 -0.8361823 0.21442258 0.0033510751
0.0086345542 -0.075291783 -0.0063589681 -0.44253075 -0.78043729 -0.4416835 0.0019775904
0.010558928 -0.075707473 -0.0074166022 -0.43428013 -0.79098231 -0.43098459 0.00161765
0.013093057 -0.076723114 -0.0078704832 -0.40645319 -0.83044702 -0.38099012 0.0011239056
0.015589005 -0.077736326 -0.0081986487 -0.36081064 -0.88861352 -0.28316382 0.0027521788
0.04088876 -0.077390298 -0.0076824268 0.52106237 -0.82882297 0.2038298 0.0035457481
0.042609006 -0.075963877 -0.0078709368 0.64909184 -0.72266167 0.23757079 0.0031045419
0.0051417537 -0.072624415 -0.0068931808 -0.50210857 -0.70002246 -0.50779486 0.0006248423
0.0074709449 -0.073680893 -0.0076573803 -0.47878945 -0.72894335 -0.48928759 0.0005712391
0.0096136751 -0.074594505 -0.0083757229 -0.46343645 -0.73412162 -0.49627826 0.00016288977
0.04432489 -0.073776305 -0.0077835452 0.7179541 -0.64572871 0.25995457 0.0036031622
0.0020839162 -0.069834359 -0.0073043578 -0.55255276 -0.63680667 -0.53773868 0.00019944902
0.0041504558 -0.071024604 -0.0079667903 -0.52771544 -0.66744035 -0.52539492 0.00023563761
0.0060328552 -0.071723185 -0.0089796204 -0.50865805 -0.67932433 -0.52894759 0.00038579127
-0.0010402066 -0.067048125 -0.0071529769 -0.58084017 -0.59379226 -0.55680823 0.00022821881
0.00095605088 -0.068128012 -0.0080844499 -0.57196832 -0.61487448 -0.54293793 0.00015312077
-0.0061048609 -0.063255928 -0.0060279234 -0.51643682 -0.58427542 -0.62603146 0.0012055375
-0.0040014614 -0.064146481 -0.0070114438 -0.5655328 -0.5437274 -0.62010729 0.0013807161
-0.0022072413 -0.065131247 -0.0079207299 -0.59647238 -0.56201661 -0.57302535 0.0005823609
-0.0094317757 -0.060340878 -0.006189195 -0.34487504 -0.53869069 -0.76868302 0.0034199159
-0.0072779935 -0.061135367 -0.006845267 -0.43882933 -0.5127905 -0.7378853 0.0037207117
-0.0050138873 -0.06178781 -0.0080621792 -0.56710756 -0.42968932 -0.70267779 0.0045481571
-0.040006891 -0.057165191 -0.0064786011 -0.26639274 -0.7746228 -0.57358038 0.010036691
-0.037552174 -0.057274431 -0.0065323575 -0.098052241 -0.803177 -0.58761585 0.006535416
-0.034465134 -0.057299975 -0.0067117545 0.00073055114 -0.7828362 -0.62222737 0.0066814278
-0.031436991 -0.05751029 -0.0064111538 0.026178097 -0.74977702 -0.66117257 0.0075689428
-0.028442292 -0.057453025 -0.0063784514 0.028120616 -0.72408736 -0.68913472 0.0061268308
-0.025475169 -0.057341129 -0.0062667034 0.037665963 -0.66445261 -0.74638057 0.0062141865
-0.022677481 -0.057261094 -0.0061360598 0.029614583 -0.5968833 -0.8017813 0.0052729822
-0.019815229 -0.057220209 -0.0060692816 -0.0082603488 -0.54745245 -0.83679605 0.0057901046
-0.015920624 -0.057347741 -0.0061527141 -0.093996391 -0.4720934 -0.87652302 0.0063663037
-0.013217564 -0.057795111 -0.0063278847 -0.15805596 -0.42478725 -0.89138883 0.0060580499
-0.010430054 -0.058389813 -0.0067908852 -0.29737797 -0.37270829 -0.87900788 0.0074975584
-0.0075439457 -0.058593106 -0.0079739215 -0.46707857 -0.27325177 -0.84093469 0.0070669428
-0.005637784 -0.059429508 -0.0088663362 -0.59651065 -0.25070611 -0.76244438 0.0056123571
-0.051374931 -0.05493414 -0.0080728494 0.23289403 -0.8035776 -0.5477438 0.029946269
-0.049380913 -0.054880325 -0.0078406315 0.28042749 -0.80376488 -0.52471185 0.028048972
-0.046661984 -0.054683 -0.0070500714 0.060246896 -0.80746835 -0.58682626 0.026768694
-0.043454628 -0.054792613 -0.0071883388 -0.1743467 -0.71462798 -0.67742902 0.01646713
-0.040460363 -0.055339281 -0.0076444172 -0.29515785 -0.65751964 -0.69321698 0.014315034
-0.037418213 -0.056124926 -0.0082608322 -0.11233069 -0.69007981 -0.71496266 0.013190041
-0.03440503 -0.055828515 -0.0082650306 0.08708743 -0.58940208 -0.803132 0.0089047188
-0.03150839 -0.05562659 -0.0080039715 0.12245121 -0.48492709 -0.86593962 0.0070952121
-0.028500011 -0.055558223 -0.007646326 0.11267935 -0.43073174 -0.89541805 0.0072026835
-0.025512693 -0.055546027 -0.007241331 0.10824505 -0.42080176 -0.90067136 0.008987233
-0.022511235 -0.055471327 -0.0069588772 0.086516358 -0.35589847 -0.9305113 0.0065064938
-0.019482153 -0.055538286 -0.0067022201 0.048197348 -0.29889989 -0.95306659 0.0048522088
-0.016554087 -0.05550563 -0.0066933408 -0.03055485 -0.2383378 -0.97070152 0.0044338158
-0.013529964 -0.055490311 -0.0069409874 -0.12656458 -0.20621853 -0.97028619 0.0049361582
-0.01045948 -0.055498112 -0.0075449371 -0.27765372 -0.12259593 -0.95282668 0.0051044985
-0.0078070289 -0.055564255 -0.0084531726 -0.41321674 -0.070309289 -0.90791434 0.0066827363
0.046032798 -0.055290781 -0.0079581253 0.8569445 0.51501226 0.02021298 0.0016176498
-0.048336659 -0.052796293 -0.0087283067 0.39213651 -0.34550926 -0.85255629 0.021941302
-0.046575416 -0.052601233 -0.0083707785 0.1098365 -0.32583758 -0.93902385 0.047949791
-0.043761134 -0.053231284 -0.0085948594 -0.16867422 -0.4128004 -0.89506698 0.011655226
-0.040724061 -0.053634237 -0.0087515144 -0.24179645 -0.51138926 -0.82463056 0.011750888
-0.030802095 -0.053400636 -0.0088716336 0.19644096 -0.21954398 -0.95562094 0.0046720239
-0.028447615 -0.052595347 -0.0085972985 0.18467779 -0.18661115 -0.96491992 0.0052261599
-0.025532195 -0.052520808 -0.008070861 0.16972141 -0.15872775 -0.97262532 0.0042653121
-0.022420699 -0.052562881 -0.0076141697 0.13023888 -0.14784138 -0.9803983 0.0056710872
-0.019463139 -0.052538421 -0.0072599244 0.084734157 -0.10202745 -0.99116623 0.0057192259
-0.016515581 -0.052473474 -0.0071065053 0.0078873746 0.0066277357 -0.99994695 0.0062105358
-0.013559158 -0.052490816 -0.0071893712 -0.08314383 0.088200897 -0.99262667 0.0065341187
-0.010498063 -0.052532483 -0.0076108091 -0.21886933 0.1199476 -0.96835363 0.0063097589
-0.0075131562 -0.052446451 -0.0084079318 -0.3248471 0.17806756 -0.92885208 0.0072076037
-0.0056408155 -0.051420555 -0.0088856518 -0.44973817 0.243259 -0.8593955 0.0074788313
0.043966807 -0.052100953 -0.0082422877 0.77282083 0.63284308 0.047514725 0.0019266807
0.045094844 -0.053836994 -0.0074485824 0.81106049 0.58415204 0.030777911 0.0031160472
-0.048016898 -0.049579971 -0.0088884225 0.33684802 0.067245729 -0.93915468 0.040105473
-0.046741009 -0.04954702 -0.0088275122 0.074237332 0.0016581948 -0.99723929 0.043202832
-0.044878148 -0.048330322 -0.0089462483 -0.14503282 0.13468084 -0.98021764 0.016672267
-0.030240823 -0.048395455 -0.0089662336 0.19893323 0.17323129 -0.96458101 0.0084370933
-0.028293401 -0.049434006 -0.0087076211 0.24825121 0.1426075 -0.95814115 0.0064369664
-0.025487633 -0.049590301 -0.0081231575 0.19597556 0.1735747 -0.96512455 0.0068727937
-0.022476196 -0.049520869 -0.0075519644 0.15249334 0.22325659 -0.96275765 0.008666791
-0.019490412 -0.049515948 -0.0070733731 0.11060566 0.22628908 -0.96776015 0.0069634952
-0.016502956 -0.049468298 -0.0067751165 0.046383627 0.23893753 -0.96992654 0.0053671389
-0.013487599 -0.049490597 -0.0067093936 -0.027256465 0.28242806 -0.95890117 0.0054974556
-0.010485161 -0.049563754 -0.0069445255 -0.12898694 0.34234756 -0.93067747 0.0055418131
-0.0075705829 -0.049539629 -0.0074921139 -0.22292569 0.4023239 -0.88794118 0.0066508786
-0.004804736 -0.04916333 -0.0081865853 -0.31425655 0.47393435 -0.82257468 0.0060266103
-0.0023236659 -0.048372462 -0.008754489 -0.39892045 0.55727911 -0.72821867 0.0039243377
0.040990613 -0.04912487 -0.0078913812 0.61110103 0.79124206 -0.022170704 0.0031182677
0.042496052 -0.050528355 -0.0077669444 0.69945556 0.71452868 0.01451985 0.0029215068
-0.051435579 -0.04564729 -0.0083091119 0.20138605 0.7617566 -0.61576831 0.029957656
-0.04860184 -0.04635283 -0.0085413121 0.29283017 0.54418164 -0.7862041 0.032957513
-0.046553805 -0.046625625 -0.0080112321 0.11601236 0.52910441 -0.84058893 0.043809708
-0.043644946 -0.046394706 -0.008161583 -0.20097946 0.49967244 -0.84257615 0.013191364
-0.040651444 -0.046023328 -0.0082745692 -0.20026951 0.49170402 -0.8474192 0.014838456
-0.03661035 -0.045297734 -0.0088727437 -0.00050672342 0.53191334 -0.84679866 0.021216067
-0.034052473 -0.045576077 -0.0084333904 0.18390071 0.51127905 -0.83950835 0.0091443472
-0.031311739 -0.046317566 -0.0082668988 0.21368547 0.46758565 -0.85773081 0.0079128621
-0.028525157 -0.046573922 -0.0077268495 0.22585076 0.4538002 -0.86200738 0.0064705852
-0.025584737 -0.046797071 -0.0071741599 0.17532107 0.49036014 -0.85370338 0.0063248537
-0.022568882 -0.046988178 -0.0066894013 0.14803839 0.50205314 -0.8520723 0.007669244
-0.019657835 -0.047401711 -0.0063956338 0.11831291 0.49578825 -0.86034644 0.0060337395
-0.017029522 -0.047609538 -0.0061729881 0.068234608 0.5029195 -0.86163563 0.0049499716
-0.013380741 -0.047796596 -0.006068476 0.0092191519 0.52022523 -0.85397935 0.0043293186
-0.010666377 -0.047678489 -0.0061021894 -0.074954405 0.54607517 -0.83437622 0.0039193323
-0.0072975471 -0.047405392 -0.0063883658 -0.15455116 0.5872134 -0.79454041 0.0038622648
-0.0044102822 -0.046996612 -0.0067759636 -0.23516069 0.63061208 -0.73961335 0.0042307526
-0.0015799397 -0.046838325 -0.0076501002 -0.28992322 0.6891188 -0.66412342 0.003140833
0.0013817552 -0.045825973 -0.0077008 -0.25661039 0.76975024 -0.58449608 0.00070117449
0.0042063026 -0.04547492 -0.0084758494 -0.23881097 0.79031736 -0.56424093 0.00028996551
0.0062882253 -0.045269024 -0.008922766 -0.19484136 0.8115356 -0.55086011 0.00011182966
0.032682374 -0.045185108 -0.0076092281 0.2782281 0.95638311 -0.08899758 0.001499381
0.034327216 -0.045698311 -0.0076261 0.28792945 0.95356983 -0.088324763 0.0014857594
0.037359472 -0.046823129 -0.0077607254 0.43549782 0.90014404 -0.0090793781 0.0030725559
0.039149031 -0.047735263 -0.0083399033 0.55452448 0.82731432 -0.08974231 0.0048601087
-0.051166561 -0.044859402 -0.0062428834 0.0083149374 0.90213716 -0.43136916 0.0048046191
-0.049993753 -0.044807747 -0.0060967142 0.074785113 0.89733952 -0.43495858 0.0047531771
-0.039968278 -0.044081073 -0.0074631772 -0.20405568 0.71748906 -0.66601115 0.016354274
-0.037329588 -0.044320583 -0.0078121335 -0.0073023033 0.75633329 -0.6541456 0.016521821
-0.034928653 -0.044454809 -0.0074044508 0.10875178 0.70350498 -0.70232028 0.0075083203
-0.031725429 -0.044539616 -0.0067250896 0.14810745 0.73840654 -0.6578905 0.0057249572
-0.029005136 -0.044660483 -0.0062053385 0.15059276 0.72270346 -0.67455286 0.0019763815
-0.026941614 -0.044911712 -0.006092194 0.14263558 0.68322414 -0.71614242 0.0017352456
0.0018343435 -0.04461702 -0.0062214755 -0.23294838 0.78379464 -0.57567447 0.00032576988
0.0045142225 -0.044302322 -0.0069172801 -0.21837042 0.80356562 -0.55371165 0.00015745657
0.0074783815 -0.043976851 -0.0075122453 -0.17630747 0.82102239 -0.54298979 0.00019955011
0.010557469 -0.04339806 -0.0075120162 -0.13071357 0.8383702 -0.52919686 7.7202429e-05
0.013406433 -0.043014675 -0.0074884146 -0.079365551 0.85671347 -0.50965005 0.00045846077
0.016576126 -0.042768061 -0.0074847154 -0.016856026 0.88308179 -0.46891621 0.001316503
0.019567084 -0.042787872 -0.0076014316 0.026266627 0.90532267 -0.42391154 0.0015914644
0.02254558 -0.043069325 -0.0077799065 0.064129218 0.91670901 -0.39437544 0.0015875534
0.02475368 -0.043441728 -0.0080498895 0.10354234 0.92785376 -0.35828248 0.0025005552
0.028372345 -0.044004247 -0.0073972018 0.21065661 0.95796347 -0.19475561 0.003211437
0.031062612 -0.044712897 -0.0076917768 0.26041564 0.95879936 -0.11352328 0.0026056978
-0.036416188 -0.015662098 -0.0060897171 -0.26934263 -0.1593423 -0.94977081 0.021950239
-0.035066154 -0.015868619 -0.0061807507 -0.039620105 -0.18175976 -0.98254448 0.016783968
-0.036594827 -0.013426294 -0.0064216317 -0.39945665 -0.131587 -0.90725923 0.017320225
-0.034414303 -0.013569507 -0.0065796399 -0.01596432 -0.17859896 -0.98379242 0.016191043
-0.032091584 -0.012943254 -0.0062388983 0.2111121 -0.20878907 -0.95490247 0.00010018081
-0.036919508 -0.010480139 -0.0067288107 -0.41537267 -0.13189997 -0.90003777 0.017521864
-0.034449678 -0.010513353 -0.0072004478 -0.04328892 -0.16403009 -0.98550498 0.013156629
-0.03148349 -0.010439406 -0.0066409544 0.21655455 -0.18880537 -0.95783955 0.00017295043
-0.029252067 -0.0098873973 -0.0061908416 0.24638541 -0.18413574 -0.95151889 6.9318077e-05
-0.037013236 -0.007515525 -0.0070520886 -0.42537865 -0.12263583 -0.89666796 0.012557544
-0.034412608 -0.0075035826 -0.0077033271 -0.12403964 -0.1176676 -0.98527586 0.019821903
-0.031508401 -0.0074650901 -0.0072126449 0.21325499 -0.1513114 -0.96520835 0.0003906663
-0.028583998 -0.0073915501 -0.0064501227 0.25934353 -0.14919546 -0.95419157 0.00012318486
-0.026601367 -0.0066844476 -0.0060658716 0.26502737 -0.14489299 -0.95329249 0.00010880636
-0.037053373 -0.0044979719 -0.0072696679 -0.40877897 -0.032528017 -0.91205359 0.022476306
-0.034418929 -0.0045086225 -0.0080881594 -0.15508406 -0.1097493 -0.98178613 0.018237105
-0.031439211 -0.0045300312 -0.0076242648 0.1937439 -0.10781892 -0.9751094 0.0026614319
-0.028498309 -0.0045418614 -0.0068145436 0.26607904 -0.11015574 -0.95763648 0.00012422481
-0.026240936 -0.004306138 -0.0061899032 0.26649556 -0.10710172 -0.95786709 9.3969204e-05
-0.037120372 -0.0014988264 -0.0073546558 -0.42232344 -0.02409992 -0.90612477 0.018753031
-0.034407675 -0.0014761958 -0.0083330311 -0.11782417 -0.052375473 -0.99165225 0.010863361
-0.031604964 -0.0015317345 -0.0079240547 0.11909735 -0.047040444 -0.99176764 0.010587285
-0.028438337 -0.0015414207 -0.0070554651 0.26206499 -0.047485016 -0.96388131 0.00019831226
-0.025764132 -0.0013702483 -0.0063170549 0.26462922 -0.046214841 -0.96324217 0.00039559961
-0.037227809 0.0014395699 -0.0072636339 -0.35183769 -0.00023321205 -0.93606102 0.013428011
-0.034457069 0.001456397 -0.0083507001 -0.10534815 0.030543588 -0.99396628 0.0084479572
-0.03153893 0.0014180141 -0.0079309503 0.14339554 0.023723891 -0.98938107 0.0083930353
-0.028463051 0.001500819 -0.0070937891 0.25821817 0.02422677 -0.96578282 0.00019750574
-0.025641823 0.0014165774 -0.0063367561 0.26215395 0.011826043 -0.96495354 0.00027374501
-0.037294846 0.0043822881 -0.0071328287 -0.36590454 0.032676034 -0.93007857 0.013214317
-0.03446098 0.0044447985 -0.0081895171 -0.1549757 0.089050338 -0.98389661 0.018077152
-0.031465922 0.0044788118 -0.0077039395 0.17902431 0.086126834 -0.98006755 0.0043506431
-0.028471792 0.0045265839 -0.0069094463 0.25010771 0.080450319 -0.96486992 0.00011619801
-0.025880964 0.0043838709 -0.0062406422 0.24542665 0.074720278 -0.96653116 0.00013858477
-0.037050772 0.0074645728 -0.0070792218 -0.33087468 0.096605986 -0.93871683 0.013780291
-0.034488928 0.007526346 -0.0078624776 -0.14033307 0.12613849 -0.98203653 0.017350687
-0.031568538 0.0074841506 -0.007390291 0.20860647 0.12169946 -0.97039813 0.00036019343
-0.02849897 0.0075746551 -0.006579896 0.24303956 0.11496156 -0.96317989 7.5019045e-05
-0.026420901 0.0070741386 -0.0061200424 0.23516776 0.10811473 -0.96592301 6.1797204e-05
-0.037085619 0.010337322 -0.0067675472 -0.37403077 0.12976061 -0.91829365 0.0097337663
-0.034516577 0.010462294 -0.007434933 -0.11898317 0.15238728 -0.98113257 0.018167771
-0.031549856 0.010444149 -0.0069438652 0.19494976 0.15610869 -0.96831018 0.00027482049
-0.02881906 0.010237984 -0.0063224845 0.23268281 0.14220305 -0.96210033 0.0001411049
-0.026992617 0.010100827 -0.0060044844 0.23010541 0.13631055 -0.96357203 0.00011972128
-0.036852915 0.013379953 -0.0064619873 -0.37962592 0.14511152 -0.9136886 0.012703189
-0.034472995 0.013437778 -0.0068850107 -0.033678263 0.16725473 -0.98533833 0.011719312
-0.031552535 0.01328145 -0.0064269155 0.18991797 0.1812657 -0.96492171 0.00018898537
-0.029472949 0.012422428 -0.0061384891 0.21424478 0.17757678 -0.9605028 8.7276887e-05
-0.036485303 0.015795544 -0.0062220902 -0.29907694 0.19354032 -0.93439555 0.019946717
-0.034583732 0.016221451 -0.0063120839 -0.018639151 0.18796185 -0.9819994 0.0087728724
-0.03249621 0.015606004 -0.006122245 0.14280775 0.19609992 -0.97012925 0.0012735667
-0.034938313 0.018134888 -0.0060223611 -0.018767647 0.21612585 -0.97618508 0.011421204
-0.039805133 0.044239294 -0.0071777622 -0.22904244 -0.77502632 -0.58895999 0.015097171
-0.037596717 0.044438194 -0.0072340909 -0.079728082 -0.79367894 -0.60308969 0.016068965
-0.034551378 0.044573989 -0.0067371721 0.1268954 -0.80238539 -0.58315963 0.0053833318
-0.031641882 0.044786677 -0.0063461699 0.13623153 -0.77332008 -0.61920685 0.0022976457
-0.02947521 0.044863451 -0.0060066888 0.12520182 -0.73951674 -0.66139209 0.0013076955
0.0027189462 0.044799816 -0.0061534126 -0.23263916 -0.78947902 -0.56798059 9.1338217e-05
0.0047994927 0.044496987 -0.0065388572 -0.21300206 -0.8035472 -0.55582541 0.00021382705
0.00761258 0.044306468 -0.0072218068 -0.17333195 -0.82203782 -0.54241127 8.5263076e-05
0.010541416 0.043941025 -0.0075364076 -0.13781646 -0.83528304 -0.53226769 0.00017123872
0.013524764 0.04348373 -0.0074339672 -0.079005532 -0.85658568 -0.50992078 0.0003754377
0.01648795 0.043292601 -0.0075167925 -0.019489493 -0.88515693 -0.46488416 0.0011633103
0.019492319 0.043333996 -0.0076688803 0.046932135 -0.91116792 -0.40935367 0.00263679
0.02247256 0.043512333 -0.0076017641 0.1091534 -0.93279254 -0.34348741 0.0034484453
0.025373168 0.043924022 -0.0075764176 0.1704765 -0.95081252 -0.25863725 0.0033456553
0.028328232 0.044518214 -0.0075453878 0.21323055 -0.96005368 -0.18118961 0.0029244509
0.030260717 0.044902857 -0.0069002449 0.24998973 -0.96366435 -0.094106622 0.004442208
-0.051375207 0.045926016 -0.0077454275 0.0043661864 -0.87731916 -0.47988746 0.056810498
-0.049303025 0.046009451 -0.0076511237 0.14919485 -0.85416639 -0.49813718 0.034107372
-0.04651304 0.046544004 -0.0075643617 0.02125684 -0.6946789 -0.71900588 0.031538334
-0.043495268 0.046464562 -0.0077278228 -0.12188479 -0.69659501 -0.70703566 0.01707305
-0.040798657 0.046362177 -0.0080119632 -0.26619053 -0.6132825 -0.74365795 0.01967917
-0.037158009 0.045410182 -0.0085851979 -0.025926035 -0.59835631 -0.80081064 0.015338033
-0.034317542 0.045808267 -0.0082535632 0.18573 -0.6026445 -0.77609539 0.0098584788
-0.031437714 0.04637995 -0.0079537174 0.21410854 -0.57350338 -0.79072845 0.0075348057
-0.028535387 0.046545625 -0.0073503829 0.1771879 -0.58968937 -0.78795356 0.0084184203
-0.025577307 0.046829741 -0.0068786996 0.16849762 -0.55399626 -0.81528938 0.0063109822
-0.022550082 0.047233414 -0.006542345 0.14881431 -0.54101491 -0.82774216 0.005111685
-0.019662587 0.047597181 -0.0062438068 0.12172024 -0.5383988 -0.83385301 0.0043335343
-0.017283145 0.047833908 -0.0061211186 0.075685494 -0.55060881 -0.83132523 0.0034071435
-0.010349553 0.047960281 -0.0060640285 -0.091326155 -0.55420554 -0.82735467 0.0055836728
-0.0073041283 0.047642212 -0.0061950986 -0.14270616 -0.61946011 -0.77194816 0.0028032854
-0.0043160613 0.047345754 -0.0066832379 -0.20874068 -0.6394034 -0.73999369 0.0031841751
-0.0013537999 0.046933156 -0.0072652488 -0.26633167 -0.69730008 -0.66546232 0.0030222181
0.0014773685 0.046216547 -0.0075663836 -0.24100354 -0.78886157 -0.56534481 0.00018789865
0.0043975939 0.045605689 -0.008000697 -0.22684009 -0.79823709 -0.55799741 0.00020313344
0.0071182754 0.045338195 -0.0086244149 -0.18545513 -0.81816465 -0.54425454 0.00013059516
0.02973167 0.045062363 -0.00873191 0.17903876 -0.96318901 -0.20052959 0.0032263678
0.03154007 0.045370873 -0.0077482848 0.25461432 -0.96197814 -0.098841071 0.0026051449
0.034430135 0.046237569 -0.0076961066 0.31327873 -0.94925952 -0.02761911 0.0021479398
0.037454493 0.047363181 -0.007987855 0.41602546 -0.90903395 -0.024086948 0.0042891228
-0.048040308 0.049353682 -0.0088414606 0.31356069 -0.14725433 -0.93808097 0.048730101
-0.0466608 0.04922146 -0.0087730931 0.11246305 -0.078658342 -0.9905377 0.052727271
-0.044691846 0.048619922 -0.0089046815 -0.16128948 -0.34038097 -0.92635119 0.031791601
-0.030241862 0.048452955 -0.008885066 0.23987344 -0.24800558 -0.93859142 0.016055489
-0.028335528 0.049343426 -0.0086345179 0.24583407 -0.19073084 -0.95036167 0.0088459551
-0.02547048 0.049464554 -0.008018692 0.19028954 -0.23893945 -0.95220685 0.0081496732
-0.022540642 0.049447428 -0.007454555 0.15210287 -0.27197099 -0.95020866 0.0089002689
-0.019600151 0.04947881 -0.0069631003 0.11477724 -0.27354324 -0.95498705 0.0072844722
-0.01655663 0.049518492 -0.0066508516 0.064571217 -0.29943305 -0.95192981 0.0063649057
-0.013474035 0.049515545 -0.0065551787 -0.025394985 -0.34514356 -0.93820632 0.0059531857
-0.010454784 0.049423654 -0.0066980175 -0.11474339 -0.37756112 -0.91884798 0.0054486976
-0.0074758665 0.049468148 -0.0072451499 -0.20717433 -0.45373905 -0.8667177 0.0066544325
-0.0046109469 0.049264997 -0.0080182822 -0.29218259 -0.50261545 -0.81363815 0.0059918216
-0.0022395125 0.048566673 -0.0085314224 -0.35704571 -0.64052188 -0.67988974 0.0038671121
0.040278751 0.049067672 -0.0077698659 0.54718494 -0.83695877 -0.0094124349 0.0038622448
0.042345613 0.050856456 -0.0075638136 0.67979473 -0.73169595 0.05000164 0.0064906022
-0.048219305 0.053057302 -0.0087576741 0.36048037 0.2347126 -0.90275359 0.020477744
-0.046551142 0.052472521 -0.0085759088 0.12210749 0.1865733 -0.97482312 0.041727427
-0.043804333 0.053300206 -0.0088345306 -0.10822091 0.38368958 -0.91709894 0.012219806
-0.041131303 0.053901568 -0.008902532 -0.22937578 0.46881962 -0.85299176 0.0051244181
-0.030495355 0.053562801 -0.0089118285 0.17616194 0.20443754 -0.96289784 0.0056028799
-0.028401824 0.05256639 -0.0086848894 0.19192158 0.12575389 -0.97332013 0.0044546798
-0.025563231 0.052498236 -0.008146923 0.18880488 0.090298891 -0.97785419 0.0036084831
-0.022484623 0.052471876 -0.0076804725 0.1382568 0.10374158 -0.9849481 0.0063628182
-0.019588506 0.052470583 -0.0073058656 0.094541334 -0.013245882 -0.99543279 0.0065762368
-0.016536374 0.052483723 -0.0071212263 0.024007633 -0.04426147 -0.99873143 0.0060443957
-0.013494708 0.052425638 -0.0071634636 -0.064623624 -0.13018699 -0.98938119 0.0060916995
-0.010568763 0.052388448 -0.007516271 -0.19614042 -0.17605363 -0.96464193 0.005789218
-0.007575681 0.052400108 -0.0082698427 -0.32580981 -0.20465253 -0.92301971 0.0064034578
-0.0055481154 0.051503439 -0.0087668849 -0.3789233 -0.28250396 -0.88125402 0.0066410094
0.043741971 0.052465633 -0.0075875688 0.75735271 -0.65131801 0.046922456 0.002324655
-0.051041845 0.055544868 -0.0078469468 0.23911707 0.75824833 -0.60653329 0.029534189
-0.048789788 0.054890305 -0.0083959242 0.31377769 0.50612235 -0.80335778 0.02722604
-0.046740722 0.054647069 -0.0075859874 0.11933471 0.4999986 -0.85776484 0.033946302
-0.04353432 0.05483117 -0.0077960882 -0.14851502 0.6140216 -0.77519077 0.013321165
-0.040668279 0.055378169 -0.0078241266 -0.25177523 0.54981375 -0.79643846 0.012655403
-0.037611127 0.056239355 -0.0087336767 -0.090435222 0.58739185 -0.80423403 0.012636515
-0.034350652 0.056004483 -0.0085253967 0.11586081 0.49983835 -0.85833442 0.0095023317
-0.031344306 0.055586446 -0.0083053103 0.15824741 0.39580825 -0.90459585 0.0038130458
-0.028393632 0.055472445 -0.0079086395 0.14994936 0.37383905 -0.91529214 0.0058024745
-0.025418183 0.055533931 -0.0074474416 0.12377904 0.35677963 -0.92595196 0.0059367083
-0.022530576 0.055457395 -0.0071444367 0.094051979 0.30093181 -0.94899648 0.0046526738
-0.019591387 0.055441681 -0.0068864394 0.050151065 0.24991442 -0.96696824 0.0040229778
-0.016529396 0.055392381 -0.0068440516 -0.020759536 0.20870042 -0.97775924 0.0044960794
-0.013493168 0.055452615 -0.0070432685 -0.11540698 0.17044033 -0.97858632 0.005295102
-0.010424561 0.055318683 -0.0076287538 -0.27296707 0.079368047 -0.95874381 0.0054503544
-0.0077182576 0.055513367 -0.0085152397 -0.40316218 0.036755834 -0.91439009 0.0060921162
0.045859605 0.055435359 -0.0080806296 0.83163011 -0.55053324 0.072832115 0.002170386
-0.040354159 0.057305455 -0.0068387347 -0.24538943 0.6676029 -0.70291573 0.011079048
-0.037879288 0.057321277 -0.0074099842 -0.13663517 0.78415132 -0.60534084 0.013202992
-0.033953059 0.057189438 -0.0074833268 0.041166052 0.73819888 -0.6733259 0.010815599
-0.031601906 0.057559781 -0.0069617787 0.051583644 0.66586429 -0.74428755 0.012679393
-0.028773429 0.057585161 -0.0067363717 0.086025029 0.5684154 -0.818232 0.0049308967
-0.025408352 0.057620347 -0.006425017 0.0681559 0.52420378 -0.8488611 0.0056837182
-0.02269868 0.057446927 -0.0063303094 0.049489144 0.47496158 -0.87861389 0.0051214737
-0.019383678 0.057436954 -0.0062084477 0.0085794739 0.42125997 -0.90689933 0.0052887709
-0.016498469 0.057522696 -0.0062467139 -0.058191821 0.40666097 -0.91172391 0.004717262
-0.013252961 0.057956386 -0.0064540743 -0.15348993 0.35879791 -0.92070889 0.0051907734
-0.010502852 0.058336031 -0.006967444 -0.27995557 0.30801818 -0.90925771 0.0056753582
-0.007741347 0.05844238 -0.0080707157 -0.45208839 0.24027734 -0.85900116 0.0056812358
-0.0058780364 0.059422709 -0.0087710442 -0.57023484 0.2425115 -0.78486973 0.0079290159
0.046955079 0.057984482 -0.0077073262 0.89761043 -0.41061395 0.16028623 0.0022746606
-0.0096646249 0.06057962 -0.0062632002 -0.36205211 0.49401936 -0.79048288 0.0037826528
-0.0072341859 0.060981411 -0.0072882026 -0.47403836 0.35819 -0.80435538 0.0053219139
-0.0051557817 0.061443906 -0.0084634535 -0.58720845 0.31580514 -0.74528748 0.0044624778
0.048002977 0.060603596 -0.0087563321 0.92083657 -0.37489134 0.10731551 0.0020068577
-0.0065192087 0.063095503 -0.0062443279 -0.46650884 0.5548622 -0.68883777 0.0024890313
-0.0041720103 0.064220414 -0.0072572194 -0.56810898 0.53589588 -0.6245541 0.0012558611
-0.0021299629 0.065203428 -0.008409394 -0.60509872 0.53196132 -0.59234506 0.0010869917
-0.0013453274 0.06725888 -0.0072070025 -0.58391446 0.58623803 -0.56157708 0.00036645081
0.00070971862 0.068252504 -0.0083388546 -0.581141 0.60057026 -0.54917264 0.00025125034
0.0016879977 0.070006557 -0.0072913179 -0.5548448 0.63397485 -0.53872365 0.00014988583
0.003918455 0.071226202 -0.0081341639 -0.52851993 0.66629869 -0.52603495 0.00018628972
0.0046847751 0.072751239 -0.0069349604 -0.50776464 0.69339925 -0.5112462 0.00054092199
0.0071546845 0.074008316 -0.0076160217 -0.47833672 0.72681969 -0.49287626 0.00026999932
0.0093986383 0.074706316 -0.0087417141 -0.46815693 0.73117542 -0.49619713 0.00020423433
0.008768959 0.075565234 -0.0068126027 -0.47722417 0.73059469 -0.48835281 0.00013125404
0.010772607 0.076059788 -0.0079037473 -0.45461002 0.74564302 -0.48718184 0.00018973225
0.013985112 0.077476144 -0.0082245655 -0.42175642 0.77709472 -0.46716744 0.00024197657
0.01413631 -0.078177944 -0.0041350052 -0.27294478 -0.95261848 -0.13423562 0.0025856765
0.016415495 -0.078714922 -0.0046410528 -0.24140537 -0.96673495 -0.08453992 0.0024858434
0.019506516 -0.079414614 -0.0046506468 -0.24212302 -0.96899331 -0.049279213 0.0024969638
0.022427775 -0.079937145 -0.0049447468 -0.20563184 -0.97853303 0.013737802 0.0024767923
0.025418684 -0.080341749 -0.0045657796 -0.11863622 -0.97587019 0.18331094 0.0023569774
0.028486308 -0.08064995 -0.0048713959 -0.032646719 -0.97617966 0.21449347 0.0021191505
0.031627804 -0.080531694 -0.0049408991 0.088284239 -0.97486734 0.20454729 0.0030634818
0.034248758 -0.079840593 -0.0047233156 0.27067387 -0.93299216 0.23719484 0.0075822868
0.036711812 -0.079008952 -0.0050842641 0.38655576 -0.87669837 0.2863121 0.0036186164
0.005457825 -0.075134315 -0.003337475 -0.43691319 -0.80206472 -0.40718439 0.0027033521
0.007686846 -0.075574495 -0.004633225 -0.41922078 -0.81058985 -0.40889871 0.0019538631
0.010479113 -0.07683751 -0.0045744372 -0.34096661 -0.90590137 -0.25116622 0.0016837176
0.012991293 -0.07766822 -0.004992513 -0.33158639 -0.92302215 -0.19514284 0.0026553958
0.038628682 -0.077638045 -0.0045819902 0.47113243 -0.84715927 0.24567336 0.0032846588
0.040038224 -0.076775648 -0.0050082724 0.5926975 -0.75846654 0.27099478 0.0045637274
0.0021380975 -0.072780132 -0.0037534039 -0.50512546 -0.7017296 -0.50241798 0.0010603479
0.0043865493 -0.073656604 -0.0046930853 -0.48657402 -0.73152936 -0.47760916 0.001336398
0.006530588 -0.074662544 -0.0052687689 -0.44830576 -0.78211373 -0.43280503 0.0018792185
-0.00087323069 -0.069906317 -0.0041887956 -0.54837024 -0.63075703 -0.5490315 0.000209687
0.0012523364 -0.071036637 -0.0050247586 -0.53321671 -0.65722013 -0.53267407 0.00038700036
-0.0062037501 -0.066242158 -0.0032082351 -0.46783233 -0.61363226 -0.63607264 0.00054177456
-0.0041587469 -0.067019559 -0.004148473 -0.52715874 -0.59102958 -0.6105634 0.00057429069
-0.0019658888 -0.068155222 -0.0050481046 -0.55676621 -0.60613436 -0.56798989 0.0002569569
-0.009855465 -0.063498139 -0.003377307 -0.3334094 -0.62668729 -0.70434451 0.00084251299
-0.0073467302 -0.064260274 -0.0041791317 -0.42674309 -0.59915751 -0.67742211 0.00087577774
-0.005129382 -0.065035976 -0.0051353029 -0.51960266 -0.58777994 -0.620103 0.00095555256
-0.025088172 -0.060116488 -0.0031202901 -0.071522839 -0.78278524 -0.61816806 0.00088241813
-0.021973953 -0.060249139 -0.0032459537 -0.078474157 -0.74079752 -0.66712892 0.0014342681
-0.019395368 -0.060366523 -0.0034716539 -0.10089134 -0.69189554 -0.71491361 0.0018314449
-0.016350823 -0.060693134 -0.0036847619 -0.14811756 -0.65772772 -0.73854953 0.0020461837
-0.013394881 -0.061122049 -0.0040626731 -0.22054903 -0.61890334 -0.75386786 0.0027430393
-0.01060906 -0.061602902 -0.0046845204 -0.32699788 -0.57233483 -0.75200081 0.0032288088
-0.0080321534 -0.062284958 -0.0054700766 -0.43478107 -0.59301716 -0.67771381 0.00086882239
-0.042563464 -0.057762433 -0.0037264132 -0.34184295 -0.82993978 -0.44084388 0.01604601
-0.040464044 -0.057864059 -0.0045030196 -0.26830551 -0.84147096 -0.46897629 0.012327702
-0.03730328 -0.058277804 -0.0044293157 -0.093250543 -0.8925755 -0.4411501 0.00076795934
-0.034436334 -0.058492154 -0.0045069512 -0.069047228 -0.8842082 -0.46196127 0.00066045532
-0.03151533 -0.058743417 -0.0044598845 -0.043311536 -0.85011095 -0.52481943 0.0020344751
-0.028494203 -0.058847416 -0.0045364322 -0.028291319 -0.80740482 -0.58931911 0.0027074767
-0.025461629 -0.058874995 -0.0046343389 -0.0055361781 -0.7275489 -0.68603343 0.005580558
-0.022513105 -0.058794659 -0.0048374869 -0.020018471 -0.66029763 -0.75073725 0.0056286878
-0.019519543 -0.058707654 -0.0050577801 -0.03896882 -0.58482343 -0.81022406 0.0055311541
-0.016544372 -0.05875038 -0.0052901977 -0.11016183 -0.5378775 -0.83579433 0.0053185658
-0.013743836 -0.059151541 -0.005528484 -0.19859876 -0.48133767 -0.85374039 0.0060379929
-0.011418146 -0.059734065 -0.0057959058 -0.31895459 -0.49442315 -0.80858749 0.0028445895
-0.051142048 -0.055744439 -0.0041558417 -0.58887887 -0.80796516 0.020349083 0.066332966
-0.049505953 -0.055851173 -0.0046167895 -0.025679873 -0.95465654 -0.29659984 0.031357262
-0.046501484 -0.055763792 -0.0048851739 -0.065905094 -0.91483063 -0.39842367 0.020678606
-0.043907881 -0.055753987 -0.0050101574 -0.25981966 -0.84214336 -0.47253403 0.023477158
-0.041729312 -0.056233834 -0.0052242898 -0.37306827 -0.76160413 -0.52988601 0.015440858
-0.051664665 -0.052706648 -0.0032643345 -0.93106228 -0.35966858 -0.061332259 0.029387265
0.039838418 -0.0484876 -0.0059655365 0.61111975 0.79122722 -0.022185596 0.0031505316
-0.024692273 -0.045246188 -0.0058364416 0.14580429 0.65713251 -0.73953903 0.0032938095
-0.022428945 -0.045476947 -0.0055718683 0.13732879 0.62894154 -0.76522774 0.0031467916
-0.019389026 -0.045896698 -0.0053751189 0.12654716 0.57012093 -0.81175613 0.0057673287
-0.016416835 -0.046279591 -0.0052797645 0.076251604 0.56827509 -0.81929791 0.0042993124
-0.013597173 -0.046310347 -0.0051152427 0.020341527 0.57172072 -0.82019609 0.0036482122
-0.010521278 -0.046280522 -0.0051371902 -0.050152946 0.58760005 -0.80759567 0.0037250537
-0.0076203663 -0.046066169 -0.0052509694 -0.11179467 0.62100387 -0.77579385 0.0034485392
-0.0047455891 -0.04561558 -0.0053576133 -0.16190057 0.68703526 -0.70835781 0.0024973603
-0.0021352519 -0.045433737 -0.0058056391 -0.20684905 0.73730654 -0.64311159 0.0013124431
0.032534715 -0.045165073 -0.0052580996 0.28203952 0.95480835 -0.093780965 0.0013409485
0.033795893 -0.045588627 -0.0058120512 0.28788698 0.95358467 -0.088302575 0.0014570396
-0.05134432 -0.044435132 -0.0046217507 0.0050905468 0.93276763 -0.36044228 0.0060984623
-0.049330052 -0.044405106 -0.0049449326 0.059966091 0.91553044 -0.39775366 0.0070955316
-0.046477478 -0.044341102 -0.0047575021 -0.026504925 0.89042282 -0.45436189 0.0068471413
-0.043263488 -0.043740928 -0.0041975668 -0.28866157 0.79802281 -0.52899355 0.010608788
-0.04110473 -0.043154567 -0.0045906208 -0.20711772 0.7836774 -0.585621 0.011384514
-0.037401665 -0.042676248 -0.0045326473 0.012880438 0.83080071 -0.55642092 0.012443377
-0.034074049 -0.042566121 -0.0041282657 0.0097349584 0.60289198 -0.79776335 0.010546703
-0.031383693 -0.04295383 -0.0042429031 0.071027853 0.69769514 -0.71286505 0.017916152
-0.028318567 -0.043280143 -0.0042628483 0.079011738 0.66543716 -0.7422604 0.0051566153
-0.025505936 -0.043576818 -0.004166035 0.10422756 0.63055426 -0.76911509 0.0041666739
-0.022627553 -0.043630287 -0.0037374471 0.11475523 0.61677539 -0.77872932 0.0039073466
-0.019737145 -0.044073265 -0.0037201215 0.10161544 0.60606778 -0.78889555 0.0023907463
-0.016612979 -0.04433018 -0.0035842974 0.070227899 0.60738492 -0.79129738 0.0014508715
-0.013521552 -0.044456292 -0.0034990525 0.025614286 0.61949456 -0.78458291 0.00069476175
-0.010318091 -0.044501126 -0.0035500545 -0.027717426 0.63510734 -0.7719264 0.00059928297
-0.0074677807 -0.04434685 -0.0036296526 -0.072951645 0.66381758 -0.74432808 0.00063321384
-0.0045166905 -0.044123441 -0.0038215406 -0.097947873 0.69404817 -0.71323448 0.001106853
-0.0017096248 -0.043972973 -0.0041596275 -0.1452691 0.73292935 -0.66461372 0.0020324804
0.0015176068 -0.043434359 -0.0044239978 -0.2018465 0.77626765 -0.59721565 0.00072007254
0.0043527577 -0.04274296 -0.0046217823 -0.20247151 0.80212623 -0.56178188 0.00029273232
0.0073998561 -0.042516693 -0.0052718902 -0.1590621 0.82211208 -0.54665434 0.00019553433
0.010450199 -0.042249694 -0.0056461859 -0.12081672 0.84281254 -0.52447152 0.00018081543
0.013751668 -0.042066459 -0.0058948239 -0.06743411 0.86114573 -0.50386578 0.00048885634
0.015457663 -0.042004272 -0.0059155095 -0.014388255 0.88727629 -0.46101394 0.0014905554
0.022784518 -0.042353366 -0.0051114731 0.19352283 0.96393681 -0.18268768 0.0043298332
0.025517076 -0.042932179 -0.0048325052 0.2655184 0.95984167 -0.090575777 0.0039291694
0.028556835 -0.043811832 -0.0043634134 0.27038759 0.96143299 -0.050370563 0.001648011
0.031186789 -0.044677839 -0.0053528706 0.27421904 0.96142173 -0.021730226 0.0010044831
-0.039339676 -0.0419522 -0.0030267658 -0.11437726 0.72489166 -0.67930114 0.010622872
-0.036908224 -0.041647617 -0.0030827795 -0.056266278 0.51668227 -0.85432643 0.014868869
-0.034502294 -0.041695561 -0.0031685156 0.0026192924 0.36140925 -0.93240362 0.016887937
-0.03161205 -0.041800398 -0.0030983286 0.034706902 0.36506906 -0.93033332 0.014597866
-0.029722681 -0.041683618 -0.0030117985 0.054658938 0.51669466 -0.85442322 0.022464855
0.0055662352 -0.041529022 -0.0032578837 -0.17296083 0.79819667 -0.57703263 0.00076735287
0.0074583287 -0.041510656 -0.0037091353 -0.13083647 0.83354598 -0.53673363 0.00043179296
0.010435775 -0.041188821 -0.0039468161 -0.083853371 0.86186153 -0.50016332 0.0010294463
0.013397561 -0.041128945 -0.0042861197 -0.019518077 0.8883611 -0.45873037 0.0019203943
0.016508315 -0.041285545 -0.0044580633 0.021349451 0.91763818 -0.39684305 0.0026700837
0.019524477 -0.041689508 -0.0047416808 0.072399467 0.92776132 -0.36608365 0.0017226186
0.021898197 -0.041945264 -0.0040934598 0.21519458 0.95516711 -0.20333999 0.0043984707
-0.036759928 -0.030657768 -0.0031128011 -0.170066 -0.14197265 -0.97515196 0.020139508
-0.035468888 -0.03048007 -0.0031054693 -0.017363995 -0.099739715 -0.99486202 0.0075643733
-0.037161943 -0.028357252 -0.0033780225 -0.2179441 -0.10301902 -0.97050887 0.013217628
-0.034619793 -0.028389342 -0.0033226551 0.081001677 -0.14628181 -0.98592108 0.0024091511
-0.032477327 -0.027514234 -0.0030957169 0.1377342 -0.15295058 -0.97858846 0.00047026054
-0.039074443 -0.024568681 -0.0030822665 -0.31876373 -0.13277861 -0.93848789 0.011651669
-0.037242923 -0.025536358 -0.0038229926 -0.23562244 -0.14624146 -0.96077859 0.010401557
-0.034449827 -0.025524499 -0.0038456451 0.084229924 -0.17252387 -0.98139745 0.0021483975
-0.031617101 -0.025334507 -0.0033510306 0.1629898 -0.18034831 -0.9700045 0.00019088679
-0.029127652 -0.024697946 -0.0030898405 0.13028428 -0.1541543 -0.97941941 0.00028488695
-0.039075095 -0.023234129 -0.0031909316 -0.30448103 -0.16790593 -0.9376027 0.0092120105
-0.037507668 -0.022455083 -0.0042543304 -0.26948097 -0.16409639 -0.94892174 0.0071119531
-0.034523841 -0.022517418 -0.0045249579 -0.0066684755 -0.21013029 -0.97765064 0.010062572
-0.031467278 -0.022544727 -0.0038853139 0.18047015 -0.1971444 -0.96362054 0.00013515602
-0.028538583 -0.02245415 -0.0033964403 0.14450304 -0.16859627 -0.97503549 0.00023294757
-0.02606413 -0.021843037 -0.0031347952 0.1377849 -0.15112998 -0.97886419 0.00024310919
-0.039276216 -0.019546613 -0.003561253 -0.66373378 0.054038826 -0.7460143 0.062696479
-0.03746536 -0.019466957 -0.0048175603 -0.21569934 -0.24272434 -0.94581115 0.0077213175
-0.034473609 -0.01943803 -0.0052316487 0.026672319 -0.22750895 -0.97341067 0.0071409629
-0.031475604 -0.019549789 -0.004551874 0.19990425 -0.21456274 -0.95603406 8.8462286e-05
-0.028500175 -0.019505821 -0.0039612688 0.17485249 -0.18706526 -0.96666092 0.00030614299
-0.025506342 -0.019442989 -0.0034451892 0.15873797 -0.15623426 -0.97488105 0.00019614147
-0.023057327 -0.018836848 -0.0031404996 0.1601485 -0.13952976 -0.97718167 0.00020790806
-0.03935777 -0.016546832 -0.0037442341 -0.9098084 0.037870381 -0.41329727 0.03622485
-0.037644822 -0.016595345 -0.0052324519 -0.41348821 -0.15686092 -0.89689583 0.014045522
-0.034123983 -0.016926141 -0.0057547069 0.046377808 -0.2420578 -0.96915275 0.0083909724
-0.031508192 -0.016430287 -0.0052888771 0.21190323 -0.22059275 -0.95206916 2.848039e-05
-0.028535539 -0.016429087 -0.0046240631 0.20882161 -0.20483136 -0.95626235 0.00020082842
-0.02549307 -0.016535165 -0.0039607286 0.19292186 -0.17603911 -0.96529347 0.00032137943
-0.022548741 -0.016388951 -0.0034160467 0.18414396 -0.14234915 -0.97253674 0.00018650708
-0.020511566 -0.015937887 -0.0030994893 0.17521286 -0.12556355 -0.9764908 0.00014108147
-0.039207153 -0.013546405 -0.0040976512 -0.71055406 -0.16195029 -0.68475175 0.025977436
-0.038108584 -0.013665074 -0.0053775348 -0.46234328 -0.15044372 -0.87384516 0.017364996
-0.033343971 -0.014724125 -0.0059786811 0.13626428 -0.18277085 -0.97366673 0.0026398744
-0.031103244 -0.013967554 -0.0057726852 0.21657981 -0.21334043 -0.95266938 4.6666475e-05
-0.028527221 -0.013505707 -0.0052595637 0.2315692 -0.20114316 -0.95179671 9.4757903e-05
-0.025464118 -0.013547666 -0.0045093256 0.22505903 -0.17690144 -0.95815152 0.00022914125
-0.022520809 -0.013495594 -0.0038487976 0.20859645 -0.14700149 -0.96689093 0.00020110542
