# .PCD v0.7 - Point Cloud Data file format
VERSION 0.7
FIELDS x y z normal_x normal_y normal_z curvature
SIZE 4 4 4 4 4 4 4
TYPE F F F F F F F
COUNT 1 1 1 1 1 1 1
WIDTH 563
HEIGHT 1
VIEWPOINT 0 0 0 1 0 0 0
POINTS 563
DATA ascii
-0.032571681 0.042235672 -0.004090562 0.41776139 0.83651298 -0.35457221 0.0013323438
0.040972382 0.042661782 -0.0042246045 -0.49199536 0.81924343 -0.29458565 0.0024123981
0.043355655 0.04404071 -0.0045777746 -0.52105111 0.80288798 -0.28961471 0.0021328989
0.045367479 0.044836111 -0.0055371076 -0.48996121 0.78382474 -0.38151902 0.0020241202
0.070887558 0.044556439 -0.00590715 0.74554378 0.056673806 -0.66404259 0.0015784288
-0.072319388 0.046917554 -0.0034225557 -0.83756506 -0.28046888 -0.46885186 0.0028198247
-0.071222313 0.046438038 -0.0049570953 -0.8264609 -0.22526152 -0.51596487 0.0059044478
-0.04310751 0.047441959 -0.0049026087 0.43776819 0.80749488 -0.39536199 0.0016954242
-0.040558115 0.046187967 -0.0045682685 0.43463871 0.81824696 -0.37624604 0.0015788097
-0.038619474 0.045288175 -0.0041790903 0.43254453 0.82588691 -0.36168507 0.0011391026
0.044630576 0.045330495 -0.0033895487 -0.51242965 0.81346118 -0.27513039 0.0034033668
0.046631012 0.046203166 -0.0044469326 -0.50825 0.78716266 -0.3493664 0.0027107557
0.048954252 0.047473583 -0.0049544149 -0.49436936 0.78394663 -0.37553504 0.0034019353
0.071191758 0.046927262 -0.0053209066 0.70585972 0.11990169 -0.69813007 0.0035612094
-0.072653823 0.049621373 -0.0040415386 -0.78433138 -0.22549875 -0.57790542 0.0063415817
-0.071241453 0.049924918 -0.0055921939 -0.61750615 0.010280986 -0.78649884 0.0064225225
-0.051130008 0.05097308 -0.0058940682 0.40743217 0.75133342 -0.51913124 0.0039492073
-0.048845343 0.050497971 -0.0049569141 0.41673636 0.80482483 -0.4225964 0.0018991753
-0.046518497 0.049456559 -0.0045384183 0.42387569 0.80764741 -0.40992087 0.0012087229
-0.044274971 0.048471533 -0.0039541116 0.42813617 0.81833386 -0.38344374 0.0012422595
0.050059717 0.048566069 -0.0041145287 -0.50791854 0.78687561 -0.35049313 0.0025018614
0.052435171 0.049831558 -0.0046373978 -0.48822185 0.77769953 -0.39600867 0.0035160019
0.054558154 0.050649431 -0.0055200276 -0.45690241 0.75800133 -0.46548274 0.0056114495
0.070919111 0.050167121 -0.0055234958 0.61532086 0.13422024 -0.77676582 0.0042713797
0.072318338 0.048404627 -0.0034042699 0.75233454 0.069662884 -0.65508765 0.0011525712
-0.073002629 0.053044967 -0.0045354404 -0.63641751 -0.019306919 -0.77110308 0.0062282085
-0.071480453 0.052167378 -0.0056036864 -0.47858053 0.043158889 -0.87698233 0.0060711429
-0.057454772 0.053700864 -0.0057412889 0.25772619 0.7978825 -0.54494101 0.0025242385
-0.055164173 0.053416327 -0.0048244856 0.31172216 0.83789206 -0.44806951 0.0021826287
-0.052454967 0.052443497 -0.0046521877 0.35166916 0.82509524 -0.44220659 0.0018312482
-0.050066791 0.051431753 -0.0042763464 0.3952038 0.81978256 -0.41445199 0.0013871812
0.053647351 0.051190734 -0.003407809 -0.4980846 0.78707558 -0.36390075 0.0018377003
0.055649355 0.05194724 -0.0043832422 -0.46804979 0.77791035 -0.41926697 0.0038427731
0.058224272 0.053183123 -0.004897349 -0.46197847 0.73791403 -0.49199468 0.0076046865
0.0604463 0.053812668 -0.0058147693 -0.34881318 0.640356 -0.68430513 0.0054722531
0.070911936 0.052727789 -0.0052323788 0.5447135 0.1865273 -0.81761527 0.0049509006
0.072081283 0.052909408 -0.0036898195 0.74296582 0.056071494 -0.66697663 0.001374244
-0.07529445 0.055726796 -0.0030350527 -0.72419471 0.040745176 -0.68839079 0.028428566
-0.073551312 0.055657677 -0.004396189 -0.596605 0.21116261 -0.77425635 0.018930258
-0.070875861 0.055786911 -0.0057137255 -0.32427543 0.23818505 -0.91548532 0.016059874
-0.066843107 0.056540072 -0.0058534336 0.082759775 0.52118123 -0.84942394 0.010592491
-0.06432268 0.056384634 -0.0054004402 0.23953484 0.69526744 -0.67766231 0.0088193975
-0.061519343 0.055800099 -0.00468774 0.33906409 0.75963384 -0.55497026 0.0072240196
-0.058637746 0.05482297 -0.0044881408 0.2984927 0.82497811 -0.47990954 0.0037377053
-0.056272626 0.054335743 -0.0037843753 0.31162599 0.84744024 -0.42980722 0.0029810187
0.05919832 0.054548729 -0.003833703 -0.48346224 0.72819763 -0.48579067 0.0038072299
0.061521664 0.055526409 -0.0046049189 -0.42761275 0.70862824 -0.56124276 0.0060172807
0.064074874 0.056323368 -0.0055027804 -0.33136678 0.56316954 -0.75699151 0.011702627
0.06825985 0.056656726 -0.0059154094 0.077601135 0.31849986 -0.94474119 0.02355773
0.070509218 0.055694252 -0.0051290188 0.4929302 0.17640668 -0.85199791 0.0097794645
0.07222046 0.055135302 -0.0033420366 0.55878645 0.15727681 -0.8142615 0.011601392
-0.073038951 0.057800643 -0.0040516537 -0.53292447 0.42246744 -0.73315263 0.027909454
-0.070396066 0.058502868 -0.0046458249 -0.22393474 0.63843203 -0.73638159 0.018497035
-0.067564204 0.058464468 -0.004534605 0.13923341 0.69486099 -0.70553684 0.0092976224
-0.064759754 0.057914183 -0.0040593864 0.32587552 0.72257286 -0.60966671 0.0060181054
-0.062701523 0.057412773 -0.0033245776 0.35556605 0.72010046 -0.59584236 0.0049194959
0.062630914 0.057379525 -0.0034587346 -0.55509287 0.6202352 -0.55423832 0.012859631
0.064571947 0.058380753 -0.0042656991 -0.50324082 0.50551164 -0.70086133 0.016199658
0.067275934 0.058771137 -0.005302574 -0.21326394 0.34534958 -0.9139213 0.01687553
0.070389226 0.0585315 -0.0047119958 0.35673955 0.17397867 -0.91786069 0.015110532
-0.068507858 0.060033843 -0.0031035079 0.11037473 0.86254275 -0.493799 0.023916563
0.065493636 0.06109786 -0.003478637 -0.65690261 0.310294 -0.68716568 0.014708725
0.067312509 0.061661694 -0.0043358118 -0.42596173 0.25516337 -0.86801398 0.020907788
0.070311688 0.061577462 -0.0044227247 0.09351854 0.16262928 -0.98224539 0.029246785
0.072555661 0.062105451 -0.0032109274 0.34795803 -0.0086116251 -0.93747056 0.0097099394
0.065857425 0.063383751 -0.0032062423 -0.86690444 0.21279852 -0.45076987 0.02660575
0.067476757 0.064441882 -0.0037469578 -0.52793449 0.18508463 -0.82887208 0.01473312
0.070426255 0.064396694 -0.0041727908 0.098748535 0.026470138 -0.99476027 0.026880462
0.07247746 0.064680733 -0.0034132935 0.18878773 -0.041060437 -0.98115915 0.01797461
0.068040736 0.067378461 -0.0036491205 -0.61528629 0.13921124 -0.77591425 0.013537802
0.070374876 0.067439698 -0.0042288429 -0.036792427 -0.010726589 -0.99926531 0.021371655
0.072772667 0.067674473 -0.0036918153 0.23045497 -0.068980403 -0.97063494 0.0088681122
0.068330757 0.070386842 -0.0034443764 -0.6841166 0.12309232 -0.71891081 0.028175212
0.070109487 0.070504397 -0.0042870794 -0.45023304 0.03805897 -0.89209962 0.023653572
0.072995245 0.070356652 -0.0039879885 0.14089252 -0.10401971 -0.98454517 0.014594638
0.075085707 0.071855299 -0.0032278064 0.55150831 -0.1988738 -0.81011599 0.0033487806
0.068504877 0.073414616 -0.0033500006 -0.76888156 0.13250573 -0.62551063 0.031267431
0.070253983 0.073529385 -0.0044660033 -0.5742197 0.11654071 -0.81036419 0.035604458
0.073589593 0.073883697 -0.0046556853 0.33143204 0.03464343 -0.94284284 0.062261663
0.07564234 0.07416822 -0.0035636283 -0.75109923 -0.0087096253 -0.66013187 0.063839316
0.068733193 0.075898811 -0.0032664009 -0.76015544 0.25852019 -0.59609646 0.057035606
0.070327848 0.075926542 -0.0042793229 -0.63245326 0.33050328 -0.70055008 0.059277203
0.073093578 0.075484753 -0.0045712274 0.13882081 0.45969513 -0.87715977 0.053052232
0.075291872 0.075083762 -0.0032964237 0.30172989 0.94478559 -0.12782541 0.013161347
-0.015941694 0.0029053371 -0.0015331305 -0.25698909 -0.95481789 -0.14926305 0.0010356446
-0.013216587 0.0021733292 -0.0016599668 -0.22486535 -0.95447862 -0.19597502 0.0022643034
-0.011608353 0.001933297 -0.0028365322 -0.19340372 -0.95049131 -0.24323098 0.0013098938
-0.0082474891 0.0013285979 -0.0019197438 -0.14524014 -0.95117521 -0.27234358 0.0006752598
-0.0041936236 0.00076203194 -0.0019846454 -0.096953839 -0.94059122 -0.32540452 0.00098796759
-0.0024952551 0.00077954796 -0.0029284146 -0.096953832 -0.94059122 -0.32540461 0.00098801637
0.0057263584 0.00059637049 -0.0029829596 0.019767925 -0.9260571 -0.37686539 0.0018191698
0.0069955941 0.00049368379 -0.0017379057 0.03443737 -0.93984675 -0.33985621 0.00075921492
-0.024986854 0.0059424653 -0.0017603841 -0.3445347 -0.91863453 -0.19340758 0.00060948788
-0.022419181 0.0049464349 -0.0017438238 -0.32778651 -0.9257015 -0.18876673 0.00051983341
-0.019590272 0.0039547076 -0.0019680392 -0.29136595 -0.94030678 -0.17586656 0.00086851552
-0.017789084 0.0034346886 -0.0018107112 -0.27774572 -0.94603562 -0.16695485 0.00091424491
-0.031288978 0.0084636761 -0.0016558997 -0.36175811 -0.90298378 -0.23184355 0.00041808415
-0.028447282 0.0072920374 -0.0019040128 -0.35914257 -0.90832406 -0.21439227 0.00096659834
-0.026273942 0.0064464691 -0.0019266909 -0.35255307 -0.91165841 -0.21115223 0.0010520995
-0.037521679 0.011326649 -0.0019376382 -0.42706603 -0.87315941 -0.23496218 0.00057458936
-0.034578547 0.0098741828 -0.001839262 -0.40236017 -0.88529974 -0.23313248 0.00051053066
-0.04293061 0.014180449 -0.001440548 -0.49197227 -0.84049726 -0.22699721 0.0029496297
-0.040319163 0.012753157 -0.0015736051 -0.46151841 -0.8555212 -0.23470025 0.00050432578
-0.04840878 0.017954266 -0.0013489617 -0.57990414 -0.78087515 -0.23226126 0.00079328555
-0.046549469 0.016707301 -0.0016869322 -0.56211352 -0.79304147 -0.23476304 0.002370778
-0.04441575 0.015263461 -0.0020487192 -0.55225575 -0.79972482 -0.23548637 0.0029286097
-0.051786482 0.020449063 -0.0012470369 -0.59504247 -0.77734107 -0.20412114 0.00092434982
-0.049884349 0.019086981 -0.0017231042 -0.57461709 -0.78382808 -0.23543306 0.00096259837
-0.054989789 0.022936212 -0.0015701721 -0.60294294 -0.77246469 -0.19939433 0.00050667068
-0.053157341 0.021569481 -0.0019069553 -0.60175502 -0.7724359 -0.20306066 0.00079045125
-0.058291141 0.025666768 -0.0016151973 -0.64208627 -0.73862267 -0.20533344 0.00059030985
-0.05656644 0.024251241 -0.0018231522 -0.62530833 -0.751221 -0.21132061 0.00027705746
-0.061608989 0.028866939 -0.0016628985 -0.72014856 -0.67065388 -0.1777903 0.0013487146
-0.059987824 0.02724928 -0.0024396479 -0.68012053 -0.70985377 -0.18314965 0.00083869731
-0.064117678 0.031611301 -0.0016586328 -0.77050805 -0.6181438 -0.15561371 0.0020913295
-0.062870368 0.030451395 -0.0028434489 -0.74032068 -0.63646233 -0.2164277 0.0023490414
-0.00073737017 0.032894604 -0.0024224576 0.095460214 0.97694451 -0.19096255 0.0012582609
0.0015768064 0.03283947 -0.0016020196 0.061002024 0.97318912 -0.22176948 0.0019115346
0.0044597755 0.032800458 -0.0012007924 0.023296293 0.97524643 -0.21989001 0.0022487617
0.0078104716 0.032779872 -0.0017978806 -0.045539115 0.97487855 -0.21803208 0.0036298381
0.010409132 0.032897841 -0.0021904486 -0.10901702 0.97551268 -0.19102471 0.0025689814
0.012536399 0.032905895 -0.0023375633 -0.14676312 0.97846502 -0.14514418 0.0024519213
-0.066855118 0.035050128 -0.0016932525 -0.79484636 -0.5889101 -0.14630157 0.002853981
-0.065587617 0.033421818 -0.0015304579 -0.78386652 -0.60442495 -0.14221062 0.0019106128
-0.01569473 0.035819873 -0.0017444727 0.3062554 0.94437838 -0.11982133 0.0018184497
-0.013790056 0.03536633 -0.0016815815 0.27283245 0.93613428 -0.22184487 0.0013098414
-0.010268193 0.034360278 -0.0021900858 0.20181394 0.94717479 -0.24926093 0.0027938501
-0.007577036 0.033928044 -0.0015185471 0.1653143 0.96533757 -0.20197645 0.0015163881
-0.0044784602 0.033467647 -0.0013905906 0.13662159 0.97354299 -0.18316288 0.0014060976
-0.0022065004 0.033270553 -0.00072084833 0.11171376 0.98107916 -0.15812589 0.0020146382
0.011199195 0.033095554 -0.00092657923 -0.094206765 0.99452764 -0.04516444 0.0019415477
0.013736187 0.033374283 -0.0014444314 -0.14430812 0.97566444 -0.16508828 0.0019342894
0.01655234 0.033829141 -0.0016970657 -0.19319119 0.96998477 -0.14767095 0.002663932
0.019525722 0.034561444 -0.0014829771 -0.25854293 0.958152 -0.12288365 0.0016745966
0.022468856 0.03535758 -0.001611244 -0.2737644 0.9561131 -0.10440709 0.0014624674
0.024458535 0.035903767 -0.0018036611 -0.30273318 0.94707322 -0.10679313 0.0015790177
-0.069209613 0.038425058 -0.0012109879 -0.85494572 -0.48880282 -0.17360795 0.0046079401
-0.06825909 0.037129693 -0.0017906727 -0.82414919 -0.53724581 -0.17929046 0.0040396904
-0.024424406 0.038873333 -0.0019236999 0.40604606 0.90774941 -0.10544042 0.002368906
-0.02247284 0.038119908 -0.0015185551 0.36848247 0.92030543 -0.13137218 0.0014175538
-0.019432787 0.036947545 -0.0015518654 0.31168875 0.93847632 -0.14870203 0.0032924679
-0.017019739 0.036269579 -0.0012948856 0.27092609 0.9559837 -0.11266893 0.0018040827
0.025893984 0.036374886 -0.0014111162 -0.28368953 0.9530949 -0.10550047 0.0016169887
0.028501416 0.037212864 -0.0015056053 -0.31678948 0.93830234 -0.13868348 0.002144024
0.03157359 0.038311828 -0.0014944943 -0.36228287 0.92627311 -0.10377494 0.0022010368
0.033252705 0.038898781 -0.0020569917 -0.4390139 0.89067519 -0.11817186 0.0020307091
-0.070311725 0.040455252 -0.0016119555 -0.88364708 -0.42896482 -0.18750212 0.0044842977
-0.030729609 0.041693136 -0.0017265582 0.46066999 0.8796587 -0.11825273 0.0015411794
-0.028481204 0.040636703 -0.0014786194 0.41186896 0.90321106 -0.12072206 0.0017687188
-0.025717529 0.039478973 -0.0014152988 0.38018769 0.91908538 -0.10363126 0.0025134713
0.034661178 0.039686039 -0.0015465501 -0.43317229 0.8953746 -0.10327688 0.0021648521
0.037392125 0.041095063 -0.0015991988 -0.48668426 0.86512381 -0.12123998 0.0024127949
0.039152164 0.041926961 -0.0020456745 -0.54286134 0.83277202 -0.10859295 0.0031428959
-0.072152726 0.044640612 -0.0015730613 -0.91016245 -0.35942769 -0.20595168 0.0070667523
-0.07152997 0.043261908 -0.0018030951 -0.91329485 -0.34987551 -0.20851789 0.0074782791
-0.036551692 0.044659756 -0.0016996029 0.48174441 0.86748487 -0.12406602 0.0017777883
-0.034459312 0.043630086 -0.0014573685 0.45463091 0.88491791 -0.10114863 0.0012668851
-0.032134268 0.042448506 -0.0014488306 0.43417662 0.8928194 -0.11985063 0.0017546178
0.038848661 0.042164076 -0.00083802245 -0.53288454 0.83716238 -0.12326096 0.0021936151
0.040536452 0.04303059 -0.0014861663 -0.51764613 0.84657919 -0.12387951 0.0025580551
0.042715486 0.044415683 -0.0016438182 -0.53738868 0.83832043 -0.091826826 0.0024127003
-0.072747298 0.046464875 -0.0016845521 -0.90774053 -0.30735388 -0.2855534 0.013676956
-0.042459436 0.047875557 -0.0020981566 0.5044058 0.85385722 -0.12846304 0.0025437549
-0.040616855 0.046928722 -0.0014684811 0.47932869 0.86921221 -0.12130179 0.0025176639
-0.038080882 0.045516495 -0.0013753091 0.45881978 0.87928295 -0.12785105 0.0019402299
0.044215653 0.045434635 -0.0014057042 -0.53757262 0.83663124 -0.10518511 0.0030257145
0.046450406 0.046901587 -0.0015764642 -0.55266273 0.82194024 -0.13776109 0.0033575131
0.04829393 0.047866214 -0.0021945902 -0.54868853 0.8210358 -0.15761034 0.0029736413
-0.07383702 0.049565099 -0.0017726289 -0.8262372 -0.28989699 -0.48300299 0.002121838
-0.048053529 0.050894402 -0.0026444311 0.40162402 0.89150631 -0.20955835 0.0040533547
-0.046321634 0.050121348 -0.0015555328 0.47317448 0.86292881 -0.17736918 0.0030574286
-0.043680705 0.048662554 -0.001407107 0.47293013 0.8713122 -0.13096605 0.0028645617
0.047928195 0.048193872 -0.00051910098 -0.56831461 0.81195265 -0.13323455 0.0031936844
0.049545497 0.048980433 -0.0015628026 -0.53802043 0.82873183 -0.15406983 0.0032900197
0.051756769 0.050443154 -0.0016777138 -0.5563159 0.82064497 -0.13059288 0.0031315272
-0.075391568 0.052996486 -0.0015512884 -0.79721653 -0.093934312 -0.59634066 0.029057633
-0.074577563 0.051834296 -0.0023349493 -0.76690304 -0.22130704 -0.60239768 0.0031946385
-0.054150235 0.05385853 -0.0025854264 0.37577909 0.90989405 -0.17573552 0.0050732717
-0.05239306 0.053336456 -0.0015848501 0.40250519 0.89393443 -0.19715697 0.0034109387
-0.049374599 0.051772937 -0.0022163035 0.42883724 0.84509408 -0.31924069 0.0020209521
-0.047668975 0.051025923 -0.00045854022 0.46980837 0.86755693 -0.16317207 0.003853065
0.053266671 0.05147475 -0.0015012245 -0.53547031 0.82532734 -0.17918238 0.0058934079
0.055565547 0.052940473 -0.0016166953 -0.53331572 0.82705611 -0.17763022 0.0056562624
0.057288501 0.053749856 -0.0025271068 -0.5602743 0.79712307 -0.22513871 0.0065957368
-0.075697653 0.055983365 -0.0016497709 -0.8419354 0.1479177 -0.51890761 0.048854426
-0.060634278 0.056722306 -0.0019047742 0.50384551 0.84133798 -0.19567856 0.0096966047
-0.0585538 0.055881087 -0.0019256077 0.37002835 0.87136072 -0.3221947 0.0052578798
-0.055222888 0.054508232 -0.0020360351 0.3255035 0.88798314 -0.32485899 0.0027163054
-0.05376387 0.054088734 -0.00045191654 0.37581381 0.90988153 -0.17572598 0.0050257263
0.058595791 0.055062462 -0.0015321566 -0.56511098 0.80034155 -0.2002572 0.0083692493
0.060692251 0.056523208 -0.0018474188 -0.65947264 0.7216199 -0.21061967 0.011535223
0.07271947 0.055144403 -0.0026064315 0.589414 0.14985047 -0.79381114 0.0087057268
-0.075278297 0.057195291 -0.001514419 -0.71735924 0.61217576 -0.33262083 0.075807363
-0.073672429 0.058221273 -0.0017122074 -0.51388747 0.78099805 -0.35491085 0.025294915
-0.070993066 0.059591155 -0.00080515328 -0.34936953 0.90714991 -0.2345634 0.0093325153
-0.066407196 0.059658717 -0.0026262433 0.25776562 0.899984 -0.35154757 0.018079821
-0.064330846 0.05909463 -0.0019599316 0.42767429 0.79525936 -0.42971769 0.0052442797
-0.06180498 0.057560097 -0.0018486237 0.42966303 0.81620806 -0.3862564 0.006648588
0.062080428 0.058073472 -0.0014587333 -0.76417947 0.60552949 -0.22217968 0.020604255
0.063449651 0.059422169 -0.0021373539 -0.75702071 0.61210108 -0.22858658 0.022179486
0.072358504 0.057340574 -0.0029960386 0.47571543 0.070999987 -0.87672907 0.014355068
-0.069346488 0.060331985 -0.001877093 -0.18142293 0.93911535 -0.29180151 0.025198156
-0.067471653 0.060482569 -0.0019018431 0.052196212 0.93695664 -0.34552547 0.033095915
-0.065740556 0.060115486 -0.0014031327 0.2395727 0.93761259 -0.25196737 0.026663285
0.064378791 0.061447501 -0.0016500872 -0.84601462 0.37859467 -0.37540022 0.028083349
0.073164687 0.06090435 -0.0025340398 0.25357929 0.16587849 -0.95298582 0.016546365
0.065271564 0.064362131 -0.0014018016 -0.89028984 0.24645339 -0.3829422 0.016718851
0.066275552 0.065067194 -0.0026933879 -0.85561866 0.19117543 -0.48100799 0.02027831
0.073322758 0.064133897 -0.0026374874 0.35120744 -0.034299944 -0.93566918 0.0082685323
0.065746568 0.067155622 -0.00086499221 -0.91657925 0.22278427 -0.33203843 0.024413267
0.06652192 0.067656361 -0.0021571678 -0.88151783 0.22172187 -0.41685233 0.025093697
0.074252188 0.067800991 -0.0026522968 0.40781978 -0.10678328 -0.90679681 0.0085952813
0.066942401 0.070455529 -0.0016705379 -0.8851366 0.1699093 -0.433202 0.01675044
0.074905835 0.069870301 -0.002515025 0.58680564 -0.21555182 -0.78051043 0.0019962301
0.075368159 0.070575625 -0.0023766854 0.43734366 -0.20897734 -0.87467653 0.013540976
0.067405365 0.07348875 -0.0016309656 -0.8883456 0.17298135 -0.42534655 0.028974444
0.076390669 0.073863335 -0.0018548565 0.45290971 0.51605284 -0.72702295 0.016736846
0.06790816 0.076214261 -0.0015916094 -0.88558382 0.31463552 -0.34168082 0.06105293
0.070461221 0.076644823 -0.0014719286 -0.1251992 0.89329267 -0.43168673 0.073051117
0.073487096 0.075723886 -0.0015535603 0.30271292 0.94475532 -0.12570736 0.013967827
0.075407155 0.075133242 -0.001358893 0.28491077 0.95213526 -0.11074451 0.01530682
-0.016914632 0.0027549569 0.0015560546 -0.26613003 -0.95737755 -0.11226337 0.00028123957
-0.0140334 0.0020984313 0.0014796441 -0.25500077 -0.95883381 -0.12494955 0.00031218358
-0.027309755 0.0058062002 0.0018909153 -0.34718946 -0.9154864 -0.2033329 0.0011307684
-0.025224494 0.0053942674 0.0014081745 -0.32669941 -0.9266116 -0.18616784 0.001111764
-0.022397451 0.0044753072 0.001241575 -0.31453267 -0.93476868 -0.16515666 0.0012966298
-0.019501748 0.0034977607 0.0014457897 -0.28502357 -0.95238888 -0.10824526 0.00039174897
-0.017977515 0.0033059698 0.00063041848 -0.27555797 -0.9535594 -0.1216236 0.00045804589
-0.034088042 0.0086280303 0.0014931121 -0.38760656 -0.89568841 -0.2179528 0.00067442423
-0.031584278 0.0078595439 0.0012835868 -0.36664233 -0.90456295 -0.21757597 0.0012365052
-0.028671376 0.0067382557 0.0012412927 -0.3493017 -0.91205227 -0.21482319 0.00095055241
-0.026721142 0.0063330466 0.00059271371 -0.34461215 -0.91913444 -0.19087778 0.0010736774
-0.039939281 0.011443636 0.0015101428 -0.46355927 -0.85150951 -0.24503964 0.0027442395
-0.037441149 0.010411027 0.0012697636 -0.42422408 -0.87744719 -0.22387575 0.0010528404
-0.03502728 0.0095597338 0.00088492024 -0.39650583 -0.88911253 -0.22860913 0.00050356716
-0.045513876 0.014455629 0.0019082298 -0.52318156 -0.80982518 -0.26545119 0.0030096245
-0.043444913 0.013565755 0.0013939516 -0.51163954 -0.81806934 -0.26265481 0.0028899703
-0.041015133 0.01245416 0.0011299633 -0.48122606 -0.83727151 -0.25961098 0.0023619812
-0.049175799 0.017255889 0.0017666605 -0.55900759 -0.78340441 -0.27163953 0.0026337807
-0.046706568 0.015892792 0.0013446705 -0.55758196 -0.78604162 -0.2669099 0.003081609
-0.04469027 0.015060581 0.00093594211 -0.5231815 -0.80982512 -0.26545131 0.0030095975
-0.054340303 0.020707952 0.0024717068 -0.61267143 -0.72821409 -0.30714503 0.0028800254
-0.052262224 0.019740652 0.0017010227 -0.58300763 -0.75931501 -0.28903776 0.0037795543
-0.050186079 0.018633042 0.0012029443 -0.56609482 -0.76928431 -0.29620653 0.0027308255
-0.057425093 0.023796488 0.0020580119 -0.66752201 -0.70759141 -0.23179473 0.00096007995
-0.05556336 0.022487011 0.0016223438 -0.60345137 -0.74786276 -0.27667269 0.003501324
-0.053571064 0.021376161 0.0011585763 -0.57349664 -0.76977944 -0.28025201 0.0039756843
-0.060337119 0.026653299 0.0021009254 -0.71517241 -0.66233677 -0.22324525 0.00056269648
-0.05882524 0.025338635 0.0017388309 -0.67984873 -0.69582427 -0.23159087 0.0014842309
-0.063037276 0.029543659 0.0026098595 -0.76403069 -0.62527841 -0.15900938 0.00074554584
-0.061564624 0.028227162 0.0016622696 -0.73874128 -0.65261704 -0.16838184 0.0014374711
-0.064254299 0.031322505 0.0017642963 -0.78599477 -0.60812736 -0.11132605 0.0014690569
-0.062934242 0.030002473 0.00098629599 -0.75774759 -0.64030427 -0.12581344 0.00086708961
-0.0007361031 0.032934658 0.0025545396 0.10310542 0.98116839 0.16333374 0.0025740357
0.0016920147 0.032868907 0.0015335932 0.093874298 0.99175721 0.087208241 0.003636189
0.0044177431 0.032789975 0.00142273 0.032801732 0.99464947 0.097961932 0.0036646712
0.007916295 0.032758832 0.0020554601 -0.079202309 0.98809755 0.13187169 0.0069213891
0.01020185 0.03289479 0.0022638266 -0.093835168 0.98497969 0.14494801 0.0045230743
0.012367683 0.032973032 0.0026429375 -0.13854387 0.9833836 0.11731299 0.004234341
-0.066883229 0.034856457 0.0014863781 -0.81427538 -0.57905006 -0.040701717 0.00032913609
-0.065789506 0.033452768 0.0017809856 -0.80745596 -0.58747357 -0.053756554 0.00049602578
-0.015526869 0.035919726 0.0016600379 0.31373334 0.94648653 0.075727962 0.0032309755
-0.013515325 0.035342064 0.0014895019 0.27616695 0.95765817 0.081379823 0.0032761828
-0.010399245 0.034536943 0.0014188623 0.21536255 0.96790302 0.1295481 0.0058891121
-0.0075922003 0.034029912 0.001455859 0.16269551 0.98069996 0.10843375 0.0052185818
-0.0045428821 0.033554755 0.0014667223 0.11400653 0.98951149 0.08871045 0.003631725
-0.0014305499 0.033144243 0.0013044897 0.088625416 0.99467266 0.052648578 0.0046972637
0.00052070845 0.033044416 0.00044611847 0.066454254 0.99668026 0.04703493 0.0047378801
0.0088735633 0.033021618 0.0012270096 -0.15937032 0.98384237 0.081579953 0.0060289083
0.010904495 0.033110701 0.0010007356 -0.086668663 0.99440765 0.060349055 0.0053077708
0.013567081 0.033372685 0.001459931 -0.12339272 0.98894727 0.08220461 0.0052406713
0.016461203 0.033861354 0.0015205966 -0.18806443 0.97425425 0.12434012 0.0048860908
0.019898856 0.034725789 0.0014428411 -0.26292396 0.96424198 0.033291552 0.0026666506
0.02298669 0.035604347 0.00099263131 -0.27421689 0.96124864 0.028392218 0.001957949
0.024358993 0.035919525 0.0018559747 -0.31681448 0.94404012 0.091743097 0.0035980428
-0.069481783 0.038693003 0.00077846763 -0.85469311 -0.51913035 -0.0018385886 0.0011812865
-0.06840983 0.037110265 0.0014744534 -0.83599579 -0.54856646 -0.013638243 0.00063407957
-0.02438583 0.038918346 0.0026125838 0.40910292 0.90971762 0.071054131 0.0032015969
-0.022459151 0.038246464 0.0014844504 0.36922297 0.9264726 0.072958589 0.0031367594
-0.019389262 0.037080493 0.0014066391 0.31409174 0.94277662 0.11188665 0.0051530884
-0.016949568 0.036351249 0.0014528177 0.26341051 0.96247393 0.065260641 0.0031795318
0.025721913 0.036407128 0.0010990956 -0.29214615 0.95623487 0.01629648 0.0027881972
0.028151771 0.037179545 0.0011594336 -0.31232923 0.94875962 0.04801622 0.0028291941
0.031624045 0.038397502 0.00122072 -0.37318891 0.92727935 0.029716674 0.0026827697
0.033128731 0.038889877 0.0022889203 -0.41452134 0.89988303 0.13558246 0.0053700805
-0.070136294 0.040091235 0.0020712935 -0.89638394 -0.44289643 -0.018401414 0.0014387127
-0.030574948 0.041777626 0.001476779 0.46632719 0.88172293 0.071440369 0.0030461249
-0.028480953 0.040761851 0.0015109598 0.41446376 0.90691894 0.075616896 0.00316633
-0.025524748 0.039525695 0.001366087 0.37349832 0.92488438 0.071330063 0.0033258428
0.032917075 0.039026603 0.0009891924 -0.39633951 0.91441566 -0.082213543 0.0018434003
0.034587201 0.039742958 0.0011804496 -0.43449914 0.89906543 0.053776253 0.0023775743
0.037333999 0.041126654 0.0012640643 -0.48599029 0.8718515 0.060732603 0.0022468455
0.039127093 0.041935541 0.0024304574 -0.48976439 0.86500955 0.1090386 0.0043183812
-0.07204362 0.044643514 0.0017754408 -0.92652047 -0.37241146 -0.053567972 0.0020237279
-0.071488157 0.042800248 0.0011140229 -0.90706819 -0.40467525 -0.11604006 0.0043410487
-0.03644241 0.044765826 0.0014138832 0.48710379 0.86985213 0.078020535 0.0031644653
-0.034433506 0.043737814 0.001456758 0.45242319 0.88878709 0.073285706 0.00301325
-0.031939808 0.042475574 0.001452957 0.43229446 0.89877176 0.073013104 0.0032545736
0.038836602 0.042186022 0.00027173702 -0.50262326 0.86450469 0.0012212384 0.0032338325
0.040648028 0.043116033 0.001277091 -0.52361983 0.84865373 0.074893557 0.0021671876
0.042773258 0.04443429 0.0016817972 -0.55454284 0.82937813 0.067928001 0.0016244432
-0.04213509 0.047828723 0.0019998655 0.46119931 0.88285989 0.088620827 0.0038599498
-0.040508453 0.046993211 0.0014290777 0.48093373 0.87286031 0.082569264 0.0039069504
-0.038034819 0.045603197 0.0014686731 0.45669153 0.88572568 0.083204091 0.0034045042
0.044291109 0.045460317 0.0014757913 -0.5453403 0.8363443 0.055965334 0.0031060178
0.04649635 0.046953816 0.001342156 -0.55373257 0.83070868 0.057474643 0.0031348437
0.048173737 0.047792137 0.0026855476 -0.51438338 0.83264053 0.20523007 0.0054174708
-0.0463061 0.050233588 0.0014681922 0.49011153 0.86167103 0.13158192 0.003985161
-0.043612663 0.04873386 0.0014356403 0.46958357 0.87818354 0.09102197 0.0041207168
0.047929566 0.048193451 3.6764357e-06 -0.5291152 0.84838992 0.016480468 0.0081883157
0.049518604 0.048990767 0.001305658 -0.54188573 0.8379932 0.064244278 0.0028031729
0.051736817 0.050472379 0.0013364982 -0.56855977 0.82145017 0.044265751 0.0027375214
-0.052387346 0.053452108 0.0015320522 0.39994049 0.89998317 0.17342982 0.0036958477
-0.049504191 0.051983792 0.0014729203 0.43346649 0.89099383 0.13504377 0.0037669784
-0.047712691 0.051093351 0.00076137984 0.47172144 0.87598068 0.10068157 0.0064494163
0.053111713 0.051414382 0.0011905705 -0.53829163 0.84161502 0.043889109 0.0037612824
0.055475909 0.05294542 0.0012109379 -0.54504555 0.83467501 0.079012342 0.0045110402
0.057139978 0.053765841 0.0022681572 -0.56106031 0.80027026 0.21161012 0.009463219
-0.075829178 0.056581996 0.001129445 -0.50110584 0.85513794 -0.13278592 0.030223832
-0.060407728 0.056732584 0.0018343147 0.51642895 0.84527433 0.13715892 0.010105196
-0.058533106 0.05594638 0.0014387136 0.39869389 0.90744579 0.13260986 0.009132714
-0.055562623 0.054738376 0.0014392801 0.354774 0.92802787 0.11357761 0.0084296474
-0.053828511 0.054128684 0.001020267 0.37641314 0.92005992 0.10864116 0.0082361838
0.058796 0.055286467 0.0011359138 -0.57103837 0.81983757 0.042208616 0.0067477734
0.060645193 0.056506101 0.0016983369 -0.678334 0.71463555 0.1707602 0.01262488
-0.075366557 0.057223689 0.00098827993 -0.51297998 0.85840046 -0.00051227142 0.0067782276
-0.073597156 0.058224637 0.0014493843 -0.51881635 0.8538081 0.042910915 0.0044884747
-0.071100429 0.059464004 0.0015406474 -0.37876236 0.92160469 0.084758438 0.0029994671
-0.06639421 0.059862126 0.0028514464 0.26274484 0.89860612 0.35138619 0.01839339
-0.064333797 0.059257865 0.0015340954 0.51977658 0.83870685 0.16249071 0.0092428923
-0.061900448 0.05776773 0.0013374048 0.47266114 0.86814922 0.15135546 0.012125579
0.062133972 0.058268845 0.0010241689 -0.78331631 0.62089592 0.030065538 0.019121358
0.063471846 0.059514422 0.0019596794 -0.76444376 0.63326222 0.12084982 0.021779889
-0.069738731 0.060196839 0.0012792638 -0.19636343 0.971407 -0.13345353 0.018708305
-0.067549251 0.060625199 0.0013366875 0.11021387 0.9912979 0.071982354 0.01274704
-0.065580472 0.060194116 0.00088603981 0.42903927 0.89792687 0.098248303 0.022150978
0.064163893 0.061418969 0.0010744211 -0.88183576 0.45277318 0.13176534 0.025135748
0.065119669 0.064243913 0.00098005612 -0.96850872 0.24328823 0.052932188 0.025214532
0.066484779 0.064947344 0.0025260323 -0.83724028 0.27095801 0.47498477 0.022401882
0.065679349 0.067031384 0.00055871409 -0.94788074 0.22908716 -0.22145216 0.015262117
0.066374704 0.068209969 0.001182673 -0.95306236 0.29693785 -0.059161209 0.031351127
0.066704907 0.070571296 0.00081366673 -0.96459341 0.21647182 -0.15066344 0.01678591
0.069426894 0.070707455 0.0026824852 -0.62597775 0.010970566 0.77976376 0.045909204
0.067228593 0.073686339 0.00072546612 -0.97681803 0.2126129 0.024945984 0.02572763
0.069235064 0.073211268 0.00267671 -0.55795115 -0.041736197 0.82882363 0.0089529399
0.076490209 0.074739933 0.0012764365 0.30737746 0.95158762 -0.00034295302 0.00023828662
0.067853458 0.076354928 0.00095982075 -0.88502926 0.45247746 -0.10948659 0.062625669
0.069847241 0.076691717 0.0020735476 -0.57627696 0.7152186 0.39543295 0.059169374
0.073545314 0.075706303 0.0015070147 0.28779098 0.95755583 0.016225774 4.1362662e-05
0.075363867 0.075146452 0.001435379 0.30737746 0.95158762 -0.00034295302 0.00023828662
-0.053967308 0.020229483 0.003023016 -0.5906477 -0.72997123 -0.34391472 0.0027440705
-0.057710487 0.023505166 0.0032465539 -0.61313391 -0.66813391 -0.42150202 0.0011930595
-0.056717169 0.02256792 0.0034402022 -0.63963437 -0.70764518 -0.30017689 0.0027944001
-0.06053254 0.026299832 0.0032960775 -0.71513683 -0.65759665 -0.2369514 0.00071257539
-0.063239805 0.02954478 0.0038017938 -0.76980764 -0.60960919 -0.18913735 0.00095334591
-0.06265077 0.028850254 0.0032873196 -0.76409644 -0.62519777 -0.15901101 0.00072292075
-0.064763285 0.031699475 0.0032704428 -0.80221552 -0.58526301 -0.1179724 0.0009085706
-0.007231764 0.03275796 0.0056460025 0.16238736 0.92607021 0.34062347 0.0017556556
-0.0043187477 0.032639444 0.0049007903 0.13762288 0.92722201 0.34830919 0.0014622781
-0.0013723875 0.032450713 0.0044047027 0.1150982 0.93662542 0.33088562 0.0020380814
0.0015245662 0.032185096 0.004509808 0.056304608 0.95018125 0.30657047 0.0027211483
0.0047675148 0.031810299 0.0050755246 0.0058471924 0.92660904 0.37598065 0.001489433
0.0075072022 0.032001652 0.0046851179 -0.02911556 0.93702435 0.34804827 0.0021496434
0.01049421 0.032252334 0.0045598904 -0.10720512 0.94494295 0.30917591 0.0025253547
0.013452894 0.032500908 0.0047414005 -0.14164446 0.92534 0.35168546 0.0022783848
0.016338881 0.032691956 0.0054992666 -0.19346365 0.88955784 0.41383401 0.00039597863
0.018139843 0.032895856 0.0058723306 -0.21910469 0.87939203 0.42268524 0.00187314
-0.066821963 0.034847908 0.0034663237 -0.81520522 -0.57779366 -0.039936811 0.00016896139
-0.065748796 0.033234179 0.0030382115 -0.80330944 -0.59107012 -0.073007554 0.0011091983
-0.018747156 0.03582184 0.00552188 0.29495814 0.89808923 0.32624444 0.0027958946
-0.016235029 0.035461895 0.0045482079 0.30036411 0.90767616 0.29309633 0.0018699912
-0.013375777 0.034602046 0.0045878123 0.25245929 0.91511118 0.31438175 0.0020197667
-0.010506303 0.033942766 0.0043320763 0.2011472 0.93148625 0.30310583 0.0018693187
-0.0077809929 0.033455368 0.0042188028 0.15612604 0.9416548 0.2981793 0.0018738891
-0.0047025387 0.033175297 0.0035620041 0.13305274 0.94432235 0.30091906 0.0019291622
0.014111584 0.033108328 0.0034470358 -0.13687861 0.95018798 0.28001252 0.0018794049
0.016652424 0.033344567 0.0040645329 -0.18179594 0.93051893 0.31793827 0.0027823937
0.01947413 0.033906754 0.0043382458 -0.23456953 0.91684777 0.32305932 0.0024751746
0.02252629 0.034737013 0.0044045369 -0.26762602 0.91156572 0.31212854 0.0017587291
0.025395155 0.035460379 0.0046182694 -0.28908405 0.90332049 0.31692672 0.0021618973
0.027600475 0.035836495 0.0053890189 -0.30299175 0.89317358 0.33232051 0.0026604896
-0.02496432 0.038480017 0.0048978608 0.37581661 0.87593716 0.30248308 0.0019515904
-0.022499284 0.037646167 0.0044041136 0.35169667 0.88034934 0.318268 0.0020310322
-0.019694272 0.036630664 0.0042188284 0.30084202 0.91005152 0.28513208 0.0027438325
-0.017546067 0.036132339 0.0038059216 0.28759089 0.91116333 0.29508117 0.0024156366
0.026327115 0.036165558 0.0035297892 -0.28225192 0.9133684 0.29341441 0.0023051829
0.028599966 0.036659636 0.0041887481 -0.30504102 0.90232766 0.30455667 0.0023004988
0.031510238 0.037606031 0.0044148429 -0.35785943 0.88355327 0.30210963 0.0021567175
0.033972234 0.038527049 0.0047987071 -0.39726183 0.85965359 0.32121432 0.0028370928
-0.033282589 0.041976031 0.0057312855 0.42871013 0.83908284 0.33488452 0.0024082414
-0.031242996 0.041333001 0.0047931541 0.42568892 0.85613936 0.29294088 0.0022369053
-0.028496958 0.040147915 0.0044097002 0.38057816 0.88012433 0.2837984 0.0019653556
-0.026225137 0.039354943 0.0039388645 0.35001951 0.88881719 0.29578772 0.0017994995
0.035153814 0.039409466 0.0039235195 -0.41004744 0.86332494 0.2941618 0.001895362
0.037506182 0.040426359 0.0044560614 -0.45550165 0.8269031 0.32977179 0.0031733448
0.039750218 0.041584652 0.0048974371 -0.5012663 0.80546218 0.31616881 0.0029350813
-0.037211739 0.044383742 0.0046478249 0.44337431 0.8476162 0.29148939 0.0021130377
-0.034568034 0.043164127 0.0043819118 0.42511413 0.86204523 0.27596357 0.0019645051
-0.032314014 0.042271737 0.0036963229 0.42327389 0.86489809 0.26979727 0.0018457306
0.041006804 0.042655941 0.0041268775 -0.49054855 0.8120665 0.31608567 0.0024716016
0.043435376 0.044025511 0.0045770081 -0.49652523 0.80142045 0.33344844 0.003461157
0.045254834 0.044751555 0.0055743093 -0.47534961 0.78905487 0.38914669 0.0043580201
-0.043017406 0.047450535 0.0048370184 0.45225546 0.8300361 0.32635117 0.0024358744
-0.040440064 0.046199072 0.0044468613 0.44480503 0.84062988 0.3090145 0.0018642934
-0.03834486 0.045285631 0.0038736388 0.43282002 0.85176855 0.29522392 0.001952946
0.044627454 0.045306481 0.0033190271 -0.51026642 0.80714369 0.29689622 0.0019330049
0.046513159 0.046090029 0.0043827202 -0.50446475 0.79303449 0.34148443 0.0034741419
0.048906758 0.047435232 0.0048095779 -0.50240499 0.78917921 0.35324982 0.002650552
-0.048911538 0.050558109 0.0049907207 0.42971575 0.83457756 0.34470958 0.0039521013
-0.046582758 0.049563415 0.0044318493 0.43390918 0.83582693 0.33632749 0.002834124
-0.044236757 0.048421368 0.0041096006 0.43675131 0.83602959 0.33211878 0.0020187816
0.050126731 0.048577473 0.0040707318 -0.51168758 0.78365195 0.3522293 0.0031292292
0.052436769 0.049830638 0.0045322455 -0.47366253 0.78726453 0.39478898 0.0033468083
0.054584004 0.050612718 0.0055190357 -0.43228677 0.74474579 0.50841117 0.004787867
-0.057666995 0.053847022 0.0057500903 0.24893898 0.78490937 0.56740355 0.0025621736
-0.055058945 0.053448319 0.0048367893 0.35217282 0.86342537 0.36120766 0.0025978892
-0.05242392 0.052536882 0.0045418357 0.36088398 0.84757954 0.38906527 0.0027411305
-0.049995162 0.051544536 0.0040136385 0.41713521 0.83711088 0.35389787 0.0036473821
0.053648196 0.051229589 0.0032151199 -0.48649657 0.79603416 0.36007044 0.0021810099
0.055659331 0.051949792 0.0043107495 -0.48738134 0.77592945 0.40049079 0.0036456857
0.058149051 0.053177491 0.0047762636 -0.47227445 0.75216061 0.45957726 0.0044124108
0.060303651 0.053812385 0.0057577547 -0.40981773 0.66628748 0.62298506 0.0033137782
-0.07469669 0.056803275 0.0036379164 -0.50650871 0.85775 0.087828971 0.0058711264
-0.06397856 0.056475189 0.0054098358 0.31722155 0.74966252 0.5808413 0.0082393149
-0.061344929 0.055929497 0.0045757978 0.34273294 0.78772122 0.51188809 0.0080099422
-0.058577023 0.054955523 0.0043283473 0.28253698 0.84247863 0.45869672 0.0037258898
-0.055973817 0.054274932 0.0037387575 0.34440032 0.86955482 0.35392493 0.0025041178
0.059175648 0.054494876 0.0038079261 -0.48921663 0.74525321 0.45306146 0.0033088233
0.06147239 0.055550195 0.0044496409 -0.45219737 0.68602097 0.56999367 0.0072362395
0.063920215 0.056262873 0.0054591363 -0.38423586 0.59713006 0.70412964 0.0042547351
0.066924945 0.056741707 0.0059284004 -0.35628024 0.5172348 0.7781598 0.0058457442
-0.072960965 0.058312606 0.0037076466 -0.46711618 0.86612415 0.17785221 0.0038440817
-0.07045088 0.059092529 0.0043122014 -0.25189388 0.79776192 0.54783714 0.033037674
-0.06740813 0.058819912 0.0044674352 0.13135318 0.76898539 0.62562603 0.019070877
-0.064565234 0.058032282 0.0040206229 0.36106056 0.75271851 0.55049986 0.0086716702
-0.06237084 0.057225384 0.0034615118 0.35898513 0.77146637 0.52532792 0.0072126132
0.062626362 0.057363756 0.0033783428 -0.56981516 0.60642207 0.55458355 0.0074664624
0.064367488 0.058393814 0.0040898398 -0.55220109 0.49978411 0.66730028 0.013368309
0.066656202 0.058878429 0.0050896415 -0.54710102 0.47086781 0.69207227 0.0081660915
-0.069333829 0.060113549 0.0032387832 -0.13662818 0.82197082 0.55289853 0.026589746
-0.068178862 0.060213458 0.0031967515 -0.013663917 0.8662641 0.49939951 0.037025657
0.065539926 0.061010052 0.0034567264 -0.61613071 0.38817155 0.68535084 0.0073076049
0.066779636 0.061840765 0.0038753697 -0.72734737 0.35022613 0.59017575 0.017199438
0.06765902 0.064428978 0.0032892374 -0.65493923 0.37264031 0.6574145 0.043261871
0.070988089 0.067300484 0.0032355371 -0.45158818 0.14917628 0.87966734 0.012449238
0.070671566 0.070677653 0.0033153577 -0.46277854 -0.030008003 0.88596594 0.010919908
0.072066195 0.071162753 0.0037713754 -0.50070971 -0.0662743 0.86307442 0.0049697431
0.07042262 0.073662385 0.0036710391 -0.55474418 -0.041433103 0.83098871 0.0095560215
0.075722963 0.074977614 0.0031831411 0.28479251 0.95855695 0.0078637926 0.00030204942
0.068921767 0.076294109 0.0030853567 -0.2386933 0.97088796 -0.020054601 0.11306287
0.070402905 0.076099664 0.0036866493 -0.25048769 0.69605988 0.67287183 0.0060618515
0.072792612 0.07588008 0.0041059889 -0.24166037 0.71049494 0.66090637 0.0064467047
0.075266667 0.075141683 0.003351101 0.28479329 0.95855671 0.007865685 0.00030204773
0.0041621202 0.029836098 0.0087481625 0.017179482 0.83601272 0.54844111 0.0025110005
0.0076833214 0.029810784 0.0088121006 -0.03313202 0.81569684 0.57753015 0.0016512639
0.010904689 0.029915029 0.0088697262 -0.058150653 0.82753372 0.55839634 0.0027925731
0.012852032 0.029980399 0.0089045428 -0.10972548 0.81762922 0.5651927 0.0025409763
-0.013175159 0.032805804 0.0084283082 0.23402545 0.85009658 0.47177106 0.0013836889
-0.010448555 0.032421745 0.0078123068 0.19991115 0.86452639 0.46111789 0.0014058347
-0.0076064225 0.03195703 0.0075531728 0.16243911 0.87468785 0.4566561 0.00086551183
-0.004406055 0.031520024 0.0073646209 0.1400948 0.87037039 0.47204757 0.0023763566
-0.0013949294 0.031025134 0.0075799259 0.10266867 0.87170684 0.4791517 0.001571716
0.0020240517 0.030732023 0.0075523565 0.03490812 0.85418731 0.51879239 0.0021037548
0.0045271032 0.030781776 0.007330047 0.023696389 0.85382533 0.52002007 0.0021234795
0.0074600363 0.030770719 0.0073723421 -0.028440969 0.86244577 0.50534981 0.0021692312
0.0104344 0.030980553 0.0073414063 -0.067271665 0.85723054 0.51051968 0.0022300822
0.013598595 0.031183476 0.0075178696 -0.12494479 0.84849733 0.51423824 0.0022972366
0.016486332 0.031666346 0.0075788847 -0.17589957 0.85424155 0.48921448 0.0017735844
0.019325236 0.032259896 0.0076893112 -0.22624464 0.83978271 0.49353668 0.0016816398
0.022104796 0.032588407 0.0083205868 -0.22834916 0.79539764 0.56142598 0.0015503813
0.02428283 0.032866642 0.0089259893 -0.24673736 0.75033408 0.61328578 0.0015838658
-0.021860709 0.035690662 0.0082390504 0.32714266 0.83744955 0.43778539 0.00090540788
-0.019484414 0.035125788 0.0075994479 0.29007906 0.85416871 0.43156695 0.0011999849
-0.016419398 0.034231436 0.0073976815 0.2605654 0.85503525 0.44835305 0.0012058025
-0.013662349 0.033521507 0.0072059841 0.23941939 0.8662737 0.43846124 0.0011547216
-0.010995826 0.033227269 0.0063221077 0.20574214 0.87565917 0.43691108 0.0012918058
0.020223148 0.033239581 0.0063837292 -0.22618681 0.86377096 0.45026574 0.001001237
0.022643121 0.03361633 0.0069560315 -0.23760463 0.84606737 0.47719398 0.0017783317
0.025522061 0.034222592 0.0073576616 -0.25131324 0.82864082 0.50019598 0.0020591409
0.028430544 0.035080694 0.0074858968 -0.2925131 0.8304612 0.47409952 0.0017599383
0.031216905 0.035563637 0.0082870983 -0.30466065 0.78133768 0.54469568 0.0022024291
-0.028271832 0.038546726 0.0078651328 0.36647108 0.82249528 0.43497187 0.00099403877
-0.025599504 0.037564836 0.0074698119 0.34261119 0.83073926 0.43873665 0.0014568134
-0.022820158 0.036575269 0.0071588857 0.33462223 0.84136593 0.42441878 0.0010804511
-0.020551024 0.036054343 0.0063337232 0.30710676 0.86091232 0.40560502 0.00082861999
0.029556759 0.03614454 0.0063445605 -0.31198707 0.83122379 0.46014243 0.0018741252
0.031809501 0.036656205 0.0068940204 -0.3234621 0.82318389 0.46662673 0.0021392999
0.034554485 0.037491988 0.0074541979 -0.3589232 0.79368275 0.49116376 0.0036976275
0.037151806 0.038345188 0.0080379732 -0.39615458 0.76804829 0.50315344 0.0028422719
0.03926238 0.038954355 0.0088031404 -0.39018872 0.68544978 0.61474502 0.0020317235
-0.036237683 0.041821029 0.0088735605 0.38811615 0.75171918 0.53318304 0.00226395
-0.034211781 0.041461773 0.0077376915 0.41302466 0.80550998 0.42492864 0.00081298425
-0.031530235 0.040250078 0.0074972627 0.3884784 0.80193079 0.45386299 0.00095849106
-0.029212365 0.039476272 0.0067518442 0.37464964 0.82291019 0.42714924 0.0012342178
0.037992492 0.03960178 0.0068297051 -0.43289801 0.77243286 0.46470067 0.0021829279
0.040463626 0.040563226 0.0075501711 -0.44637471 0.75620568 0.47843763 0.0021908758
0.042876694 0.04147223 0.0083088931 -0.39984256 0.7011959 0.59029675 0.0023601842
-0.042114299 0.044881068 0.0086236456 0.4130716 0.77311194 0.48132098 0.001966452
-0.040099367 0.044419542 0.0077641266 0.43200794 0.79074639 0.43369275 0.0015371559
-0.037519567 0.043289356 0.007431665 0.37683862 0.81008881 0.4491646 0.0018158524
-0.035110064 0.042451777 0.0066884272 0.41707429 0.80669683 0.4186756 0.0011253349
0.041547857 0.0420973 0.006197677 -0.47601417 0.76287919 0.43752244 0.0021962062
0.043747246 0.042808145 0.0071710628 -0.44887391 0.73777759 0.50417894 0.0026370448
0.046295077 0.043969966 0.0077066384 -0.42888629 0.72092736 0.54435307 0.0027441434
0.048638754 0.044622935 0.008611111 -0.38584268 0.66110766 0.64347661 0.0024755124
-0.048415836 0.047800958 0.0089277299 0.3210187 0.7003721 0.63751549 0.0016735856
-0.046127852 0.047416892 0.0079132514 0.38292754 0.77346128 0.50509816 0.0031748549
-0.043514539 0.046369959 0.0074926098 0.39347339 0.78884315 0.47212833 0.0014734137
-0.041202981 0.045532931 0.0068638697 0.41614017 0.79273629 0.44541723 0.001825897
0.047444746 0.045476452 0.0066202376 -0.46895742 0.7325874 0.49335048 0.0025829496
0.049660511 0.046291545 0.0073304782 -0.41270405 0.72319257 0.55377597 0.0021759563
0.052197348 0.047082465 0.008122514 -0.36752218 0.65447938 0.6607452 0.0019984823
0.054597151 0.047929119 0.008664472 -0.33008116 0.646622 0.68769652 0.0016415719
-0.054639105 0.050541896 0.0087830275 0.20663683 0.67915356 0.7043094 0.0022318137
-0.052086491 0.050249409 0.0079625323 0.29860511 0.73903245 0.60387594 0.0027213367
-0.049529321 0.049509596 0.0073344545 0.35322407 0.77899992 0.51806557 0.0016161418
-0.046841387 0.04855426 0.0068149618 0.3976098 0.78033435 0.482685 0.0015650055
0.05285592 0.048618384 0.0068157967 -0.43102252 0.71367252 0.5521695 0.0025520085
0.055403844 0.049603023 0.0073711257 -0.37850091 0.6957038 0.61051887 0.0023767746
0.058046907 0.050229054 0.0081025995 -0.2951569 0.63271505 0.71592885 0.0024615892
0.060561068 0.050695803 0.0086383009 -0.23445915 0.60031104 0.76462775 0.0023692027
-0.063896976 0.052521378 0.0084467819 0.18817207 0.64329737 0.74213195 0.0030277513
-0.061265778 0.052888833 0.0079551814 0.15264349 0.67803466 0.71900558 0.0044269692
-0.058475312 0.052656297 0.0075717778 0.23493516 0.72908634 0.64283645 0.004015462
-0.055609927 0.052120361 0.0072738617 0.24938227 0.77984446 0.57415253 0.0020750132
-0.053023711 0.051556919 0.0067550205 0.32457337 0.76918793 0.55045629 0.0032016793
0.056639045 0.051124476 0.0064342739 -0.39228007 0.69455856 0.60307938 0.003384942
0.058739405 0.051903978 0.006810043 -0.37804195 0.68480188 0.62300134 0.0027610073
0.061456345 0.052629769 0.0074003781 -0.26918757 0.60178638 0.75192499 0.0033434401
0.06426318 0.052408703 0.0082064867 -0.26090905 0.56911802 0.77976352 0.0015589437
-0.066893682 0.056405824 0.00629366 0.18011764 0.64007175 0.74690419 0.0020116926
-0.06430316 0.055102855 0.0066968324 0.24931005 0.67357582 0.69580179 0.0034023968
-0.061612576 0.054434799 0.0065666707 0.21828608 0.69736868 0.68266261 0.0057756649
-0.059623878 0.054093823 0.0062722317 0.25661051 0.77550906 0.57683349 0.0027466991
0.062382519 0.054258354 0.0064057447 -0.34920064 0.61506748 0.70693058 0.0059397258
0.064419337 0.054913953 0.0066794306 -0.32341784 0.5868786 0.74227649 0.0037636927
0.066081196 0.056179382 0.0063004326 -0.4049316 0.53412688 0.74211782 0.0047878008
-0.067925677 0.0570575 0.0060170088 0.17534485 0.66961908 0.72170943 0.0019262634
-0.010703766 0.02964068 0.011732767 0.17917015 0.69343209 0.69788969 0.0010361366
-0.0072641838 0.029308956 0.011236876 0.15022808 0.69357759 0.70454365 0.0015084313
-0.0043577817 0.028984698 0.011033855 0.12609163 0.74704629 0.65270418 0.0035330881
-0.0014212029 0.029053334 0.01047818 0.099286534 0.77298677 0.62660486 0.0015789459
0.0019234654 0.028698143 0.010361105 0.017159522 0.74026608 0.67209494 0.003109247
0.0045141922 0.028580673 0.010396566 0.015762685 0.74185747 0.67037225 0.0024176976
0.0074494006 0.028538581 0.010430907 -0.024990315 0.73237509 0.68044269 0.0024255014
0.010341519 0.028611287 0.010531553 -0.067100696 0.72853321 0.68171614 0.0022645518
0.013510203 0.028887711 0.0105498 -0.10698857 0.71652144 0.68931156 0.0033141822
0.016503973 0.029005777 0.011020756 -0.14261261 0.69275975 0.70692682 0.0021008463
0.019416999 0.029441448 0.011219244 -0.16399673 0.69186503 0.70315564 0.0014098566
0.022289235 0.029694755 0.011636784 -0.18635492 0.65894818 0.72873801 0.0014527871
-0.019120239 0.03248214 0.011412246 0.24893384 0.73768759 0.62757391 0.0030648066
-0.016288541 0.032081708 0.010736292 0.24101655 0.77111071 0.58932108 0.0015575042
-0.013522761 0.031525098 0.010385574 0.21972312 0.76774693 0.60190231 0.0025533887
-0.010722571 0.030955 0.010198734 0.19204354 0.77489841 0.60220575 0.0015526871
-0.0075826226 0.030613003 0.0097447233 0.15485862 0.79023516 0.59291422 0.0016023668
-0.0045051104 0.030234599 0.0095462129 0.10877375 0.79039645 0.60286134 0.0019198414
0.00029686323 0.030051513 0.009019739 0.073635414 0.78371286 0.61674309 0.0017639397
0.011501409 0.030040219 0.0090243062 -0.067379348 0.77824003 0.62434167 0.0015841436
0.014915215 0.030087417 0.0095307576 -0.1308002 0.76363331 0.63226229 0.0018559091
0.0166669 0.030317251 0.0095219109 -0.15477009 0.7558617 0.63617551 0.0013715712
0.019579513 0.030758124 0.0098204911 -0.18408634 0.74038047 0.64648974 0.0014823907
0.022517644 0.031357415 0.010053558 -0.20184977 0.73735142 0.64464688 0.002962885
0.025378831 0.031767972 0.010544831 -0.23152159 0.70410401 0.6712938 0.0025563156
