# .PCD v0.7 - Point Cloud Data file format
VERSION 0.7
FIELDS x y z normal_x normal_y normal_z curvature
SIZE 4 4 4 4 4 4 4
TYPE F F F F F F F
COUNT 1 1 1 1 1 1 1
WIDTH 545
HEIGHT 1
VIEWPOINT 0 0 0 1 0 0 0
POINTS 545
DATA ascii
-0.016481459 0.0014887229 -0.003671116 0.25202808 -0.004609101 -0.96770895 0.000247046
-0.014407315 0.0016220355 -0.0032423383 0.24865966 -0.0015983544 -0.9685896 0.00017703749
-0.024561878 0.0043571843 -0.0056788367 0.24690592 0.068127938 -0.96664166 0.00018045414
-0.02219576 0.004527912 -0.0050683566 0.24717937 0.061948277 -0.96698749 0.00013094349
-0.019413419 0.0046775509 -0.0043373629 0.24971417 0.051141389 -0.96696812 7.4839991e-05
-0.016701404 0.0042673792 -0.0036476003 0.2498112 0.04428992 -0.9672811 5.4112101e-05
-0.014501844 0.0046666963 -0.003180838 0.24715911 0.040682424 -0.96812052 4.9645761e-05
-0.025562739 0.0076014223 -0.0056336252 0.23442726 0.10308748 -0.96665239 9.9946745e-05
-0.02251431 0.0077004577 -0.0048859669 0.23671439 0.09596581 -0.96682823 0.00010894636
-0.019480031 0.0076251277 -0.0041495776 0.24433394 0.083613008 -0.96607959 5.8217163e-05
-0.016434032 0.0074473238 -0.0033814148 0.2400316 0.068060152 -0.96837628 0.00010559632
-0.014621699 0.0065082163 -0.0031098779 0.23680773 0.066948362 -0.96924716 4.5521374e-05
-0.027520008 0.010401895 -0.0057602618 0.23111984 0.13273413 -0.9638285 6.155196e-05
-0.025080564 0.01031984 -0.0051934775 0.22561522 0.12985694 -0.96552318 6.2731902e-05
-0.022131614 0.010158587 -0.0045289667 0.22836739 0.11298557 -0.96699673 8.7352928e-05
-0.019545913 0.010643881 -0.0038569062 0.2292601 0.1092558 -0.96721405 0.00010183721
-0.016919479 0.010596156 -0.0032222765 0.23246737 0.092604317 -0.9681856 8.7651671e-05
-0.030593105 0.014564681 -0.0058267261 0.18937024 0.18914758 -0.96351552 0.00018815188
-0.028956413 0.013043713 -0.0056751091 0.2234305 0.14928499 -0.96322 6.2584499e-05
-0.026125494 0.012953399 -0.0050350884 0.22172067 0.14386874 -0.96443856 8.8739907e-05
-0.02270994 0.013371503 -0.004208833 0.21500458 0.13152097 -0.96771652 6.8132773e-05
-0.018984729 0.013310388 -0.0034062515 0.21614572 0.11640865 -0.96939677 5.9439233e-05
-0.017348837 0.013198942 -0.0031657002 0.21609268 0.11265993 -0.96985143 5.8165922e-05
-0.036687054 0.016903486 -0.0057904143 0.030865086 0.20705441 -0.97784245 0.0026931881
-0.034228124 0.017576564 -0.0058763931 0.070829697 0.21922916 -0.97309905 0.0031645608
-0.031499896 0.016618852 -0.0055972459 0.17758113 0.20442115 -0.96264064 5.7728063e-05
-0.028465901 0.016372517 -0.0050235451 0.19572191 0.18878111 -0.96231735 9.5362753e-05
-0.025468549 0.016530234 -0.0043805186 0.1904958 0.16983819 -0.96688485 0.00011096921
-0.022432381 0.016467685 -0.0038081331 0.18529414 0.14630657 -0.97173065 7.9825491e-05
-0.01995573 0.015906543 -0.0032764911 0.20467898 0.12906691 -0.97028255 7.4506665e-05
-0.017848345 0.015330223 -0.003012161 0.19990218 0.12489961 -0.97182262 8.3691666e-05
-0.036871832 0.0199001 -0.0051194709 0.038888767 0.22370681 -0.97388035 0.0018879281
-0.034219265 0.019630739 -0.005391669 0.057151221 0.22295155 -0.97315282 0.0022229126
-0.031573206 0.019363986 -0.0050171274 0.16827811 0.209879 -0.96313721 0.00010794072
-0.028561087 0.019489931 -0.0044324226 0.17982604 0.19550751 -0.96407437 0.00010821628
-0.02552549 0.019518035 -0.003858584 0.16678053 0.16795224 -0.97158444 7.9996898e-05
-0.022530543 0.019319624 -0.0033659313 0.18026595 0.15382455 -0.97151542 6.234421e-05
-0.020374553 0.018436046 -0.0030882689 0.18757185 0.13564029 -0.97284043 5.0242783e-05
-0.036754407 0.022664694 -0.0046359114 0.047057718 0.21848696 -0.97470462 0.0014035281
-0.034527492 0.02253302 -0.0047465903 0.065517306 0.22469282 -0.97222459 0.0013895142
-0.031519841 0.022487326 -0.0042980309 0.12576976 0.21298561 -0.96892679 0.00093203987
-0.028425472 0.022480486 -0.003804256 0.15076552 0.1843403 -0.97123039 0.00010076625
-0.02569836 0.022340387 -0.0033729668 0.15621601 0.18158488 -0.97088802 7.813453e-05
-0.023205444 0.021575578 -0.0031131587 0.16078004 0.15078057 -0.97540504 0.00010208773
-0.036825955 0.026033923 -0.0039391592 0.069997765 0.19785351 -0.9777292 0.00092275185
-0.034415577 0.025560418 -0.0040363348 0.072752111 0.19668613 -0.97776365 0.00091159763
-0.031466737 0.025418341 -0.0036566581 0.13331953 0.19371456 -0.97195709 4.1468717e-05
-0.028750204 0.025327176 -0.0032852981 0.1404317 0.1884671 -0.97198719 6.8051508e-05
-0.026566166 0.024688166 -0.0030819573 0.13534789 0.16691291 -0.97663766 0.00010904906
-0.036918484 0.028619945 -0.0033794891 0.045389071 0.18592218 -0.98151559 0.00081475725
-0.034475092 0.028379025 -0.0034681088 0.077807821 0.1784782 -0.98086268 0.0008593261
-0.031713407 0.028069802 -0.0031762784 0.1298835 0.17900449 -0.97523725 5.4573386e-05
-0.029349113 0.02734283 -0.0030115205 0.12622797 0.17267683 -0.97685683 8.7474698e-05
-0.036678065 0.030490533 -0.0031493956 0.039845519 0.17132071 -0.98440921 0.001058457
-0.035043754 0.030356225 -0.003150213 0.061205771 0.1499453 -0.98679799 0.0014016319
0.0079185637 0.041778557 -0.0033180057 -0.13884106 -0.83206606 -0.53701884 0.00046423508
0.010624615 0.04154665 -0.0036048787 -0.078421608 -0.86388052 -0.49755463 0.0014362419
0.013524678 0.041491263 -0.0038577169 -0.00080142805 -0.89654142 -0.44295928 0.0023032697
0.016397435 0.041638494 -0.003975247 0.08286763 -0.92749548 -0.3645342 0.0028321017
0.019083282 0.04185351 -0.0037115077 0.18256508 -0.95025086 -0.25237539 0.0030052005
-0.049659304 0.044712532 -0.0041396995 0.064656705 -0.88013345 -0.47030273 0.0094098141
-0.046583973 0.044667855 -0.0040151216 -0.043050624 -0.88598984 -0.46170193 0.0046116668
-0.043490186 0.044111546 -0.0040117418 -0.20128897 -0.82080907 -0.53456074 0.0086989906
-0.040323332 0.043185521 -0.0043852497 -0.20593645 -0.82107294 -0.53238088 0.010679725
-0.037451774 0.043278445 -0.0045259804 0.014713321 -0.86070418 -0.50889277 0.0084107537
-0.034478962 0.043497913 -0.004593933 0.043868452 -0.79513979 -0.60483736 0.0086801201
-0.031459574 0.043765351 -0.0045096688 0.11855008 -0.75426996 -0.64577293 0.0038777874
-0.028519236 0.044014957 -0.0043050423 0.099615283 -0.69198304 -0.71500784 0.004975351
-0.025548585 0.04413943 -0.0039400691 0.10794315 -0.69154227 -0.71422523 0.0014632046
-0.022587609 0.044280089 -0.0036261783 0.10924986 -0.62647265 -0.77174902 0.0028765197
-0.019512318 0.044474103 -0.0033481903 0.099567719 -0.60262293 -0.79179031 0.0022648298
-0.016637363 0.04463869 -0.0031818119 0.067331955 -0.56274694 -0.82388246 0.0038369312
-0.013750607 0.044756837 -0.0031219418 0.02590684 -0.57866597 -0.81515312 0.0024374528
-0.010629371 0.044697158 -0.0031753867 -0.023880731 -0.62774628 -0.77805161 0.0005735507
-0.0070014019 0.044770878 -0.0034149822 -0.076632865 -0.65745568 -0.74958616 0.0016752693
-0.004274887 0.044536225 -0.0035558064 -0.10668018 -0.7070505 -0.69907004 0.00079412549
-0.0012699935 0.044273607 -0.00382396 -0.14634152 -0.75483495 -0.63938123 0.0013022284
0.0015318514 0.044030868 -0.0043575522 -0.19892362 -0.77875316 -0.59495622 0.0006556086
0.0044585448 0.043262083 -0.0044627143 -0.19286843 -0.8043502 -0.56198096 0.00027409659
0.0074105803 0.042786587 -0.0046941973 -0.15960339 -0.82258242 -0.54578841 9.513001e-05
0.010485563 0.042496476 -0.0051070256 -0.1184189 -0.84460485 -0.52212989 0.00033510796
0.01353628 0.042381734 -0.0054805083 -0.056769043 -0.87634927 -0.47831914 0.0010557908
0.016719703 0.042280026 -0.0054397732 0.014362209 -0.91101742 -0.41211775 0.0022650375
0.019833148 0.042326074 -0.0049117906 0.14343901 -0.95447212 -0.26154962 0.0041276105
0.022523854 0.042677537 -0.004491738 0.22142242 -0.95280159 -0.20770454 0.0039856764
0.025449809 0.043380611 -0.0045282454 0.25628722 -0.96130985 -0.1009964 0.0030454646
0.028474513 0.044277359 -0.0044534346 0.28794876 -0.95763201 0.0051443181 0.0039940239
0.030264996 0.044884671 -0.0044996347 0.34400257 -0.93699276 0.060883328 0.0028684211
-0.051182985 0.045172803 -0.0053575081 0.0441503 -0.88839495 -0.4569521 0.0019323196
-0.049446978 0.045155525 -0.0054088878 0.11393412 -0.86320698 -0.49182597 0.016222809
-0.046481043 0.04515418 -0.0053977873 -0.0099340044 -0.86077493 -0.50888884 0.009105321
-0.043879524 0.045156475 -0.0054121176 -0.18599296 -0.83088434 -0.52444047 0.0091101741
-0.028117135 0.045212023 -0.0058263633 0.13871662 -0.72044796 -0.67949426 0.0018133234
-0.025321804 0.045459174 -0.0054508867 0.14775431 -0.68955564 -0.70900053 0.0012112181
-0.022477649 0.045793235 -0.0051680999 0.13975075 -0.63881773 -0.75655901 0.0022907599
-0.019495111 0.046091102 -0.0048883958 0.12550217 -0.59298313 -0.79537433 0.0035676206
-0.016568206 0.046441503 -0.004785059 0.065804042 -0.57928187 -0.81246686 0.0023537914
-0.013556164 0.046453658 -0.0045976462 0.015542568 -0.5856384 -0.81042337 0.0019123487
-0.010495467 0.046414576 -0.0046112295 -0.050782673 -0.60945541 -0.79119229 0.0017857037
-0.0075502968 0.046322837 -0.0048078159 -0.11654667 -0.63406271 -0.7644484 0.0024423746
-0.0046792375 0.045954086 -0.0049812067 -0.15786445 -0.70320356 -0.69324142 0.0016270813
-0.0016649929 0.045538284 -0.0052700629 -0.19217996 -0.74946135 -0.63354129 0.00088725437
0.00056946889 0.045375042 -0.0057672225 -0.23409894 -0.77644354 -0.58509243 0.00046733519
0.031780325 0.045468975 -0.0043983487 0.38641977 -0.91531539 0.11347885 0.0025912831
0.034525491 0.046619236 -0.0044035045 0.40313181 -0.88997036 0.21316063 0.0032827586
0.036855824 0.047544476 -0.0048851059 0.44145384 -0.85853577 0.2608349 0.0043727169
-0.015637115 0.048172534 -0.0059875147 0.070798688 -0.37119123 -0.92585349 0.0077715735
-0.013593362 0.048166089 -0.0058854236 0.0022491941 -0.40293378 -0.9152264 0.0068767699
-0.010984948 0.048114009 -0.0059238076 -0.073845588 -0.57791001 -0.81275266 0.0026012463
0.038128622 0.048480548 -0.0041492828 0.50147432 -0.81281739 0.29639739 0.0030793895
0.040372469 0.0498605 -0.0047234958 0.6247496 -0.70897001 0.32718414 0.0038046555
0.041604891 0.051470269 -0.0038362402 0.68678367 -0.62004989 0.37929699 0.0055085621
0.043011211 0.052650347 -0.0047500851 0.73908585 -0.56414664 0.3680906 0.0050700977
0.044322319 0.055086799 -0.0043367017 0.81376249 -0.43277398 0.38793978 0.0039607659
0.045295827 0.056179382 -0.0052029192 0.83479375 -0.41048363 0.36690941 0.0040527261
-0.021422151 0.058098968 -0.0057735527 0.048225153 0.29842961 -0.9532125 0.0028682987
-0.01879368 0.05808644 -0.0057559405 -6.3258813e-05 0.24658386 -0.96912146 0.0033683244
0.044710413 0.057496592 -0.0033430557 0.81485254 -0.2414827 0.52697384 0.0047071585
0.045718793 0.058434293 -0.0046470026 0.86354506 -0.2266805 0.45045069 0.0044830102
0.044948306 0.06276948 -0.003346723 0.79854298 0.045200329 0.60023838 0.0024352355
0.046130948 0.061124846 -0.0047809305 0.87295246 -0.094192304 0.47862494 0.0039104489
0.044772506 0.064318076 -0.0033782837 0.72327298 0.12997769 0.6782198 0.0012829964
0.045825005 0.064421013 -0.0047453786 0.81670743 0.103517 0.56769121 0.0018458647
0.044485327 0.067354642 -0.0038182379 0.75556028 0.19450089 0.62553823 0.00087640958
0.04560025 0.067299902 -0.0052129398 0.78617007 0.1908401 0.58780664 0.0012769441
0.044054445 0.070547387 -0.004521885 0.75280273 0.29952237 0.5861522 0.00095728558
0.045465481 0.06926699 -0.0057315198 0.8032344 0.27927625 0.52613622 0.0013552662
0.041797485 0.07390292 -0.0036135782 0.71467859 0.34880841 0.60627317 0.0024547221
0.043301284 0.073139295 -0.0050049801 0.74257934 0.342069 0.57581663 0.0015372111
0.011979919 -0.078006648 -0.00078303367 -0.23471875 -0.97112918 -0.042606428 0.0041783494
0.013740264 -0.078287803 -0.0014501236 -0.18389389 -0.98282343 0.015528949 0.0026016531
0.01650385 -0.078798056 -0.0015389578 -0.14646912 -0.98395795 0.1018503 0.0029529154
0.019469121 -0.079194605 -0.0015551932 -0.10485907 -0.97546482 0.19357964 0.0040075365
0.022402668 -0.079400517 -0.001469273 -0.054656427 -0.95713097 0.28445205 0.0038956404
0.025480993 -0.079474278 -0.0014855616 0.0043923706 -0.92777216 0.37312132 0.0044662855
0.028507749 -0.079407789 -0.001601118 0.066744916 -0.89265615 0.44576916 0.0034757403
0.031551853 -0.079054303 -0.0016814334 0.18090306 -0.84186679 0.50846285 0.0039559011
0.034173366 -0.078547798 -0.0020492708 0.30567077 -0.78280681 0.5420137 0.0042892289
0.03628727 -0.078185819 -0.0028468512 0.43132949 -0.71864092 0.54544485 0.0035775434
0.0029331986 -0.075115055 -0.00051992503 -0.43447232 -0.82733279 -0.35602582 0.0033549871
0.0047562192 -0.075595081 -0.0012493205 -0.35527924 -0.89198107 -0.27954704 0.0033182695
0.007464584 -0.076581664 -0.0014393368 -0.32607055 -0.91726702 -0.22868998 0.0032201612
0.010559942 -0.077518798 -0.0014905693 -0.25445235 -0.96136284 -0.10505016 0.0031862492
0.01216605 -0.077944219 -0.0015100832 -0.22319998 -0.97353339 -0.049137898 0.0033198472
0.032308407 -0.077806696 -0.00023695083 0.23455483 -0.70776385 0.66637403 0.0037620789
0.035103831 -0.077075221 -0.00088601653 0.37956569 -0.66861796 0.6394372 0.0054820105
0.037453476 -0.076451965 -0.0018903116 0.48191032 -0.63821858 0.60036612 0.0045235474
0.039461955 -0.075521924 -0.0026916701 0.57026982 -0.59256613 0.56890935 0.0031307668
-0.00071590196 -0.07269679 -0.0010004698 -0.53492182 -0.71746075 -0.44621587 0.0034862009
0.0015545759 -0.073956974 -0.0012519298 -0.4481971 -0.81243676 -0.37291542 0.0022023767
0.0035292197 -0.074588321 -0.0022776513 -0.40322262 -0.85198128 -0.33397523 0.0021928651
0.038240433 -0.073850632 -0.00057604699 0.55697483 -0.35479784 0.75093108 0.0026534144
0.040192258 -0.073655076 -0.0021328323 0.6388272 -0.41900441 0.64524043 0.0036767425
-0.0062008281 -0.06903246 -0.00042073079 -0.39816043 -0.72723681 -0.55910194 0.0080947466
-0.0042235972 -0.069919683 -0.00097912131 -0.48543993 -0.7100901 -0.51001966 0.0070366338
-0.0019470484 -0.070842542 -0.0020166235 -0.55075723 -0.67935723 -0.4849126 0.0038645442
0.03888265 -0.071497537 -0.00013363043 0.57506531 -0.23731379 0.78293175 0.00063050759
0.040637918 -0.070669681 -0.0013214892 0.6225872 -0.24843539 0.74206805 0.00074482383
0.042226747 -0.070360892 -0.0026514281 0.69357842 -0.295638 0.6569224 0.0011701187
-0.010057241 -0.066483773 -0.00050222455 -0.3444629 -0.66425973 -0.66340357 0.00067871501
-0.0073397798 -0.067341492 -0.0012902815 -0.43413132 -0.65497279 -0.61849868 0.0016919642
-0.0049430793 -0.068145111 -0.002264108 -0.49701306 -0.62005854 -0.60704648 0.00089805276
0.04100116 -0.067884624 -0.00083802023 0.61352378 -0.18478145 0.76775283 0.00040135341
0.042772617 -0.067542151 -0.0022852691 0.67790473 -0.19691563 0.70828623 0.00072936236
-0.019021004 -0.063237101 -0.00032066944 -0.15950857 -0.74297124 -0.65003908 0.00071027927
-0.01620285 -0.063659869 -0.00065100408 -0.20425142 -0.71887571 -0.66445386 0.0013234097
-0.013563908 -0.064404994 -0.00083653099 -0.29606462 -0.70943052 -0.63957328 0.0036564041
-0.010582535 -0.064777039 -0.0018416559 -0.3402715 -0.62936234 -0.69865465 0.00070336717
-0.0082447138 -0.065500259 -0.0024499032 -0.42605585 -0.60940117 -0.66866034 0.00055570668
0.041397825 -0.064483568 -0.00044204848 0.63021535 -0.13720886 0.76420039 0.00058951054
0.043263257 -0.064518467 -0.0020359363 0.69075137 -0.1413826 0.70913577 0.00091850973
-0.037095055 -0.06017543 -0.000353827 -0.16017014 -0.90034151 -0.4046365 0.00031701277
-0.034361262 -0.060410943 -0.00078504282 -0.13914587 -0.8817395 -0.45074821 0.00041535508
-0.031417862 -0.060655136 -0.0011051733 -0.12471444 -0.86311227 -0.48937058 0.00043112054
-0.028443882 -0.060891647 -0.0013491274 -0.11527177 -0.83893174 -0.53188902 0.000465138
-0.025477536 -0.06109355 -0.0015982083 -0.11269951 -0.80402792 -0.58381325 0.00061157666
-0.02255927 -0.061562214 -0.0015220636 -0.12720947 -0.76544946 -0.63079703 0.00054946513
-0.019579722 -0.061811537 -0.001778368 -0.1373495 -0.73638517 -0.66247416 0.00059596053
-0.016797025 -0.062203031 -0.0019393711 -0.18711786 -0.72074038 -0.66747296 0.0011554082
-0.013935581 -0.062500089 -0.0025477868 -0.24707188 -0.66078472 -0.70874465 0.0008822715
-0.011922252 -0.062759265 -0.002994284 -0.31345609 -0.62517774 -0.71477133 0.00094126235
0.041705552 -0.06167974 -0.00024082938 0.63290727 -0.086780533 0.76934886 0.0010164329
0.043536976 -0.061590284 -0.0018359921 0.68490344 -0.084161036 0.72375697 0.0014687818
-0.049654663 -0.057035178 -0.00029312746 -0.17362733 -0.94109958 -0.29014689 0.005100402
-0.045870986 -0.058170151 -0.00024908062 -0.2583766 -0.87077284 -0.41832542 0.0079478202
-0.043226827 -0.058668975 -0.00129703 -0.29080093 -0.87094909 -0.39608398 0.0067819864
-0.040488359 -0.059080202 -0.0015693969 -0.16003436 -0.91538441 -0.36940536 0.00042385553
-0.037612643 -0.059418362 -0.0018626731 -0.13060255 -0.90423238 -0.40657932 0.00062683976
-0.034628142 -0.0595963 -0.0022894042 -0.10300644 -0.8863371 -0.45143795 0.00039606541
-0.03177892 -0.059761152 -0.0025830623 -0.087131046 -0.8597858 -0.50316644 0.00053855841
-0.029089257 -0.059916675 -0.002788241 -0.063731857 -0.83100915 -0.55259579 0.00079224136
0.043332815 -0.05897871 -0.0014159456 0.69669473 -0.014493804 0.71722132 0.0027345973
-0.049436659 -0.056635976 -0.0015218608 -0.16809967 -0.9302395 -0.32618555 0.0093424739
-0.046842728 -0.056535169 -0.0019426252 -0.15473142 -0.90723014 -0.39114147 0.015218686
-0.044514555 -0.056408811 -0.0026053097 -0.28754658 -0.82201266 -0.49154052 0.014493027
0.041617732 -0.055224515 -0.0005368439 0.67555028 0.23481612 0.69892293 0.0033302575
0.042967748 -0.055697698 -0.0017907063 0.74605536 0.30479163 0.59203339 0.0034672322
0.040974434 -0.052676599 -0.0013970166 0.65067691 0.45408958 0.60862321 0.0040345052
0.042581387 -0.053637102 -0.0024788794 0.68974888 0.43269026 0.58053911 0.0040486641
0.037242364 -0.049532123 -0.00076366647 0.5718801 0.52774256 0.62804544 0.0015228054
0.040482622 -0.050974429 -0.0023430255 0.66107941 0.56596935 0.49259791 0.0059135831
-0.027233899 -0.042247493 -0.0029553068 0.10582126 0.59740418 -0.79492778 0.0052435636
-0.025076363 -0.042127132 -0.0027578878 0.076320812 0.57261002 -0.81626767 0.0079057738
-0.022643186 -0.042538293 -0.0028089238 0.08032614 0.54932904 -0.83173639 0.0053752977
-0.019628601 -0.042669058 -0.0025800334 0.072856352 0.53205329 -0.84357053 0.0035621154
-0.01648492 -0.042921305 -0.0024442163 0.065211035 0.52440107 -0.84897065 0.0029957576
-0.013716036 -0.042911414 -0.0022394569 -0.04473538 0.49185783 -0.86952555 0.0090688979
-0.037203569 -0.03982047 -0.0022519857 -0.005173313 0.055895042 -0.99842328 0.0050503178
-0.034266178 -0.039963689 -0.0023704614 0.013935611 0.05174458 -0.99856311 0.004989712
-0.031585656 -0.040263508 -0.0023813921 0.0081739891 0.22487292 -0.97435385 0.0041190768
-0.028668603 -0.04033383 -0.0022382482 0.067377582 0.26208138 -0.96269083 0.0029670275
-0.025669722 -0.040239248 -0.0020172279 0.084343232 0.31127837 -0.94656855 0.0038519595
-0.022414925 -0.040490795 -0.0018549492 0.072082706 0.33008265 -0.94119579 0.0039190911
-0.019385351 -0.040466737 -0.0015830708 0.080088541 0.32053658 -0.94384438 0.0039502624
-0.016476151 -0.040486436 -0.0013433999 0.069686964 0.32535321 -0.94302124 0.004168639
-0.013751406 -0.040415216 -0.0011257721 0.0054247393 0.34680268 -0.93792248 0.0041684648
-0.037196916 -0.037402544 -0.0021960975 0.0017401632 -0.045959916 -0.99894178 0.0011446351
-0.034519427 -0.037289865 -0.0023043756 -0.0051698955 0.055896845 -0.99842316 0.0050503826
-0.031442121 -0.037456244 -0.0021123316 0.079455458 0.0752602 -0.99399334 0.0041069011
-0.028315702 -0.037367988 -0.0017480099 0.071115389 0.099725351 -0.99247038 0.0047541666
-0.025406584 -0.037477482 -0.0014992912 0.073350601 0.10829951 -0.99140859 0.004706888
-0.022556772 -0.037427977 -0.0012652327 0.079548694 0.12757154 -0.98863417 0.0060192449
-0.019623749 -0.037457652 -0.0010239397 0.088634223 0.13235228 -0.98723191 0.0056829853
-0.01654315 -0.037412949 -0.00076577277 0.095928654 0.081155926 -0.99207431 0.0019945663
-0.013479482 -0.037355471 -0.00051165355 0.067961112 0.11040822 -0.99156004 0.0084145702
-0.011490554 -0.036580503 -0.00029765425 0.083929598 0.0094554983 -0.99642682 0.0022876684
-0.037101824 -0.034358907 -0.0024353887 0.060283463 -0.093386829 -0.9938032 0.0011904244
-0.034283299 -0.03444251 -0.0024020029 0.049547192 -0.087259293 -0.99495274 0.0011797549
-0.031227194 -0.034414437 -0.0021592581 0.094071195 -0.069148831 -0.99316114 0.00024290007
-0.028317448 -0.034446158 -0.0019036131 0.088525675 -0.059397828 -0.99430132 9.6211661e-05
-0.025405798 -0.034550495 -0.0016447586 0.08126843 -0.02465055 -0.99638742 0.0021385567
-0.022456642 -0.034524146 -0.001411436 0.086997643 -0.071070954 -0.99367017 7.8873672e-05
-0.019548865 -0.034480833 -0.0011610803 0.083599389 -0.068962008 -0.99411035 8.5399413e-05
-0.016633417 -0.034631629 -0.00088145479 0.093299568 -0.063102826 -0.99363637 8.5756692e-05
-0.013457614 -0.034397852 -0.00060852681 0.099366747 -0.058323167 -0.99334019 5.8481401e-05
-0.010503759 -0.034411233 -0.00032796615 0.097756743 -0.053555373 -0.99376833 4.7495967e-05
-0.0077704168 -0.033440057 -0.00011910529 0.11081516 -0.05012098 -0.99257642 5.3998683e-05
-0.037280925 -0.031703394 -0.0027387303 -0.0087242415 -0.12197214 -0.99249518 0.0030930864
-0.034483317 -0.031614468 -0.0027068385 0.07674925 -0.14605439 -0.98629498 0.0010102704
-0.031393398 -0.031342898 -0.002392916 0.097201347 -0.097905092 -0.99043757 0.00015982446
-0.028218925 -0.031392209 -0.0021158922 0.086641431 -0.09269771 -0.99191755 0.00010420922
-0.025208747 -0.03155715 -0.0018982956 0.078941129 -0.084707476 -0.99327385 1.0541468e-05
-0.022277888 -0.031542189 -0.0016746661 0.085135631 -0.084926359 -0.99274343 1.2181638e-05
-0.01938073 -0.031425536 -0.0014239309 0.094013065 -0.082628287 -0.99213612 1.4770651e-05
-0.016535636 -0.031595927 -0.0011367186 0.098111749 -0.076592341 -0.99222362 2.7258693e-05
-0.013638914 -0.031504422 -0.00083801552 0.10347385 -0.064550318 -0.99253535 5.2781619e-05
-0.010532994 -0.031491283 -0.00050381827 0.10977595 -0.054681022 -0.99245113 5.2445292e-05
-0.0075406269 -0.031464364 -0.00017748597 0.11536033 -0.043896765 -0.99235332 5.3917072e-05
-0.0057498501 -0.030202786 -1.6879685e-05 0.11937029 -0.03016015 -0.99239165 3.38961e-05
-0.039426398 -0.027247721 -0.0022041798 -0.20461658 -0.096842997 -0.97403985 0.0082551613
-0.038226612 -0.028363261 -0.0028480729 -0.14080292 -0.10643217 -0.98430014 0.014280895
-0.033773009 -0.029492185 -0.0028916711 0.10064032 -0.14857343 -0.98376697 0.0010041313
-0.031563263 -0.028580129 -0.0027171813 0.12751047 -0.13647492 -0.98240304 0.00010762086
-0.028739998 -0.028333027 -0.0024459008 0.1002287 -0.11807857 -0.98793304 9.9418867e-05
-0.025605988 -0.028641896 -0.0021699381 0.083436742 -0.10173319 -0.99130654 0.00012694631
-0.022434808 -0.028504409 -0.0019315981 0.089143559 -0.084506258 -0.99242741 2.8946162e-05
-0.019348053 -0.028412243 -0.0016525114 0.10145476 -0.075204886 -0.99199355 2.3065402e-05
-0.01640111 -0.028560188 -0.001338894 0.11036278 -0.067419328 -0.99160212 2.4821469e-05
-0.013657031 -0.028472587 -0.0010304293 0.11389702 -0.058415987 -0.99177372 3.7170372e-05
-0.010493967 -0.028476125 -0.00065221521 0.12041646 -0.047055442 -0.99160761 4.2807133e-05
-0.0074005565 -0.028535655 -0.00026986119 0.11855448 -0.032221258 -0.99242461 3.3102096e-05
-0.005600465 -0.028174527 -5.7065143e-05 0.12658326 -0.027203843 -0.99158287 2.63038e-05
-0.038654055 -0.026589228 -0.0029301208 -0.2136652 -0.16681841 -0.96255851 0.0095571838
-0.030619837 -0.026345529 -0.0029187619 0.1473064 -0.16545436 -0.97515422 0.00030884281
-0.02843079 -0.025535276 -0.0027777851 0.11106066 -0.13016939 -0.98525202 0.00022494217
-0.025678471 -0.025526937 -0.002501816 0.10525121 -0.12192985 -0.98694241 9.9454119e-05
-0.022703756 -0.025494743 -0.0022203799 0.10290507 -0.096477084 -0.99000138 9.8691096e-05
-0.019532146 -0.025554826 -0.0018853304 0.10855629 -0.078092791 -0.99101824 5.149388e-05
-0.016361518 -0.025428321 -0.0015427036 0.11874892 -0.069106966 -0.99051654 4.5269036e-05
-0.013486085 -0.025545675 -0.0011758301 0.12739839 -0.056624219 -0.99023402 3.4303801e-05
-0.010470833 -0.025434 -0.00078623957 0.13219091 -0.043644365 -0.99026299 4.0707226e-05
-0.0073608817 -0.025488526 -0.0003636725 0.13587324 -0.032538194 -0.99019182 3.9960894e-05
-0.0053050634 -0.025484828 -7.8942416e-05 0.13955002 -0.023904562 -0.98992646 2.2547598e-05
-0.027254872 -0.023456357 -0.0029434911 0.13858637 -0.15814294 -0.97764236 0.00026600054
-0.025162812 -0.022698188 -0.0027954911 0.11547801 -0.13409957 -0.98421651 0.00017933588
-0.022505032 -0.022464259 -0.0025063287 0.12380481 -0.10599855 -0.98662895 0.00012988567
-0.019650925 -0.022538329 -0.0021537202 0.1258719 -0.090501413 -0.98790979 0.00011371465
-0.016566625 -0.022449108 -0.001770705 0.12855673 -0.07147111 -0.9891234 8.1578633e-05
-0.013407385 -0.022509053 -0.0013333412 0.14110506 -0.056678705 -0.98837084 4.9267648e-05
-0.010478994 -0.022565383 -0.00091274956 0.14500782 -0.043524355 -0.98847276 4.7278074e-05
-0.0075167827 -0.022421524 -0.00048120428 0.14818056 -0.031016374 -0.98847383 4.2851403e-05
-0.0051386165 -0.022332387 -0.00012254262 0.15107879 -0.021709759 -0.98828334 2.3844457e-05
-0.024119999 -0.020621421 -0.0029448818 0.13581768 -0.13602847 -0.98135102 9.3079805e-05
-0.022130875 -0.019609755 -0.0027948648 0.14590956 -0.11677209 -0.98238218 0.00014076407
-0.019487869 -0.01955146 -0.0024144121 0.138338 -0.10744457 -0.98453963 9.8181197e-05
-0.016498342 -0.019544102 -0.0019828426 0.15226178 -0.080388628 -0.98506552 0.0001349793
-0.013481535 -0.019385369 -0.001524888 0.15506695 -0.060255285 -0.98606473 7.1560942e-05
-0.010660863 -0.019538455 -0.0010725381 0.15854792 -0.04510878 -0.98632032 5.3638156e-05
-0.0076537454 -0.019534679 -0.00058939162 0.16074409 -0.032282013 -0.98646808 4.554055e-05
-0.0049434341 -0.019413026 -0.00014963045 0.16281246 -0.02207984 -0.98640996 2.6660529e-05
-0.021402285 -0.0175942 -0.0029420685 0.16952285 -0.1409954 -0.97538829 0.00016832222
-0.019308154 -0.016578816 -0.0027084961 0.16110669 -0.11104867 -0.98066962 0.0001228211
-0.016509516 -0.016473046 -0.0022299539 0.16966562 -0.086240165 -0.9817211 0.00012518378
-0.013505061 -0.016485358 -0.0017116455 0.17556442 -0.070138253 -0.98196632 0.00011059443
-0.010509364 -0.0165278 -0.0011893669 0.17308256 -0.051028304 -0.98358452 6.6750035e-05
-0.0068576951 -0.015773889 -0.00046897889 0.18887296 -0.031598985 -0.981493 5.893207e-05
-0.0049114805 -0.016516071 -0.00020453728 0.17797069 -0.023980135 -0.98374355 5.0949719e-05
-0.018671811 -0.01411989 -0.0028672051 0.19819416 -0.10797196 -0.97419775 0.00010007577
-0.016584506 -0.01343526 -0.0025316011 0.19971971 -0.10281303 -0.97444421 9.8977966e-05
-0.013450339 -0.013470136 -0.0019224737 0.18635221 -0.073721804 -0.9797132 8.160773e-05
-0.010439437 -0.013509489 -0.0013471058 0.18787657 -0.057964176 -0.98048079 7.4037453e-05
-0.0072349152 -0.013440266 -0.00062932377 0.19513886 -0.033364233 -0.98020798 7.687835e-05
-0.0052617271 -0.013173772 -0.00025576304 0.1947882 -0.026381614 -0.98049045 6.7403242e-05
-0.016230622 -0.010681979 -0.0027217858 0.20911489 -0.0938996 -0.9733724 0.00010278878
-0.013517285 -0.010465722 -0.002163758 0.2051948 -0.076476328 -0.97572869 9.1884976e-05
-0.010926537 -0.0099876504 -0.0015503061 0.2139686 -0.056391977 -0.97521144 9.9560071e-05
-0.008037637 -0.010507084 -0.00090790808 0.21066509 -0.040611435 -0.97671437 5.2893789e-05
-0.0051136697 -0.010503357 -0.00030310938 0.20634699 -0.028307192 -0.97806937 5.6707628e-05
-0.015584609 -0.0079133678 -0.0028495293 0.22985652 -0.092781208 -0.9687919 4.8182981e-05
-0.013425918 -0.0072004311 -0.0022984431 0.22779971 -0.074398361 -0.97086155 8.0530277e-05
-0.010667445 -0.0075993808 -0.0016456237 0.22414303 -0.062667355 -0.97253931 7.0715912e-05
-0.0077035371 -0.0075935246 -0.00097431033 0.22026952 -0.047284763 -0.97429234 6.3543099e-05
-0.0049174698 -0.0074975356 -0.00035878093 0.21821499 -0.03275349 -0.97535092 7.2090377e-05
-0.0028390947 -0.0068205413 -1.3707038e-05 0.23539266 -0.023791833 -0.97160912 0.00019626252
-0.015197408 -0.0050970325 -0.0028135669 0.24518999 -0.074139953 -0.966636 4.8185015e-05
-0.01342305 -0.0044295029 -0.0025377949 0.24191426 -0.07197535 -0.96762443 7.6462617e-05
-0.010231078 -0.0045567956 -0.001746539 0.23770931 -0.06377212 -0.96924067 7.0215028e-05
-0.0075927158 -0.0045231669 -0.0011029569 0.23501018 -0.046133373 -0.9708975 8.5077816e-05
-0.0048874533 -0.0044483226 -0.00045846991 0.23484193 -0.033654232 -0.97145081 6.7570814e-05
-0.0028062786 -0.0045008007 -5.798207e-05 0.25491741 -0.022832438 -0.96669322 0.00014585402
-0.013194178 -0.0017034453 -0.0026944627 0.25170073 -0.052027937 -0.96640563 0.00010283604
-0.010349886 -0.001415177 -0.0019762767 0.2489863 -0.045600597 -0.96743292 7.2218099e-05
-0.0073582125 -0.0015048216 -0.0011941411 0.2474419 -0.035380583 -0.96825653 5.6453006e-05
-0.0047297007 -0.0014088063 -0.00051962177 0.24899119 -0.024625544 -0.96819264 5.6174667e-05
-0.0027602802 -0.0015016028 -0.00011878356 0.26550689 -0.017546907 -0.96394926 0.00013409021
-0.013379062 0.0014247771 -0.0028581535 0.25783855 -0.0030308256 -0.9661833 0.00013957746
-0.010581119 0.0015429179 -0.0021206853 0.25612184 -0.0038441485 -0.9666369 0.00011067299
-0.0073788986 0.0013881068 -0.0012724791 0.25331932 -0.0073937098 -0.96735448 0.00011846167
-0.0047058742 0.0015347151 -0.00055746606 0.25398791 -5.0536044e-05 -0.96720743 4.400016e-05
-0.0027459126 0.0015524933 -0.00014854623 0.26903507 -0.00088226149 -0.96313 0.00011507037
-0.013130384 0.0045261644 -0.0027135392 0.25016323 0.036543861 -0.9675138 2.9993211e-05
-0.010080731 0.0044766683 -0.0019198633 0.25053468 0.031572845 -0.96759266 2.8426977e-05
-0.0074766134 0.0044003781 -0.0012437457 0.25163499 0.026739476 -0.96745276 1.8628645e-05
-0.0049292035 0.0045312066 -0.0005752393 0.25181255 0.023157276 -0.96749896 1.8143655e-05
-0.0027754323 0.004331856 -0.00013348789 0.26124945 0.016214853 -0.96513516 6.6372733e-05
-0.013207257 0.0076209567 -0.0025708673 0.23929329 0.06054005 -0.96905816 7.2885261e-05
-0.010527341 0.00763347 -0.0019084986 0.24239881 0.048810624 -0.96894807 5.1839164e-05
-0.0077394736 0.00755635 -0.0011999386 0.24349745 0.038000088 -0.96915686 3.6984071e-05
-0.005130386 0.0073674209 -0.00053169066 0.2435174 0.028573221 -0.96947557 3.2496773e-05
-0.002852961 0.0075298557 -7.3020587e-05 0.25196147 0.020107631 -0.96752834 6.1387989e-05
-0.01531835 0.010828724 -0.0029394939 0.23052615 0.084576942 -0.9693836 7.0036462e-05
-0.013909336 0.010600878 -0.0025263741 0.22198266 0.080382973 -0.9717316 6.7706613e-05
-0.010658387 0.010587937 -0.0017664244 0.22956215 0.062757984 -0.97126859 6.1228144e-05
-0.0071677202 0.010270432 -0.00093968678 0.23466238 0.041869417 -0.97117478 7.4872281e-05
-0.0041613672 0.010478832 -0.00021800115 0.2265784 0.027157398 -0.97361428 8.5009757e-05
-0.0028993338 0.010370172 -4.1590316e-05 0.23757565 0.020479392 -0.97115314 8.1519873e-05
-0.016063679 0.013732648 -0.0026897688 0.21125278 0.10311575 -0.97197706 8.7628519e-05
-0.013141915 0.013324626 -0.0021075942 0.20905362 0.086684123 -0.97405463 0.0001208873
-0.010287556 0.013524195 -0.0014731218 0.21716569 0.068129197 -0.97375435 7.9926525e-05
-0.0073664906 0.013358757 -0.00082896207 0.21644731 0.046277232 -0.9751969 0.00013908884
-0.0044824369 0.01346105 -0.00019220242 0.20685771 0.028651787 -0.97795147 0.00014340441
-0.018210687 0.017041359 -0.0027674758 0.19331184 0.12354288 -0.97332817 6.5302374e-05
-0.016055332 0.017073374 -0.002315673 0.19898421 0.11258816 -0.97351384 7.3202515e-05
-0.013209634 0.016472464 -0.0018495565 0.19398949 0.098620705 -0.97603381 9.1465583e-05
-0.010745788 0.016223252 -0.0013831469 0.19731636 0.080990694 -0.97698861 0.00012577107
-0.0079167057 0.016607273 -0.00076645694 0.19162978 0.056131694 -0.97986084 0.00024545979
-0.0047581149 0.016316166 -0.00019347848 0.192261 0.031063251 -0.98085213 0.00012593291
-0.021441856 0.02069819 -0.0028739832 0.18041337 0.13904341 -0.97371352 9.9887387e-05
-0.018709905 0.020122489 -0.0024404875 0.17482322 0.1261948 -0.97647929 0.00010084001
-0.016551992 0.019560946 -0.002223576 0.17896082 0.11797972 -0.97675681 7.0497423e-05
-0.013967078 0.020028664 -0.0015719547 0.17898355 0.10473706 -0.97826123 0.00012418168
-0.010431011 0.019820109 -0.00096586277 0.1664786 0.080739915 -0.98273391 0.00018360381
-0.0068405224 0.019754101 -0.00040759807 0.16239685 0.055617709 -0.98515683 0.0001155997
-0.0052711386 0.019007294 -0.00016939122 0.16688421 0.040997334 -0.98512381 0.00011111158
-0.024094876 0.023428962 -0.0029413134 0.14694646 0.16168183 -0.97584105 8.9562811e-05
-0.022198295 0.023042414 -0.0027089627 0.14363882 0.15196711 -0.97789264 6.8432317e-05
-0.019502068 0.022449035 -0.0023806046 0.16553923 0.13587399 -0.97679836 8.7107503e-05
-0.016487787 0.022841632 -0.0017086165 0.1715156 0.11054327 -0.97895998 9.6459204e-05
-0.012907246 0.022964746 -0.0011328246 0.1496657 0.081673883 -0.98535758 0.0001241987
-0.010920584 0.022052802 -0.00089134183 0.15212134 0.076720171 -0.9853797 0.00013658215
-0.0074693873 0.022431951 -0.00034983319 0.14805958 0.055315759 -0.98743027 3.6415066e-05
-0.0052088057 0.022202171 -0.000137376 0.15211743 0.045867659 -0.98729753 4.2485306e-05
-0.028073497 0.026678357 -0.0029610277 0.12623169 0.17268094 -0.97685564 8.666428e-05
-0.025517792 0.025769919 -0.0027624343 0.1237117 0.15684016 -0.97984523 6.0372524e-05
-0.022568764 0.025449151 -0.0024369003 0.13712861 0.14388748 -0.98004705 6.9156114e-05
-0.019549165 0.02534448 -0.0020162361 0.14411391 0.12615734 -0.98148638 0.00019734878
-0.016548064 0.025540551 -0.0015343183 0.14215104 0.10242994 -0.98453099 0.00018514603
-0.0134516 0.025601605 -0.0010767982 0.13726 0.074543059 -0.98772621 0.00013280625
-0.010056363 0.025991816 -0.00050124887 0.13096887 0.053764503 -0.98992753 0.00012009731
-0.0079618236 0.025081478 -0.00027654681 0.1349071 0.048324827 -0.98967916 0.00011349529
-0.0054395478 0.025022388 -2.2048813e-05 0.14020735 0.034490343 -0.98952127 8.3383871e-05
-0.031146692 0.02934191 -0.0028445655 0.11454905 0.17248437 -0.97832906 0.00010049335
-0.028380893 0.028641345 -0.0026422644 0.11403283 0.15331089 -0.98157644 0.00011412473
-0.025369756 0.028521733 -0.0023263681 0.11695801 0.14005542 -0.98321176 8.4866806e-05
-0.022422103 0.028421856 -0.0019971917 0.11927356 0.13021544 -0.98428541 0.00013011326
-0.019512532 0.028453665 -0.0016300258 0.12084554 0.10772467 -0.9868089 0.00013704543
-0.015952727 0.027793624 -0.0011264726 0.13637258 0.080180012 -0.98740757 0.00016540896
-0.013292661 0.028569181 -0.00088348106 0.11846437 0.065898038 -0.99076927 9.1245442e-05
-0.010714922 0.028837327 -0.00044389599 0.11369173 0.05025737 -0.99224412 8.3300831e-05
-0.0073742219 0.028595567 -0.00017305202 0.11325797 0.027513005 -0.99318463 6.9538037e-05
-0.037503164 0.031913448 -0.0027385782 0.0078868167 0.15341893 -0.98812979 0.00073885074
-0.034356676 0.031724289 -0.0028301931 0.056110423 0.15913883 -0.98566043 0.0013622345
-0.03139548 0.031592615 -0.0025376496 0.10458952 0.13675252 -0.98506844 0.00011786668
-0.028465603 0.031469859 -0.0022527049 0.10173929 0.13072234 -0.98618495 0.00012443998
-0.025549714 0.031341758 -0.0019750169 0.10498209 0.12367468 -0.98675394 0.00016397136
-0.022701569 0.031319007 -0.0016884375 0.10069272 0.10244647 -0.98962909 7.4206306e-05
-0.019575823 0.031584851 -0.0013304392 0.10595487 0.077263661 -0.99136472 0.00020931615
-0.016613558 0.031544041 -0.0010184557 0.10225302 0.065084271 -0.99262702 0.00014575303
-0.013479678 0.031587657 -0.00070160639 0.10491394 0.057621285 -0.99281061 6.5586806e-05
-0.010450269 0.031538427 -0.00038965928 0.10656387 0.045337006 -0.99327177 4.5655499e-05
-0.0077389809 0.031399604 -0.00010376436 0.10539334 0.03408736 -0.99384624 3.5002253e-05
-0.03720928 0.034170195 -0.0024710775 0.03423145 0.12573151 -0.99147356 0.0013966489
-0.034354147 0.03467799 -0.0024653731 0.035418302 0.10255083 -0.99409699 0.0013610745
-0.031554364 0.034536965 -0.0021997751 0.098128714 0.092415974 -0.9908734 0.00036850496
-0.028586606 0.034377012 -0.0019375898 0.10416076 0.088999294 -0.99057037 0.00032155385
-0.025503423 0.034378089 -0.001648933 0.089386463 0.087342449 -0.99215996 0.00025575914
-0.022305779 0.034482814 -0.0013450758 0.094730012 0.066623837 -0.99327111 0.00013821332
-0.01932643 0.034727372 -0.0010535563 0.094908305 0.056755494 -0.9938668 0.00010393921
-0.016681423 0.034346852 -0.00085416209 0.086600207 0.044392984 -0.99525356 9.6402073e-05
-0.014042656 0.033974085 -0.00052868424 0.10347039 0.021203449 -0.99440652 0.00047999102
-0.010650134 0.034480624 -0.00029646597 0.095970519 0.016799374 -0.99524242 0.00012523352
-0.0082339672 0.034264334 -7.0002701e-05 0.095776506 0.013559162 -0.99531054 0.000104755
-0.040325042 0.038716916 -0.00077998673 -0.3673639 -0.50465775 -0.78125823 0.028605791
-0.037309024 0.03740963 -0.0022261885 -0.19418058 -0.065332606 -0.97878784 0.012917431
-0.034412671 0.037424073 -0.0023399263 0.033417352 -0.033260621 -0.9988879 0.0027510978
-0.031226993 0.037545271 -0.0020901621 0.078907341 -0.053144727 -0.99546438 0.0027606706
-0.028529206 0.037507288 -0.0017303181 0.085845098 -0.07701391 -0.9933275 0.0037455829
-0.025815168 0.037915267 -0.0014176007 0.072043605 -0.2503463 -0.9654721 0.0039083031
-0.022508841 0.037680604 -0.0012476635 0.084932402 -0.10941754 -0.99036074 0.0047243796
-0.01934042 0.037551261 -0.0009769625 0.083489634 -0.11969779 -0.98929363 0.0050806538
-0.016692784 0.037687883 -0.00064427959 0.073303916 -0.11915673 -0.99016571 0.0034956215
-0.013562961 0.037799098 -0.00051201496 0.091294333 -0.074378937 -0.99304235 0.0015191679
-0.010714191 0.037538238 -0.00027905847 0.080712795 -0.093889982 -0.99230546 0.0023189445
-0.0080426605 0.037978344 -0.00010130866 0.10751106 -0.094093971 -0.98974121 0.0026421121
-0.0055578942 0.038840752 -1.7825794e-05 0.080647595 -0.15255551 -0.98499888 0.0034329596
-0.04542616 0.041331042 -0.00042390835 -0.34166509 -0.78540081 -0.5161497 0.016215228
-0.043405887 0.041304395 -0.0011597633 -0.37791312 -0.66137308 -0.6478945 0.010342432
-0.040504795 0.040694851 -0.0017671817 -0.37991023 -0.53289962 -0.7560994 0.031429637
-0.037332904 0.04066316 -0.0023562543 -0.17915662 -0.3277348 -0.92762756 0.025621947
-0.034394063 0.040715437 -0.0022838996 0.046445265 -0.49296674 -0.86880761 0.014621001
-0.031578198 0.040675692 -0.002205913 0.041627228 -0.45877531 -0.8875767 0.0095698517
-0.028439227 0.040858477 -0.0020987764 0.055815738 -0.38956049 -0.91930801 0.010921722
-0.025299001 0.040457316 -0.0018096264 0.077560998 -0.37477651 -0.92386514 0.0075052492
-0.022622608 0.040738232 -0.001679345 0.095897608 -0.36409944 -0.9264099 0.0040139393
-0.019504972 0.040634409 -0.0013620809 0.068694994 -0.34882417 -0.93466717 0.0040925923
-0.016292829 0.040594239 -0.0011099136 0.069943808 -0.34839165 -0.93473589 0.0037164576
-0.013584224 0.04058129 -0.00091522071 0.061911006 -0.36047316 -0.9307127 0.0037779901
-0.010576438 0.040775247 -0.00082931132 0.033177059 -0.3870759 -0.92145073 0.0031489665
-0.0075303721 0.04085806 -0.00073694286 0.0098912409 -0.41765738 -0.90855074 0.0049884245
-0.0044610491 0.040885173 -0.00067475048 -0.002300137 -0.49499056 -0.86889535 0.0049059638
-0.0014761242 0.040994763 -0.00070180488 0.0022623104 -0.5701282 -0.82155263 0.0057452768
0.0014983724 0.041065745 -0.00080423459 -0.037739053 -0.63684529 -0.77006739 0.0099379458
0.0045432122 0.0410535 -0.0013844746 -0.10906684 -0.79544145 -0.59613538 0.0037107337
0.0075036772 0.040617142 -0.001452568 -0.061418861 -0.86627924 -0.49577019 0.0019155245
0.010498941 0.040358558 -0.001419766 -0.020392455 -0.90425509 -0.42650539 0.002425672
0.01348857 0.040442102 -0.0013866527 0.089052729 -0.9373703 -0.33675873 0.0042087096
0.016499199 0.040864557 -0.0014880132 0.17417462 -0.95621437 -0.23519625 0.0040169079
0.019464519 0.041491181 -0.0014945326 0.22684386 -0.96180552 -0.15320584 0.0023011332
0.021328989 0.04192429 -0.00083138177 0.26617065 -0.95974857 -0.089642718 0.0027817171
-0.049469657 0.04375061 -0.0014841757 -0.21535389 -0.89948493 -0.38019684 0.015830537
-0.046534128 0.043808091 -0.001651548 -0.2213916 -0.84350395 -0.48937395 0.026087455
-0.043634284 0.043188501 -0.0025372508 -0.27039471 -0.72552985 -0.63284528 0.0078252889
-0.040590923 0.04244712 -0.0028168624 -0.17891079 -0.74995321 -0.63683683 0.0089767082
-0.037869625 0.042243626 -0.0028329473 -0.036179408 -0.73941863 -0.67227304 0.0095902625
-0.034947261 0.042084031 -0.0028646956 0.0028989799 -0.73611176 -0.67685384 0.011071404
-0.031378098 0.042183146 -0.002792133 0.066112816 -0.68033856 -0.72990996 0.0084554609
-0.028447228 0.042435259 -0.0027558806 0.062693842 -0.61494011 -0.78607768 0.007296118
-0.025489021 0.042557973 -0.0026609211 0.075725667 -0.56951177 -0.81848764 0.005956688
-0.022306863 0.042840563 -0.0025730364 0.09086895 -0.52940673 -0.84348756 0.0044382825
-0.019483238 0.042900961 -0.0023325023 0.080781594 -0.50760901 -0.8577922 0.0034575325
-0.016540794 0.043194048 -0.0022257552 0.062674135 -0.49916959 -0.86423475 0.0032247365
-0.013548639 0.043398831 -0.0021442866 0.023162475 -0.51459509 -0.85712039 0.0032044798
-0.010517118 0.043577172 -0.002248809 -0.015679436 -0.56032771 -0.82812262 0.0021686773
-0.0076042642 0.043405361 -0.0022060713 -0.023155313 -0.58241946 -0.81255853 0.0024590795
-0.0045441571 0.043126382 -0.0021920861 -0.04881743 -0.63596755 -0.77017015 0.0028325194
-0.0015124554 0.042895842 -0.002245347 -0.078798234 -0.70110482 -0.708691 0.0034904173
0.0011961446 0.042579107 -0.0023223883 -0.14445035 -0.73154563 -0.66631448 0.0028542699
0.003566043 0.042261742 -0.0027785641 -0.16193888 -0.77561367 -0.61008132 0.0014848118
0.022688916 0.042391911 -0.0015714443 0.27586192 -0.96013451 -0.045187835 0.0034507788
0.025450792 0.043329835 -0.0015089475 0.33952457 -0.93925118 0.050301854 0.0026894212
0.028262392 0.044418722 -0.0016681383 0.36245024 -0.92019802 0.14786938 0.0032094216
0.030054618 0.044974662 -0.0027727452 0.4332884 -0.88721663 0.15845434 0.0060592783
0.029688649 0.045244545 -0.00086122879 0.44190058 -0.86981434 0.21942401 0.0033287988
0.031538434 0.045977823 -0.0015537313 0.43144616 -0.86196715 0.26620832 0.0020227949
0.034175865 0.047304429 -0.0017445227 0.45534787 -0.81876361 0.34969205 0.0038580098
0.036296807 0.047961418 -0.0029368687 0.49131194 -0.77561486 0.39627546 0.0031654208
0.035425685 0.048493184 -0.00088609091 0.48092502 -0.76918197 0.42079711 0.0027195925
0.037473567 0.049488287 -0.0016071644 0.51957691 -0.70201129 0.48705235 0.0049017528
0.039578564 0.050469853 -0.0024192538 0.57780701 -0.65058202 0.49283069 0.0022100885
0.038875699 0.051478796 -0.0005910995 0.60113889 -0.51505631 0.61102289 0.0027573314
0.040581338 0.052417554 -0.001494348 0.64775413 -0.50243908 0.57268631 0.003976929
0.042285517 0.053389903 -0.0025498779 0.68531901 -0.49483275 0.53430188 0.0031771702
0.041574582 0.054777145 -0.00083022309 0.68723005 -0.37118039 0.6244517 0.0037186169
0.043036509 0.055701219 -0.0020053904 0.75170207 -0.38005257 0.53898418 0.0029495119
0.043483961 0.058501683 -0.0016113082 0.76220971 -0.13270248 0.63358223 0.0042894366
0.041425481 0.062684342 -1.0263711e-05 0.62054199 0.096427061 0.77822196 0.0013721683
0.043488842 0.061566986 -0.0016586292 0.6968475 0.034177065 0.71640456 0.001481819
0.041449837 0.064427465 -0.0003172835 0.64208627 0.13745865 0.75420851 0.00038305778
0.043502104 0.064472198 -0.0021015196 0.68762195 0.14369689 0.71170729 0.00073089323
0.040938579 0.067737564 -0.00058470533 0.60897124 0.17814155 0.77292925 0.00040086228
0.042918835 0.067198269 -0.0021650463 0.67702234 0.19330102 0.71012354 0.0011438987
0.040283214 0.070953496 -0.00090287556 0.62042856 0.24096349 0.7463277 0.0010125203
0.042418759 0.070033662 -0.0024988023 0.69460011 0.25580698 0.67237908 0.00074445416
0.038629614 0.07377556 -0.00048774161 0.58505982 0.26368508 0.76692581 0.0016856019
0.040297098 0.07305567 -0.0016646652 0.64568377 0.26738575 0.71526033 0.0018920554
0.013932422 -0.078159891 0.0010187468 -0.14232573 -0.98096049 0.13213594 0.0029632933
0.01646933 -0.078349292 0.0012469525 -0.073128901 -0.97004998 0.231636 0.0028626781
0.019459808 -0.078483105 0.0012002205 -0.021072209 -0.94874638 0.3153353 0.0031727899
0.022414422 -0.078499384 0.0010425318 0.033500958 -0.90957439 0.41418847 0.0039162994
0.025282227 -0.078415528 0.00077002234 0.0813035 -0.86762965 0.49051878 0.0030462935
0.02838354 -0.078269154 0.0003095904 0.13802823 -0.82343221 0.5503704 0.0023282913
0.0020403115 -0.07541085 0.0018755617 -0.34412912 -0.91039753 -0.22967686 0.0036512401
0.0045379782 -0.076193936 0.0015802499 -0.28428045 -0.94530481 -0.15994807 0.0045352257
0.0075802058 -0.077000521 0.0014734244 -0.23186122 -0.97195405 -0.039314788 0.0036846485
0.010539715 -0.077602632 0.0015512783 -0.15918027 -0.98521066 0.063416518 0.003948173
0.013116598 -0.077873133 0.0021472902 -0.09177205 -0.98373801 0.15439372 0.0029464539
0.016556131 -0.077921875 0.002823418 -0.012126664 -0.96045756 0.27816206 0.0027741652
0.019733684 -0.077865221 0.0027923184 0.053518146 -0.9016059 0.4292348 0.0029001366
0.022616675 -0.077691324 0.0026001318 0.10038915 -0.88175946 0.46089289 0.0029081125
0.025615247 -0.077399127 0.0022764634 0.13215607 -0.8418321 0.52331012 0.002334727
0.028392373 -0.077267893 0.0015922695 0.17733161 -0.79167467 0.58464068 0.0025597538
0.031459238 -0.076490909 0.0013320585 0.27545628 -0.65741527 0.7013765 0.0030406495
0.034271374 -0.075822905 0.00064937712 0.3959378 -0.55851161 0.72890192 0.0028445844
0.036307059 -0.075169295 4.3728134e-05 0.44402614 -0.55396789 0.70424461 0.0031199132
-0.0008411032 -0.07383094 0.0015394368 -0.48766899 -0.82086307 -0.297259 0.0029548418
0.0007939905 -0.074656993 0.0011232104 -0.4065088 -0.86937934 -0.28094518 0.0016395742
0.032409083 -0.074408934 0.0025204788 0.36202964 -0.51455992 0.7772789 0.0023283726
0.034534074 -0.073641874 0.0018192152 0.42379987 -0.39516434 0.8150084 0.0038921712
0.036942139 -0.07322365 0.00061934954 0.51233518 -0.35752442 0.78082585 0.002561308
-0.010111485 -0.069486491 0.0026029041 -0.38810962 -0.81195831 -0.43599847 0.011931083
-0.0072028665 -0.069761887 0.001548041 -0.34643868 -0.82151902 -0.45286518 0.0084787235
-0.0047090305 -0.070572071 0.001591908 -0.43542254 -0.81760567 -0.37673357 0.0041049663
-0.0024942562 -0.071354248 0.0011462857 -0.57907033 -0.74659395 -0.32752883 0.00535656
0.035292469 -0.070523888 0.00245811 0.50394207 -0.21442063 0.83669955 0.00047014974
0.03750683 -0.070282683 0.0011218471 0.54995441 -0.21213177 0.8078059 0.00052316161
0.039226338 -0.069299579 0.00018972761 0.58252895 -0.20006204 0.78780401 0.00068899465
-0.018386411 -0.066173658 0.0028340528 -0.22803408 -0.78349566 -0.57804406 0.0029786832
-0.016394155 -0.066471815 0.0024850003 -0.25748929 -0.80173117 -0.5393759 0.0090509616
-0.013425861 -0.067143299 0.0019232655 -0.31694621 -0.79615986 -0.51543629 0.011854238
-0.011020881 -0.067542322 0.0011265017 -0.36188525 -0.79300809 -0.49007878 0.013055183
-0.0082646264 -0.068522677 0.00072444277 -0.3864041 -0.74743652 -0.54039848 0.0087162461
0.035880551 -0.066975929 0.0028349161 0.51798493 -0.16519946 0.83928585 0.00012541577
0.037556037 -0.067053564 0.0017826383 0.53733456 -0.16460241 0.82715034 0.00027256444
0.039556649 -0.066735268 0.00052744034 0.58466262 -0.1663067 0.79404765 0.00066365825
-0.030172719 -0.063130192 0.0027233984 -0.20529385 -0.87856764 -0.43124628 0.0041611758
-0.028158309 -0.063388549 0.0024524699 -0.17790024 -0.84656668 -0.50167346 0.0009861564
-0.025388129 -0.063704528 0.002050139 -0.17039666 -0.83307981 -0.52625376 0.0013103626
-0.022447245 -0.064010113 0.0015619661 -0.15265627 -0.8115083 -0.56404805 0.0039040968
-0.019540641 -0.064616434 0.0014771862 -0.21098851 -0.79671347 -0.56633157 0.0060481126
-0.01667914 -0.065012284 0.0011928525 -0.25183848 -0.77762181 -0.57609183 0.0060649887
-0.014192316 -0.065565616 0.00079794537 -0.31759316 -0.71439564 -0.62351698 0.004485284
0.037642673 -0.064482607 0.0021881904 0.54103857 -0.13269089 0.83046401 0.00016541213
0.040186152 -0.064953879 0.00040306224 0.58536816 -0.13569839 0.79933107 0.00067035219
-0.042732853 -0.06017508 0.0025441572 -0.23268014 -0.93201268 -0.27787104 0.0052298321
-0.040265545 -0.060477003 0.0018308755 -0.1971731 -0.92141104 -0.33484995 0.00068413204
