# .PCD v0.7 - Point Cloud Data file format
VERSION 0.7
FIELDS x y z normal_x normal_y normal_z curvature
SIZE 4 4 4 4 4 4 4
TYPE F F F F F F F
COUNT 1 1 1 1 1 1 1
WIDTH 564
HEIGHT 1
VIEWPOINT 0 0 0 1 0 0 0
POINTS 564
DATA ascii
0.004380296 0.071144514 0.016001755 0.033134948 0.68690425 0.7259922 0.002238323
0.0069893599 0.07086885 0.015727839 0.15302052 0.62201309 0.76790905 0.0029945553
0.0098003969 0.069605097 0.015334604 0.37540227 0.41964087 0.82642281 0.0033812507
-0.00085193984 0.072105251 0.015066523 -0.10207722 0.72963625 0.67617381 0.0012604328
0.0014166791 0.072204746 0.015153984 -0.050169796 0.72613835 0.68571573 0.0022518849
0.0037597374 0.072186485 0.015200272 0.015859591 0.71663201 0.69727111 0.0026189392
-0.033515342 -0.066230915 0.019682551 -0.35991791 -0.90996748 0.20595707 0.0021792969
-0.03150624 -0.066853508 0.019526437 -0.26173913 -0.95748645 0.12129459 0.0010954062
-0.028387995 -0.067586929 0.01947581 -0.20425999 -0.97545183 0.082290329 0.00034675392
-0.025208753 -0.068129733 0.019519225 -0.170564 -0.98287767 0.069709271 4.4759043e-05
-0.022736181 -0.068522163 0.018772997 -0.11623393 -0.99279219 0.029211877 0.0043683248
-0.0008951287 -0.067598768 0.018156607 -0.025649074 -0.61249143 0.79006106 0.0019356676
0.0020948306 -0.067524947 0.018167023 0.017100487 -0.59011382 0.80713898 0.00068566873
-0.042198621 -0.063115098 0.018461168 -0.40259686 -0.83294946 0.37961957 0.0027117673
-0.040092997 -0.063529752 0.019662265 -0.4408167 -0.80434704 0.39837977 0.001789429
-0.037570447 -0.064708911 0.019587636 -0.39527202 -0.86636823 0.30523121 0.0016378891
-0.035013199 -0.065662824 0.019862356 -0.37661409 -0.89966184 0.22084023 0.0024119497
-0.048561078 -0.060185362 0.01834628 -0.5356409 -0.74884516 0.39028153 0.014462511
-0.046336971 -0.060676429 0.019267885 -0.44950962 -0.75670874 0.4746924 0.0064828158
-0.043558843 -0.061836973 0.019566674 -0.41685042 -0.78492188 0.45840305 0.0022040487
-0.041363962 -0.062652066 0.020183666 -0.45093983 -0.76774418 0.45521653 0.0041943262
-0.051296663 -0.057514552 0.018552827 -0.81493932 -0.45313832 0.36130258 0.014261484
-0.048888613 -0.05866849 0.019595278 -0.5971278 -0.59496546 0.5380097 0.016452109
-0.047026873 -0.059348419 0.020549905 -0.4646852 -0.6696493 0.57934231 0.009093781
-0.051557336 -0.055334155 0.019310264 -0.86713666 -0.24563766 0.4332853 0.012365264
-0.050602004 -0.056092445 0.020495132 -0.78217542 -0.31353363 0.53842211 0.011263472
-0.051948462 -0.052498471 0.019499196 -0.91476625 -0.10766371 0.3893728 0.0079178857
0.010330453 -0.052577514 0.0182209 0.44796205 -0.010203979 0.89399433 0.00073303399
-0.052099358 -0.04949243 0.019529367 -0.92014503 -0.0027133971 0.39156833 0.0096153272
0.0068555595 -0.048488617 0.019893525 0.42574242 0.023429301 0.90454108 0.00055206486
0.0098769795 -0.049491156 0.018498288 0.43264699 0.023352951 0.90126091 0.00068005751
-0.051981639 -0.046498898 0.01953827 -0.90500671 0.1208483 0.40787074 0.0089783287
0.005050981 -0.045577757 0.020413816 0.42573294 0.023410728 0.90454596 0.00055282132
0.0076696193 -0.047000464 0.019299367 0.42574242 0.023429301 0.90454108 0.00055206486
-0.05163658 -0.043577503 0.019322474 -0.84813744 0.27877152 0.45049897 0.01430957
-0.050215688 -0.042625751 0.020672508 -0.71602583 0.32065582 0.6200701 0.0098020239
0.0054105772 -0.04481538 0.020149624 0.038170189 -0.62033576 0.78340703 0.03625283
-0.051309455 -0.041269243 0.018744763 -0.75291634 0.49014181 0.43917868 0.016940489
-0.04916719 -0.040358488 0.019698432 -0.71594214 0.53933752 0.44333047 0.013806065
-0.047923643 -0.039272327 0.020875383 -0.75605035 0.48375329 0.44087481 0.0068030963
-0.048431844 -0.038497563 0.019010646 -0.71801096 0.62597817 0.30432165 0.018316494
-0.04706125 -0.037142642 0.019632781 -0.83481187 0.49602011 0.23885807 0.016611619
-0.045956537 -0.034488592 0.019521495 -0.96684045 0.18078867 0.18037422 0.016279556
-0.045960736 -0.031493943 0.019510573 -0.9881897 -1.9809184e-05 0.15323532 0.0059353095
-0.04597548 -0.028557723 0.019438935 -0.98398763 -0.11300841 0.13783099 0.018193474
-0.048066597 -0.024347568 0.018886622 -0.95002961 -0.31148595 -0.020498397 0.04339375
-0.046939339 -0.025356986 0.019495567 -0.95562381 -0.28888419 0.057697408 0.021936009
-0.048074625 -0.022473309 0.018779175 -0.99149722 -0.12972941 0.010175428 0.027752869
-0.04780991 -0.022450311 0.019659126 -0.99229223 -0.11943507 0.033037648 0.021212203
-0.016344137 -0.022134101 0.019111773 -0.93406308 0.30017775 0.19344142 0.099746846
-0.048075907 -0.019493174 0.018764341 -0.99969298 -0.0023061903 -0.024669755 0.013539467
-0.04780443 -0.019468026 0.019687692 -0.99583375 -0.016614402 0.089661822 0.013216847
-0.0480747 -0.016517306 0.018745607 -0.99933797 -0.00075279572 -0.036375187 0.01473883
-0.047798466 -0.016553067 0.019745819 -0.99009246 -0.01085247 0.13999712 0.014786116
-0.048074394 -0.013549186 0.018753095 -0.99932998 0.00032379825 -0.03659879 0.013972406
-0.047796801 -0.013535078 0.019783027 -0.99224919 0.010218085 0.12384318 0.011235381
-0.048077222 -0.010475366 0.018739536 -0.99962193 0.00057800749 -0.027489826 0.01338081
-0.047800448 -0.010466947 0.019768301 -0.99038744 -0.00032987585 0.1383204 0.015373015
-0.048081987 -0.0073876106 0.018711966 -0.99949467 0.0029133314 -0.031652249 0.014305321
-0.047805641 -0.0074434853 0.019728648 -0.9911207 -0.00020401433 0.13296533 0.013569984
-0.048084132 -0.004456562 0.0186719 -0.99928051 0.0027744849 -0.037826542 0.014341678
-0.04780294 -0.0044960906 0.019750105 -0.99153262 -0.0070447689 0.12966642 0.013992824
-0.04808367 -0.0015176845 0.018675504 -0.99952775 0.00061561796 -0.030723253 0.013245773
-0.047805149 -0.0014736069 0.019737698 -0.98865032 -0.018471977 0.14909512 0.014564094
-0.048084304 0.00153626 0.018674571 -0.99734485 0.00066640653 -0.072821297 0.0085272733
-0.047801867 0.0015164874 0.01974803 -0.98672152 -0.012275412 0.16195659 0.011761092
-0.048080996 0.00447733 0.018719515 -0.99807489 0.00044507784 -0.062019326 0.0078886319
-0.047799874 0.0045047216 0.019762227 -0.9856441 -0.00038994418 0.16883616 0.010210537
0.0083305864 0.0055921581 0.020231647 0.2890757 0.014171963 0.95720136 0.00036441159
-0.048083 0.0074577425 0.018702209 -0.99837506 0.0011689656 -0.056972571 0.0075897602
-0.047803551 0.007499062 0.019745128 -0.99235809 0.0019673288 0.12337572 0.012432639
-0.048079353 0.010482685 0.018746236 -0.99999321 -0.00016245698 -0.0036885368 0.0059855776
-0.047800507 0.010508242 0.019767439 -0.99015468 -0.00024665133 0.13997692 0.011822044
-0.048078366 0.013532152 0.018761961 -0.99803627 -0.00024293394 -0.0626387 0.0081681507
-0.047798131 0.013508282 0.019794075 -0.98890656 0.00020984547 0.14853893 0.011451221
-0.048079003 0.016532188 0.01875457 -0.99813712 0.00053425552 -0.061008614 0.0081670079
-0.047806922 0.016498981 0.019725855 -0.98987246 -0.001539728 0.14195174 0.010589163
-0.048075631 0.019466676 0.018798839 -0.99999267 0.00020141825 -0.0038033498 0.0066127018
-0.047797635 0.01949943 0.019798154 -0.9868167 0.0012994728 0.16183665 0.011331647
-0.048070703 0.022546109 0.018791933 -0.99745864 0.04648219 -0.053996801 0.011028269
-0.047802683 0.022516405 0.019747522 -0.9935717 0.051995751 0.10055716 0.014558063
-0.048068203 0.024615044 0.018817931 -0.99272168 0.1152956 0.034793738 0.019035688
-0.047439728 0.025560221 0.019567328 -0.9899537 0.1100031 0.088831596 0.012936373
-0.047183264 0.028504379 0.019510567 -0.98725563 0.050413705 0.15094589 0.010418492
-0.047186673 0.031495158 0.019467199 -0.98825365 -0.0014213101 0.15281573 0.0091136359
-0.047186773 0.034430712 0.019489476 -0.9857741 -0.082275584 0.14656106 0.0118514
-0.048348941 0.038706534 0.018823816 -0.80293649 -0.53119427 0.27041748 0.023448801
-0.047347236 0.037231263 0.01955137 -0.9340592 -0.28045011 0.22109085 0.019399419
-0.051234975 0.041352913 0.018686187 -0.7773518 -0.47763073 0.40938133 0.015542065
-0.049029589 0.040381052 0.019766146 -0.74646753 -0.49186853 0.44816458 0.021298371
-0.04780909 0.03923336 0.020582287 -0.78616458 -0.49402225 0.37133172 0.028095901
-0.051557381 0.043648701 0.019364864 -0.85511804 -0.27221069 0.44121933 0.012835662
-0.050415844 0.042996556 0.020604895 -0.75222486 -0.33478567 0.5675177 0.011614144
-0.051959138 0.04656291 0.01954009 -0.91547871 -0.10563059 0.38825366 0.0088048046
-0.05214664 0.04954638 0.01949765 -0.91593617 -0.0060851229 0.40127775 0.0128025
0.009626952 0.050095614 0.018681614 0.43909022 0.037148435 0.89767468 0.00094001234
-0.052013665 0.052512322 0.019499164 -0.90960884 0.11012524 0.40060464 0.01023874
0.0051201037 0.052951623 0.020531233 0.36272684 0.12847318 0.92299724 3.9175251e-05
0.0069904784 0.05374597 0.019659583 0.3766444 0.10945858 0.91986835 0.0002479672
0.0097775394 0.052582707 0.01854025 0.43909508 0.037179492 0.89767104 0.00093426055
-0.051627371 0.055428028 0.019383295 -0.82939404 0.30915576 0.46532586 0.015403812
-0.050146058 0.056402303 0.02070304 -0.63194102 0.39762762 0.66523886 0.010027044
0.0027372888 0.056291107 0.020956386 0.33442074 0.15720212 0.92922026 0.00070590695
0.0032727311 0.056781668 0.020693144 0.34314603 0.14106427 0.92862898 0.0005734255
0.0078097731 0.055073045 0.019147251 0.37765768 0.11247208 0.91908902 0.00019645863
0.010018678 0.054658424 0.01823733 0.41660792 0.095354162 0.90407157 0.00021384546
-0.051301043 0.057718497 0.018802473 -0.74443221 0.4861981 0.45763737 0.015216228
-0.049099106 0.058718562 0.019636517 -0.59139729 0.60421181 0.53401989 0.01100237
-0.047227785 0.059592076 0.020622503 -0.48310912 0.64414203 0.59303182 0.0090539046
0.0020648874 0.05921106 0.020612456 0.29193094 0.19222225 0.93692422 0.00027179412
0.0047318172 0.058582738 0.019899577 0.29445305 0.16122666 0.94196784 0.00037243497
0.0067445002 0.059038781 0.019133467 0.34728357 0.1392501 0.92736375 0.00041781506
0.0091829523 0.0587584 0.018193156 0.41357389 0.11232631 0.90351504 0.00013334221
-0.048525546 0.06043072 0.018632537 -0.51605827 0.71856314 0.46620917 0.0061763688
-0.046305727 0.061021719 0.019390943 -0.44911572 0.74263126 0.49678349 0.0058460278
-0.043611877 0.062135708 0.019760054 -0.40963483 0.80115831 0.43628505 0.002237404
-0.041586567 0.062751926 0.020574469 -0.44990039 0.77344263 0.44651553 0.0017116566
-0.0033620081 0.062934794 0.020796208 0.2414989 0.43399465 0.86794406 0.0064002927
-0.00091682642 0.062367968 0.020525407 0.15150575 0.33769974 0.92898059 0.0033017567
0.001537013 0.061620474 0.020202138 0.20715687 0.24948299 0.94596213 0.0014043681
0.004349391 0.061540246 0.019523084 0.25464267 0.17941906 0.9502452 0.00075920485
0.0073247906 0.061303899 0.018619606 0.34415627 0.1539707 0.92620164 0.00067682448
-0.042603608 0.06329006 0.018541886 -0.40902084 0.83108485 0.37682879 0.0036206236
-0.040409472 0.063938968 0.019367218 -0.39305353 0.84771115 0.35622278 0.0024613107
-0.037563231 0.065173149 0.019508425 -0.39679933 0.87606239 0.27397996 0.0013953923
-0.035611495 0.065797582 0.020204403 -0.3580901 0.90643674 0.22392826 0.0018716364
-0.009523089 0.065681741 0.020820234 0.28600502 0.81468415 0.50447083 0.011272504
-0.0069142119 0.065502338 0.020147759 0.13232626 0.67751336 0.72350907 0.0087416908
-0.0043353476 0.064990468 0.019970404 0.083309583 0.51708812 0.85186821 0.0053890017
-0.0014815619 0.064797081 0.019706482 0.078694776 0.42161629 0.90335315 0.0033303108
0.0011954404 0.064725779 0.019430572 0.094975926 0.37066332 0.92389846 0.0022162888
0.0045249416 0.06451495 0.018901095 0.22503936 0.24042547 0.94422078 0.001544374
0.0067472789 0.064445093 0.01830544 0.3085191 0.22429739 0.92439526 0.0014908039
-0.036149167 0.066069812 0.01835582 -0.35370654 0.91357952 0.20065928 0.0015064832
-0.034357961 0.066466972 0.019381233 -0.32430124 0.92844325 0.18116821 0.0010826167
-0.031507976 0.067299776 0.019522013 -0.26655525 0.95690042 0.11528151 0.00090668985
-0.028504902 0.068012394 0.019475391 -0.2057783 0.97472453 0.086991124 0.00058506144
-0.025426839 0.068553045 0.019594077 -0.15336643 0.98541504 0.073728181 0.00032091362
-0.022942431 0.068878137 0.019810839 -0.062824868 0.99434882 0.085577846 0.001170608
-0.019810455 0.06881839 0.019650428 0.059042122 0.99065459 0.12295347 0.00090102234
-0.016360288 0.068414263 0.018937508 0.1206767 0.9664222 0.22685951 0.004072187
-0.013516116 0.067700379 0.019379858 0.15854982 0.91066509 0.38151139 0.0063732807
-0.010277038 0.067238078 0.018968076 0.071195126 0.81653309 0.57289171 0.0065037906
-0.0075091957 0.067105472 0.018700453 -0.0075639142 0.70996147 0.70419997 0.0041049724
-0.0042711366 0.06722416 0.018541992 -0.030016439 0.61768895 0.78584945 0.0029609646
-0.0011931832 0.067454569 0.018474884 -0.030130723 0.56608355 0.82379705 0.0015687139
0.0013352623 0.067450859 0.018417783 0.041973442 0.47525945 0.87884396 0.0018218583
0.0041937209 0.066932708 0.018301461 0.19519965 0.34937385 0.91642511 0.0023721978
-0.022087568 0.069037363 0.018359421 -0.045142829 0.9951486 0.087414861 0.0018794507
-0.020750556 0.069042966 0.018225113 0.02254612 0.99265468 0.11886307 0.0013460194
-0.031546667 -0.066457048 0.022458218 -0.33101505 -0.93160164 0.15015826 0.0017454086
-0.028522901 -0.067326397 0.022228802 -0.22590582 -0.97006619 0.089096598 0.0008984775
-0.02568423 -0.067831427 0.022582222 -0.18133993 -0.97979027 0.084420659 0.00055285764
-0.023616791 -0.068083733 0.02295626 -0.14132155 -0.98574573 0.091288254 0.001008635
-0.039422348 -0.063135907 0.021410987 -0.49559829 -0.73893118 0.45646796 0.0034196929
-0.03756085 -0.063645661 0.022509459 -0.4815833 -0.7925747 0.37403587 0.0028878865
-0.034733023 -0.0649902 0.023055462 -0.47153905 -0.83015996 0.29746482 0.0033128301
-0.032692812 -0.065880388 0.023552738 -0.38055369 -0.90389109 0.19534558 0.0020054001
-0.042907126 -0.060615283 0.021782817 -0.47996098 -0.60096657 0.63912177 0.0051806229
-0.040564489 -0.061301384 0.022916976 -0.54095179 -0.65081704 0.53273666 0.003087962
-0.038156267 -0.062719017 0.023523567 -0.55938083 -0.7117902 0.42479146 0.001905479
-0.048758347 -0.057302661 0.021267803 -0.53991199 -0.49359003 0.68180931 0.009049532
-0.04614643 -0.058335882 0.021921322 -0.43209583 -0.56754816 0.70084393 0.0057902248
-0.043461796 -0.058474168 0.023210287 -0.51135164 -0.45935246 0.72630221 0.0058594258
-0.041396815 -0.059660099 0.023910502 -0.56024408 -0.56749427 0.60338777 0.0048288838
-0.051135536 -0.054427635 0.021100981 -0.74557835 -0.30991802 0.58996922 0.016976221
-0.049254071 -0.055243559 0.021948092 -0.56413329 -0.30671439 0.76660287 0.015442518
-0.046191644 -0.055388357 0.023342796 -0.43206468 -0.27609929 0.8585391 0.0039047142
-0.044698447 -0.056291122 0.023667106 -0.49087888 -0.31061032 0.81397742 0.0075632525
-0.051165391 -0.052156281 0.021410437 -0.79439294 -0.12016619 0.59539902 0.011856065
-0.049759701 -0.052507687 0.022384243 -0.63649315 -0.12874509 0.76046109 0.0097778244
-0.046591114 -0.052335631 0.02373126 -0.40851781 -0.1029421 0.90692675 0.0031848077
-0.051264171 -0.049652204 0.021475615 -0.80530792 -0.0054843081 0.59283143 0.011837536
-0.049716622 -0.049459368 0.022561805 -0.6379655 -0.0070307525 0.77003282 0.0095953522
-0.046600461 -0.049594946 0.023710735 -0.40892974 -0.036736533 0.91182613 0.0012755597
-0.051180992 -0.046571504 0.021414908 -0.7491408 0.12141851 0.65118778 0.00995088
-0.04966417 -0.046476319 0.022501951 -0.62626463 0.121219 0.77012897 0.0073614134
-0.047383759 -0.046518695 0.023710061 -0.45385799 0.0086404029 0.8910321 0.0036258602
-0.051113151 -0.044381846 0.02116942 -0.72575933 0.26924145 0.63307381 0.012463385
-0.049218938 -0.043607544 0.022127112 -0.6365515 0.29615346 0.71210617 0.0097236391
-0.047177769 -0.043348886 0.023549162 -0.56735128 0.17634694 0.80437195 0.0047451244
0.0021234343 -0.043384455 0.021747325 -0.44440025 0.51961803 -0.72972977 0.020552032
-0.048536163 -0.040999774 0.021678505 -0.69284046 0.39108977 0.6058225 0.01238363
-0.046986219 -0.040197898 0.022722168 -0.71694314 0.28516272 0.63614053 0.012547124
-0.046364557 -0.037529472 0.022348851 -0.8086952 0.33045447 0.48663324 0.011807494
-0.04457283 -0.036632884 0.023108596 -0.81749606 0.27588001 0.50555962 0.01326008
-0.045352086 -0.034408312 0.021699613 -0.87957501 0.14308971 0.45373237 0.015778763
-0.044548083 -0.03444 0.023130536 -0.85706449 0.15486218 0.49138406 0.018585725
-0.045369696 -0.031395022 0.021654358 -0.91678125 -0.00098986086 0.39938846 0.0051777633
-0.044584602 -0.031458665 0.023075052 -0.86016691 0.0034547211 0.510001 0.0040012184
-0.045370072 -0.028530762 0.021650285 -0.89263141 -0.16420779 0.41981533 0.016566461
-0.044631161 -0.028525399 0.023035996 -0.85922152 -0.15932576 0.4861621 0.015553542
-0.046497624 -0.025064955 0.022342937 -0.87933904 -0.27735347 0.38708901 0.0084095327
-0.044554029 -0.026592528 0.023226906 -0.82073528 -0.33802879 0.46057588 0.017378138
-0.046945065 -0.022510806 0.022485314 -0.9240585 -0.086132571 0.37242073 0.0079276795
-0.04693732 -0.01948083 0.022506775 -0.91812766 -0.0051062964 0.39625186 0.0057001202
-0.046920553 -0.016492287 0.022542184 -0.90754145 0.0011828392 0.41996092 0.0045512621
-0.046936557 -0.01349191 0.022504793 -0.90441531 -0.0027147112 0.42664462 0.0046148547
0.010413648 -0.013107108 0.02249803 0.62026876 0.74489558 0.24575837 0.0077671404
-0.046932828 -0.010460291 0.022519408 -0.90600926 -0.0020330583 0.42325291 0.0043970081
0.005000629 -0.0094172712 0.022859233 0.39248478 0.90199322 0.17989995 0.0033135319
0.0069518816 -0.0099844094 0.021786898 0.53185332 0.68040121 0.50416875 0.030994369
0.0093735559 -0.011716761 0.02131962 0.52451265 0.82714587 0.20178261 0.0027565137
-0.046946462 -0.0074509778 0.022492593 -0.90338737 -0.0032373969 0.42881313 0.0048178462
-0.003174294 -0.0078713559 0.023753969 0.094626382 0.55227196 0.82827622 0.06537056
-0.0012232962 -0.0080020763 0.023574421 0.17099653 0.80174559 0.57268149 0.056182683
0.001331191 -0.0079303253 0.022925513 0.19157328 0.82953662 0.52456516 0.027163982
0.0037993882 -0.0082471911 0.022224594 0.4028413 0.74272192 0.53486735 0.032749698
0.006429445 -0.0075068646 0.021054629 0.4551903 0.271099 0.8481198 0.074149065
-0.046951901 -0.0044905567 0.022481689 -0.90723854 -0.0030072902 0.42060566 0.0048846467
-0.0032521635 -0.0047308868 0.023576817 0.23277837 -0.067770965 0.97016567 0.012561001
-0.0010603823 -0.0046451436 0.023185613 0.29483029 0.03564994 0.95488441 0.048889745
0.0012930414 -0.0044832448 0.022435313 0.29414845 0.11615743 0.94867492 0.037559029
0.0039381469 -0.0046746014 0.021724697 0.27451703 0.0092559094 0.96153772 0.00011019348
0.0063298671 -0.0044865804 0.021082278 0.26307464 0.0031843199 0.96477026 5.7005185e-05
-0.046959233 -0.0014990171 0.022469968 -0.90937066 -0.0013145061 0.41598472 0.0045501185
-0.00045728605 -0.0011624548 0.023746744 0.3580972 -0.10857574 0.92734987 0.0045139235
0.0038445238 -0.0016807085 0.021750698 0.35155064 -0.020435678 0.93594581 0.0027145541
0.0062297205 -0.0014785581 0.021110492 0.25944084 -0.0001493586 0.96575904 0
-0.046952676 0.0015309528 0.022495585 -0.90977055 0.00025941679 0.41511145 0.0046446868
-0.00057643151 0.0015095561 0.023797087 0.33621728 0.12765175 0.93309325 0.004444716
0.002630712 0.0017930681 0.022076983 0.33544138 0.049093239 0.94078106 0.0033085274
0.0042867595 0.0011493808 0.021631613 0.34416443 0.0099942554 0.93885618 0.0022224172
0.0061348574 0.0015151652 0.021135198 0.28896776 0.0091034723 0.9572956 0.0003888933
-0.046955645 0.0045326473 0.022484973 -0.91523522 -0.0036832187 0.40290305 0.0055668061
-0.0037168958 0.0048637795 0.023799505 0.22270651 0.16178507 0.96136749 0.0040173051
-0.0010532935 0.0047138813 0.02315338 0.27716896 0.16064502 0.94729644 0.0032357126
0.0021466461 0.0045538084 0.022207661 0.30545872 0.058174346 0.95042664 0.0029830739
0.004707648 0.0045687309 0.021519439 0.28532028 0.013477799 0.95833749 0.00037864648
0.0060465555 0.0042002439 0.021159623 0.28907987 0.014172719 0.95720011 0.00036633652
-0.046936061 0.007515911 0.022525124 -0.90780568 0.0003985416 0.4193908 0.0047015459
-0.0034379845 0.0073847594 0.023708051 0.25315258 0.0030096455 0.96742171 0.01138456
-0.0013656297 0.0078843199 0.023406345 0.15187055 -0.55599195 0.81719536 0.0062378841
0.0018462783 0.006932301 0.022289161 0.29678464 0.065382801 0.95270354 0.0023123382
0.0049150395 0.0063736779 0.02146423 0.28229094 0.016940858 0.95917928 0.0003733903
-0.04695335 0.010513128 0.022487992 -0.90703142 -0.0013160078 0.4210608 0.0045717345
-0.04691973 0.013527368 0.022554656 -0.90460163 5.2705131e-05 0.42625785 0.0045757866
-0.046929751 0.016497146 0.022537977 -0.90864325 -0.0024396118 0.41756621 0.0042682844
-0.04692788 0.019480314 0.022542724 -0.90971553 0.00070931291 0.41523138 0.0042335126
-0.0469377 0.022478208 0.022529496 -0.91547114 0.049250476 0.39935827 0.0051991222
-0.046615329 0.02546311 0.022526205 -0.90125811 0.1006479 0.42143065 0.0068610348
-0.044403397 0.026001688 0.023686774 -0.75288367 0.12758863 0.64566821 0.017239673
-0.046299204 0.028510591 0.022448124 -0.90008044 0.052001286 0.43260971 0.0090198731
-0.046294052 0.031526823 0.022460638 -0.90726846 0.0080182264 0.42047551 0.007011639
-0.046285857 0.034427032 0.02247563 -0.8958416 -0.015972553 0.44408643 0.0073118233
0.010925121 0.035139125 0.023184165 0.64915574 0.65099621 0.39344746 0.011489651
-0.046420883 0.037445109 0.022439433 -0.87035632 -0.13309342 0.47409496 0.014668458
0.0089409566 0.037061829 0.023417577 0.58008516 0.73830539 0.34410232 0.0082841935
-0.048598178 0.041244335 0.021544369 -0.66961837 -0.41777423 0.61406505 0.010861633
-0.046831563 0.04018037 0.022716977 -0.74906158 -0.22962666 0.62143248 0.014562771
0.0032693315 0.040312503 0.0226044 0.23715241 0.86452526 0.44311947 0.012390207
-0.051106315 0.044606753 0.021104032 -0.75322676 -0.27853581 0.59587526 0.01201997
-0.049342807 0.043756053 0.021949561 -0.69112313 -0.26698971 0.67161399 0.0064418861
-0.047086149 0.043211203 0.023473203 -0.58260357 -0.18113293 0.7923156 0.0052820207
-0.051184524 0.046876296 0.021403408 -0.78122598 -0.11918829 0.61276436 0.014026093
-0.049650755 0.046496332 0.022500126 -0.64140499 -0.10881777 0.75944602 0.0064229835
-0.047371965 0.046513312 0.023768837 -0.45607457 -0.02821371 0.88949424 0.0038036548
-0.05125488 0.0495487 0.021517621 -0.76099682 -0.0012379434 0.64875448 0.010524784
-0.049348164 0.049497847 0.022686366 -0.59992242 0.0011791326 0.80005729 0.0080363965
-0.047100388 0.049489353 0.02363237 -0.42205277 0.027024085 0.9061684 0.0013545085
0.0022263012 0.050680425 0.021941386 0.36252406 0.13221554 0.92254829 1.6630618e-05
-0.051190499 0.052366067 0.021440057 -0.79239678 0.11191056 0.59965271 0.013933293
-0.049564105 0.052684247 0.022517763 -0.61666811 0.12839419 0.77668238 0.008957711
-0.046636768 0.052636512 0.023762055 -0.41571093 0.081160352 0.90586835 0.0023490388
0.0026139938 0.051339194 0.021740884 0.36252737 0.13217138 0.9225533 2.8189976e-05
0.0036402477 0.052028749 0.021244584 0.3625237 0.1321917 0.92255187 1.959648e-05
-0.051094953 0.054493897 0.021165838 -0.74481177 0.28078628 0.60532176 0.014113211
-0.049365837 0.055305164 0.022022983 -0.600721 0.32442412 0.73067319 0.011299414
-0.046445075 0.055721384 0.023352928 -0.42875433 0.28594166 0.8569755 0.0038948841
-0.044612899 0.056386091 0.023856658 -0.49631837 0.28389469 0.8204096 0.0057266811
-0.00089780783 0.055338763 0.02252809 0.32153496 0.15678816 0.93382698 0.00054989941
0.0013437325 0.055653919 0.021621259 0.32799295 0.1567495 0.93158484 0.00062501896
-0.048649877 0.057621073 0.02149532 -0.55239242 0.48546618 0.67763203 0.0078385342
-0.04634387 0.058463793 0.022022573 -0.43677038 0.53532749 0.72294956 0.00609134
-0.043744911 0.058829427 0.023151381 -0.46580714 0.46987674 0.74982631 0.0062169801
-0.041822974 0.059663147 0.023885341 -0.56949031 0.54298472 0.61712915 0.0049040406
-0.003673214 0.059073471 0.022608493 0.315321 0.31897426 0.89377189 0.0025858418
-0.0012097281 0.058475405 0.021817381 0.30695581 0.2462616 0.91931134 0.0010932843
0.00072865508 0.058173653 0.021263704 0.29396155 0.22997917 0.92773718 0.00056267501
-0.045269988 0.060199849 0.021093361 -0.39426675 0.6587342 0.64079875 0.0036954312
-0.0431889 0.060797453 0.02188139 -0.42967799 0.65192151 0.62480003 0.0051447498
-0.040701333 0.06182858 0.022697685 -0.50047463 0.70819497 0.49798095 0.0033150541
-0.038747463 0.062784918 0.023449035 -0.53744757 0.70153761 0.46796918 0.0030985088
-0.006967505 0.062401276 0.02265426 0.42435774 0.71363211 0.5573597 0.02559033
-0.0045183846 0.061673798 0.021724159 0.39050266 0.49933457 0.77341628 0.016483326
-0.002410077 0.060831629 0.021411743 0.25229698 0.33131391 0.909163 0.0016377214
-0.03954434 0.063316815 0.02156963 -0.45789665 0.77423543 0.43690971 0.0037844568
-0.037416037 0.064155445 0.02241879 -0.47472638 0.8002792 0.36631691 0.0023672937
-0.034899842 0.065435536 0.022725882 -0.43862051 0.86051089 0.25910056 0.0022647909
-0.012314856 0.065875255 0.023221087 0.41339758 0.86950272 0.27030978 0.0063385069
-0.010343177 0.064903818 0.022711212 0.36056155 0.86745739 0.34280172 0.012138613
-0.0078034773 0.06408754 0.021539677 0.29225478 0.72920078 0.61875141 0.013476749
-0.0054401043 0.063177668 0.021208074 0.35695329 0.61567336 0.70251739 0.011575512
-0.033486199 0.066245578 0.021989839 -0.39170012 0.89923048 0.19482207 0.0018289296
-0.031519808 0.06686008 0.022538837 -0.32228953 0.93586701 0.14241609 0.0013469758
-0.028584983 0.067728922 0.022618601 -0.23896819 0.96663022 0.092305414 0.00080567523
-0.025707185 0.068296477 0.022619206 -0.16085523 0.98373634 0.079927027 0.00058935524
-0.022838216 0.068653412 0.02239709 -0.051834565 0.9950999 0.084198825 0.0015525024
-0.01957335 0.068430819 0.02276122 0.11379916 0.986036 0.12158455 0.0023567372
-0.016996937 0.068013959 0.021779163 0.17509335 0.97586197 0.13052082 0.002046142
-0.013788949 0.066781677 0.022351475 0.35860416 0.90898198 0.21249656 0.0052376655
-0.011536631 0.06609273 0.021410918 0.36237159 0.85130942 0.37941951 0.0093234545
-0.030815983 -0.066301212 0.025487691 -0.32486352 -0.92408144 0.20133868 0.017966142
-0.028821778 -0.066976592 0.025529329 -0.28717634 -0.93814671 0.19341816 0.01525631
-0.025816005 -0.067622267 0.025664452 -0.11031216 -0.96787971 0.22592069 0.030646546
-0.023378275 -0.067080602 0.02607907 -0.018224061 -0.59911221 -0.8004576 0.013276631
-0.036386024 -0.063264631 0.024993991 -0.57442969 -0.69796729 0.42763549 0.0035969156
-0.034421779 -0.064274698 0.025784304 -0.56086004 -0.68915933 0.45879784 0.0094371242
-0.032507509 -0.065403976 0.026009427 -0.42311278 -0.82370508 0.37747237 0.017427299
-0.039663356 -0.060668845 0.024633113 -0.59291077 -0.57767171 0.56102788 0.0032264281
-0.03780264 -0.061494626 0.025867555 -0.62135166 -0.60754615 0.49478266 0.0048295227
-0.035780713 -0.062837303 0.026867563 -0.56725544 -0.66442448 0.48658121 0.0080368491
-0.042377744 -0.057683833 0.024452232 -0.57683349 -0.4075225 0.70794684 0.0049634585
-0.040415097 -0.058406912 0.025793692 -0.63151348 -0.38940126 0.67049038 0.0038013749
-0.03887409 -0.059675653 0.026626665 -0.62908536 -0.43849319 0.64185309 0.014038399
-0.03225958 -0.057704277 0.026975259 0.052231014 0.069565393 0.99620914 0.010398562
-0.015442491 -0.058737732 0.026966311 0.35589615 0.19387113 0.9141947 0.022525983
-0.045146268 -0.054341987 0.024025347 -0.42908132 -0.23725362 0.87155032 0.0031925482
-0.04310308 -0.055267181 0.024926744 -0.56944948 -0.25640059 0.78101605 0.0081823664
-0.041325923 -0.055615403 0.026326876 -0.63559514 -0.24125266 0.7333594 0.0050545512
-0.045369431 -0.052345924 0.024155082 -0.46009544 -0.094315283 0.88284588 0.004641437
-0.043176003 -0.052421175 0.025454238 -0.60623151 -0.10063152 0.78889579 0.00551992
-0.041733585 -0.0526281 0.026703913 -0.65075678 -0.11015824 0.75125277 0.0035557435
-0.045262612 -0.04949468 0.024227332 -0.45546335 -0.053572267 0.88864118 0.0025294085
-0.043147944 -0.049520019 0.025607768 -0.61919582 -0.04933532 0.78368521 0.002708287
-0.04184575 -0.049790699 0.026782757 -0.62321329 -0.041760847 0.78093606 0.0046316022
-0.0073924274 -0.049046807 0.026969543 0.36594304 0.037600294 0.9298774 0.034865845
-0.045869976 -0.046284415 0.024312219 -0.46845147 -0.03034672 0.88296789 0.002373307
-0.043151602 -0.04647832 0.025854517 -0.57488894 -0.017577693 0.81804258 0.0024215428
-0.041876115 -0.046910062 0.026845813 -0.60463887 -0.0083132815 0.79645634 0.0042713843
-0.029844075 -0.04646739 0.026091984 0.097308271 -0.0229149 -0.99499047 0.050606243
-0.045779172 -0.043482289 0.024293236 -0.53432798 0.088149317 0.84066838 0.0031497928
-0.043461408 -0.043438591 0.02569874 -0.56046444 0.025172602 0.82779586 0.0015532863
-0.041895702 -0.043107975 0.026832862 -0.54102111 0.017778656 0.84082103 0.0042465893
-0.04532057 -0.040655345 0.02425514 -0.62176651 0.1147266 0.77475435 0.0063078832
-0.043564375 -0.040418454 0.025538741 -0.57770419 0.07363753 0.81291777 0.0044886395
-0.041792311 -0.040492374 0.026881743 -0.53610182 0.051541798 0.84257829 0.0070278929
-0.036613464 -0.039180245 0.026988972 -0.051763829 0.059742149 0.99687082 0.034258649
-0.035283197 -0.039928321 0.026987344 -0.10751443 0.059410613 0.99242687 0.029722322
-0.014871115 -0.041783199 0.026976114 0.057459503 0.16357756 0.98485577 0.022294896
0.00048496612 -0.039459396 0.026892731 0.086665615 -0.4901019 0.86734611 0.015514622
-0.045282327 -0.037717301 0.024234312 -0.71516883 0.22429436 0.66198611 0.010679358
-0.043583717 -0.037361249 0.025483238 -0.63942116 0.18281777 0.74680531 0.013734573
-0.040826239 -0.037174035 0.026372651 -0.46668321 0.092970528 0.87952441 0.024975464
-0.038521107 -0.03709412 0.02694563 -0.18498017 -0.0097284457 0.98269403 0.046041142
-0.043248404 -0.034421246 0.024976499 -0.78393525 0.036891684 0.61974555 0.023215823
-0.041130163 -0.034466472 0.026295187 -0.65447652 -0.074578181 0.75239521 0.032900304
-0.038604856 -0.035451017 0.026978869 -0.18697524 -0.17058767 0.96743995 0.052366905
-0.042904694 -0.031607922 0.025374809 -0.78988445 0.0098760156 0.61317623 0.022020752
-0.041845154 -0.030571459 0.026384724 -0.6587038 0.19920264 0.72555327 0.03095641
-0.043245193 -0.028661652 0.024945287 -0.76838326 -0.025013598 0.63950092 0.016927045
-0.040883385 -0.028912047 0.026347443 -0.50868535 0.31076357 0.80291045 0.033530861
-0.038587399 -0.02854356 0.026940541 -0.33137825 0.33498642 0.88202751 0.026027525
-0.045528371 -0.024593167 0.024707707 -0.75855291 -0.27519432 0.59064841 0.011532859
-0.043908045 -0.02524039 0.025653444 -0.64572775 -0.29442963 0.70451885 0.015385526
-0.041154861 -0.026597669 0.026156129 -0.48838565 -0.2206953 0.8442589 0.049810495
-0.038612127 -0.026794836 0.02697099 -0.19200701 -0.13755108 0.97170621 0.036781915
-0.045635063 -0.022505315 0.024718745 -0.80378413 -0.082469188 0.58917713 0.0075346795
-0.044269856 -0.022508031 0.026167208 -0.64978141 -0.055290066 0.75810754 0.00545453
-0.045655012 -0.019569045 0.024688343 -0.79718161 -0.0026371982 0.60373378 0.0036475586
-0.044284772 -0.01950408 0.026152121 -0.65284932 0.0022107814 0.75748456 0.0035057173
-0.045582402 -0.016510593 0.024791043 -0.78105408 0.0018347218 0.62446076 0.00455123
-0.044225462 -0.016510673 0.026214058 -0.63794941 0.00012220489 0.7700783 0.003346947
-0.015163313 -0.017154012 0.02694382 -0.23745197 0.27874979 0.93054563 0.049115576
-0.014461949 -0.015893515 0.026777232 -0.34148991 0.31762424 0.88458997 0.045194875
-0.045552794 -0.013498112 0.024828762 -0.7758736 -0.001056261 0.63088751 0.0041446863
-0.044190947 -0.013394646 0.02624117 -0.66480649 -0.0011735066 0.7470147 0.0032060014
-0.015025343 -0.013729187 0.026816105 -0.025507642 0.15949322 0.98686945 0.04971604
-0.0129374 -0.013619796 0.026626399 -0.31981537 0.35853434 0.87702405 0.039538875
-0.011418604 -0.012445715 0.026582379 -0.3406187 0.47794944 0.80965626 0.041627169
0.0083618108 -0.012257021 0.026286425 0.54879367 0.79144716 0.26914117 0.0071046082
0.0098473784 -0.013427233 0.025499972 0.65744996 0.69857794 0.28239772 0.0067184819
-0.045548812 -0.01039487 0.024824271 -0.787076 -0.0011379544 0.61685503 0.0046307934
-0.044291962 -0.010511287 0.026143461 -0.6682114 -0.0014118337 0.74397016 0.0037261711
-0.015081737 -0.010524757 0.026831599 0.19493529 0.018958112 0.9806329 0.0015249694
-0.013559673 -0.010381805 0.026405636 -0.027914692 0.15437075 0.98761857 0.04104881
-0.010002547 -0.011125254 0.026271677 -0.26346928 0.5585109 0.78654277 0.040768027
-0.0075058378 -0.009900406 0.025902484 -0.24070254 0.68845153 0.68417597 0.036907431
-0.0051246369 -0.0091770682 0.026217267 -0.12914313 0.83443451 0.53576219 0.018875485
-0.0016669863 -0.0090312501 0.026945394 -0.019326832 0.94273746 0.33297533 0.0029168644
0.0022515403 -0.0092031732 0.026024375 0.16881044 0.9186886 0.35709155 0.0019251537
0.0041226745 -0.009570457 0.025156925 0.31920561 0.89381176 0.31497341 0.0053975596
0.0071205646 -0.011118625 0.025210625 0.51134026 0.81052357 0.2856268 0.0063394937
-0.045578867 -0.0075181443 0.024788447 -0.79822969 7.512403e-05 0.60235322 0.0045243911
-0.044077225 -0.0074789007 0.026331527 -0.65692884 -0.0018383276 0.75395036 0.0035970586
-0.015132824 -0.0076233097 0.026845619 0.25155187 0.0053432835 0.96782911 7.3798306e-05
-0.013875927 -0.0072162831 0.026483232 0.25629896 0.037834436 0.96585679 0.0014327019
-0.010721455 -0.0073990421 0.025644224 0.19260293 0.18433435 0.96380752 0.02178226
-0.0076239984 -0.007486478 0.024812769 0.19250427 0.26240143 0.94556206 0.026512004
-0.0041877762 -0.008547809 0.024917649 -0.017154401 0.75645334 0.65382266 0.051861297
-0.0017320849 -0.0086315861 0.025559336 0.027442461 0.91485804 0.40284204 0.0090868464
0.00093367783 -0.008743396 0.025225453 0.13006772 0.9121846 0.38858923 0.0060675056
-0.04560937 -0.0045023779 0.024754783 -0.79710233 -0.0039642095 0.60383117 0.0038309966
-0.044106998 -0.0044958363 0.026307184 -0.65858364 -0.0020209618 0.75250477 0.0035762615
-0.015107734 -0.0039257435 0.026815366 0.28081191 0.0085864142 0.95972437 0.00025663921
-0.013402259 -0.0041279225 0.026307177 0.25603181 0.0022408287 0.9666658 5.3680997e-05
-0.010925293 -0.0045993272 0.025699921 0.25042978 -0.0040727947 0.96812618 0.00016706069
-0.0078774402 -0.0044010454 0.024882209 0.2102301 -0.020440705 0.97743821 0.0040389057
-0.004771743 -0.0043429234 0.02426891 0.23774521 0.030911323 0.97083557 0.013092457
-0.045667429 -0.0014951499 0.024679326 -0.80904049 -0.00529572 0.58772904 0.0044424091
-0.044195607 -0.0014933253 0.026228035 -0.66474396 -0.0022219231 0.74706793 0.0032122203
-0.015303877 -0.0010321253 0.026873343 0.28191265 -0.00032339309 0.95944005 0.00024416632
-0.013229101 -0.0012949684 0.026247844 0.25492463 0.00064931682 0.96696073 8.2196246e-05
-0.0096683046 -0.0013971145 0.02536384 0.21899994 -0.020932646 0.97550029 0.00086567225
-0.0066266488 -0.0011081093 0.024957266 0.14743605 0.028647728 0.98865664 0.0046323137
-0.0043952302 -0.0011837401 0.024778083 0.1309856 -0.00064991415 0.99138409 0.0040487251
-0.0023178973 -0.0009816658 0.024409374 0.13333888 -0.017040882 0.99092394 0.0030197399
-0.045671958 0.0015216522 0.024669291 -0.81089818 -0.001355538 0.58518571 0.0044053206
-0.04416357 0.0014817764 0.026257413 -0.66704082 -0.00047053315 0.74502093 0.0030657658
-0.015415875 0.0020294029 0.026882825 0.28238407 0.0026221531 0.95929784 0.00026043106
-0.01292638 0.0013437404 0.026188549 0.25500378 -0.00091097312 0.96693963 0.00010049321
-0.0098762661 0.0016929659 0.02542006 0.21249226 0.015123419 0.97704571 0.0011337528
-0.0066423179 0.0014245375 0.024951167 -0.073954567 -0.070584834 0.99476051 0.0062948107
-0.0041010538 0.0011903883 0.024825726 0.12593108 0.042288382 0.99113727 0.0066092252
-0.0024628825 0.001252412 0.024461299 0.13123615 0.0076116314 0.99132186 0.0069638737
-0.045679942 0.0044502933 0.024657706 -0.81146383 -0.0010444848 0.58440179 0.0043922625
-0.044151623 0.004485881 0.02627299 -0.66964245 0.00014117942 0.74268365 0.0030231739
-0.015354094 0.0047215009 0.026908189 0.27734166 -0.0114814 0.96070278 0.00035544581
-0.01303711 0.0041749286 0.026200339 0.25381443 -0.0034947172 0.96724665 5.9991846e-05
-0.01004616 0.0045034727 0.025464576 0.23549196 0.012881584 0.97179097 0.00052500574
-0.0070559438 0.0045310091 0.024664488 0.18335062 0.047421228 0.98190314 0.0026130625
-0.0051733786 0.003472954 0.024612796 0.10176949 -0.014262325 0.9947058 0.0071248719
-0.0020347976 0.003368492 0.024122665 0.28984979 0.16879228 0.94207019 0.00297359
-0.045685563 0.0074504791 0.0246666 -0.79267138 -0.00055405812 0.60964888 0.0042564613
-0.044180382 0.0074784104 0.026244489 -0.66190553 0.0060308166 0.74956304 0.0038261986
-0.015338814 0.0078195669 0.026872372 0.27702165 -0.0087292157 0.96082407 0.00040641386
-0.013407608 0.0073358519 0.026359491 0.25149816 -0.0078372182 0.96782607 5.3360058e-05
-0.01029344 0.007305258 0.02553473 0.24518222 -0.021181786 0.96924555 0.00027676445
-0.0072717164 0.0070865741 0.024723187 0.21216415 -0.011546545 0.97716588 0.0032810306
-0.0041651712 0.0082316138 0.02416556 0.22842097 -0.31968638 0.91957843 0.063938081
-0.0013030678 0.0089376708 0.024429068 -0.011002981 -0.88991058 0.4560023 0.015414611
-0.045660976 0.010503318 0.024699921 -0.79354215 -0.001291735 0.60851389 0.0041010748
-0.044244748 0.010515615 0.0261862 -0.68053794 -0.0022724748 0.73270941 0.0038684951
-0.015454838 0.010390933 0.026936302 0.2685141 -0.011558909 0.96320641 0.00059338467
-0.01350365 0.010460025 0.026397884 0.14658858 -0.12083127 0.98178995 0.030768381
-0.010052006 0.010949126 0.026026756 -0.25218529 -0.57129538 0.78104049 0.035627633
-0.0076375776 0.010380764 0.02583646 -0.28650042 -0.75155139 0.59421211 0.028817087
-0.0051891641 0.0096449601 0.025859294 -0.16301735 -0.75601751 0.63392651 0.028096432
-0.001827601 0.0092452522 0.026024103 -0.011003981 -0.88991052 0.45600241 0.015414593
0.00070200849 0.0093355104 0.025750946 0.030042516 -0.89100033 0.45300767 0.013786652
-0.045575697 0.013544072 0.024804844 -0.78689855 -0.003136605 0.61707449 0.0038515844
-0.044308092 0.013390885 0.026135212 -0.67552894 -0.0019972641 0.73733079 0.0034705123
-0.015504819 0.013488232 0.026947968 0.062929861 -0.038572162 0.99727231 0.020982616
-0.013434856 0.013782055 0.026641116 -0.3238166 -0.35103562 0.8785879 0.041505639
-0.011074589 0.01258752 0.026459182 -0.39575866 -0.6100173 0.68647945 0.028302431
-0.045577537 0.016495807 0.024805553 -0.78812259 -0.0021272106 0.61551458 0.0038456616
-0.044278949 0.01647865 0.02617112 -0.64398587 0.00060574728 0.76503718 0.0030915176
-0.015370148 0.017280728 0.026939411 -0.3558884 -0.21233764 0.9100858 0.025204534
-0.014227433 0.015745454 0.026690181 -0.23066986 -0.1622965 0.95940155 0.041096389
-0.04562008 0.019517733 0.024751827 -0.79561734 -0.00051698845 0.60579926 0.0041465973
-0.04429917 0.019491471 0.026154099 -0.64300674 0.001187857 0.76585966 0.0029357695
-0.015589108 0.01825216 0.026971277 -0.025705956 -0.23857781 0.97078311 0.054827392
-0.045587081 0.022471011 0.024787903 -0.78608805 0.055473827 0.6156202 0.0046954588
-0.044183545 0.022511033 0.026263809 -0.64836419 0.050351206 0.75966352 0.003513278
-0.045484647 0.025215076 0.024644813 -0.77923304 0.099639311 0.61876309 0.004974463
-0.043906223 0.025689574 0.025961244 -0.64603174 0.11985081 0.75384265 0.0060035675
-0.040649652 0.025929347 0.026952049 -0.42132968 0.1217816 0.8986938 0.010387167
-0.045258448 0.028442048 0.024250578 -0.79807633 0.042266842 0.60107219 0.0092177065
-0.043724462 0.028532548 0.025796479 -0.6740337 0.02814544 0.73816419 0.0083694123
-0.045279317 0.031459183 0.024246732 -0.77961975 0.0039771828 0.62624061 0.0027383771
-0.043753948 0.031514507 0.025772037 -0.70626342 -0.011486426 0.707856 0.0047882916
-0.045275699 0.03451851 0.024262648 -0.7651608 -0.0077363122 0.64379275 0.0021414773
-0.043812651 0.034553099 0.025725067 -0.71845537 0.025058944 0.69512147 0.0058418848
0.010295539 0.034995243 0.025839351 0.68509048 0.55169904 0.47568822 0.03129768
-0.045297876 0.037465591 0.024238361 -0.78390026 -0.019953012 0.62056595 0.0077825347
-0.043754175 0.037451688 0.025741119 -0.67715955 0.0052187312 0.73581767 0.0050085927
-0.041986138 0.038578976 0.02689915 -0.49378824 0.024673263 0.86923212 0.0099388259
0.0052579963 0.038661294 0.026194835 0.47570342 0.74327296 0.47037393 0.019313704
0.007327822 0.037663218 0.025459522 0.55288273 0.73298848 0.39629367 0.0064615621
0.0094274348 0.036296789 0.024405772 0.58007866 0.73831427 0.34409428 0.0082792807
-0.045312829 0.040584616 0.024259772 -0.64926791 -0.069742896 0.75735533 0.0060337246
-0.043539189 0.040419884 0.025684753 -0.59855044 -0.018894698 0.80086219 0.0028773691
-0.041906517 0.040959563 0.026844451 -0.55482507 0.00015482408 0.83196706 0.002238754
-0.0016307738 0.040316146 0.025824411 0.30255178 0.59698653 0.74301392 0.055826947
0.0016250398 0.039892934 0.026120048 0.22493206 0.75310212 0.61825782 0.020976398
0.0038103983 0.039347038 0.026088851 0.34026998 0.77956879 0.52582204 0.016109362
-0.045614447 0.043475922 0.024334842 -0.55556512 -0.070014544 0.82852006 0.0031232391
-0.043393642 0.043453045 0.025762256 -0.56670457 -0.025594179 0.82352346 0.00070025783
-0.041869879 0.043067548 0.026842972 -0.57767487 -0.024273077 0.81590599 0.00065204798
-0.045914184 0.046513043 0.02433102 -0.46074757 0.015611918 0.88739395 0.0020511653
-0.04324884 0.046509832 0.025841186 -0.57898837 0.014850159 0.81520063 0.0022720261
-0.041910231 0.046898473 0.026828876 -0.6130529 0.0030293132 0.79003602 0.0019784039
-0.045544825 0.04938459 0.02414131 -0.46354187 0.054967966 0.88436842 0.0020414735
-0.043250069 0.049492564 0.025571704 -0.59321409 0.053146172 0.80328858 0.0031004406
-0.04189961 0.049642511 0.026768887 -0.64543444 0.036297936 0.76295274 0.0014761762
-0.045440268 0.052333415 0.024155458 -0.4363336 0.070795059 0.89699554 0.0027999799
-0.043150678 0.052541181 0.025503952 -0.59501266 0.092142105 0.79841697 0.0052235997
-0.041752942 0.052568469 0.02674398 -0.63575464 0.089438178 0.76669216 0.0030493438
-0.045276377 0.054272242 0.024096552 -0.46486592 0.17816943 0.86726886 0.0052201943
-0.043137409 0.055501841 0.024997022 -0.55337554 0.25172544 0.79398352 0.0083233323
-0.041406319 0.05573136 0.026371928 -0.64488161 0.2142317 0.73364329 0.0041389363
-0.042552285 0.057972521 0.024435071 -0.58693755 0.41992095 0.69222146 0.0048291865
-0.040514577 0.058734838 0.025783064 -0.63944143 0.40006685 0.65655249 0.010183888
-0.038906209 0.059848849 0.026760316 -0.61804324 0.52275628 0.58715278 0.0088238874
-0.039751563 0.060806036 0.024837803 -0.62598294 0.5745244 0.52732068 0.002912133
-0.037899539 0.061904967 0.025793076 -0.59918976 0.62301219 0.50281954 0.0072479839
-0.0094063235 0.06298846 0.026363496 0.51737297 0.71364111 0.47227278 0.044824757
-0.0077169202 0.061842669 0.02451729 0.50541914 0.7515316 0.4239715 0.007277844
-0.0366868 0.063500889 0.024989953 -0.56719863 0.71354216 0.41127035 0.0066397674
-0.034612641 0.064679973 0.025614485 -0.54799986 0.75657332 0.35678148 0.007294225
-0.032595277 0.065746374 0.026304385 -0.48032877 0.80843335 0.34017622 0.019153643
-0.012639201 0.065663584 0.025535697 0.46116754 0.87089962 0.1698775 0.0035381075
-0.010714723 0.064449951 0.025044862 0.5045591 0.81846005 0.27485153 0.00887453
-0.033142932 0.066006847 0.024367657 -0.44582289 0.85020095 0.28000072 0.010572966
-0.031333547 0.066515222 0.02538633 -0.39050844 0.90418214 0.17308308 0.0041753338
-0.028537188 0.067494318 0.025589 -0.27937943 0.94561303 0.16662239 0.01255818
-0.025482932 0.068149976 0.025523495 -0.14212213 0.95200545 0.2710847 0.027469879
-0.022626325 0.068430275 0.025397472 -0.040234271 0.97176719 0.23248588 0.01336082
-0.019918201 0.068246327 0.025644919 0.079646997 0.96850795 0.23589972 0.013456648
-0.016552798 0.067445762 0.025385909 0.30761248 0.93991041 0.14813167 0.012107834
-0.01416257 0.066507615 0.025340056 0.38846761 0.90630323 0.1664553 0.014038767
-0.030193031 -0.066180483 0.027637823 -0.37071857 -0.87897402 0.299954 0.014063675
-0.028152127 -0.066588834 0.028048521 -0.14334117 -0.46687204 0.87263036 0.014104942
-0.02547219 -0.066965483 0.028052101 -0.071774788 -0.67176616 0.73727787 0.020163869
-0.022846045 -0.06697423 0.028234519 0.049438037 -0.082921483 0.99532902 0.018943343
-0.019665992 -0.066648193 0.028278852 -0.036572188 -0.14020729 0.98944652 0.015555625
-0.017013794 -0.066456191 0.028277783 0.019620737 -0.20894507 0.97773045 0.0096962918
-0.034193013 -0.0635143 0.027701143 -0.50216973 -0.5733816 0.64734787 0.017568571
-0.03163043 -0.06479346 0.027932933 -0.371232 -0.49535692 0.78537142 0.025207086
-0.028442245 -0.064486548 0.028254976 -0.10310436 -0.22657551 0.96852106 0.02731063
-0.025490262 -0.064560436 0.028239394 -0.051260233 -0.21614592 0.97501451 0.027527921
-0.022744104 -0.064616933 0.028256305 -0.019452024 -0.29300463 0.95591313 0.024692751
-0.019806383 -0.064691998 0.028235406 0.0033763493 -0.33293676 0.9429431 0.02565708
-0.016628398 -0.064875089 0.028277278 0.052717119 -0.30521816 0.95082211 0.021055022
-0.013887224 -0.064597532 0.028247532 0.10337061 0.028299099 0.99424028 0.0084420443
-0.011558904 -0.063498326 0.028243298 0.089837343 0.1008645 0.99083579 0.0078277756
-0.036928456 -0.060943104 0.027734483 -0.54675221 -0.47604138 0.68880093 0.018259257
-0.034948334 -0.061966963 0.028093055 -0.46466446 -0.45206884 0.76139385 0.020440226
-0.031310812 -0.061535839 0.028257126 -0.097471423 -0.062738746 0.99325889 0.015634222
-0.028492887 -0.061609767 0.028364494 -0.22058482 -0.11286933 0.96881515 0.026541553
-0.026560141 -0.061029349 0.029017106 -0.37802479 0.26174626 0.88802373 0.024518315
-0.022420168 -0.062981091 0.028284431 -0.0085557215 -0.33247045 0.94307482 0.038163602
-0.019668199 -0.062638916 0.027703896 0.103775 -0.32281139 0.94075692 0.062139727
-0.016724644 -0.062444333 0.027902603 0.029519277 -0.27301377 0.96155715 0.035595857
-0.013412267 -0.061777148 0.02824492 0.095138639 0.098255448 0.99060309 0.0080765979
-0.01041455 -0.061354447 0.028246479 -0.014770101 -0.029087007 0.99946779 0.010226263
-0.0083195753 -0.060558271 0.028260808 0.042904366 -0.060988095 0.99721593 0.0073874304
-0.039416533 -0.057746522 0.027423294 -0.65007555 -0.3740209 0.66144544 0.0070175547
-0.038098168 -0.058795281 0.027915768 -0.52930599 -0.38000572 0.75857157 0.016838573
-0.03421735 -0.058546156 0.028259233 -0.026314015 -0.044657867 0.99865568 0.0065820059
-0.031500101 -0.058631651 0.02825762 -0.028069817 0.021663286 0.99937123 0.0050390521
-0.028729923 -0.058437388 0.028283844 -0.26039666 0.0084277503 0.96546495 0.021248586
-0.026742643 -0.058625553 0.029206464 -0.32625732 -0.10626009 0.93928957 0.018646214
-0.015551136 -0.058189012 0.028218597 0.31624576 0.16619514 0.93400633 0.01637142
-0.013661357 -0.058817629 0.028217461 0.16971314 0.11351312 0.97893423 0.011508846
-0.010265987 -0.05851087 0.028274029 0.072931305 -0.062726445 0.99536246 0.0077113104
-0.0077162837 -0.058311824 0.028273216 -0.0059654601 -0.080669485 0.99672306 0.0074451976
-0.0058381436 -0.057089645 0.028266117 0.19569072 -0.17304136 0.96527815 0.014931566
-0.040208839 -0.055447627 0.027647451 -0.60703832 -0.21737842 0.76436323 0.0085117072
-0.0377624 -0.055570483 0.028261473 -0.23855338 -0.14118129 0.96081221 0.015766598
-0.034330197 -0.055594202 0.028245496 -0.12666106 -0.24769177 0.96052372 0.024545072
-0.031370912 -0.055695552 0.028285639 -0.025523791 -0.29943976 0.9537738 0.021035003
-0.028657809 -0.055875614 0.028217562 -0.22934686 -0.077137142 0.97028339 0.038850825
-0.026266795 -0.055426642 0.029303394 -0.19220825 0.0053292117 0.98133969 0.034626327
-0.022370275 -0.054564226 0.02986303 -0.037207779 0.25982887 0.96493763 0.0076930216
-0.020182872 -0.054325115 0.029758828 0.038917188 0.16980758 0.98470855 0.028871603
-0.016499903 -0.055479303 0.028220341 -0.91253966 -0.40110108 0.079933397 0.047733203
-0.013529643 -0.05543508 0.028178625 -0.083878197 -0.30907565 0.94733131 0.017605957
-0.010395403 -0.05578332 0.028194482 0.056383867 -0.23117228 0.97127759 0.021544337
-0.007449077 -0.055840205 0.028273031 0.081711635 -0.19001421 0.97837514 0.023739213
-0.0054528192 -0.055032626 0.028280944 0.19449311 -0.13220388 0.97195399 0.02215597
-0.040911537 -0.052365538 0.027647842 -0.57529229 -0.083500087 0.81367463 0.0074948501
-0.037497059 -0.05257868 0.028261803 -0.27342194 -0.096633084 0.95702797 0.023172973
-0.035065521 -0.052039877 0.029143777 -0.33452073 -0.069511272 0.9398213 0.020505052
