# .PCD v0.7 - Point Cloud Data file format
VERSION 0.7
FIELDS x y z normal_x normal_y normal_z curvature
SIZE 4 4 4 4 4 4 4
TYPE F F F F F F F
COUNT 1 1 1 1 1 1 1
WIDTH 572
HEIGHT 1
VIEWPOINT 0 0 0 1 0 0 0
POINTS 572
DATA ascii
-0.01351881 0.0064879851 0.011381499 -0.12271142 -0.72918761 0.67322159 0.0012287447
-0.010683771 0.0063016512 0.011656631 -0.083346397 -0.70241624 0.70686972 0.0013829635
-0.0076434417 0.0061791865 0.011772187 -0.050240397 -0.72532153 0.68657452 0.0012403405
-0.0046800687 0.0060890806 0.011793156 -0.0249329 -0.71795058 0.69564742 0.0010969929
-0.0015228831 0.0061114011 0.011876748 -0.00015671457 -0.71362817 0.70052469 0.001118759
0.0013645936 0.0061722388 0.011881954 0.017367572 -0.6725111 0.7398833 0.00090189354
0.0051074279 0.0062422627 0.011829806 0.039372291 -0.70163798 0.71144497 0.0013176091
0.0078497157 0.006276336 0.011730812 0.055949304 -0.69767374 0.71422762 0.0019405641
0.010512582 0.0063717458 0.011574781 0.079291858 -0.7056601 0.70409977 0.0012764332
0.01361504 0.0066214819 0.011388244 0.10763959 -0.69948483 0.70649463 0.0019864168
0.016579716 0.0068792589 0.011193893 0.13390799 -0.67602021 0.7246139 0.0017581205
0.019496905 0.0071555246 0.010788333 0.15616871 -0.70540953 0.69138181 0.0012098649
0.02237108 0.0074410448 0.010357108 0.16849311 -0.7071498 0.68669438 0.00079496857
0.02540841 0.0079328986 0.01006248 0.18723717 -0.70048666 0.68866587 0.00041409343
0.02836719 0.008286152 0.0096662585 0.19387621 -0.70240927 0.68486005 0.00060826901
0.031096967 0.0085776737 0.0092631793 0.20854665 -0.71274304 0.66970557 0.0011975915
0.033488251 0.0088747675 0.0091209626 0.25415763 -0.70096511 0.66637212 0.0018983835
-0.036371924 0.011924463 0.0092990324 -0.36256525 -0.76490843 0.53241098 0.00070786005
-0.034153901 0.01142337 0.0099177007 -0.33286417 -0.76849276 0.5464617 0.0006900272
-0.031421162 0.010771426 0.010462226 -0.27854693 -0.77451563 0.56792349 0.00085260376
-0.028594445 0.0099219484 0.01067173 -0.26713669 -0.77786452 0.56882751 0.00066351192
-0.025774781 0.0095038647 0.011398222 -0.22994557 -0.73583889 0.63691926 0.0012446006
-0.023357565 0.0091750827 0.011810769 -0.20481798 -0.7256999 0.6568175 0.0022429002
0.023138812 0.0091836052 0.011861541 0.16195983 -0.65648693 0.73674554 0.0012026181
0.025814077 0.0095361182 0.011542825 0.18391716 -0.65874159 0.72954363 0.00064702297
0.028643476 0.0099750813 0.011128646 0.19271079 -0.62746179 0.75442314 0.00086556107
0.031580027 0.010366739 0.010678134 0.20312715 -0.62831992 0.7509684 0.00031251617
0.03447932 0.010627437 0.010152481 0.22382793 -0.65578645 0.72100288 0.0015167961
0.037382029 0.011175022 0.0097682653 0.26435223 -0.67502004 0.68881476 0.0019290724
0.039812438 0.011685996 0.0092735849 0.30064455 -0.67699641 0.67178023 0.0022342403
-0.042257454 0.014807918 0.0091705034 -0.43980837 -0.72836971 0.52540094 0.00084548572
-0.040282097 0.01432508 0.0099536423 -0.39382958 -0.73238063 0.55544287 0.0008303533
-0.037600655 0.013542473 0.010634248 -0.34825945 -0.74680197 0.56657052 0.00073639397
-0.034773111 0.012672775 0.011220993 -0.31445286 -0.73373204 0.60229278 0.0010836625
-0.032496601 0.012147201 0.011777776 -0.2825104 -0.72548825 0.62757838 0.0017381753
0.032598879 0.012208665 0.011844763 0.20131846 -0.59573603 0.77754068 0.0003204009
0.034842212 0.012504426 0.011552249 0.20827672 -0.60527521 0.76828557 0.00038183748
0.037692185 0.013089361 0.011213653 0.22764237 -0.58268791 0.78016263 0.00069025316
0.040547542 0.013477881 0.010609412 0.26106614 -0.61020619 0.74799263 0.0017519167
0.043379139 0.014002801 0.0099610351 0.33320707 -0.66013968 0.67319286 0.0020175576
0.045562342 0.014607231 0.0094022667 0.37002686 -0.66582757 0.64788407 0.0031883703
-0.045769926 0.017475596 0.0097470665 -0.46088299 -0.69989753 0.54564673 0.00080290483
-0.043363467 0.016658826 0.010601271 -0.42664087 -0.70709807 0.56390589 0.00082889409
-0.040897746 0.015685415 0.011299976 -0.37970343 -0.69637251 0.60900795 0.00091154798
-0.038837276 0.015210202 0.011812377 -0.35880348 -0.67985517 0.63957566 0.002314504
0.041405253 0.015353697 0.011804851 0.24814937 -0.58191645 0.77446449 0.00099358498
0.043706276 0.015988015 0.011417516 0.28399146 -0.54921156 0.78594887 0.0011531543
0.046482597 0.016448366 0.010600992 0.33084217 -0.58596832 0.73971921 0.0017109468
0.049087524 0.017065376 0.0098143658 0.41483751 -0.62211603 0.66398907 0.002371388
0.051270459 0.017827859 0.0091771549 0.44218594 -0.63345748 0.63498288 0.0016262097
-0.051242929 0.020755477 0.009146126 -0.51600283 -0.69016564 0.50735843 0.00077183539
-0.049098205 0.020068815 0.010086317 -0.48936465 -0.6687237 0.55975956 0.00099976652
-0.046756387 0.019023251 0.010886669 -0.45405501 -0.67890316 0.57699615 0.0011439505
-0.044520408 0.018213229 0.011632421 -0.43033466 -0.66584003 0.60948259 0.0015691642
0.047366839 0.018466802 0.011761229 0.31878278 -0.55368775 0.76929015 0.001242375
0.049696978 0.019117961 0.011126362 0.36326754 -0.52867514 0.76716316 0.0011614361
0.05226177 0.019678343 0.010138694 0.41054818 -0.5831455 0.70099324 0.0028598688
0.054645304 0.0205319 0.0093963677 0.47869694 -0.60065895 0.64035767 0.0019407276
-0.05436502 0.023589635 0.0094680665 -0.54736143 -0.62491238 0.55666858 0.0011637115
-0.052325584 0.022664685 0.010290384 -0.50656188 -0.63753235 0.58047187 0.0016016993
-0.050055429 0.021721877 0.011208897 -0.48153347 -0.64018744 0.59856969 0.0011474165
-0.047781121 0.021004366 0.011852946 -0.44555426 -0.62979102 0.6362741 0.0014153521
0.050578218 0.021153893 0.011920751 0.37149176 -0.51257837 0.77411705 0.0011381529
0.052856747 0.021873703 0.011460169 0.39180717 -0.4785386 0.78580397 0.0012104816
0.055381045 0.022545829 0.010393042 0.46876848 -0.51851094 0.71512419 0.002550371
0.057543438 0.023196451 0.0094566951 0.52970803 -0.55158859 0.64432865 0.0022322307
-0.057473443 0.026508883 0.0094930138 -0.58734918 -0.55557537 0.588521 0.0008688572
-0.055448662 0.025518775 0.010435156 -0.54515719 -0.58077073 0.60457337 0.001757557
-0.053320613 0.02458434 0.011472381 -0.52102888 -0.58571643 0.62085837 0.0010132315
0.0023015423 0.026865996 0.011935365 0.04555675 0.68892831 0.72339648 0.0013805347
0.0048935297 0.026881697 0.011872329 0.012311875 0.68475163 0.7286725 0.0011983571
0.0075469138 0.026860818 0.011878315 -0.017943993 0.68417805 0.72909427 0.0014136303
0.0099566765 0.026984837 0.011907887 -0.056628723 0.67892885 0.73201692 0.0015042238
0.055981457 0.024909977 0.011523495 0.42519334 -0.42295241 0.80020118 0.0014307834
0.058403321 0.025478005 0.010421665 0.50269508 -0.45998442 0.73192346 0.0015728363
0.060597997 0.026281189 0.0094709294 0.57835621 -0.49342319 0.64964432 0.00220833
-0.060315881 0.029668801 0.0093445331 -0.63394976 -0.49197823 0.59671193 0.0015373185
-0.058393504 0.028572453 0.010356463 -0.60061622 -0.48743814 0.63376987 0.0013859984
-0.056489848 0.027698284 0.011466858 -0.5660798 -0.51544285 0.64332908 0.0010425034
-0.012569866 0.029656399 0.01184664 0.19651859 0.68345767 0.70304054 0.0015704832
-0.010233237 0.029439392 0.011549942 0.17028585 0.69435072 0.69919932 0.0014940621
-0.0073277284 0.029290605 0.011093594 0.14424364 0.70781898 0.69150996 0.0014311386
-0.0042383885 0.028945697 0.010897517 0.11673246 0.73051131 0.67284977 0.0013085536
-0.001466687 0.02863319 0.010743252 0.089905724 0.73757243 0.66925609 0.00231603
0.001695998 0.028475404 0.010569926 0.038673159 0.72722834 0.68530524 0.0029119218
0.0041440367 0.027823934 0.011145577 0.0252812 0.64932466 0.76009107 0.0016155815
0.0077215764 0.027944114 0.011043007 -0.02459671 0.66157955 0.74947155 0.0015953152
0.010645432 0.028118907 0.011076042 -0.057767957 0.65173745 0.75624144 0.0017382547
0.01325675 0.028293675 0.011143844 -0.094719827 0.64640462 0.75709265 0.001917363
0.016441446 0.028794264 0.011262327 -0.12585506 0.64434594 0.75430691 0.0018099708
0.019543132 0.029223498 0.011471468 -0.14341702 0.62931097 0.76380581 0.0021862215
0.02198026 0.029718587 0.011575107 -0.18465582 0.64004463 0.74581838 0.0016917123
0.024488384 0.029846452 0.011878994 -0.21677177 0.66214412 0.71733892 0.0012030797
0.058981273 0.028051168 0.011470921 0.45544699 -0.3513402 0.81800252 0.0012174121
0.061248783 0.028415062 0.010143076 0.55259275 -0.41691673 0.72167975 0.001770708
0.06336844 0.02951611 0.0092413798 0.62111211 -0.41536754 0.66459727 0.0024279288
-0.061017774 0.031694129 0.010087953 -0.63912386 -0.43750152 0.63254499 0.0017898981
-0.05920431 0.030908819 0.011327648 -0.58138865 -0.39530581 0.71114028 0.0015244354
-0.021624371 0.032811999 0.011712947 0.26910156 0.70466453 0.65653044 0.0017484865
-0.019121628 0.03232839 0.011354445 0.24562216 0.72258288 0.64617622 0.0012406225
-0.016452665 0.031943511 0.010750378 0.23248731 0.7383855 0.63303745 0.001112867
-0.013363977 0.031033106 0.01073325 0.19851759 0.73973221 0.64295185 0.0023859271
-0.010455489 0.030667057 0.010319188 0.18091176 0.73754942 0.65060884 0.0013598019
-0.0076007694 0.030426728 0.0097548915 0.14685383 0.77441472 0.615399 0.0017089284
-0.0048245224 0.030202592 0.0094459429 0.11522924 0.77713346 0.61869687 0.0014782642
-0.0021223028 0.03003992 0.0091569731 0.10080448 0.7701323 0.62986869 0.0014348669
0.00032402395 0.030034605 0.0090544289 0.052445181 0.77750611 0.62668478 0.0012281243
0.010747802 0.030026559 0.0090726586 -0.078140557 0.76933682 0.63404644 0.00079724309
0.01402313 0.030103723 0.0092497068 -0.11383442 0.75870222 0.64141452 0.001099888
0.016658237 0.030316837 0.009552964 -0.15601102 0.74879646 0.64417732 0.0011700301
0.019780671 0.030831994 0.0098937741 -0.18047841 0.70131612 0.6896255 0.0011805182
0.022765879 0.031088153 0.010490688 -0.19753869 0.68807214 0.69823718 0.0017913736
0.025549343 0.031548701 0.010898649 -0.21851119 0.68270266 0.69725883 0.0017006377
0.028376648 0.03216571 0.011179824 -0.22936094 0.65503794 0.71994364 0.0027883581
0.031246083 0.032626588 0.011712558 -0.233484 0.64494467 0.72768927 0.002184324
0.033445776 0.032982092 0.011900431 -0.27212495 0.63648558 0.72168845 0.0022205508
0.05986971 0.03063147 0.011890483 0.45837152 -0.27632633 0.84471262 0.0017700614
0.061534993 0.031331364 0.011241299 0.49561766 -0.294949 0.81692612 0.0011686276
0.063722789 0.03183436 0.0099008456 0.59313661 -0.33767781 0.73086435 0.0016266125
-0.063539818 0.034980576 0.0095808571 -0.6625905 -0.36911964 0.65170896 0.0019636576
-0.061796747 0.034253608 0.01085561 -0.61267883 -0.3294898 0.71837401 0.0019761699
-0.059818592 0.033174153 0.011890297 -0.59344578 -0.31698495 0.73982608 0.0037192451
-0.028075822 0.035617005 0.011514771 0.30444038 0.67176044 0.6753177 0.0010549419
-0.025399499 0.035028871 0.010988712 0.2990126 0.73194927 0.61224318 0.0013347061
-0.022666298 0.034226529 0.010603313 0.27886391 0.75713074 0.59075195 0.0015464352
-0.019930571 0.033605855 0.010156147 0.26453277 0.74821943 0.60843247 0.0014392836
-0.01747115 0.03330322 0.0093034254 0.2544308 0.77902508 0.57304871 0.0013813359
0.026310036 0.033288788 0.0092156706 -0.24118035 0.73500949 0.63371372 0.0014595939
0.028828891 0.033567656 0.0099763209 -0.24069315 0.71224266 0.65937638 0.0015203027
0.031590577 0.034051772 0.010471025 -0.27005783 0.69538325 0.66596609 0.0025165251
0.034430999 0.034833342 0.010837245 -0.28805959 0.66245025 0.69150651 0.0024236906
0.036983073 0.035454962 0.011377456 -0.30006588 0.63915533 0.70812494 0.0026714772
0.039628841 0.035787471 0.011939669 -0.28177628 0.58212531 0.76271373 0.003256096
0.062341772 0.034014706 0.011596054 0.46843714 -0.19463165 0.86179185 0.0023977726
0.064581238 0.034796264 0.010310156 0.57424814 -0.23146768 0.7852782 0.0022827343
0.066251792 0.035389949 0.0092586335 0.67525625 -0.26937574 0.68663353 0.0022681488
-0.064219251 0.037500065 0.010051964 -0.64718938 -0.26561597 0.71455854 0.0025024493
-0.062364869 0.037269883 0.011550618 -0.57491368 -0.19317797 0.79508269 0.0024208648
-0.034152038 0.038486391 0.011527908 0.32100624 0.67465281 0.66467935 0.00092453993
-0.031415939 0.037768401 0.010861471 0.32255733 0.72252697 0.61148304 0.0011316631
-0.028624423 0.036943331 0.01034833 0.3264786 0.73734611 0.59138185 0.0016347971
-0.025602555 0.036265887 0.0094875954 0.3178986 0.74942839 0.58077312 0.0011678806
0.03551054 0.036364857 0.0098238494 -0.32970706 0.68973422 0.64463937 0.0014756155
0.037776433 0.036966417 0.010283544 -0.32700628 0.65891272 0.67742229 0.0023495692
0.040330898 0.037767779 0.010856633 -0.33507133 0.61261278 0.71584409 0.0024067089
0.042958949 0.038367417 0.011558665 -0.30396023 0.54410601 0.78202099 0.0024460186
0.04509208 0.038801622 0.011829822 -0.29445785 0.57052696 0.76667702 0.0013164892
0.062619083 0.037152957 0.011915244 0.41261515 -0.070170142 0.90819877 0.002392913
0.063923731 0.03737238 0.011294791 0.48078382 -0.097780935 0.87137008 0.0014653836
0.066629842 0.038124211 0.0095738089 0.5946517 -0.15270589 0.78934807 0.0042016529
-0.066288441 0.041011605 0.0092737097 -0.66284221 -0.18521494 0.72548997 0.0023812591
-0.064622276 0.040508382 0.010526012 -0.59439445 -0.13405436 0.7929216 0.0031588762
-0.062680408 0.040307511 0.011768405 -0.52884382 -0.061023828 0.84652251 0.0030736607
-0.042207256 0.041780412 0.011837298 0.31176502 0.64553648 0.69719815 0.0035275116
-0.040167272 0.041423321 0.011447407 0.31208995 0.67253458 0.67104185 0.0014258914
-0.037408356 0.040697649 0.010757489 0.3260209 0.71440488 0.61914134 0.00091530947
-0.034730509 0.039917916 0.010165468 0.34323096 0.7221458 0.60058141 0.0012477256
-0.032407396 0.039275154 0.0095576057 0.35290754 0.73458594 0.57951683 0.0012830906
0.040909976 0.039584644 0.0094102193 -0.38458872 0.67360264 0.63115054 0.0018481353
0.043647308 0.040243339 0.010283218 -0.3579773 0.64194882 0.67805159 0.0025300293
0.04628564 0.040794767 0.011061381 -0.31371647 0.57013291 0.759296 0.0021483437
0.048990719 0.041465875 0.011609 -0.24938314 0.51567012 0.81969041 0.0025220674
0.051335223 0.041886687 0.011807438 -0.18263176 0.5228582 0.83262539 0.0030159568
0.062752619 0.040632717 0.011914931 0.38628361 0.057718232 0.9205724 0.0026611504
0.064546064 0.040393934 0.011211994 0.43667203 0.011694654 0.89954478 0.0034033081
0.066518538 0.04008612 0.0099120634 0.52436686 -0.040082183 0.85054857 0.0027267956
-0.066535428 0.043510806 0.0094357524 -0.61738133 -0.060161829 0.78436017 0.0035450098
-0.064493775 0.043387823 0.010830879 -0.49292433 0.035668578 0.86934084 0.0030196146
-0.062361628 0.043740939 0.01182525 -0.40845153 0.08507064 0.9088071 0.0040820795
-0.048734169 0.044787485 0.011761739 0.21750207 0.63431054 0.74185097 0.0022474381
-0.046125449 0.0443018 0.011330553 0.29068723 0.6497733 0.70235008 0.0019130737
-0.043399062 0.043626539 0.010674951 0.32244152 0.68904769 0.64903373 0.0010711756
-0.040759649 0.042951062 0.0099264532 0.3462714 0.71986783 0.60156995 0.00079319777
-0.03848616 0.042316612 0.0093692131 0.35780317 0.72456926 0.58904684 0.00096153124
0.047071364 0.042850293 0.00969142 -0.36799186 0.64761209 0.66721851 0.0024853009
0.04964336 0.043456353 0.010343301 -0.3128407 0.60285872 0.73395646 0.0023549239
0.052492641 0.043854926 0.01113315 -0.21791486 0.51607811 0.8283577 0.0014830814
0.05518711 0.044283092 0.011557633 -0.15452074 0.44849312 0.880328 0.0026014056
0.058362126 0.044559591 0.011807031 -0.045505919 0.38962013 0.91985071 0.0034735014
0.062089138 0.043904703 0.011773347 0.20626798 0.2056887 0.95663244 0.0055612032
0.064405613 0.043601204 0.011120328 0.38061255 0.1149465 0.91756278 0.0048866705
0.066707797 0.043043714 0.0099621397 0.51506877 0.028380904 0.8566789 0.0037485589
-0.066632591 0.046462312 0.0093460511 -0.52486259 0.061042596 0.84899539 0.0037648119
-0.064677171 0.046419077 0.01041856 -0.41544428 0.16057798 0.89533275 0.0052390983
-0.06173446 0.046557162 0.011471104 -0.28935188 0.26868734 0.91873968 0.0056162267
-0.058630515 0.047293898 0.011628455 -0.060337055 0.43367395 0.89904749 0.0027267223
-0.055918906 0.047125068 0.011612779 0.058221672 0.51150268 0.85730696 0.0024382721
-0.05290867 0.046911839 0.011255969 0.13169004 0.55768138 0.81954211 0.0010961576
-0.04953789 0.046539634 0.010537111 0.26171401 0.65098757 0.71254539 0.0012510255
-0.046759795 0.045851987 0.010017633 0.32233673 0.69452721 0.64321923 0.0016869751
-0.044462468 0.045319386 0.0092950407 0.35720572 0.71447313 0.60160798 0.0010270532
0.05062281 0.045232814 0.0093342485 -0.35909083 0.63515675 0.68383455 0.002269329
0.052645493 0.045801897 0.0097211991 -0.30635205 0.60547233 0.73454177 0.0023447906
0.055714868 0.046272196 0.010457568 -0.2177719 0.52475214 0.82292807 0.0028113751
0.058499958 0.046485215 0.010927323 -0.087218627 0.44592637 0.89081013 0.0021194592
0.061440818 0.046536464 0.010978915 0.063480079 0.37275171 0.92575723 0.0043469807
0.064568326 0.04654979 0.010476426 0.30377281 0.22855109 0.92492509 0.0055906023
0.066927813 0.046763584 0.0094764549 0.38696507 0.18767644 0.90279323 0.004695273
-0.066323161 0.048964683 0.0092127239 -0.36308461 0.22589938 0.90395737 0.0068128845
-0.064478546 0.049308784 0.0096864561 -0.28260228 0.3007268 0.9108783 0.005896288
-0.061700113 0.049526464 0.010166921 -0.1325659 0.43312806 0.89153039 0.0041276356
-0.058639009 0.049243629 0.010466705 0.016456096 0.5329259 0.84600186 0.0025394924
-0.055596199 0.049209476 0.010093934 0.16730182 0.63351172 0.75542897 0.0027837178
-0.0527982 0.048678704 0.0097104646 0.25297421 0.67561805 0.69249141 0.0022358089
-0.050748669 0.04833468 0.0093428623 0.3101798 0.68856949 0.65548491 0.0019220868
0.056579139 0.048253953 0.0093310187 -0.27031001 0.57621223 0.77130532 0.0023148491
0.058767822 0.048913978 0.009473674 -0.18312643 0.55429447 0.81192511 0.0045760632
0.061519735 0.049181025 0.0097907921 -0.039053004 0.46268392 0.88566273 0.0041710036
0.06422624 0.049501359 0.0095678568 0.09716022 0.39245468 0.91462517 0.0053127478
0.066609904 0.048719548 0.0092334421 0.36599445 0.26088792 0.89330041 0.0048429109
-0.064202406 0.051345885 0.0090850443 -0.15693049 0.44056824 0.88389617 0.0083213681
-0.061756615 0.051297355 0.0092342459 0.0016153529 0.58582526 0.81043577 0.0049047112
-0.059029337 0.051129658 0.0091899186 0.11080187 0.63959831 0.76068181 0.0022818318
0.064162053 0.051207691 0.0090756975 0.16465719 0.4124456 0.89597809 0.0082382634
-0.0043443288 0.0059802937 0.012086784 -0.027272176 -0.72381699 0.68945289 0.00099450094
-0.001687094 0.0058871843 0.012043313 -0.0001234986 -0.7170788 0.69699216 0.0011254401
0.0010685892 0.0059656058 0.012114031 0.018006662 -0.71119595 0.7027632 0.0011812338
0.0030084618 0.0059213517 0.012055195 0.019981112 -0.67715085 0.73557287 0.002710643
-0.0214983 0.00879444 0.012096974 -0.1924516 -0.72660071 0.65955573 0.0013781165
-0.019163948 0.008563946 0.012407222 -0.1701577 -0.69664639 0.6969434 0.0013661749
-0.016346946 0.0082925018 0.012674654 -0.13039108 -0.68290168 0.71877915 0.0013072046
-0.013392808 0.0080828937 0.012916128 -0.099721007 -0.66301614 0.74193352 0.0012434936
-0.010562335 0.0078448215 0.013049516 -0.068889312 -0.64691025 0.75944811 0.001237245
-0.0074940501 0.0076699019 0.013087139 -0.036287002 -0.6316303 0.77442002 0.001296613
-0.0045139892 0.0075828768 0.013140842 -0.013120928 -0.6188758 0.78537923 0.0014114223
-0.0015066409 0.0076334625 0.013191218 0.0093249427 -0.608652 0.79338259 0.0016418037
0.0015127056 0.0076290341 0.013133387 0.023298476 -0.59219754 0.80545598 0.0017356075
0.0044797235 0.0076188273 0.013021569 0.038502876 -0.58798391 0.80795568 0.0017879566
0.0074694925 0.0077388436 0.012925307 0.056740381 -0.57943046 0.81304419 0.0021654186
0.010476802 0.0079112696 0.012818885 0.080548771 -0.58040351 0.81033564 0.0016436192
0.013598314 0.008114933 0.012628485 0.094769754 -0.58282012 0.80705601 0.0018313024
0.016419791 0.008363802 0.012503514 0.11416776 -0.61346638 0.78142476 0.0020083878
0.019316887 0.0086714979 0.012262525 0.13546501 -0.6401242 0.75623423 0.0019277348
0.022084635 0.0088010393 0.012141089 0.15938063 -0.6595211 0.73459494 0.0013901587
-0.030575473 0.011749885 0.0121551 -0.25863302 -0.73009664 0.63250911 0.0013012161
-0.028410608 0.011443264 0.012552183 -0.23598476 -0.69330156 0.68091422 0.0012470153
-0.025462097 0.010956718 0.013034408 -0.20147547 -0.67646247 0.70838279 0.0016275247
-0.022517264 0.010477276 0.013297681 -0.17556594 -0.65272659 0.73696983 0.0012882455
-0.019576078 0.01033633 0.01384379 -0.1369289 -0.60834777 0.78176939 0.0011125561
-0.016580453 0.010137518 0.0141808 -0.10314026 -0.57956821 0.80837047 0.0012222162
-0.013586941 0.0099831149 0.014385184 -0.081461407 -0.5646708 0.8212862 0.0014401135
-0.010572845 0.009712317 0.014455205 -0.048610706 -0.55201495 0.832416 0.0015257241
-0.0075535378 0.0096832691 0.014543729 -0.018086299 -0.51032466 0.8597917 0.0018656879
-0.0044614449 0.009712724 0.014599953 0.00036324814 -0.48289859 0.87567621 0.0020736819
-0.0014812076 0.0097506093 0.014581393 0.01712133 -0.47491378 0.87986577 0.0020148382
0.0016261209 0.0097943489 0.014504786 0.029613018 -0.4807488 0.87635815 0.00187962
0.0045078448 0.010008227 0.014487433 0.041499898 -0.47705939 0.87789071 0.0016573177
0.0075910646 0.010169983 0.014401853 0.063663602 -0.45623809 0.88757747 0.0015614349
0.010691332 0.010314406 0.014230272 0.075247049 -0.47040704 0.87923557 0.0011708793
0.01344427 0.010474467 0.014047454 0.085567757 -0.47377503 0.87647897 0.0012388388
0.016477464 0.010329138 0.01365945 0.10156296 -0.48614088 0.86795849 0.0010464806
0.019537585 0.010481428 0.013393775 0.1210741 -0.50601405 0.85398519 0.0016640531
0.022371456 0.010658094 0.013070025 0.13867797 -0.52800399 0.83784258 0.0019168643
0.02536309 0.010969274 0.01277803 0.16310453 -0.57222819 0.80371124 0.0023628171
0.028207337 0.011392349 0.012476389 0.18220876 -0.58865499 0.78758192 0.0013528615
0.030471206 0.01175304 0.012156412 0.19697475 -0.60515702 0.7713533 0.00061545835
-0.036829576 0.014667445 0.012432238 -0.32799244 -0.68069965 0.65503359 0.0010199753
-0.034494784 0.014049775 0.012862915 -0.30361992 -0.67577338 0.67167354 0.0011924998
-0.031503294 0.013518369 0.013542307 -0.23824744 -0.63687867 0.73322839 0.0011305629
-0.028599229 0.013124218 0.014065644 -0.20766564 -0.60934794 0.76522553 0.0014435314
-0.025657423 0.012650255 0.014439235 -0.18441679 -0.62410289 0.75926679 0.0011543189
-0.022887751 0.012340374 0.014790679 -0.14295019 -0.58955997 0.79497445 0.0013578708
-0.020225756 0.012118532 0.014895439 -0.11171894 -0.56659561 0.8163873 0.0015490325
0.008563959 0.012049775 0.01494352 0.051916286 -0.40261796 0.91389471 0.0016389919
0.011337718 0.012210237 0.01496003 0.071873583 -0.29727647 0.9520824 0.0020530906
0.013794919 0.01239041 0.014870598 0.073424794 -0.31216353 0.94718677 0.0024075082
0.016732275 0.012575632 0.014778122 0.087789334 -0.34179536 0.93566495 0.0021282819
0.019644327 0.01304162 0.01465034 0.10413806 -0.36840054 0.9238162 0.001900902
0.02255566 0.013291532 0.014423208 0.11272629 -0.39058638 0.91363835 0.001626565
0.025614118 0.013435494 0.01409243 0.1292669 -0.42100483 0.89780009 0.0012805114
0.028497772 0.013558571 0.013705928 0.1463028 -0.44425946 0.88387161 0.0015669176
0.03147972 0.013484268 0.013107886 0.18479639 -0.52181906 0.83279961 0.0017556848
0.034343645 0.013951521 0.012713484 0.1959313 -0.542144 0.81712353 0.00083463965
0.037164524 0.014496891 0.012316861 0.21406803 -0.55174577 0.8060717 0.00049209123
0.039358079 0.014747896 0.012129501 0.23838845 -0.57825106 0.78025424 0.0010281914
-0.04255024 0.017619215 0.01235146 -0.40878353 -0.64579755 0.64485782 0.0017443554
-0.040241078 0.016950872 0.012983343 -0.36736706 -0.63720465 0.67750394 0.0015232543
-0.037649784 0.016306981 0.013621673 -0.31259492 -0.61786103 0.72147912 0.0013490993
-0.034774289 0.015789684 0.014323322 -0.26067147 -0.5937804 0.76123267 0.001656261
-0.032255191 0.015353612 0.014781272 -0.22026186 -0.58827949 0.77808225 0.001400603
0.023513222 0.015192198 0.014912394 0.085165523 -0.23877199 0.96733379 0.002070975
0.025909156 0.015571979 0.014855121 0.10281196 -0.26452994 0.95888144 0.0023676532
0.028654318 0.015918372 0.014721024 0.11514027 -0.31836492 0.9409498 0.0022549569
0.031560391 0.016233096 0.014484773 0.13360956 -0.36697385 0.92058605 0.0020559484
0.034449801 0.01636759 0.014070097 0.16261835 -0.41864276 0.89347273 0.0015975251
0.037410837 0.016480196 0.013472887 0.19422181 -0.45776185 0.86760134 0.00084261532
0.040413342 0.016657619 0.01283627 0.22104891 -0.49515501 0.8402136 0.00076640671
0.043254554 0.01732609 0.012395554 0.25182563 -0.49650896 0.83070004 0.0011730703
0.045382719 0.017699832 0.012145232 0.30242756 -0.5433256 0.78315705 0.0017635192
-0.04821239 0.020884771 0.012223768 -0.45064461 -0.6240294 0.63836259 0.0012282947
-0.046072509 0.020248892 0.012650926 -0.43536633 -0.60932285 0.66270787 0.0015911123
-0.043545041 0.01951105 0.013438541 -0.37629175 -0.58665466 0.71710593 0.0013254278
-0.040833507 0.018867465 0.014267111 -0.33668318 -0.55970377 0.75721604 0.0014538198
-0.038550191 0.018336352 0.014879703 -0.30585518 -0.56654429 0.76516676 0.0011263817
0.032332044 0.018131411 0.014915262 0.082693301 -0.19765736 0.97677702 0.002386942
0.034972649 0.018569069 0.014840886 0.12288545 -0.26920176 0.95521182 0.0031691897
0.03761952 0.019106092 0.014676175 0.15786469 -0.33269432 0.92972749 0.0025121884
0.040473539 0.019396527 0.014227364 0.19668227 -0.39378548 0.89791363 0.0016166805
0.043399855 0.019595705 0.013553956 0.23585764 -0.42651796 0.87318593 0.00081933039
0.046282217 0.019634249 0.012771982 0.27231535 -0.45148435 0.84970951 0.0011470062
0.048960306 0.020484863 0.012318243 0.33129144 -0.48149773 0.81142217 0.0015920507
-0.051350329 0.02375561 0.012353214 -0.48064071 -0.57695848 0.66038126 0.0019699386
-0.049318682 0.022909813 0.012827406 -0.45614803 -0.58163458 0.67352074 0.0013544856
-0.046708226 0.022270603 0.013851064 -0.39927232 -0.53072405 0.74760514 0.0010640284
-0.044273566 0.021447327 0.014600866 -0.36133084 -0.53200954 0.76577133 0.001632734
-0.0065070596 0.023787562 0.014928401 0.11398749 0.39070725 0.91343021 0.0026155999
-0.003660867 0.023867734 0.014704197 0.090996884 0.43061435 0.897937 0.0021695944
-0.0014557532 0.023404332 0.014766332 0.071320005 0.43586555 0.89718145 0.0021214464
0.0018274998 0.023307621 0.014604311 0.045340743 0.44475028 0.89450628 0.0025404145
0.0045288107 0.023123434 0.014606268 0.019284092 0.43120569 0.90204751 0.0019709715
0.0074767401 0.023075473 0.014581666 -0.00072371459 0.41994715 0.90754831 0.00211058
0.010433802 0.023114951 0.014622608 -0.022792999 0.40358379 0.91465873 0.0021474052
0.013473496 0.023179948 0.014698094 -0.048391826 0.37420607 0.92608213 0.0025834674
0.016439252 0.023499204 0.014781046 -0.072343893 0.35835308 0.93077898 0.002879668
0.019189835 0.023713907 0.014846137 -0.077605784 0.30692667 0.94856387 0.0029611483
0.021931982 0.023637233 0.014924382 -0.074471764 0.23604976 0.9688831 0.003093767
0.038928028 0.021548521 0.014978096 0.12399131 -0.14630499 0.98143828 0.0042104977
0.041088142 0.021611115 0.014887082 0.14792065 -0.23904453 0.95967561 0.0033444967
0.043668158 0.02217214 0.014616523 0.19688766 -0.30367345 0.93221122 0.0018877595
0.046428271 0.02252529 0.014035526 0.24121778 -0.33903843 0.90932226 0.0010894192
0.049375262 0.022572599 0.013156194 0.28309268 -0.38673097 0.87766606 0.0010383202
0.051838771 0.023099326 0.012549351 0.34584317 -0.40969968 0.84412009 0.0017760174
0.054158106 0.023575205 0.012071241 0.42079952 -0.45785874 0.78313035 0.0017244938
-0.054402068 0.026583254 0.012305377 -0.51426852 -0.51065284 0.68902946 0.0020409646
-0.052290615 0.025651783 0.012973501 -0.4810423 -0.51229769 0.71144176 0.001670479
-0.049710624 0.025140855 0.014229715 -0.41548035 -0.46282908 0.78304869 0.0012761519
-0.047583729 0.024276892 0.014756573 -0.38093403 -0.45866644 0.80281651 0.0013409758
-0.015385844 0.026789472 0.014835889 0.16253656 0.48194149 0.86099607 0.00095383258
-0.01349106 0.026395949 0.014739318 0.14631239 0.47441554 0.86805683 0.001223985
-0.010321802 0.025995251 0.014456923 0.14949965 0.51848584 0.84191585 0.001680253
-0.007504954 0.025530653 0.014227697 0.12298613 0.49169385 0.86203921 0.0009415691
-0.0042643049 0.025238818 0.013983252 0.098131292 0.48895329 0.86677265 0.0017730832
-0.001358156 0.025377033 0.013574074 0.082552716 0.54226476 0.83614236 0.0012784891
0.0015373937 0.025367308 0.013358339 0.053189985 0.55135107 0.83257604 0.001957691
0.0044045551 0.025262784 0.013322073 0.02115787 0.55120349 0.83410257 0.0019956294
0.0075058886 0.025284754 0.013290221 -0.012377875 0.55391133 0.83248365 0.0017578031
0.010553967 0.025309691 0.013395719 -0.04008526 0.5334726 0.84486693 0.0021970752
0.013479277 0.025400737 0.013514555 -0.069587544 0.52513778 0.84816742 0.0022985628
0.01644177 0.025459085 0.013785513 -0.090779223 0.48052078 0.87227225 0.0017212618
0.019507483 0.02549858 0.014111697 -0.10404952 0.44745445 0.88823318 0.0016653825
0.022429593 0.025664663 0.014418309 -0.10958354 0.40392384 0.90820533 0.0022484085
0.025422938 0.025989352 0.014649439 -0.11232538 0.35574883 0.92780697 0.0029808665
0.028235558 0.026412696 0.014820486 -0.10910075 0.30492046 0.9461081 0.0031886592
0.031092094 0.026551457 0.014943737 -0.085563958 0.24514347 0.96570361 0.0028180245
0.033766843 0.026715798 0.014959322 -0.08790192 0.27298012 0.95799536 0.0019330765
0.044715177 0.02445625 0.014935263 0.14255747 -0.1510803 0.97818822 0.003503764
0.046906341 0.025025764 0.014763134 0.21315226 -0.23877934 0.94739145 0.0024221668
0.049494579 0.02546639 0.01424151 0.25358835 -0.27861774 0.92631799 0.001372863
0.05247172 0.025477808 0.013299713 0.30970842 -0.31962511 0.89550006 0.0010137924
0.054990292 0.025946198 0.012510182 0.38050336 -0.37737635 0.84427738 0.0017619595
0.057227701 0.026726063 0.012085248 0.45234308 -0.40868634 0.79269242 0.001745907
-0.057293195 0.029462477 0.012163077 -0.55084419 -0.44155031 0.70824015 0.002413362
-0.05518632 0.028461747 0.012890768 -0.51898903 -0.45167154 0.72570181 0.0016365021
-0.052739903 0.028226307 0.014271374 -0.43112782 -0.37968987 0.81851357 0.0014657113
-0.050787341 0.027410114 0.014814653 -0.40080133 -0.36817041 0.83893317 0.0024380407
-0.024442982 0.02991057 0.014872834 0.24166627 0.56259751 0.79062092 0.001082154
-0.021889718 0.0294657 0.014778943 0.2124875 0.52629447 0.82332444 0.0021154974
-0.019296348 0.028672377 0.014573493 0.19057515 0.49133074 0.84986776 0.001162281
-0.016660394 0.028081585 0.014311519 0.18533467 0.50757158 0.8414405 0.0010779947
-0.013578471 0.028325215 0.013436425 0.18819368 0.60137749 0.77648455 0.0017207626
-0.010584133 0.028025027 0.013018336 0.16057536 0.63035685 0.75951684 0.0017598616
-0.0076848953 0.027798716 0.012616467 0.13633966 0.65049458 0.74717355 0.0014118076
-0.0046327813 0.027446 0.012432266 0.11195886 0.65133512 0.750485 0.001732087
-0.0017673518 0.027215205 0.012171384 0.076742925 0.67952043 0.72963172 0.0013787391
0.00084243889 0.027192641 0.012068294 0.051710166 0.6863516 0.72542918 0.0012994099
0.0042215213 0.027270367 0.012008093 0.02477069 0.57837301 0.81539625 0.0013583982
0.0085805785 0.027200377 0.012018928 -0.0093378769 0.68071836 0.73248571 0.0010677599
0.010879317 0.027191401 0.012112515 -0.05298242 0.65428621 0.75438881 0.00237749
0.014150814 0.027241319 0.012303759 -0.093227513 0.60740471 0.78890312 0.0016975565
0.016802568 0.027551675 0.012469122 -0.10954538 0.5744651 0.81116563 0.0018043173
0.01958669 0.027740223 0.012764903 -0.12665038 0.57728088 0.80666381 0.0020051736
0.022553435 0.028154057 0.01295911 -0.15448384 0.56170726 0.81278521 0.0020007701
0.025481096 0.028349914 0.013456525 -0.15649411 0.48940283 0.85790122 0.002661081
0.028574565 0.028431803 0.013968872 -0.14008354 0.43998504 0.88701171 0.0020777788
0.031552173 0.028485889 0.014405615 -0.10770398 0.38496315 0.91662604 0.0034963922
0.034492657 0.028872808 0.014645774 -0.1120258 0.30963767 0.9442324 0.0029037287
0.037203647 0.029419098 0.014734594 -0.1209941 0.27915034 0.9525941 0.002750356
0.040038243 0.029713182 0.014956305 -0.084195927 0.1860157 0.97893268 0.0022296456
0.042577609 0.029780213 0.014928532 -0.027125197 0.10399387 0.99420798 0.0026270647
0.047476869 0.027738953 0.014899992 0.10137744 -0.046621881 0.99375504 0.0023908305
0.04993942 0.028143337 0.014795274 0.17918505 -0.12002461 0.97646648 0.0027705114
0.052509982 0.02843645 0.014183071 0.25880805 -0.20857777 0.94314039 0.0022243713
0.055472158 0.028499987 0.013235996 0.32716206 -0.26031479 0.9084059 0.0016095608
0.05780131 0.028975585 0.01243485 0.40317431 -0.30024654 0.86446661 0.0017986144
-0.060166072 0.032858972 0.012027059 -0.55264956 -0.35587415 0.7536127 0.003512779
-0.058026832 0.031824965 0.012652494 -0.54163569 -0.35285604 0.76297003 0.0021602069
-0.055565495 0.031397518 0.014026506 -0.46678808 -0.28192699 0.83822793 0.0017350548
-0.053655747 0.030551055 0.014823856 -0.42154625 -0.25535315 0.87011123 0.003774445
-0.030492542 0.032805711 0.014850247 0.2401956 0.54060262 0.80625975 0.0010153532
-0.02870274 0.032514747 0.014568544 0.21115723 0.49588889 0.84232229 0.0011663336
-0.025350526 0.031806231 0.014060212 0.24822608 0.58144164 0.77479637 0.0016039911
-0.022544002 0.031384971 0.013476441 0.24589509 0.62626195 0.73981863 0.0016087415
-0.019580888 0.030874666 0.012983906 0.2323868 0.64509445 0.72790766 0.0012595768
-0.01671787 0.030477572 0.012459646 0.21299146 0.65762424 0.72260982 0.0013457933
-0.014300387 0.030094773 0.012184676 0.18990663 0.6698702 0.71778083 0.0011064073
0.026219428 0.030147104 0.012323405 -0.18661381 0.60501611 0.77403545 0.0015191702
0.028886938 0.030756902 0.012547969 -0.18631588 0.58532459 0.78910166 0.0021632921
0.031634092 0.031067351 0.013032773 -0.19129096 0.52122211 0.83170623 0.0026075984
0.034509718 0.031549841 0.013358383 -0.19087051 0.47479555 0.8591494 0.0028182012
0.037495211 0.03155449 0.014031301 -0.16083518 0.37882218 0.91138679 0.0020529451
0.040523887 0.031654865 0.014473021 -0.12346521 0.3088446 0.94306487 0.0028416547
0.043401036 0.032050394 0.014737496 -0.12084819 0.27711073 0.95320791 0.0030001036
0.046272099 0.032297663 0.014873075 -0.051359519 0.19337596 0.97977954 0.0028039473
0.050010297 0.03142558 0.014892265 0.090785414 0.019939337 0.99567086 0.0036538935
0.052665368 0.031492159 0.014656051 0.19243744 -0.067503422 0.97898471 0.0038276697
0.055485986 0.031372067 0.013926797 0.28094786 -0.1392058 0.94957358 0.0024225079
0.058482539 0.031566758 0.012821889 0.37945023 -0.21689591 0.89942962 0.00084254617
0.060546581 0.032543357 0.012196857 0.45711228 -0.23335826 0.8582496 0.0021723621
-0.060419247 0.035135563 0.012289657 -0.56085855 -0.26595569 0.78403145 0.0026631556
-0.058496416 0.034442734 0.01334171 -0.48593399 -0.21352544 0.84751111 0.0029792043
-0.056091309 0.034264918 0.014557811 -0.41292757 -0.15343712 0.89774603 0.0026664531
-0.036641475 0.035568196 0.014807631 0.19585614 0.47797489 0.85625952 0.0012034905
-0.034246422 0.035255335 0.014422977 0.25212196 0.56518281 0.78549534 0.0012809749
-0.031394169 0.034630731 0.013899138 0.25879729 0.58163571 0.77118337 0.0011900231
-0.028605368 0.03431369 0.013114108 0.2786178 0.63557667 0.72000998 0.0017649696
-0.025790114 0.033612385 0.012693312 0.2730076 0.67735738 0.68312067 0.0016016008
-0.023630701 0.033256095 0.012066304 0.26255131 0.68302447 0.68157488 0.00099505915
0.035190336 0.033407003 0.012396137 -0.23398146 0.58536702 0.77627188 0.0018402449
0.03762034 0.034046378 0.012644464 -0.25317556 0.54565752 0.79884923 0.0029811591
0.040475495 0.0345704 0.013191194 -0.22800633 0.46065325 0.85779464 0.0024767297
0.043463659 0.034455284 0.013932711 -0.16724019 0.36882228 0.91433084 0.0019603076
0.046360407 0.034518775 0.01437216 -0.10160178 0.28553873 0.95296627 0.0026599222
0.04955893 0.034682512 0.014595591 -0.016431564 0.20157464 0.97933537 0.0023320771
0.052339956 0.034585875 0.01458455 0.068587907 0.12416018 0.98988885 0.0042988514
0.05536072 0.034492526 0.014218189 0.20687097 -0.01549439 0.97824556 0.0046431627
0.058439739 0.034525193 0.013392767 0.30743179 -0.093930893 0.94692278 0.0027129787
0.060928226 0.034634799 0.012442095 0.39420474 -0.14043218 0.90822989 0.0019624277
-0.060974792 0.037671167 0.012528896 -0.51662409 -0.14049 0.84460765 0.0035580578
-0.05857408 0.037459858 0.013767358 -0.40325901 -0.0477616 0.91383857 0.0035576108
-0.056209192 0.037632648 0.014702849 -0.31856513 0.0090886392 0.94785738 0.0038565886
-0.053937506 0.038830135 0.014930333 -0.12356444 0.15389642 0.98033041 0.00262282
-0.046021804 0.038734555 0.014918257 0.11544232 0.40337682 0.90772259 0.0026664669
-0.043010499 0.038508561 0.01474339 0.18455769 0.49673358 0.84805316 0.0021554215
-0.040348418 0.037962347 0.014387515 0.22691469 0.52910525 0.8176536 0.0012940555
-0.037491858 0.037580628 0.013752065 0.26190534 0.57690185 0.77368587 0.0011688841
-0.034926716 0.036672119 0.013507159 0.24925482 0.55035776 0.79685533 0.0013516406
-0.032137841 0.036469907 0.012643986 0.29913107 0.66686398 0.68250501 0.0013826699
-0.029930474 0.036309566 0.012063166 0.29620868 0.67506158 0.6756866 0.00050577096
0.041144554 0.036546636 0.012209952 -0.28016508 0.56129342 0.77875364 0.0028211016
0.043654013 0.036970899 0.01275773 -0.22969195 0.47120911 0.85158885 0.0028606278
0.046544649 0.037583083 0.013166025 -0.18637541 0.4096117 0.89301872 0.0028376859
0.049503278 0.037477084 0.013776628 -0.093530111 0.31995708 0.9428041 0.0023229541
0.052414447 0.037549462 0.013965635 -0.03542408 0.27561224 0.96061593 0.0035112761
0.055537328 0.037422594 0.013967481 0.078536868 0.18270561 0.98002583 0.0044445237
0.058459878 0.037449807 0.013524192 0.23692684 0.041669101 0.97063351 0.0048141796
0.061193109 0.037647948 0.012658632 0.34281656 -0.032853756 0.93882769 0.0031815767
0.063171342 0.038220011 0.012034801 0.47403309 -0.05000177 0.87908614 0.0038563176
-0.061180737 0.040492661 0.012689198 -0.44666758 0.0028058754 0.89469558 0.0034985472
-0.058514602 0.040379431 0.013790995 -0.32898739 0.092594847 0.93978375 0.0047528292
-0.055642605 0.040459696 0.014463623 -0.21902987 0.19845237 0.95532322 0.0056895139
-0.052689157 0.040900968 0.014621303 -0.0070435097 0.36232764 0.93202418 0.0032063148
-0.049481113 0.040887959 0.014480449 0.074346848 0.41875157 0.9050523 0.0018786035
-0.046525132 0.040616777 0.014154891 0.12743215 0.46203518 0.87765855 0.0010213985
-0.043894205 0.039961364 0.013950332 0.17861848 0.49513391 0.85025752 0.0012460699
-0.040679157 0.03998936 0.012970269 0.27407885 0.61642277 0.73817593 0.0016126226
-0.038065441 0.039356042 0.012496776 0.30110863 0.64684933 0.70065653 0.0014038056
0.047120869 0.039491467 0.012301871 -0.2518732 0.52289188 0.81433654 0.0025726899
0.049686875 0.04009812 0.012622797 -0.17779101 0.44792128 0.87621742 0.002965315
0.0524702 0.04051619 0.012930751 -0.11478814 0.37674311 0.91917801 0.0027747583
0.055492479 0.040487811 0.01325432 0.011117307 0.27853829 0.96036077 0.0029297317
0.058427166 0.040520571 0.013112926 0.13652922 0.18159619 0.97384936 0.0035674518
0.061264619 0.040646113 0.012531806 0.27930319 0.090739936 0.95590585 0.0033447579
0.063157536 0.040153984 0.012150175 0.38858742 0.039718341 0.92055541 0.0051669404
-0.061125662 0.043373127 0.012431026 -0.3686254 0.13933779 0.91907585 0.0037588822
-0.058759093 0.043300122 0.013160943 -0.23883927 0.21009453 0.9480592 0.0045074215
-0.055552058 0.043453943 0.013537358 -0.061650299 0.36312383 0.92969906 0.0040583392
-0.052544501 0.043390185 0.013454479 0.050429214 0.45142531 0.89088279 0.0022298109
-0.049863182 0.043173321 0.013230352 0.11242566 0.48564121 0.8668986 0.0020961117
-0.046671055 0.042906865 0.012702269 0.22691187 0.59445626 0.77144843 0.0024266639
-0.044265151 0.042386662 0.012311872 0.28253874 0.64563549 0.70945519 0.0021670731
0.053328775 0.04232832 0.012225794 -0.18531613 0.48591915 0.85413146 0.0023227872
0.055666842 0.042743713 0.012386922 -0.097748779 0.40565953 0.90878242 0.0030246028
0.058589451 0.042952206 0.012460679 0.037037458 0.30818817 0.9506042 0.0032301759
0.060966875 0.043177061 0.01221645 0.21031183 0.21148777 0.95448512 0.0063569653
0.063178837 0.04234663 0.01211049 0.24943294 0.17885996 0.9517312 0.0051165069
-0.060524791 0.045496445 0.01214921 -0.220682 0.33394122 0.91639662 0.0058456697
-0.05833653 0.04573328 0.012373111 -0.11162724 0.38450319 0.91634965 0.0039577754
-0.055688616 0.045807499 0.012398492 0.024530247 0.46948573 0.88259923 0.0026556817
-0.052764308 0.045464408 0.012309482 0.10327623 0.52412635 0.84535533 0.0017528177
-0.050712343 0.045352198 0.012077977 0.2244859 0.6161502 0.7549603 0.0018638077
0.059481882 0.045053218 0.012024634 0.02451653 0.28347746 0.95866549 0.0045963922
-0.021424128 0.011880716 0.01502566 -0.13766997 -0.59788823 0.78966868 0.0011503006
-0.01874934 0.011762568 0.015146274 -0.11499464 -0.56622779 0.81618774 0.0012655305
-0.016310217 0.01163597 0.015263568 -0.084579319 -0.54684013 0.83295393 0.001566121
-0.013446119 0.011461495 0.015353835 -0.048749175 -0.5033794 0.8626892 0.0019134869
-0.010518702 0.011271955 0.015391009 -0.023106638 -0.47353026 0.88047445 0.001868837
-0.0074720541 0.011234132 0.015397704 -0.0020333733 -0.45449662 0.89074612 0.0021589778
-0.0044988003 0.011180697 0.015358375 0.012514462 -0.43430153 0.90068066 0.0020208156
-0.0014166335 0.011284199 0.015326085 0.027348414 -0.41912797 0.90751523 0.0019740963
0.0014378383 0.011307103 0.015267138 0.037375554 -0.40578356 0.91320467 0.0021032251
0.0041685211 0.011464348 0.015210359 0.045128167 -0.40488434 0.91325361 0.0020561526
0.0073461784 0.011631863 0.015152664 0.054057818 -0.40659538 0.91200769 0.0018057361
0.010279582 0.011619524 0.015120276 0.067283116 -0.41579661 0.90696537 0.0016879182
0.012865109 0.011738339 0.015049359 0.077963099 -0.42755014 0.9006235 0.0015033784
-0.030175498 0.014852226 0.015160434 -0.20346205 -0.60520428 0.76963043 0.001365775
-0.028191188 0.01455664 0.015275474 -0.1737778 -0.5672403 0.80500913 0.0019887167
-0.025449365 0.014146134 0.015531449 -0.1447084 -0.53255117 0.83393574 0.0020522648
-0.02246323 0.013734886 0.015736273 -0.11308303 -0.49914879 0.85910577 0.0019833096
-0.019498751 0.013456123 0.015920874 -0.080105022 -0.44546333 0.89170945 0.0022732096
-0.01663962 0.013387628 0.01610259 -0.050532445 -0.41344786 0.90912449 0.0023626073
-0.013531439 0.01345894 0.016255157 -0.013144606 -0.35833624 0.93350005 0.0026765587
-0.010529521 0.013489523 0.016295625 0.0030713556 -0.32601607 0.94535923 0.0024539137
-0.0075669619 0.013424095 0.016232545 0.019889452 -0.30345854 0.95263696 0.0024143979
-0.004589621 0.013413338 0.016144803 0.029335748 -0.27903071 0.95983392 0.0021890774
-0.0015327375 0.013352785 0.016022246 0.03695602 -0.2656323 0.96336579 0.0021610144
0.0014974944 0.013449132 0.0159398 0.041378573 -0.23137631 0.97198403 0.002216279
0.0043592453 0.013349876 0.015753694 0.039862268 -0.25200659 0.96690416 0.0018011425
0.007532048 0.013490051 0.015667848 0.041191798 -0.22699142 0.97302526 0.0017209072
0.010534522 0.013466433 0.015470922 0.050389782 -0.26461276 0.96303737 0.0016387098
0.013446311 0.013735096 0.01539642 0.053268924 -0.25781256 0.96472543 0.0019975868
0.016409213 0.014012842 0.015277264 0.064412005 -0.28122428 0.95747799 0.0020422209
0.019283932 0.014445429 0.015184658 0.073864922 -0.28118101 0.95680785 0.0011925078
0.022097364 0.014720445 0.015071324 0.089340992 -0.30890355 0.94688791 0.0010778591
0.024307504 0.014662574 0.015041651 0.11082738 -0.36136654 0.92581397 0.0014279557
-0.03667767 0.017633375 0.01515248 -0.27096686 -0.56353879 0.7803852 0.0019355381
-0.034218796 0.017160799 0.015472328 -0.22702928 -0.53679675 0.81259274 0.0023696655
-0.031389594 0.016564811 0.015839707 -0.18837132 -0.49637932 0.84742182 0.0020522967
-0.028432155 0.016353812 0.016261712 -0.14388493 -0.45856276 0.87693638 0.0022426678
-0.025526121 0.016448874 0.016708782 -0.086555317 -0.3753638 0.9228273 0.0031396749
-0.022550451 0.016393011 0.016947001 -0.051844195 -0.3301678 0.94249749 0.0033172294
-0.019544339 0.016333815 0.017043706 -0.024196384 -0.29333508 0.95570338 0.0037696909
-0.01660765 0.016475996 0.01712109 -0.0023775194 -0.24713221 0.96897888 0.0040690629
-0.013409377 0.016349075 0.017030632 0.022797136 -0.20080161 0.97936666 0.0044294139
-0.01055467 0.016504262 0.016968224 0.04393227 -0.13921733 0.98928684 0.0047447309
-0.0075204158 0.01646656 0.016820084 0.053528644 -0.10624652 0.99289799 0.0047617638
-0.0044210618 0.016472694 0.016643008 0.054810528 -0.093393989 0.99411941 0.0048278552
-0.0015164013 0.016432066 0.016491909 0.051444124 -0.072909899 0.9960109 0.004718916
0.0014159374 0.01647771 0.016343307 0.050721839 -0.053931437 0.99725556 0.0045036534
0.0044865236 0.016471643 0.016209403 0.039346229 -0.050044533 0.99797165 0.0041601658
0.0075213034 0.016478539 0.016089417 0.032505088 -0.039448891 0.99869275 0.0037358454
0.010505324 0.016432777 0.015987149 0.035948936 -0.076786116 0.99639934 0.0034652425
0.013505025 0.016461294 0.01587919 0.033292156 -0.10002175 0.9944281 0.0026472951
0.016452966 0.0164479 0.015751326 0.033618335 -0.118352 0.99240243 0.0023884953
0.019402213 0.016472321 0.015608008 0.051188696 -0.14842056 0.98759866 0.0022356482
0.022419052 0.016540244 0.015419819 0.061110884 -0.18106763 0.98157018 0.001955027
0.025264824 0.016826317 0.015286002 0.067964152 -0.20858672 0.97563952 0.0020324134
0.02804886 0.017295185 0.015192741 0.07552164 -0.26150891 0.96224195 0.0021470911
0.030901454 0.017544553 0.015080898 0.097656652 -0.2948561 0.95053828 0.0018401612
0.033528682 0.017693395 0.015082565 0.12924182 -0.3304368 0.93493754 0.0016432871
-0.042387199 0.020747408 0.015095801 -0.33913341 -0.53015989 0.77712232 0.001969299
-0.040157184 0.020185551 0.015450287 -0.29382712 -0.50156051 0.81369686 0.0023812125
-0.037419148 0.01950286 0.015975118 -0.25412807 -0.46838284 0.84618932 0.0019105017
-0.034516543 0.01938946 0.016603442 -0.17607951 -0.403256 0.89798701 0.0023954308
-0.031524014 0.019452943 0.017145038 -0.12013638 -0.33758819 0.93359596 0.0035459527
-0.028516497 0.019434443 0.017461009 -0.07429567 -0.28025287 0.95704675 0.0043142652
-0.025579244 0.01935577 0.017567635 -0.03531364 -0.22801799 0.97301632 0.0048174765
-0.022542382 0.019319247 0.017593257 0.010238323 -0.13655084 0.99058014 0.003694959
-0.019620845 0.019363971 0.017527658 0.031407051 -0.046919525 0.9984048 0.0040148031
-0.01650358 0.019383214 0.017384477 0.062852517 0.02639755 0.99767369 0.0046807569
-0.013494314 0.019393012 0.01716724 0.079157189 0.10102627 0.99172974 0.0046651149
-0.0104617 0.019491939 0.016903127 0.079565562 0.14466266 0.98627692 0.0041839336
-0.0075073717 0.01926353 0.016698141 0.075916812 0.12537853 0.98920012 0.0047552763
-0.0045018103 0.019551283 0.016403828 0.069222026 0.18133906 0.98098135 0.0029901161
-0.0014163414 0.019341696 0.016236771 0.058130171 0.18171376 0.98163176 0.0025862618
0.0015160961 0.019505857 0.016035214 0.046399157 0.18260266 0.98209131 0.0025261512
0.0044937641 0.019560302 0.015904825 0.032307241 0.18907975 0.98143011 0.0022818611
0.0075128172 0.019665247 0.015766688 0.02058281 0.20547181 0.97844654 0.0022699677
0.010564559 0.019392496 0.015793489 0.010944485 0.17173111 0.98508304 0.0028932458
0.013491366 0.019588999 0.015751772 0.00080881373 0.1482323 0.98895222 0.0029605255
0.016444352 0.019446224 0.015785128 0.0054099895 0.10913414 0.9940123 0.0030542347
0.019478373 0.019443708 0.015785923 0.016223297 0.047448352 0.99874192 0.0035289438
0.022585547 0.019512624 0.015737014 0.016700568 -0.023660466 0.99958056 0.0037422958
0.025573919 0.019469533 0.015619463 0.023141049 -0.074468911 0.9969548 0.0020389243
0.028561665 0.01944419 0.015513713 0.042730775 -0.11152373 0.99284267 0.0016138779
0.031504992 0.019587656 0.015384187 0.052155498 -0.1487865 0.98749298 0.0021118631
0.034328915 0.019874977 0.015252991 0.067388155 -0.2007557 0.97732085 0.0022380655
0.036991108 0.0204705 0.015171495 0.10751786 -0.26705128 0.95766568 0.0027004797
0.039636798 0.020815151 0.015117382 0.15734743 -0.27888873 0.9473452 0.0023660481
-0.045634903 0.023476807 0.015261027 -0.36380243 -0.46923918 0.80465043 0.0027069093
-0.043255173 0.022553418 0.015664931 -0.32246962 -0.45185918 0.83176714 0.0018227957
-0.040533233 0.022362124 0.01642237 -0.24671738 -0.39398783 0.88538361 0.0026087039
-0.037539802 0.022467602 0.017187234 -0.1761602 -0.30880946 0.93466794 0.0039172131
