# .PCD v0.7 - Point Cloud Data file format
VERSION 0.7
FIELDS x y z normal_x normal_y normal_z curvature
SIZE 4 4 4 4 4 4 4
TYPE F F F F F F F
COUNT 1 1 1 1 1 1 1
WIDTH 561
HEIGHT 1
VIEWPOINT 0 0 0 1 0 0 0
POINTS 561
DATA ascii
-0.0077332631 0.0095436638 0.025303602 -0.070163682 -0.59131676 0.80338138 0.07617078
-0.0046866853 0.0092225801 0.025226679 0.070333175 -0.74486077 0.66350251 0.061194405
-0.0012114709 0.0091056302 0.025794324 0.10855137 -0.85716015 0.50348097 0.038012009
0.0015920012 0.0093831271 0.025561651 0.25735679 -0.89061272 0.37493536 0.012318936
0.0044717528 0.010303239 0.025553159 0.39642614 -0.8748247 0.27843854 0.013072334
0.0067225508 0.011388293 0.025327599 0.54445273 -0.80012584 0.25173384 0.002973238
-0.045793239 0.013599333 0.025230359 -0.72024637 0.006206268 0.69369054 0.0027294899
-0.044437472 0.013422603 0.026639137 -0.68441367 0.00010717854 0.72909391 0.002476952
-0.013524529 0.01315472 0.026735703 -0.070409574 -0.38334945 0.92091572 0.053979527
-0.011553396 0.012187677 0.026291141 -0.27333909 -0.3701503 0.88784826 0.06326063
0.0081274742 0.01248568 0.025600411 0.58896965 -0.7629751 0.2664279 0.0053039021
0.0098435069 0.014101121 0.025643243 0.71816033 -0.63662982 0.28097737 0.0066999295
-0.045849271 0.016456921 0.025167754 -0.77601671 0.0225162 0.63031036 0.0052430844
-0.04441772 0.016417326 0.026659532 -0.65080309 -0.005281915 0.75922817 0.0047610812
-0.014388078 0.015456319 0.026919017 -0.35950908 -0.43012494 0.82809764 0.04068353
0.011305056 0.015937185 0.025655517 0.80234587 -0.5460422 0.24099585 0.0032883289
0.012342746 0.017418602 0.025060734 0.83668613 -0.49257398 0.23943077 0.0022412064
-0.045822501 0.019486492 0.025212124 -0.75623703 0.013787948 0.65415245 0.0046611861
-0.044434208 0.019413028 0.026643038 -0.58504182 -4.6613426e-05 0.81100315 0.0046945261
0.01317622 0.019569097 0.025442457 0.90698534 -0.33104274 0.26036185 0.0044182944
-0.045841489 0.022515681 0.025187276 -0.76533824 0.073961772 0.6393646 0.0039664288
-0.044566087 0.022342885 0.026533732 -0.59617937 0.052648071 0.8011232 0.0042472719
0.013854538 0.022405518 0.025609022 0.95344764 -0.1318623 0.27120072 0.0053246939
-0.04579838 0.025336709 0.024918579 -0.77071494 0.082857676 0.63176978 0.0036073388
-0.043788362 0.026032737 0.026224921 -0.62069458 0.075635649 0.78039575 0.01745324
0.014082104 0.025451979 0.025309211 0.96432108 0.041326821 0.26148981 0.0030473955
-0.045344919 0.028368335 0.024870012 -0.71859598 0.045522477 0.69393623 0.0038312394
-0.044016548 0.028480154 0.026197061 -0.67559153 0.049039993 0.73564339 0.0066176658
0.013617918 0.028374724 0.025562933 0.934003 0.24028113 0.26439261 0.0054893051
-0.045339644 0.03132391 0.024893269 -0.74353683 -0.0047529829 0.6686781 0.001353788
-0.043995641 0.031414259 0.026209831 -0.7214238 -0.0073422836 0.69245487 0.0027310762
0.011818762 0.03266786 0.026076512 0.81658089 0.5168727 0.25697917 0.0039237775
0.012674667 0.031234557 0.025390243 0.87927747 0.39642283 0.26404563 0.0050601163
-0.045338459 0.034423549 0.024890143 -0.7350803 0.0067306054 0.67794669 0.0013773264
-0.043793 0.034517322 0.026365563 -0.6961838 0.045439351 0.71642399 0.0053831083
0.010856687 0.034209251 0.025538607 0.7374866 0.60880625 0.29234996 0.0058696209
-0.045459338 0.037682392 0.024722412 -0.69383019 -0.0072771874 0.72010183 0.002781414
-0.043819945 0.037443206 0.026297331 -0.59771144 0.044598695 0.80046988 0.0035926867
0.005211853 0.038680628 0.026398573 0.4068583 0.83491254 0.37065801 0.0086802859
0.0075379545 0.037496984 0.025436014 0.57170743 0.769786 0.28386649 0.0047933734
0.0092154723 0.036182314 0.025186006 0.67161816 0.69270265 0.26285371 0.0029058135
-0.045642048 0.0406795 0.02455599 -0.64453238 -0.060032565 0.76221657 0.0053568478
-0.043538686 0.040647093 0.026259415 -0.5626322 0.011174577 0.82663178 0.0020288813
-0.0063229436 0.039799973 0.026847258 0.33163986 0.31233916 0.89020181 0.09919893
-0.0046184044 0.041094031 0.02566793 0.58442008 0.36834839 0.72303015 0.068085082
-0.0017070409 0.040747903 0.025157418 0.29157493 0.75912476 0.58199114 0.055390105
0.0015442425 0.040142812 0.025434345 0.26908824 0.88906187 0.37035185 0.022804327
0.0041845702 0.039396025 0.025255421 0.40445343 0.86976236 0.28272071 0.0029274505
-0.046240181 0.043691467 0.024535598 -0.51898021 -0.097777851 0.84917551 0.0036818988
-0.043720733 0.043541919 0.026084742 -0.5543732 -0.021174291 0.83199883 0.0010929453
-0.0040084398 0.043396723 0.025627509 0.75588006 -0.01240163 0.65459263 0.031898424
-0.0026040145 0.043717701 0.024262726 0.6065681 -0.023234196 0.79469198 0.020168774
-0.048254803 0.046657816 0.024033565 -0.45325089 -0.026447011 0.89099056 0.0030693354
-0.046400975 0.046531964 0.024606586 -0.45610005 0.00035382554 0.88992846 0.002511261
-0.043708336 0.046445314 0.02605962 -0.53876919 0.0045379424 0.8424412 0.0025654824
-0.0036356763 0.046358716 0.025924491 0.77520853 -0.084731087 0.62599707 0.010485786
-0.0024741578 0.046587333 0.02450957 0.68596119 -0.069873452 0.72427547 0.0084898463
-0.046369102 0.049504157 0.024304191 -0.41008741 0.047761481 0.91079479 0.0013850932
-0.04379512 0.049528591 0.025678223 -0.55579442 0.054600287 0.82952482 0.0022911744
-0.0034747047 0.049547654 0.026038663 0.77790505 0.023991549 0.62792367 0.01120384
-0.0023225809 0.049564391 0.024526017 0.65001565 0.012355873 0.75982034 0.0084211901
-0.046370927 0.052540597 0.024286501 -0.38145086 0.075487636 0.92130172 0.0018791688
-0.04409704 0.052786276 0.025394246 -0.48884842 0.098809399 0.86675483 0.0046066158
-0.041963957 0.053788524 0.026912495 -0.55836433 0.088308893 0.82488239 0.010848621
-0.0036423027 0.052704845 0.025882078 0.80303299 0.12556855 0.58255517 0.011977889
-0.0025686887 0.052366495 0.024501482 0.70252931 0.15894432 0.69367808 0.0063179135
-0.045729291 0.054989282 0.024243793 -0.39750481 0.22684164 0.88911909 0.0044097411
-0.043911025 0.055826932 0.02497158 -0.47303692 0.29245675 0.83108675 0.0088504357
-0.041595351 0.055984382 0.026727246 -0.5671531 0.18303885 0.80301565 0.013977744
-0.0040913201 0.055520058 0.025361376 0.79794049 0.28179583 0.53280586 0.012526657
-0.0029000049 0.054889373 0.024211235 0.61652631 0.25561982 0.74468368 0.0055050678
-0.043004647 0.058020342 0.02464702 -0.50723404 0.42283508 0.75094885 0.0051590251
-0.04107108 0.058625799 0.025946196 -0.57084948 0.45592362 0.68283558 0.0058357753
-0.0064750663 0.059523944 0.025907049 0.72494525 0.50127184 0.47242033 0.0093591772
-0.0051711905 0.058133353 0.025077606 0.734712 0.42790401 0.52639949 0.0090325084
-0.040379927 0.0608874 0.024787702 -0.55386138 0.55416244 0.62140286 0.003961727
-0.038117863 0.062058091 0.025997415 -0.61035496 0.57658541 0.54315394 0.013798591
-0.009297017 0.062810659 0.026239868 0.63088006 0.70256817 0.32922393 0.008746569
-0.0075097545 0.061379004 0.025012068 0.69547898 0.57278121 0.43385553 0.0092976708
-0.0058382759 0.060042474 0.024224842 0.67034322 0.54782099 0.50053197 0.0095775221
-0.037024748 0.063591354 0.025076156 -0.55988973 0.73092544 0.3902199 0.0049162274
-0.034653988 0.06501954 0.025500044 -0.45768541 0.81192809 0.362349 0.0047420352
-0.012536815 0.065502271 0.025563061 0.50988698 0.82601166 0.24024989 0.0050315475
-0.010572191 0.064112954 0.025444046 0.5881443 0.73397887 0.33964875 0.0097623598
-0.0088511379 0.063025311 0.024570173 0.60796243 0.72050726 0.33354306 0.0074827438
-0.031564854 0.066626586 0.025408726 -0.381165 0.88541877 0.26598293 0.010011021
-0.028432202 0.067682765 0.025528112 -0.21029592 0.90356946 0.37327993 0.043971345
-0.025544716 0.06825567 0.025184492 -0.13970281 0.94603378 0.29240945 0.023236156
-0.02251488 0.068478137 0.02550518 -0.0063955174 0.97771299 0.20984861 0.0040195407
-0.019794794 0.068237484 0.025471359 0.16428331 0.94083017 0.29639429 0.024445612
-0.016698383 0.067480229 0.025440954 0.28164479 0.90563935 0.31700736 0.034100674
-0.01421726 0.066440597 0.025439754 0.41491625 0.87440372 0.25152084 0.020984698
-0.030397926 -0.066310152 0.027432684 -0.34149051 -0.81956232 0.46011081 0.01562237
-0.028271586 -0.066460423 0.02857318 -0.026738385 -0.2163814 0.97594273 0.028359847
-0.025359368 -0.06680733 0.028568251 -0.012181481 -0.17387345 0.98469263 0.029804202
-0.022488559 -0.066887476 0.028618315 0.0090886615 -0.32558081 0.94547057 0.045337904
-0.019459734 -0.066803627 0.02853925 0.059887059 -0.2933653 0.95412278 0.058484387
-0.01670859 -0.066443853 0.028385213 0.2181132 -0.4244079 0.87880862 0.046928387
-0.033947304 -0.063488275 0.028504325 -0.149252 -0.23152335 0.961312 0.011088013
-0.031530779 -0.064293258 0.02858533 -0.088880174 -0.16225812 0.9827373 0.020675244
-0.028560452 -0.064540364 0.028635615 -0.10925754 -0.25212997 0.96150571 0.034541201
-0.025531927 -0.064473532 0.028636029 -0.051047184 -0.22704348 0.97254592 0.038737819
-0.022396376 -0.064489074 0.028641477 0.0011022652 -0.21685305 0.97620362 0.042205781
-0.019383777 -0.064512692 0.028634654 0.043638043 -0.27235684 0.9612062 0.045287192
-0.016436443 -0.064468265 0.028634218 0.19131795 -0.33705357 0.9218418 0.06217492
-0.013623815 -0.064367957 0.028531937 0.23050343 -0.39354712 0.88993752 0.047510128
-0.011240582 -0.063534476 0.028214032 0.38357747 -0.46840015 0.79590809 0.030158818
-0.036595438 -0.060947221 0.028489063 -0.27621818 -0.24888276 0.92831075 0.02487064
-0.034477647 -0.061386425 0.028636182 -0.093463354 -0.11075768 0.989443 0.017339341
-0.031640161 -0.06148592 0.028635852 -0.0021356698 -0.02750719 0.99961936 0.0021060125
-0.028885206 -0.061755974 0.028623803 -0.18682511 -0.12248743 0.97472727 0.030584617
-0.02590836 -0.062624909 0.028522691 -0.14115535 -0.30995822 0.94021332 0.042587038
-0.02262222 -0.062531032 0.028125867 0.072666034 -0.41207695 0.90824682 0.054898724
-0.018837312 -0.0618187 0.028474957 0.16235261 -0.19546857 0.96717817 0.060423344
-0.016420739 -0.061485615 0.028634414 0.13361791 -0.030735442 0.99055618 0.035966616
-0.013486907 -0.061513487 0.028634064 0.086900823 -0.12484649 0.98836309 0.030449679
-0.010525779 -0.061496835 0.02854722 0.43529728 -0.35626081 0.82679772 0.069808595
-0.0084658125 -0.060753632 0.028179253 0.61289227 -0.40276867 0.67980915 0.04812935
-0.039595917 -0.057840522 0.027814547 -0.53203058 -0.35473076 0.76883656 0.021483421
-0.037344158 -0.05847333 0.028595515 -0.2469357 -0.16297843 0.95522809 0.026231289
-0.034542844 -0.058460299 0.028636269 -0.0081750033 0.0093413815 0.99992287 0.0010617172
-0.031569827 -0.058520243 0.0286361 -0.033811722 0.034236673 0.99884164 0.0096834144
-0.029012671 -0.058422793 0.028585844 -0.27304515 -0.00033487755 0.96200114 0.02963479
-0.018337836 -0.058278974 0.028556297 0.4552905 0.010803909 0.89027745 0.045121301
-0.016416531 -0.058545712 0.028634727 0.13029762 -0.0075820126 0.9914459 0.031847175
-0.013487566 -0.058428761 0.028634166 0.0017089772 0.00058234227 0.99999839 0.00054833811
-0.010462294 -0.058509827 0.028633667 0.10503997 -0.039053302 0.9937008 0.015528939
-0.0075345673 -0.058413386 0.02844529 0.5763734 -0.35890532 0.73415303 0.051085252
-0.0058342423 -0.057239391 0.027225873 0.76629239 -0.38190654 0.51666558 0.013663877
-0.039801247 -0.055389475 0.028432058 -0.30650562 -0.10944663 0.94555575 0.017126543
-0.037418079 -0.055462699 0.028636849 -0.18462808 -0.11100431 0.97651958 0.020502402
-0.034525022 -0.055501822 0.028573351 -0.04098146 -0.17241392 0.98417169 0.037159089
-0.031582128 -0.055563796 0.028617086 0.089688882 -0.22774449 0.96958148 0.040136948
-0.028664276 -0.055325624 0.028590078 -0.21382381 -0.034793504 0.97625244 0.058754418
-0.026495177 -0.054343868 0.028729917 -0.10553658 0.22665544 0.96824038 0.065190755
-0.018647484 -0.055311635 0.028681964 0.41498321 0.13197356 0.90020657 0.035776224
-0.016424539 -0.055567462 0.028634824 0.14891081 -0.18252751 0.97185862 0.041702271
-0.01350806 -0.055521566 0.028586173 -0.014461081 -0.19055194 0.9815706 0.037354201
-0.01044184 -0.055510268 0.028598115 0.1155777 -0.1862815 0.97567469 0.034065705
-0.0074603013 -0.055465326 0.028633473 0.35503906 -0.15958983 0.92112887 0.052369159
-0.0053175688 -0.055104751 0.028193166 0.60729975 -0.23213245 0.75980353 0.050891299
-0.04020581 -0.052467387 0.02845327 -0.42549768 -0.065944716 0.90255362 0.01699421
-0.037611779 -0.052603204 0.028636744 -0.29933697 -0.16408826 0.93993211 0.024281723
-0.034730036 -0.053499937 0.028062552 -0.20145398 -0.34452674 0.9169066 0.061320778
-0.031178191 -0.05375424 0.027932819 0.050786667 -0.39711201 0.91636389 0.057451848
-0.027813911 -0.052991614 0.028567553 -0.07152544 -0.18879952 0.97940737 0.086876102
-0.025623553 -0.052258804 0.02864865 0.01387581 0.019417575 0.99971515 0.064557545
-0.022446936 -0.052264195 0.029246958 -0.027796529 0.24580027 0.96892184 0.022875911
-0.019735612 -0.052721109 0.028703751 0.086902365 0.0097909635 0.99616867 0.067438103
-0.017093256 -0.053690031 0.02845175 0.021920105 -0.34361708 0.93885392 0.04956631
-0.013544816 -0.053631589 0.028443582 -0.012802507 -0.34583032 0.93820971 0.065490395
-0.0098629156 -0.052661031 0.028450491 0.29611287 -0.20403564 0.93310595 0.0630356
-0.0074600852 -0.052481662 0.028634161 0.20403275 -0.023238126 0.97868818 0.036949046
-0.0049477206 -0.052364424 0.028371753 0.67090797 -0.10056696 0.73468965 0.035159703
-0.040337339 -0.049501523 0.028549008 -0.40786523 -0.018534113 0.91285396 0.013027929
-0.037913457 -0.049509455 0.028642869 -0.34534514 0.011778314 0.93840188 0.026099851
-0.027230496 -0.04952608 0.029899618 0.36877275 -0.012046767 0.92944157 0.027022084
-0.025417686 -0.049517751 0.02909285 0.22635336 0.049437113 0.97278982 0.028940933
-0.022443794 -0.049382698 0.028459655 -0.04840634 0.0096379705 0.9987812 0.013572953
-0.019454436 -0.049428623 0.029351311 -0.26236385 0.030681446 0.96448106 0.019401163
-0.017791271 -0.049248118 0.02998922 -0.34903124 0.0086121159 0.9370715 0.027665082
-0.0095675504 -0.049470503 0.028426835 0.45623308 -0.02367509 0.88954532 0.049905468
-0.007457688 -0.049497526 0.02864025 0.20600295 -0.013786299 0.97845423 0.037038926
-0.0046914052 -0.049539033 0.028266082 0.62554348 -0.0094996914 0.7801314 0.033653736
-0.042105984 -0.046018407 0.027305111 -0.45844549 -0.0082767364 0.88868403 0.014204703
-0.040330738 -0.046587761 0.028508864 -0.31290567 0.039340597 0.94896913 0.019380642
-0.037727877 -0.046393488 0.028622279 -0.27749696 0.11293618 0.95406538 0.026546916
-0.035679817 -0.04543867 0.028291553 -0.28594995 0.18750107 0.93972117 0.034999024
-0.03041086 -0.045040999 0.028692314 0.14936525 0.60015649 0.78581309 0.023523048
-0.02794873 -0.045580044 0.02847225 0.066757642 0.21973443 0.97327298 0.075665988
-0.025676994 -0.046765324 0.028753946 0.14389259 -0.045355722 0.98855346 0.049830381
-0.022456072 -0.04635739 0.029194007 -0.056064412 -0.25047609 0.96649808 0.016334953
-0.019717803 -0.046238687 0.028706804 0.0081342841 -0.027393125 0.99959165 0.067937635
-0.016860671 -0.045233961 0.028151395 0.064091161 0.23071831 0.97090751 0.083058178
-0.014607972 -0.045006387 0.028672123 -0.10297641 0.59736145 0.79533345 0.018609026
-0.0097578848 -0.046297446 0.028704332 0.42135501 0.08005926 0.90335518 0.050000895
-0.0074767298 -0.046441186 0.028634561 0.21726292 0.017885067 0.97594923 0.034332242
-0.0048041656 -0.046631519 0.028292671 0.58037406 0.06500259 0.81175154 0.035394058
-0.042105466 -0.043503851 0.027260613 -0.45326838 0.017664248 0.89119905 0.010372669
-0.040175695 -0.043467093 0.028449753 -0.32398877 0.022675306 0.94578916 0.013940014
-0.037545975 -0.043497149 0.02863729 -0.14504081 0.050796375 0.98812079 0.011916128
-0.034585416 -0.043458581 0.028590823 -0.15958732 0.27001151 0.94953972 0.052532952
-0.03154242 -0.043523688 0.028601071 0.11191228 0.29807937 0.94795799 0.043918509
-0.028674722 -0.043529261 0.028571865 0.03652725 0.21079254 0.97684819 0.064120233
-0.026005143 -0.044650484 0.028712992 -0.12002192 -0.14004326 0.98284417 0.055080872
-0.022620171 -0.044498984 0.029948356 0.10290246 -0.34002295 0.93477029 0.021042258
-0.018695435 -0.043671608 0.028628118 0.30598444 -0.0019956979 0.95203441 0.062513307
-0.016357923 -0.043361172 0.028592383 0.12567593 0.13904995 0.98227823 0.063255131
-0.013454699 -0.043455273 0.028526282 -0.12047374 0.30136663 0.94586688 0.036495481
-0.010451469 -0.04344942 0.028586775 0.1656895 0.24166663 0.95610899 0.045621973
-0.0074608144 -0.043475654 0.028633954 0.23732659 0.095307313 0.96674329 0.027172752
-0.0052031525 -0.043603405 0.028173337 0.67086977 0.09850575 0.73500377 0.028977318
-0.042125314 -0.040620584 0.027209129 -0.52892292 0.025140006 0.84829742 0.005283399
-0.040264856 -0.040470246 0.028214261 -0.31312713 0.0067586256 0.94968718 0.0095381849
-0.037475985 -0.040503606 0.02863487 -0.079294868 0.020264003 0.99664521 0.0023732677
-0.034561232 -0.040528353 0.028636744 -0.020177333 0.076813981 0.99684131 0.015876764
-0.03157011 -0.040462207 0.028636457 -0.029335404 0.010017281 0.99951941 0.014177511
-0.028892905 -0.040588796 0.028636262 -0.28716955 -0.056219578 0.95622849 0.020763483
-0.018328734 -0.040456194 0.028476207 0.43461499 -0.024109785 0.90029359 0.039239254
-0.016311524 -0.040474325 0.028635276 0.13252504 -0.0053985552 0.99116498 0.030237919
-0.013356694 -0.040529642 0.028634658 -0.0075326627 -0.014037734 0.99987316 0.00055065588
-0.01048781 -0.040488932 0.028634578 0.016564636 0.031216191 0.9993754 0.018928029
-0.007368512 -0.040454607 0.028443843 0.17907973 -0.14215854 0.97350985 0.063034683
-0.0052006445 -0.040687785 0.027774276 0.42254382 -0.41324368 0.80665141 0.099145465
-0.0019638648 -0.039150205 0.028924858 0.046736114 -0.6578424 0.75170416 0.030307725
0.0010145828 -0.03921425 0.028070003 0.14578246 -0.83811879 0.52564669 0.024514133
-0.042470802 -0.037348043 0.027260363 -0.4912751 0.073334381 0.86791176 0.013642999
-0.040292297 -0.037471894 0.028049728 -0.32764888 0.046980545 0.94363075 0.014240433
-0.037410092 -0.037545316 0.028602486 -0.18799786 0.040584523 0.98133057 0.010445767
-0.0345487 -0.037589204 0.0286367 -0.025965178 -0.012703618 0.99958211 0.0017082955
-0.031544074 -0.037425697 0.028636532 -0.032689136 0.00019387739 0.99946558 0.0082371691
-0.028691014 -0.037343755 0.028574839 -0.20658563 0.12362175 0.97058749 0.035251658
-0.0256033 -0.036331806 0.028260291 -0.12396331 0.32249853 0.93841773 0.047485381
-0.022453751 -0.036219977 0.028586499 0.0092401756 0.42248303 0.90632373 0.052451089
-0.018802138 -0.037176851 0.0286208 0.28611338 0.15005812 0.94637287 0.058583766
-0.016325364 -0.0374122 0.028635232 0.11358739 0.0051958966 0.99351442 0.035431795
-0.013431656 -0.037572365 0.028634943 -0.084416583 -0.068077832 0.99410224 0.0038865276
-0.010463197 -0.037524682 0.028748535 -0.10633034 -0.16512215 0.9805246 0.006669085
-0.0075471844 -0.037546657 0.029143414 -0.076790243 -0.28986841 0.95398086 0.0064646001
-0.0045257001 -0.037879426 0.029532386 -0.051341698 -0.39037791 0.91922206 0.014848401
-0.0013955062 -0.037937552 0.029639706 0.025339231 -0.47029808 0.88214386 0.0061376761
0.0014999131 -0.03788751 0.029404109 0.15592924 -0.57917225 0.80015349 0.019337757
0.0043513067 -0.037322599 0.02913239 0.2648119 -0.60330427 0.75226229 0.023399597
0.0066739731 -0.036674086 0.02856347 0.40814561 -0.62113166 0.66903859 0.024138043
-0.042040102 -0.033344753 0.028585097 -0.63712358 -0.133599 0.75909472 0.066129886
-0.040064346 -0.034246385 0.028034186 -0.18997531 -0.16034214 0.96860713 0.024461659
-0.037315011 -0.034344975 0.028730089 -0.15337473 -0.096684203 0.98342681 0.01200845
-0.034516774 -0.034486514 0.028795594 -0.028581183 -0.055238988 0.99806404 0.0049069831
-0.031669658 -0.034454312 0.02863659 0.026817981 -0.032472569 0.99911278 0.00096867699
-0.028528042 -0.034539774 0.028636431 -0.10636937 0.13927184 0.98452473 0.031091847
-0.025429204 -0.034436926 0.028636709 -0.055000514 0.19770642 0.97871703 0.03513585
-0.022488428 -0.034303647 0.028605891 0.027300093 0.2051748 0.9783445 0.036150664
-0.019499982 -0.034556016 0.028621221 0.068657011 0.17087077 0.98289853 0.032954771
-0.016439805 -0.034451034 0.028635344 0.04264072 0.088689648 0.9951461 0.033819575
-0.013419981 -0.034666434 0.028785435 -0.14909671 -0.14639924 0.97792506 0.0053224731
-0.010719069 -0.034908 0.029497748 -0.18585382 -0.20395373 0.96117705 0.0036040526
-0.0086147282 -0.035622183 0.029790258 -0.15364842 -0.26072806 0.95310706 0.0025587438
0.005152869 -0.035598341 0.029824132 0.19945295 -0.34413332 0.91749161 0.0039110794
0.0076978821 -0.034726217 0.029359533 0.42668423 -0.4629845 0.77690792 0.021697931
0.0098146852 -0.033717506 0.02863642 0.62392449 -0.48481104 0.61292452 0.02776988
-0.042206075 -0.03170009 0.028568484 -0.64851505 0.069598362 0.75801337 0.062075257
-0.040557854 -0.031505387 0.028742434 -0.28685462 0.049215868 0.95670903 0.040734161
-0.037481081 -0.031532198 0.029123792 -0.11848662 0.055590227 0.99139833 0.012358318
-0.034421597 -0.031425074 0.029130109 0.023150707 0.015384015 0.99961364 0.0026538291
-0.031598188 -0.0314161 0.028652159 0.040852159 0.0035971217 0.99915868 0.0010114971
-0.028562531 -0.03153627 0.028636614 0.011017671 0.00028293513 0.99993926 0.00033370746
-0.025469901 -0.031510003 0.02863639 0.0020275672 -0.013930697 0.99990088 0.00081091141
-0.022463912 -0.031437386 0.028635507 0.0032057452 0.0011848237 0.9999941 7.9303609e-05
-0.019509545 -0.031593651 0.028633131 -0.0071770237 -0.0032538455 0.99996895 0.00027049219
-0.016770484 -0.031884436 0.028626919 -0.11415048 -0.04419715 0.99247986 0.0049237809
-0.013525086 -0.031581342 0.029465377 -0.25510773 -0.16056865 0.95348716 0.003855098
-0.011550179 -0.03262715 0.02990167 -0.23658311 -0.21393965 0.94776487 0.0020466486
0.0085247047 -0.032398511 0.029910542 0.25097942 -0.20371883 0.94631284 0.0098801004
0.010560018 -0.031450704 0.029257864 0.56391555 -0.35511246 0.7455833 0.022783404
0.012218222 -0.03052726 0.02793614 0.77928513 -0.32960603 0.53298646 0.024786726
-0.039804298 -0.028682843 0.027825542 -0.36534801 0.14327978 0.91977811 0.038892109
-0.037294652 -0.02870407 0.028526552 -0.187906 0.10058866 0.97702271 0.014141477
-0.03449202 -0.02855859 0.028718449 -0.050747048 0.030440157 0.9982475 0.0079181483
-0.031675216 -0.028428098 0.028636947 0.015434453 -0.012203095 0.99980634 0.0020026965
-0.028527746 -0.028507091 0.028636575 -0.0010401689 -0.033578757 0.99943554 0.00030278615
-0.025430566 -0.028495476 0.028635265 0.013139988 -0.025695628 0.99958348 0.00018114351
-0.022476764 -0.028468596 0.028617129 0.021729536 -0.0029529268 0.9997595 0.00043046931
-0.01984751 -0.028647868 0.028571559 -0.047643851 0.0034253434 0.99885851 0.0041183643
-0.016724467 -0.02851842 0.028650898 -0.23853371 -0.031036234 0.97063816 0.0070750732
-0.014398843 -0.02859138 0.029697195 -0.34773734 -0.10021621 0.93222076 0.0023097289
0.005897949 -0.029790562 0.029938594 0.058288183 0.018007662 0.99813741 0.013329751
0.0067112613 -0.028579794 0.029879915 0.073767342 -0.014099715 0.99717587 0.01520788
0.01124119 -0.028605321 0.029674111 0.4077453 -0.12920651 0.90390784 0.010685216
0.012731779 -0.028336892 0.028536191 0.78220034 -0.24234262 0.57396227 0.022804553
-0.04282276 -0.024646772 0.027693043 -0.51660752 -0.27311116 0.81149668 0.011832193
-0.040306259 -0.025166212 0.028165832 -0.34271291 -0.22285199 0.91262525 0.017090671
-0.037415504 -0.025483841 0.028722441 -0.21848805 -0.15579315 0.96332318 0.015098386
-0.034478057 -0.025417464 0.028852472 -0.031662535 -0.081928663 0.99613512 0.0023153059
-0.031607818 -0.025548188 0.028766965 0.0035807714 -0.078289405 0.99692428 0.00040246357
-0.028538363 -0.025569269 0.028850267 0.0018603598 -0.09197107 0.9957599 0.00021951633
-0.025554063 -0.025490215 0.028822644 0.019979492 -0.094441153 0.99532998 0.00068791112
-0.022509696 -0.025454089 0.028699176 0.054126378 -0.060607392 0.99669307 0.0021734235
-0.01987729 -0.025601385 0.028432935 -0.025761547 -0.030471683 0.9992035 0.0085739875
-0.016713822 -0.025567312 0.028698716 -0.29658362 0.0096840775 0.95495778 0.0065168673
-0.014731146 -0.025717482 0.029822744 -0.42420995 -0.020724984 0.90532672 0.0011717302
0.0075310227 -0.026159197 0.029927885 0.03653216 -0.033515625 0.9987703 0.01207401
0.011574361 -0.025563279 0.029803202 0.39145431 -0.043329772 0.91917682 0.007183563
0.013049018 -0.0254371 0.028750045 0.80515373 -0.03124314 0.59224266 0.02571865
-0.042820126 -0.022466421 0.027796445 -0.48805353 -0.14589357 0.86053401 0.01249487
-0.040551048 -0.022488751 0.028744651 -0.27002469 -0.12206198 0.9550851 0.010347252
-0.037509862 -0.022483157 0.029184574 -0.12416732 -0.08169917 0.9888922 0.0038221439
-0.034388479 -0.022461893 0.029206896 -0.0071136942 -0.060872402 0.99812019 0.00090987515
-0.031444013 -0.022483468 0.029190028 -0.00097283634 -0.054545928 0.99851084 0.00068361853
-0.028564947 -0.022542635 0.029194111 0.0040336894 -0.064876221 0.99788517 0.00058234413
-0.025523869 -0.022475017 0.029176859 0.01166502 -0.061309014 0.99805063 0.00084353186
-0.022489844 -0.022558868 0.02921511 0.10163922 -0.045106009 0.9937982 0.0023805357
-0.019682521 -0.02239161 0.028513661 0.021596612 -0.0030179629 0.99976224 0.01334247
-0.016437236 -0.022454893 0.028694402 -0.31326464 0.053221859 0.9481734 0.0086853541
-0.014644314 -0.022502506 0.029841293 -0.34447142 0.069949716 0.93618721 0.011571582
-0.010827316 -0.021911906 0.029920634 -0.13186988 0.12290786 0.98361784 0.016029863
0.0075051691 -0.022362936 0.029952139 0.084806956 -0.0032788408 0.99639201 0.016528893
0.011552424 -0.022462837 0.029791677 0.38362145 0.061311312 0.92145294 0.010085612
0.013036173 -0.022665827 0.028750131 0.7757948 0.057395261 0.62836939 0.025086278
-0.042953257 -0.01944978 0.027711121 -0.43055239 -0.0030667104 0.90256035 0.0031792431
-0.040528987 -0.019532287 0.028752508 -0.28987992 -0.0037712951 0.95705563 0.004358219
-0.037547167 -0.019545285 0.029189145 -0.10753669 -0.0044924659 0.99419093 0.0030699745
-0.034414202 -0.019516759 0.029194893 -0.0011076395 -0.0091256751 0.9999578 0.00018890679
-0.031471845 -0.019448869 0.029199131 0.0004058854 -0.0082028033 0.99996632 0.00018972506
-0.028543063 -0.019519022 0.029206092 0.0018305928 -0.00068683299 0.99999809 1.8554127e-05
-0.025527572 -0.019429168 0.029189682 0.0085715046 -0.00073712505 0.99996299 0.0004441987
-0.022480009 -0.019500382 0.029207066 0.11264951 -0.0038886634 0.99362719 0.0031759834
-0.019582193 -0.01945213 0.028429737 0.084784158 0.061653014 0.99449009 0.017952459
-0.01644906 -0.019429706 0.028199885 -0.23990248 0.15077013 0.95901781 0.025185674
-0.014172446 -0.019288663 0.029700734 -0.40775049 0.13058788 0.90370703 0.008853999
-0.0096952552 -0.019393126 0.029943569 -0.057508901 0.061722845 0.99643517 0.013472685
0.0058310828 -0.018696364 0.029985907 0.15184796 0.1373405 0.97881556 0.022550387
0.006650914 -0.019830026 0.029899579 0.10626839 0.059638053 0.99254745 0.02056947
0.011104013 -0.019353112 0.029653013 0.45020652 0.21048909 0.86776054 0.015491761
0.012653883 -0.019708518 0.028428191 0.80621338 0.25724742 0.5327698 0.023183843
-0.042919546 -0.016370621 0.027727013 -0.4252775 0.0028954321 0.90505838 0.0031036816
-0.040527452 -0.016504087 0.028755097 -0.28748721 -0.0058732135 0.95776653 0.0042586643
-0.037556592 -0.016543338 0.029204354 -0.10472587 0.0020757071 0.99449897 0.003053006
-0.034434378 -0.01656195 0.029194199 -0.0011438312 -0.00086316909 0.99999899 3.1736668e-05
-0.031418774 -0.016470684 0.029214336 -0.00055524445 -2.3355178e-05 0.99999982 2.2236738e-05
-0.028437184 -0.01654855 0.029198505 0.0035345457 0.00083665049 0.99999338 3.0543244e-05
-0.025501462 -0.016498892 0.029159265 -0.0017939868 -9.1542126e-05 0.99999839 3.935508e-05
-0.02244891 -0.016419264 0.029216858 0.12120108 -0.00988492 0.9925788 0.0034463697
-0.019527541 -0.016547613 0.028375944 0.2318438 0.035760514 0.97209543 0.002623494
-0.016639506 -0.016304854 0.027536953 -0.066669986 0.2469158 0.96674085 0.035733845
-0.013342775 -0.016301244 0.029425086 -0.42893389 0.34955886 0.83296126 0.0078494707
-0.011682884 -0.015476215 0.029803174 -0.33694884 0.2955831 0.89392173 0.0084154429
-0.0072760587 -0.016712045 0.029934734 -0.044553638 0.061836626 0.99709141 0.013410645
-0.0049635628 -0.015402047 0.029922049 -0.072739258 0.11077328 0.99118024 0.0099412799
0.0011185764 -0.015282336 0.029923461 0.067006737 0.16442302 0.98411137 0.014980758
0.0033298123 -0.016283922 0.029934786 0.13466796 0.14467505 0.98027229 0.01950819
0.0083612055 -0.015582574 0.029831523 0.24926469 0.20076749 0.9473961 0.01247023
0.010449614 -0.016473331 0.029082241 0.62184554 0.38923621 0.67956108 0.023082867
0.012117677 -0.017591564 0.027484765 0.776582 0.39538515 0.49050078 0.019661918
-0.042743895 -0.013503422 0.027832797 -0.42398721 0.0034683486 0.90566152 0.0034769119
-0.040368155 -0.013446252 0.028800482 -0.28176278 -0.0038206927 0.95947647 0.0039857565
-0.037460048 -0.013469156 0.029210346 -0.12023649 -0.0012378383 0.99274451 0.0041737589
-0.034453578 -0.013528484 0.029192822 -0.016108003 0.00059378619 0.99987006 0.00045470553
-0.031427097 -0.013429306 0.029203547 -0.00032879275 0.0015404999 0.99999875 3.3022578e-05
-0.028478434 -0.013509691 0.029190876 0.0029366643 -0.002115055 0.99999338 3.3839064e-05
-0.025488967 -0.013577501 0.029190144 -0.0013557919 -0.0011816222 0.99999833 3.6395275e-05
-0.022461452 -0.013480305 0.029204002 0.12156934 -0.0024525016 0.99257994 0.0034235886
-0.019498415 -0.013502792 0.028344123 0.26097822 0.0047358214 0.9653331 0.00091254018
-0.016417285 -0.013531511 0.027475825 0.1490351 0.076408967 0.98587531 0.0230103
-0.013382931 -0.013766264 0.028076731 -0.36854959 0.35511735 0.85910589 0.027643641
-0.010507534 -0.013451499 0.029502638 -0.34284154 0.38788271 0.85557383 0.006405761
-0.0079419166 -0.012548934 0.029813981 -0.1528891 0.30765909 0.93913299 0.0070075118
-0.005804948 -0.012018379 0.029851623 -0.092019491 0.26110792 0.96091372 0.014057797
0.0019326383 -0.012060617 0.029924834 0.097539663 0.31320935 0.9446618 0.012907293
0.004859515 -0.012639657 0.029800072 0.21629594 0.35512513 0.9094516 0.0097175511
0.0075688423 -0.013383844 0.029224167 0.38729778 0.47296575 0.79139364 0.015182392
0.0096049542 -0.014277798 0.028548365 0.62819099 0.54309618 0.55715579 0.023713572
-0.042731825 -0.010529839 0.02784227 -0.41667995 -0.0024294683 0.90904999 0.003215105
-0.040344533 -0.01052769 0.02880591 -0.27782792 0.005140136 0.96061707 0.0040265862
-0.037440453 -0.010426294 0.029210554 -0.1198746 -0.00056572852 0.99278891 0.0041264673
-0.034435105 -0.010506108 0.02918555 -0.015623613 8.0147729e-05 0.99987793 0.0004483388
-0.0314527 -0.010528725 0.02921172 -0.00026179472 0.0011727978 0.99999928 3.3072134e-05
-0.028530903 -0.01039151 0.029206114 0.0027020304 0.00089508708 0.99999595 2.4446805e-05
-0.02547461 -0.010543632 0.029192952 0.031983446 0.00075578282 0.99948817 0.0017762901
-0.022488244 -0.010555235 0.029209448 0.13406041 0.017017391 0.99082702 0.0028812699
-0.019596605 -0.010483686 0.028415555 0.25574267 -0.0018728486 0.96674311 0.0010660874
-0.016419454 -0.010518801 0.027472168 0.24825296 0.066694245 0.96639651 0.0066559967
-0.014488384 -0.01041292 0.027059047 0.23891371 0.058664113 0.96926713 0.0071163289
-0.0094643487 -0.011629925 0.028961562 -0.33326235 0.58873653 0.73642749 0.020304874
-0.0073138806 -0.010998983 0.029236296 -0.26240754 0.67112887 0.69334573 0.023189673
-0.0044892002 -0.0105156 0.029421628 -0.11097103 0.54781932 0.82920414 0.0098929936
-0.001492288 -0.01022609 0.029455036 0.02738278 0.55914956 0.82861447 0.014763594
0.0015108261 -0.010405579 0.02924752 0.16515191 0.65810984 0.7345857 0.015763683
0.0043602823 -0.010936934 0.02895887 0.32662252 0.72061068 0.61158639 0.024881423
0.0065057366 -0.011481795 0.028116204 0.43959397 0.72300428 0.53293717 0.025145011
-0.042747796 -0.0075730439 0.027832212 -0.42061108 -0.0030684799 0.9072358 0.003221459
-0.040376682 -0.0075742244 0.028799452 -0.27798888 0.0040681073 0.96057558 0.0041814414
-0.037450612 -0.0074902079 0.0291944 -0.12128377 -0.00068613095 0.99261767 0.00400026
-0.034439903 -0.0075358469 0.029207267 -0.016443647 -0.0012374094 0.99986404 0.00044040405
-0.031495143 -0.0075482926 0.029197114 0.00091406715 -0.00038541565 0.99999952 2.7293418e-05
-0.02847798 -0.0074641979 0.029188581 0.0016642634 0.00021496382 0.99999857 1.7553202e-05
-0.025438515 -0.0075413524 0.029178971 0.032204658 -0.00088011642 0.9994809 0.0017764001
-0.022515049 -0.0075291391 0.029195813 0.11112043 0.0052457284 0.99379313 0.0031617007
-0.019581869 -0.0074975607 0.02841199 0.32329956 0.017707188 0.94613093 0.0047338563
-0.016456818 -0.0075604855 0.027481185 0.27746582 0.052953269 0.95927507 0.0092800958
-0.014497554 -0.0074841306 0.027061526 0.19314308 0.027306279 0.98079056 0.0089231599
-0.0031385766 -0.0088936109 0.027237345 0.04125559 0.83496374 0.54875642 0.0080726556
-0.0015257138 -0.008933045 0.027579393 0.040911194 0.85840976 0.5113306 0.011726087
-0.042764183 -0.0045449832 0.027824169 -0.42698565 -0.0036390189 0.9042511 0.0033723095
-0.040497519 -0.0044876295 0.028767174 -0.27813455 0.0028718219 0.96053785 0.0041232556
-0.037512228 -0.0045124744 0.029191397 -0.1228349 0.0012034937 0.9924264 0.0038118279
-0.034385633 -0.0044478863 0.029221972 -0.0014264405 4.2509193e-05 0.99999899 1.2215318e-05
-0.031471856 -0.0044811941 0.02920842 0.0023279777 -0.00072462857 0.99999696 1.8253908e-05
-0.028548205 -0.004510175 0.029194912 0.00066303369 -0.0010343128 0.99999923 2.2728063e-05
-0.025469484 -0.0044475314 0.029215815 0.014082718 -0.00019808616 0.99990082 0.00080598012
-0.02254948 -0.0044685309 0.029219931 0.1203957 -0.013108412 0.99263948 0.0027737357
-0.01957996 -0.0045323051 0.028410466 0.33220947 -0.015332717 0.9430809 0.0048042485
-0.016599147 -0.0044085402 0.027511818 0.29196906 0.0067085698 0.95640427 0.016704485
-0.014507806 -0.0045459694 0.027064204 0.1350349 0.015854947 0.99071395 0.015410022
-0.042843211 -0.001488891 0.027783373 -0.42887017 0.0033559164 0.90335989 0.0031627489
-0.040534377 -0.0014511511 0.028751707 -0.28098744 -0.0032024905 0.95970607 0.0040105651
-0.037529085 -0.0014996602 0.02919025 -0.12503476 0.0015804539 0.99215108 0.0040395497
-0.034381092 -0.0013867092 0.029215006 -0.0012618685 0.00085666496 0.99999881 1.237368e-05
-0.031461429 -0.0014820403 0.029205384 0.0026233464 0.0023381067 0.9999938 1.2009677e-05
-0.028533215 -0.0014913453 0.029190028 0.00072687952 0.0017976792 0.99999809 1.1727484e-05
-0.025458341 -0.0013891287 0.029190192 0.013139435 0.0017562857 0.99991208 0.000732877
-0.022507893 -0.0014315234 0.029208077 0.12980516 -0.0052113044 0.99152577 0.0026166309
-0.019614993 -0.0015037736 0.028441878 0.33045709 0.01413185 0.94371516 0.0043429756
-0.016592031 -0.0014074141 0.027505815 0.27572235 -0.0024378493 0.96123421 0.012551385
-0.014517726 -0.0014632205 0.027066978 0.1685731 0.0080126086 0.98565662 0.011376981
-0.042913217 0.0014998759 0.027736293 -0.42913353 0.0033644992 0.90323478 0.0030791375
-0.040540978 0.0014858348 0.028749406 -0.28529033 -0.0016863754 0.95843965 0.0042454023
-0.037598368 0.0014934805 0.029186241 -0.12777436 0.00049905374 0.99180317 0.0043089939
-0.034427997 0.001444792 0.029200045 -0.0013750073 0.00046845898 0.99999899 1.9271785e-05
-0.031390775 0.0015299894 0.029188655 0.0028876835 -0.0013070124 0.99999499 1.5336364e-05
-0.028544633 0.0015098746 0.029205749 0.0015354838 -0.0010549324 0.99999827 9.5840496e-06
-0.025475422 0.0014448045 0.02918219 0.013338441 -0.00094624126 0.99991059 0.00078268984
-0.022492552 0.0014754025 0.029198522 0.12922721 0.0055172383 0.99159968 0.0026622955
-0.019614965 0.0014781795 0.028441874 0.3060919 -0.0058699441 0.95198387 0.0027417804
-0.016561136 0.001579583 0.027498906 0.29000744 -0.0053109 0.95700967 0.011138973
-0.014526818 0.0014831559 0.027069531 0.18884276 0.026796825 0.98164165 0.0087127145
-0.042932097 0.0044580032 0.027722051 -0.42878667 -0.0025155414 0.90340227 0.0030759117
-0.040547594 0.0044053188 0.028748797 -0.28683701 0.0048420518 0.95796716 0.0044047809
-0.037509829 0.004446846 0.029187439 -0.1022193 -0.0022010065 0.9947595 0.0028653888
-0.034372572 0.0044414657 0.029220352 -0.0018136284 -0.0013302695 0.99999744 1.9708708e-05
-0.031498235 0.004560418 0.029214451 0.0022352976 -0.00081494841 0.99999714 2.5640999e-05
-0.028552746 0.0045480807 0.029190602 0.0010903938 -0.00026925281 0.99999934 2.360408e-05
-0.02548947 0.0044667902 0.02920646 0.013743847 0.00036069483 0.99990547 0.00082911062
-0.022544166 0.0044889059 0.029218635 0.12001989 0.01187134 0.99270052 0.0028883724
-0.019579731 0.0045067114 0.028411672 0.3344149 0.027001524 0.94203907 0.0047783931
-0.016639434 0.0045545022 0.027519131 0.28696001 0.020862283 0.95771539 0.013884348
-0.01453612 0.0044350717 0.027071904 0.16836292 0.029510589 0.98528326 0.011240071
-0.042809233 0.0074571855 0.027794354 -0.43704733 -0.0015326187 0.89943719 0.0034926336
-0.040464316 0.0074956273 0.028780257 -0.28039452 0.0030362625 0.95988005 0.0041927737
-0.037524242 0.0074609797 0.029193455 -0.12519136 -0.0020360823 0.99213046 0.0039451187
-0.034376279 0.0075568631 0.029224241 -0.0020750379 0.00065967761 0.99999762 2.2239552e-05
-0.031468656 0.007541575 0.029205939 0.0052246717 -0.00012714608 0.99998635 1.8369892e-05
-0.02849859 0.0075418777 0.029179798 0.0023052886 0.0013939294 0.99999642 1.7947574e-05
-0.025389224 0.0075519648 0.029191194 0.031138217 0.00077211647 0.99951476 0.0018733299
-0.022531776 0.0075387415 0.029209077 0.13275044 -0.0052985842 0.99113524 0.0026402688
-0.019574214 0.007548586 0.028407218 0.3156569 -0.016556887 0.94872898 0.0047864891
-0.01652916 0.0077087395 0.027490148 0.26722819 -0.061440624 0.9616726 0.010782058
-0.014545009 0.00739248 0.027074935 0.19647709 -0.025850061 0.98016763 0.0084949275
-0.042731453 0.010579673 0.027843343 -0.41869718 0.0031917363 0.90812033 0.0031262122
-0.040344112 0.010581881 0.028807126 -0.27885866 -0.0055504544 0.96031618 0.0041216132
-0.037406966 0.010474465 0.029199645 -0.096216843 -8.5533073e-05 0.99536031 0.0028795321
-0.034467731 0.010544315 0.029216075 -0.015684532 -0.00014527318 0.99987698 0.00043661785
-0.03146543 0.01053208 0.029193142 0.0036351038 -0.00078949705 0.99999309 2.0257647e-05
-0.028473666 0.010440209 0.029197557 0.0018093343 -0.0024149627 0.99999547 1.5370204e-05
-0.025469765 0.010505221 0.029190086 0.030873721 -0.0017262121 0.99952185 0.0016895966
-0.02250802 0.010449438 0.02920679 0.12295008 0.00037503924 0.99241275 0.0029617094
-0.019617399 0.010546282 0.028432583 0.28536263 -0.017834572 0.95825368 0.0016258494
-0.016419606 0.010584739 0.027471913 0.25811172 -0.068601593 0.96367639 0.0055984962
-0.014555332 0.010500239 0.027078062 0.20830907 -0.06506861 0.97589618 0.0071990564
-0.0092751943 0.01179578 0.028563876 -0.27110362 -0.63276649 0.72533393 0.025344256
-0.0071353014 0.011285945 0.029129861 -0.27215129 -0.64829546 0.71108836 0.026421836
-0.0042883218 0.010857987 0.029287932 -0.08125779 -0.58415794 0.80756211 0.028256794
-0.0014872822 0.010625865 0.029231513 0.0047541861 -0.63729107 0.77060848 0.016583402
0.0014386437 0.010741606 0.029142423 0.11916732 -0.62124592 0.77450144 0.01873914
0.0043070014 0.01119868 0.028770208 0.29347011 -0.65189886 0.69921601 0.018913092
0.0063150027 0.011787268 0.027928486 0.4351272 -0.70633787 0.55834681 0.026364207
-0.042716358 0.013535294 0.027851239 -0.41979867 0.0017695253 0.90761554 0.0034956858
-0.040350597 0.013518061 0.02880585 -0.27793729 0.0017732832 0.96059763 0.0040831054
-0.037452195 0.013495802 0.029214961 -0.12095779 -2.5683721e-05 0.99265766 0.0040068082
-0.034431193 0.013447638 0.029200733 -0.015569335 -0.0010045454 0.99987835 0.00045062718
-0.031462405 0.01352712 0.029213918 0.001748945 0.00058387482 0.99999827 1.6859238e-05
-0.028508598 0.013506219 0.029206449 0.0022771463 0.0001670991 0.99999738 5.4286243e-06
-0.02548168 0.013491962 0.029197313 0.013158369 0.00045725971 0.99991333 0.00072052795
-0.02251517 0.013439965 0.029206969 0.13196307 0.018914131 0.99107414 0.0027544752
-0.01958047 0.013558265 0.028395332 0.2570436 0.0010361077 0.96639919 0.0011152405
-0.016417718 0.01359747 0.027475035 0.11642601 -0.12563108 0.98522174 0.03446671
-0.013299137 0.014051243 0.028181544 -0.33111387 -0.38487652 0.86152983 0.040951144
-0.010308084 0.013650175 0.029392406 -0.38293007 -0.49041805 0.78285038 0.014099519
-0.0076986998 0.012698467 0.029715979 -0.177792 -0.34907565 0.92007405 0.0033733184
-0.0054340302 0.012234743 0.029884113 -0.10650431 -0.37143221 0.92233127 0.0033656021
-0.001147466 0.012062908 0.029915376 0.0055019706 -0.33322066 0.94283283 0.00058884028
0.0019630364 0.012205929 0.029888913 0.14207755 -0.37097836 0.91770852 0.010199349
0.0046922918 0.012779518 0.029688127 0.23683558 -0.41180709 0.87995672 0.0070375181
0.0073913187 0.013554636 0.029074483 0.46340358 -0.51694584 0.71973896 0.024710247
0.0093921544 0.014464895 0.028359374 0.61303747 -0.56397688 0.55327666 0.027335471
-0.04273003 0.016461318 0.027843444 -0.42417261 -0.004783934 0.90556866 0.0034852249
-0.040389016 0.016419604 0.028796175 -0.28014851 0.0036332326 0.95994979 0.0039159358
-0.037462547 0.016598931 0.029214123 -0.12035716 0.00080276851 0.99273026 0.0040902803
-0.034451004 0.016506104 0.029201418 -0.007304559 0.00077402755 0.99997306 0.00022641166
-0.031462759 0.016457457 0.029209621 0.00049593986 -0.00049268192 0.99999976 2.1385766e-05
-0.028476149 0.016609138 0.029185891 0.0044965283 0.0011883614 0.99998921 1.7797051e-05
-0.025431633 0.016503775 0.029170947 0.01682063 0.0011523983 0.99985784 0.001100968
-0.022439525 0.016492145 0.029210398 0.14311904 0.00075126858 0.98970526 0.0035210482
-0.019553307 0.016474469 0.028385386 0.26402497 -0.018255819 0.96434313 0.0007491486
-0.016578978 0.016423155 0.027523173 -0.0059936736 -0.18058348 0.98354143 0.037621718
-0.013337929 0.016523005 0.029269664 -0.42918223 -0.3609283 0.82796943 0.011957713
-0.011416082 0.015788071 0.029814141 -0.33137074 -0.32844189 0.88448822 0.008238296
0.0082238661 0.01579845 0.029780567 0.34381753 -0.29499322 0.89149791 0.023852229
0.010365376 0.016594628 0.028919538 0.62756222 -0.4165833 0.65774167 0.021276459
0.012037292 0.017824613 0.027495764 0.76767945 -0.3704938 0.52287912 0.02191969
-0.042822216 0.019353589 0.02779456 -0.42563647 -0.0030677035 0.90488905 0.0031823877
-0.040511183 0.019506194 0.02876048 -0.28175482 0.0029542048 0.95948189 0.0038161415
-0.037576485 0.01957147 0.029204281 -0.12471855 -0.00098574604 0.99219167 0.0042067701
-0.03445201 0.019543409 0.02918911 0.0012059866 0.015438339 0.99988008 0.00024061235
-0.03139263 0.019485258 0.029213006 0.0026135517 -0.00089913508 0.99999619 3.8176793e-05
-0.028470395 0.019532392 0.029210037 0.0033896503 0.0037027167 0.99998736 0.00010372431
-0.025485933 0.019470157 0.029162467 0.010664967 -0.0040351683 0.99993497 0.00062145689
-0.022452971 0.019488556 0.029226096 0.13041317 -0.0015024374 0.99145859 0.0031781329
-0.01962181 0.019402785 0.028414898 0.13253888 -0.043683961 0.99021471 0.017839843
-0.016942076 0.019000238 0.027923217 -0.13247241 -0.15597586 0.97883737 0.025545331
-0.014075251 0.019320637 0.029651333 -0.40979099 -0.17541857 0.8951534 0.0035955997
0.0055756676 0.018518539 0.029956724 0.11656594 -0.025455318 0.99285668 0.0091291275
0.0066249077 0.020201709 0.029887998 0.068896547 -0.03275406 0.99708599 0.014140234
0.010955941 0.019360499 0.029617682 0.42735466 -0.19117461 0.88364029 0.0097839283
0.01256662 0.019790873 0.028254816 0.80148846 -0.291942 0.52190632 0.021850258
-0.04292063 0.02248233 0.027732588 -0.4531073 0.073809639 0.88839519 0.007826752
-0.040550355 0.022542557 0.028746741 -0.31012931 0.065710388 0.94842076 0.0082026655
-0.03750591 0.022548722 0.029199442 -0.10751709 0.042551007 0.99329227 0.0029345683
-0.034449037 0.022463046 0.029220557 0.003163734 0.044148911 0.99901998 0.00042621989
-0.031486202 0.022496177 0.029180685 -0.00010598725 0.049258839 0.99878603 0.00043148795
-0.028523669 0.022521349 0.029211871 -0.0014406861 0.039610155 0.99921417 0.00042232181
-0.025564084 0.022488674 0.029191142 0.015287078 0.054180104 0.99841422 0.00087924133
-0.022519007 0.022517433 0.029225752 0.10081706 0.04066338 0.99407363 0.0026793971
-0.019773873 0.022457832 0.028587969 0.041816272 -0.01607326 0.99899596 0.015475276
-0.016530752 0.02243226 0.028608162 -0.30378857 -0.063457094 0.95062381 0.011059184
-0.014480951 0.022289183 0.029850483 -0.42516959 -0.079625428 0.90160441 0.00249922
0.0074977367 0.022617897 0.029887648 0.061325561 -0.027706904 0.99773318 0.013779144
0.011502388 0.022502258 0.029772565 0.42056972 -0.081768274 0.90356797 0.0080911452
0.012994354 0.022631995 0.028709574 0.77549022 -0.083137989 0.62586182 0.024059013
-0.042847309 0.025247596 0.027579457 -0.47325686 0.095319062 0.87575239 0.0083116619
-0.040489614 0.025462084 0.028481275 -0.31600249 0.1024174 0.94321424 0.0092286672
-0.037441742 0.025470836 0.028956458 -0.12634191 0.090719655 0.9878298 0.003676313
-0.034387961 0.025390161 0.028970117 0.0044314396 0.084440663 0.99641865 0.0001559435
-0.031534437 0.025571985 0.028874839 0.000494204 0.076270878 0.99708706 0.00036728871
-0.028590182 0.025549417 0.028965482 -0.00070885802 0.092623889 0.99570096 9.1080648e-05
-0.025593599 0.025462858 0.028959982 0.014522784 0.087916985 0.99602199 0.00058496249
-0.022495463 0.025382364 0.028845193 0.061385848 0.065348141 0.99597263 0.0019110615
-0.019947642 0.025126921 0.028435634 -0.0064538773 0.028272206 0.99957949 0.0091732005
-0.016489414 0.025504837 0.028804563 -0.2966004 -0.0090956986 0.95495838 0.0063216807
-0.014596042 0.025484353 0.029892437 -0.4312011 0.0082225772 0.90221834 0.0010160442
0.0076655634 0.025189703 0.029953837 0.053725764 0.0053656208 0.99854136 0.012883804
0.011562682 0.025506154 0.029815244 0.37654364 0.023453696 0.92610192 0.0096575664
0.013100338 0.025408937 0.028681882 0.84395635 0.034777619 0.53528321 0.022905732
-0.042434733 0.028450003 0.027335836 -0.48749602 -0.056101203 0.87132096 0.014650621
-0.040385105 0.02848112 0.028173605 -0.30196583 -0.078200318 0.95010597 0.016096495
-0.037432343 0.028539268 0.028680488 -0.13445349 -0.035631161 0.99027908 0.0085172495
-0.034489911 0.028522676 0.028650075 0.016404524 0.0043551433 0.99985594 0.0030773848
-0.031578947 0.02843873 0.028639363 0.020039152 0.029108731 0.99937528 0.0017767198
-0.028570095 0.028559813 0.028638849 -0.0061274497 0.046858609 0.99888277 0.00041881073
-0.025523076 0.028469356 0.028636554 0.01159366 0.04780972 0.99878919 0.00049786869
-0.022473911 0.028452197 0.028614014 0.030261531 0.0075313649 0.99951363 0.0012207353
-0.019845758 0.028528268 0.028554082 -0.051352441 0.00503167 0.99866796 0.0050096703
-0.01657325 0.028589549 0.028723307 -0.25173002 0.028885465 0.96736634 0.0066615627
-0.014332971 0.028652843 0.02977423 -0.31544667 0.10837062 0.94273496 0.0078809401
-0.010343108 0.028660076 0.02984974 -0.064343341 0.11010952 0.99183464 0.013815122
0.0069212108 0.028584013 0.029911645 0.05834784 0.047753531 0.99715352 0.016051471
0.011324096 0.028633887 0.02969498 0.43426812 0.13159396 0.89111966 0.0068956842
0.012801391 0.02842126 0.028607249 0.76601297 0.26430708 0.58597428 0.025268054
-0.042461324 0.031932425 0.028371304 -0.42627832 -0.016469909 0.90444213 0.012389227
-0.040634137 0.031560641 0.028754771 -0.2692385 -0.042992838 0.96211344 0.013917145
-0.037560657 0.031583138 0.029122218 -0.071302645 -0.048701514 0.99626505 0.0034413601
-0.034452554 0.031441268 0.029106131 0.034372963 -0.026479458 0.99905825 0.0015017405
-0.031642731 0.031392504 0.028652618 0.039640013 -0.0036812776 0.9992072 0.0010926389
-0.028582344 0.031563316 0.028638935 -0.066229858 -0.076240458 0.99488741 0.014570378
-0.025473265 0.031482901 0.028638519 -0.054896608 -0.12520735 0.99061066 0.017671807
-0.022465356 0.031462226 0.028635822 0.013589307 -0.13284509 0.99104369 0.020646818
-0.019548953 0.031587236 0.028629057 0.095530376 -0.15968771 0.98253429 0.020221934
-0.016818421 0.031960886 0.028612619 -0.10322209 0.019492943 0.99446732 0.0091932844
-0.013600439 0.031574596 0.029560454 -0.29428935 0.15783037 0.94259399 0.0024738093
-0.011662165 0.032694988 0.029903159 -0.13233162 0.17732662 0.97521466 0.013026892
-0.0080760401 0.031680841 0.029902771 -0.090202846 0.015896525 0.99579656 0.0082565686
0.004940216 0.031546313 0.029862843 0.06529998 0.063711338 0.99582976 0.015750915
