# .PCD v0.7 - Point Cloud Data file format
VERSION 0.7
FIELDS x y z normal_x normal_y normal_z curvature
SIZE 4 4 4 4 4 4 4
TYPE F F F F F F F
COUNT 1 1 1 1 1 1 1
WIDTH 569
HEIGHT 1
VIEWPOINT 0 0 0 1 0 0 0
POINTS 569
DATA ascii
0.0020574655 0.012204201 0.029863168 0.13332476 -0.3428337 0.92988682 0.010581962
0.0047616526 0.012827833 0.029693604 0.23737758 -0.41129741 0.88004905 0.0074396883
0.0074174167 0.013570075 0.029080257 0.43367013 -0.50993299 0.74289876 0.018600825
0.0094208093 0.014511231 0.028377095 0.57302916 -0.50776994 0.64327854 0.0227954
-0.042856153 0.016643189 0.027756255 -0.46801153 0.0006858437 0.88372213 0.0034930368
-0.040521163 0.016412744 0.028747866 -0.27851659 -0.00013458954 0.9604314 0.0043338337
-0.037447859 0.016501009 0.029200757 -0.11423788 -0.0011454421 0.99345267 0.0036924693
-0.034428153 0.016504377 0.029204192 -0.002902284 -0.00044620055 0.99999571 7.2589472e-05
-0.03149331 0.016525397 0.029211549 0.00047613223 -0.00060831808 0.9999997 2.6359086e-05
-0.02851817 0.016506763 0.029199896 0.0025519102 4.734669e-05 0.99999672 2.3466664e-05
-0.02554757 0.016491147 0.029206052 0.021673286 -9.8259488e-06 0.99976516 0.0013330759
-0.022514971 0.016498206 0.029211136 0.12223605 -0.003217632 0.99249583 0.0032698007
-0.019567439 0.01647413 0.028396048 0.22473206 -0.028533468 0.97400278 0.0044016396
-0.016604267 0.016437264 0.027535928 0.0052173729 -0.17735039 0.98413396 0.035986271
-0.01351367 0.016627736 0.029155368 -0.39478523 -0.34916067 0.84984201 0.012322548
-0.011301903 0.015732801 0.029833179 -0.36660758 -0.32838818 0.87049413 0.015120271
-0.0074432269 0.017213769 0.029930944 -0.1385555 -0.067584984 0.98804593 0.01471934
-0.00471973 0.01581406 0.029968545 -0.027182642 -0.11779945 0.99266529 0.011738475
0.0019424508 0.016013738 0.029975481 0.010139739 -0.15992065 0.98707777 0.0087299272
0.0082702274 0.015846469 0.029780641 0.31077355 -0.27084842 0.91107684 0.011320683
0.010393576 0.016669216 0.028959261 0.59288973 -0.39121735 0.70386833 0.020642694
0.012067462 0.017844191 0.02734 0.766312 -0.39075381 0.50997782 0.021785771
-0.042915925 0.019488394 0.027723275 -0.46662691 -0.0021114752 0.88445175 0.0033540472
-0.04048105 0.019487329 0.028764302 -0.27379552 0.001292891 0.96178705 0.004503014
-0.03753309 0.019500976 0.02920486 -0.11494607 -0.0020541081 0.99336958 0.003700699
-0.034507319 0.019528231 0.029194215 -0.0073423535 0.0068364567 0.99994969 0.00027385936
-0.031442236 0.019527489 0.029207282 0.0011132499 0.0058300337 0.99998242 0.00012190428
-0.028490327 0.019510999 0.029198334 0.00030824487 0.0018771442 0.99999815 4.8059621e-05
-0.025545741 0.019501194 0.029184185 0.017769691 0.0012802611 0.99984127 0.0010813716
-0.022503944 0.019491432 0.029214835 0.12367877 -0.0037514465 0.99231523 0.0029580072
-0.019606115 0.019468293 0.028432421 0.099565729 -0.056563728 0.99342197 0.019921608
-0.016806511 0.019361798 0.028008319 -0.18419378 -0.15301035 0.97090703 0.024785049
-0.014181313 0.019358408 0.0296368 -0.3854574 -0.17386872 0.90619653 0.0065050921
-0.009918943 0.019535642 0.029937923 -0.039599515 -0.063352495 0.99720532 0.015318137
-0.0086904401 0.018341228 0.029755186 -0.040248152 -0.027957268 0.99879855 0.013808924
0.0055241496 0.018498415 0.029955648 0.1176562 -0.079261541 0.98988616 0.0094705271
0.0072906278 0.019347886 0.029908067 0.17300548 -0.10326576 0.97949231 0.011070327
0.010971081 0.019349203 0.029608401 0.46848059 -0.22138502 0.8552863 0.013762939
0.01252472 0.019836064 0.028439773 0.76385164 -0.29488662 0.57408404 0.02101603
-0.042969678 0.022464413 0.027692724 -0.47351938 0.053768046 0.87914073 0.0046939976
-0.040479153 0.022544891 0.028763168 -0.28149498 0.044914227 0.95851099 0.0058807642
-0.037488613 0.022518678 0.029197231 -0.10979022 0.043432761 0.99300545 0.0032164261
-0.034456231 0.022464572 0.029209441 -0.0068915999 0.041819442 0.9991014 0.00044097626
-0.031443782 0.022497592 0.029201562 0.00093186414 0.041742325 0.99912798 0.00038560515
-0.028508974 0.022521302 0.029196987 -0.0017294539 0.044018619 0.99902922 0.00044359243
-0.025569135 0.022487966 0.029206336 0.018923812 0.047710046 0.99868196 0.0010947813
-0.022538183 0.022489848 0.029214246 0.098530509 0.035520151 0.99449986 0.0028091448
-0.019667329 0.022452801 0.028508194 0.023175711 -0.014541631 0.99962562 0.016711829
-0.016651055 0.022326067 0.028586457 -0.27338949 -0.069068603 0.9594205 0.013346781
-0.014510681 0.022323657 0.029843828 -0.36960876 -0.072809644 0.92633045 0.0073692109
-0.010770402 0.022401616 0.02992259 -0.10438137 -0.041236758 0.99368209 0.01237593
0.0073884875 0.022060335 0.029944262 0.13909173 -0.043143485 0.98933929 0.01077433
0.011433102 0.022287806 0.02978305 0.39412898 -0.087929592 0.91483915 0.0094665028
0.012918879 0.02256717 0.028785095 0.74598342 -0.088750221 0.66002434 0.023645632
-0.042874034 0.025275983 0.027517557 -0.47850919 0.087431744 0.8737188 0.0055549229
-0.040434208 0.025440419 0.028512986 -0.27848542 0.085210778 0.956653 0.006680992
-0.03749308 0.025520431 0.028929422 -0.11369694 0.086727887 0.98972285 0.0033393314
-0.034448612 0.02545731 0.028960878 -0.0016750256 0.085644431 0.99632436 0.00029206197
-0.031526383 0.025488814 0.028924644 0.0013474387 0.081880704 0.99664122 0.00024166763
-0.028591344 0.025526484 0.028942734 -0.0026586382 0.088239931 0.99609566 0.00018203049
-0.02556012 0.025460454 0.02897316 0.0061486042 0.078755878 0.99687499 0.00051065633
-0.022589648 0.025449537 0.028866803 0.054631934 0.058630697 0.99678373 0.0021387546
-0.019589467 0.025371928 0.028358901 -0.04449144 0.024647819 0.99870569 0.011437405
-0.016470833 0.025503032 0.02884182 -0.28896892 -0.0048357588 0.95732623 0.0059075248
-0.014567418 0.025742488 0.029897992 -0.33889118 0.013802822 0.94072431 0.0060033249
-0.010899204 0.025920145 0.029933415 -0.14550033 -7.6467426e-05 0.98935819 0.012789916
0.0076037878 0.025665995 0.029951787 0.14617826 -0.015456591 0.98913753 0.013128384
0.01148349 0.025498949 0.029828846 0.38125953 0.024348324 0.92414737 0.0072628367
0.013004822 0.025452048 0.028808124 0.77361417 0.029863901 0.63295287 0.019062197
-0.042384423 0.028434917 0.027340418 -0.54887313 -0.028550737 0.83541793 0.012911968
-0.040399503 0.028511046 0.028176799 -0.25780377 -0.057175573 0.96450406 0.013329239
-0.037444327 0.028534576 0.028647771 -0.11935232 -0.030670166 0.99237812 0.0076531027
-0.034413636 0.028504215 0.028649637 0.015464525 -0.0023622822 0.99987763 0.0027231462
-0.03139976 0.028472597 0.02863884 0.024321083 0.026230291 0.99936002 0.0015387362
-0.028450521 0.028501248 0.02863837 -6.8315436e-05 0.049490497 0.99877453 0.00049617793
-0.025542706 0.028497219 0.028636381 0.0055173361 0.04705219 0.99887717 0.00063452433
-0.022447776 0.028529989 0.028597629 0.033459116 0.010445187 0.99938554 0.0028208322
-0.019590992 0.028550787 0.028526187 -0.056001153 0.0039688963 0.99842286 0.0055020885
-0.016698286 0.028624048 0.028687447 -0.23866765 0.030640537 0.97061783 0.0066494867
-0.014328518 0.028753029 0.029765656 -0.29470599 0.094296046 0.9509241 0.0066955122
-0.010372697 0.028289462 0.029900072 -0.11882135 0.054051992 0.99144334 0.011381305
0.0068008243 0.02901094 0.029935027 0.104001 0.094201818 0.99010599 0.0097870119
0.011270723 0.028664226 0.029713668 0.44241861 0.1321931 0.88701218 0.0086211683
0.012752312 0.028369388 0.028683007 0.75311148 0.19932321 0.62697166 0.025768705
-0.042415868 0.031832125 0.028344689 -0.5074839 -0.018175418 0.86146957 0.011018958
-0.040573854 0.031504456 0.028761925 -0.26759529 -0.035613935 0.96287304 0.013889395
-0.03751234 0.031511094 0.029125391 -0.065418407 -0.049288455 0.99663985 0.0034039132
-0.034499574 0.031458639 0.0290948 0.03111879 -0.021692356 0.99928027 0.0016277004
-0.031534679 0.031491425 0.028673053 0.042213578 -0.0079084663 0.99907726 0.0009433236
-0.028388947 0.031516369 0.028638596 -0.069533005 -0.079435542 0.994412 0.013961371
-0.025419135 0.031487141 0.028621344 -0.071916185 -0.15201376 0.98575854 0.022683254
-0.022404915 0.031460289 0.028618122 0.009592291 -0.14595142 0.98924524 0.021844817
-0.019449981 0.031509042 0.028610094 0.060189649 -0.1361305 0.98886079 0.019466648
-0.016594067 0.031625722 0.028600963 -0.15232921 0.04660441 0.98723036 0.010017582
-0.013768462 0.03153915 0.029513214 -0.27993342 0.13759282 0.95010817 0.0039666723
-0.011454169 0.032320812 0.029900707 -0.1665903 0.15803303 0.97327965 0.010836186
-0.0077342731 0.03189357 0.029897444 -0.097324461 0.088069566 0.99134845 0.010346017
0.0047203568 0.031599618 0.029880591 0.049890105 0.036196515 0.99809861 0.013308369
0.0085953707 0.032569785 0.029884083 0.29023588 0.19260676 0.93737167 0.013793672
0.010683187 0.031601932 0.029300788 0.52139753 0.30081543 0.79853284 0.015123785
0.012311148 0.030629665 0.028175669 0.76799345 0.30909342 0.56093436 0.024778532
-0.042375773 0.034704428 0.027553396 -0.52051449 0.091022544 0.84898734 0.0080903508
-0.040408581 0.034387719 0.028545246 -0.25827602 0.11533685 0.95916158 0.008927796
-0.037493464 0.034535777 0.028901124 -0.10104853 0.086697124 0.99109679 0.003410416
-0.034478966 0.034476053 0.028882369 0.033022355 0.042150218 0.99856538 0.0011501522
-0.031459436 0.034467056 0.028643437 0.0060095699 0.00058097194 0.99998176 0.0068784156
-0.028532922 0.034398403 0.028635079 -0.16195925 -0.13319227 0.97776741 0.020648811
-0.025944153 0.033656802 0.028482635 -0.14320172 -0.28059053 0.94908494 0.023633378
-0.022593969 0.033232205 0.028747922 -0.0028112493 -0.32961988 0.94410956 0.030590275
-0.019053647 0.034139857 0.028633766 0.19185807 -0.24179173 0.95117152 0.025872057
-0.016443508 0.034454517 0.028620875 0.11037338 -0.087490387 0.9900319 0.030475078
-0.013620961 0.034570064 0.02882343 -0.12216171 0.1412552 0.98240697 0.0095034931
-0.010798184 0.034830391 0.029632341 -0.21071376 0.21937761 0.95261389 0.0039434978
-0.0084732557 0.0356953 0.029904936 -0.1638719 0.27323908 0.94788516 0.00345957
-0.0042655026 0.033730049 0.029931942 -0.087543502 0.11510413 0.98948836 0.010990364
-0.0009672516 0.033983737 0.029969225 -0.0029744918 0.086527772 0.99624503 0.015914455
0.0015316928 0.033560842 0.029884508 0.060282864 0.066616468 0.99595594 0.014008191
0.0055198534 0.035570279 0.029892601 0.18785894 0.2795347 0.94157803 0.0086747007
0.0078104115 0.034770358 0.029556869 0.30671936 0.31671807 0.8975594 0.0052869525
0.0098577486 0.034077976 0.02865736 0.58368295 0.43568426 0.68519598 0.020041544
-0.042301238 0.037428234 0.027356165 -0.48774469 0.072980948 0.86993039 0.0045960951
-0.040343758 0.037545107 0.028160013 -0.27945578 0.06663499 0.95784348 0.0059692822
-0.037374582 0.037494525 0.028621623 -0.1158704 0.048107553 0.99209863 0.004384743
-0.034442913 0.037492793 0.028639564 0.0081972536 0.027929997 0.99957627 0.00060322107
-0.031484678 0.037496123 0.028639192 -0.079087019 0.0077222814 0.99683785 0.01377527
-0.02901876 0.037331726 0.028600721 -0.27624241 -0.023504721 0.96080059 0.024680143
-0.01810926 0.036010619 0.029821407 0.27358145 -0.25602803 0.92714775 0.025857922
-0.016525146 0.037472956 0.02869923 0.22019817 -0.051322743 0.97410411 0.02843252
-0.013537916 0.037550047 0.028620737 0.035643384 0.053210158 0.99794698 0.0169133
-0.010375026 0.037656073 0.028806191 -0.095959403 0.19437747 0.97622192 0.010161147
-0.0074560586 0.037648749 0.0293839 -0.093386032 0.43013066 0.89792353 0.021271655
-0.0046158419 0.038024664 0.029657401 -0.11248246 0.51891053 0.84739578 0.018573448
-0.0013915877 0.038257185 0.029692359 0.011749049 0.39543343 0.91841948 0.004534645
0.0016963276 0.03808121 0.029615141 0.15094924 0.43428141 0.88803935 0.0099180955
0.0044992366 0.037527658 0.029288368 0.27360424 0.53266567 0.8008796 0.015099157
0.0070688161 0.036717165 0.028700851 0.40284783 0.58421469 0.70456153 0.018591175
-0.042321052 0.040296048 0.027147686 -0.53464371 0.02623699 0.84467018 0.0024882662
-0.040215012 0.04044624 0.028203383 -0.29111552 0.00070504862 0.95668763 0.0072205588
-0.037404995 0.040520869 0.028636808 -0.089908116 -0.0093883127 0.99590582 0.0030346222
-0.034450714 0.04052265 0.028639486 -0.0063630422 -0.081355609 0.99666482 0.012387357
-0.031455029 0.040479135 0.028639166 -0.066343591 0.0059202211 0.99777925 0.012420021
-0.028880261 0.040789064 0.028630426 -0.21598859 0.10685173 0.9705317 0.026856491
-0.026812686 0.04159195 0.028110538 -0.3088828 0.18050092 0.93381518 0.042935919
-0.018458858 0.041393697 0.028643679 0.31942159 0.18927623 0.92851734 0.024417736
-0.016493302 0.040501487 0.02865766 0.19712293 0.14319138 0.96986532 0.026396548
-0.013445213 0.040555395 0.028637215 0.028199943 0.013960866 0.99950475 0.011345282
-0.010538341 0.040613905 0.028636919 0.022473074 -0.029361872 0.99931616 0.02062157
-0.0074126422 0.04053304 0.028419781 0.23550352 0.24195181 0.94127434 0.084919058
-0.0047089839 0.04002003 0.02844009 0.034184176 0.58047742 0.81355846 0.072594143
-0.0014747678 0.039493203 0.029021891 0.02295991 0.72152543 0.69200712 0.023640823
0.0011512584 0.039446007 0.028616058 0.16285411 0.70836586 0.68680155 0.019997748
0.0036761288 0.039092481 0.027577806 0.34915105 0.77821934 0.52198493 0.020063898
-0.04225067 0.043627001 0.027155373 -0.51793915 -0.010471537 0.85535336 0.0031967633
-0.040164694 0.043517675 0.028385209 -0.32363671 -0.064183034 0.94400197 0.011946726
-0.037472412 0.043468963 0.028621798 -0.16599464 -0.18785831 0.96806765 0.020070264
-0.034487952 0.043429349 0.028586589 0.0050036213 -0.24930552 0.96841198 0.028647788
-0.031478148 0.043481067 0.028662348 0.12464066 -0.18477693 0.97484469 0.025607983
-0.028515304 0.043564469 0.02863921 -0.0078912126 -0.042788241 0.999053 0.027695471
-0.025656 0.043961823 0.028628871 -0.12902959 0.24065632 0.96199578 0.028329207
-0.022357559 0.044159625 0.028592406 0.0090693999 0.3329092 0.94291532 0.022312529
-0.019308148 0.0436044 0.028645331 0.18032944 0.18640879 0.96578103 0.03333671
-0.016358519 0.043472733 0.02863764 0.084678195 -0.0014227134 0.99640733 0.025188789
-0.013454676 0.043386955 0.028633906 -0.12268009 -0.1980034 0.97249383 0.026354738
-0.010422289 0.043472011 0.02865299 0.024349058 -0.24214704 0.96993393 0.027792787
-0.0074642394 0.043537144 0.028633168 0.26859194 -0.24413531 0.93180275 0.01867827
-0.005265553 0.043740619 0.028113717 0.64992422 -0.093332134 0.75424635 0.042282
-0.042264838 0.046458438 0.027176725 -0.52688044 -0.010453425 0.84987503 0.0084950188
-0.040215254 0.046287771 0.028539458 -0.41065764 -0.18004765 0.8938362 0.01527257
-0.037953276 0.045658294 0.028551212 -0.28584528 -0.23552012 0.92888254 0.020079168
-0.035650879 0.045011647 0.029995324 -0.11115813 -0.32829472 0.938012 0.033976741
-0.030842924 0.045712251 0.028767688 0.22340766 -0.31088394 0.92381823 0.023151046
-0.02852802 0.046585675 0.02867821 0.20538723 -0.14711118 0.96756113 0.028273107
-0.025476679 0.046488911 0.02863905 0.011748193 0.062052988 0.99800372 0.014315787
-0.022420168 0.046498444 0.028638631 0.003379001 0.098271787 0.9951539 0.015842991
-0.019374572 0.046542451 0.028638234 -0.051455706 0.013924425 0.99857825 0.015563954
-0.016692562 0.046197716 0.028619522 -0.18106063 -0.15816326 0.97067058 0.033395682
-0.014051728 0.045355193 0.028302928 -0.19142538 -0.31997672 0.92788535 0.03199831
-0.0091835074 0.045058358 0.029510295 0.16464487 -0.40024287 0.90149754 0.016869325
-0.0071257898 0.046139169 0.028701998 0.39833003 -0.21066582 0.89272231 0.020666456
-0.0048870351 0.046597827 0.028303204 0.67404163 -0.13512161 0.72623008 0.019645624
-0.042171232 0.04903473 0.027169149 -0.64434469 0.029664256 0.76415956 0.0023207073
-0.040638693 0.049445365 0.028470134 -0.54759717 -0.013085171 0.83663988 0.012565171
-0.028298624 0.049483556 0.028714472 0.31005397 -0.014487961 0.95060855 0.023312658
-0.025491523 0.049495999 0.028639086 0.092138663 0.0013882389 0.99574524 0.013628225
-0.022490516 0.049479634 0.028638722 0.00047498901 -7.457046e-05 0.99999994 2.7634773e-05
-0.019460922 0.049537342 0.028638421 -0.10715088 -0.0041356655 0.99423414 0.015341253
-0.017158071 0.049292993 0.028569331 -0.34378254 -0.01048781 0.93899071 0.021196947
-0.0061496426 0.049379524 0.029034175 0.5791204 -0.023505557 0.81490314 0.021379935
-0.0046422821 0.049534347 0.028289318 0.70736301 -0.0053065838 0.7068305 0.022478787
-0.042327382 0.051056504 0.027007159 -0.63256574 0.094571799 0.76871109 0.0049838349
-0.040467545 0.052594725 0.028423857 -0.5041073 0.16605896 0.84752601 0.01048553
-0.038582716 0.053380825 0.028497288 -0.38993952 0.20865524 0.89688915 0.011975468
-0.030551629 0.05357511 0.028758252 0.26599851 0.29775512 0.91683513 0.023343498
-0.028526127 0.052528929 0.028673746 0.19657485 0.15722802 0.96780038 0.029079797
-0.025474293 0.052488301 0.028639341 0.026889706 -0.038900878 0.99888116 0.013028934
-0.022464031 0.052468698 0.028638938 -0.0047314977 -0.091205493 0.99582082 0.014440238
-0.019461025 0.052514214 0.028638467 -0.054298311 -0.024008567 0.99823606 0.016219137
-0.01693614 0.052824829 0.028605834 -0.20710033 0.13003828 0.96963888 0.027278861
-0.014582065 0.053702254 0.028072221 -0.19933893 0.30046049 0.93273115 0.037990671
-0.0067945868 0.052904975 0.028659189 0.45071316 0.15729734 0.87870091 0.017982304
-0.0048793387 0.052451268 0.028338542 0.69924736 0.12834831 0.70326364 0.019614993
-0.039912369 0.055417668 0.028454522 -0.40571034 0.20967405 0.88962692 0.014489033
-0.037537638 0.055731837 0.028629147 -0.22074729 0.24044326 0.94522887 0.024299288
-0.034384042 0.055979785 0.02857516 0.005490927 0.31561333 0.94887203 0.024261726
-0.031415354 0.055580664 0.028634584 0.14804769 0.20978063 0.96647501 0.030583153
-0.028448716 0.055489343 0.028639905 0.011628347 0.044807475 0.99892795 0.022877535
-0.025533309 0.055352021 0.028603451 -0.12820633 -0.21592125 0.9679572 0.028603954
-0.022515839 0.055211131 0.028643535 0.0040701153 -0.29836416 0.9544434 0.025198197
-0.019490058 0.055518627 0.028666327 0.16188462 -0.17882386 0.97047168 0.028047049
-0.016409902 0.055554122 0.028638376 -0.10073835 0.10581283 0.98927009 0.021962993
-0.013500147 0.055886518 0.028636439 -0.10834902 0.24137475 0.96436441 0.026067277
-0.010391588 0.055881087 0.028584167 0.081562206 0.28023863 0.95645911 0.023868838
-0.0074694338 0.055527184 0.028637439 0.28463167 0.24296987 0.92733508 0.025318647
-0.0052836835 0.055298049 0.028261593 0.70500928 0.2074018 0.67819345 0.029161826
-0.039651275 0.057868797 0.028013164 -0.46487185 0.28543189 0.83810669 0.018384147
-0.03739734 0.058447499 0.02862832 -0.23188204 0.20388901 0.95113617 0.02696003
-0.034400839 0.058474537 0.028640887 -0.013635763 0.095599547 0.99532652 0.014542312
-0.031421185 0.058486942 0.028640496 0.012020189 0.07818079 0.9968667 0.015858954
-0.028767981 0.058342636 0.02862764 -0.17795078 -0.10704736 0.9781996 0.026006415
-0.026561536 0.057492394 0.028493622 -0.26945859 -0.28847733 0.91878885 0.0209022
-0.01870585 0.057778608 0.028811008 0.29125115 -0.21966934 0.93108439 0.017817102
-0.016535714 0.058529336 0.028658157 0.17961779 -0.14554915 0.97290951 0.022943959
-0.01347682 0.058500577 0.02863837 0.0083554359 0.069638021 0.99753731 0.013723978
-0.0104594 0.058511753 0.028637968 0.034722462 0.11896097 0.99229157 0.015875924
-0.0075127357 0.058485884 0.028485566 0.43771511 0.33375576 0.83487284 0.063956164
-0.0058209803 0.057440389 0.028037269 0.61715519 0.29101032 0.73104876 0.053890839
-0.036832642 0.06097826 0.028500177 -0.26697052 0.20908582 0.94074965 0.018347219
-0.034421172 0.06149818 0.028640516 -0.11279183 0.087601982 0.98974943 0.018588355
-0.031427953 0.061507687 0.02864057 -0.088925734 0.01113913 0.99597597 0.012772721
-0.029152317 0.06131947 0.028633405 -0.25340208 -0.005462483 0.96734565 0.023411835
-0.016544713 0.06152587 0.028729238 0.23179024 0.023243517 0.97248811 0.027523803
-0.01343906 0.06150791 0.028638495 0.10951594 0.036254928 0.99332362 0.014375757
-0.010451798 0.061508771 0.028591998 0.29761609 0.26806781 0.91627747 0.054363787
-0.0082770493 0.060918059 0.028327649 0.55286688 0.44574866 0.70402151 0.042437468
-0.036117043 0.063170515 0.027257629 -0.53200382 0.59715164 0.60031813 0.013328411
-0.033898398 0.063817479 0.028546719 -0.12788123 0.15333445 0.97986478 0.011967439
-0.031390343 0.064438738 0.028623452 -0.17439727 0.17555101 0.96890014 0.024177009
-0.028685709 0.064740188 0.028629959 -0.21362124 0.19748299 0.95674783 0.019590054
-0.026307328 0.065541536 0.028534524 -0.18569876 0.47979823 0.85750198 0.023896471
-0.018780449 0.065056302 0.028670365 0.24725483 0.31115079 0.91763294 0.020684443
-0.016527681 0.064518347 0.028635086 0.20863533 0.25337911 0.94460058 0.030174462
-0.013492691 0.064446516 0.028576098 0.29691172 0.40443301 0.86503029 0.058196176
-0.011045502 0.063686706 0.028401313 0.42451739 0.50677425 0.75030982 0.034856562
-0.030432148 0.066396877 0.028480172 -0.17694035 0.2417347 0.95407361 0.02580337
-0.028270669 0.066745557 0.028580485 -0.16553809 0.4209061 0.89187169 0.024348745
-0.025455317 0.067239664 0.028564414 -0.1262112 0.51318008 0.84895051 0.016921839
-0.022363594 0.067405798 0.028520778 0.04365674 0.57486963 0.81707954 0.018559219
-0.019472042 0.067069612 0.028516168 0.19780709 0.5555954 0.80758041 0.029095849
-0.016655708 0.06672883 0.02848292 0.21360819 0.59376276 0.77576894 0.038536374
-0.014569879 0.066249162 0.02829686 0.27546349 0.59825152 0.75247264 0.053107288
-0.027154304 -0.060513742 0.030237829 -0.50230843 -0.11893226 0.85647029 0.071828485
-0.025317756 -0.060920373 0.031011818 -0.21889523 -0.33608273 0.91604221 0.041314993
-0.022462124 -0.061078999 0.030988498 0.056595799 -0.42051354 0.90551937 0.043389652
-0.019555086 -0.060953271 0.030925237 0.33169013 -0.22929944 0.91509748 0.043252122
-0.027072102 -0.059192277 0.030236568 -0.51914644 -0.007125929 0.85465556 0.042065028
-0.025416603 -0.058526043 0.030838847 -0.30787927 0.0078733992 0.95139295 0.031770643
-0.022500783 -0.058490977 0.030808313 0.067154862 0.040676381 0.99691302 0.024105316
-0.019433284 -0.058569014 0.030774796 0.41058385 0.031918693 0.91126394 0.038811177
-0.0252463 -0.055548217 0.030541532 -0.23531607 0.23920016 0.94202423 0.024612091
-0.022524789 -0.055538952 0.030463228 0.091685914 0.21859331 0.9714992 0.016422329
-0.019705988 -0.055637255 0.030517183 0.32346284 0.16536543 0.93167919 0.032405216
-0.034013432 -0.052263383 0.030993156 -0.18331724 -0.35191756 0.91790462 0.044562459
-0.031514313 -0.052270878 0.030779436 0.1010077 -0.40374258 0.90927964 0.03408606
-0.02856615 -0.052021146 0.030480633 0.21823794 -0.27341986 0.93681043 0.031285655
-0.025117263 -0.053302955 0.030118603 -0.090888403 0.11485861 0.98921525 0.067888789
-0.022403896 -0.053679258 0.030068653 0.070052169 0.35820875 0.93100977 0.032092072
-0.019602954 -0.052947134 0.030147221 0.077220201 0.0044406662 0.99700415 0.069348171
-0.016328739 -0.052049849 0.03055465 -0.16346741 -0.28058267 0.94580746 0.035542507
-0.013511665 -0.05223522 0.030799484 0.0021886954 -0.38865724 0.92137986 0.039915588
-0.010869905 -0.052256688 0.030901454 0.33471686 -0.23695555 0.91203988 0.050222829
-0.034213651 -0.049454462 0.030992141 -0.32997826 -0.01501283 0.94386917 0.031063603
-0.031478796 -0.049517293 0.030773522 0.11330822 -0.028887914 0.99313986 0.0070586759
-0.028577613 -0.049522012 0.03039442 0.29579154 -0.065892197 0.95297718 0.022991702
-0.026750579 -0.049525939 0.030046649 0.3695893 -0.018926082 0.92900246 0.033141963
-0.018295718 -0.049831193 0.030041993 -0.29928201 -0.028818766 0.95372945 0.024103012
-0.016503723 -0.04952836 0.030437708 -0.2220031 -0.0036280998 0.97503918 0.012695726
-0.013547331 -0.049474582 0.03079439 -0.0060428227 -0.0012029316 0.99998105 0.017650167
-0.010609266 -0.049523756 0.03091489 0.44333434 -0.013331856 0.89625716 0.045459598
-0.034060165 -0.046533529 0.031001618 -0.2296135 0.30314451 0.92486811 0.052392885
-0.031417128 -0.046496168 0.03078617 0.17476819 0.30584821 0.93590224 0.030164814
-0.028623471 -0.046649482 0.030457346 0.24445815 0.25793409 0.93472463 0.03238048
-0.025700841 -0.046193786 0.030062018 -0.021610659 -0.046039596 0.99870586 0.069998704
-0.022706099 -0.045200959 0.030057138 -0.07035853 -0.34719718 0.93514907 0.033208098
-0.018792037 -0.046720505 0.030093381 -0.049781498 0.10256461 0.99347991 0.066421174
-0.016338876 -0.046624724 0.030526524 -0.21475907 0.26174131 0.94094098 0.034019221
-0.013580712 -0.046493661 0.030811375 -0.036182843 0.34622502 0.93745351 0.036723912
-0.010816231 -0.046542618 0.030913226 0.30817127 0.2322877 0.92253613 0.049265664
-0.033539064 -0.044842899 0.030703982 -0.14279719 0.41958955 0.89641154 0.050054383
-0.032503825 -0.044852111 0.030327238 0.034877952 0.51741421 0.85502404 0.040901791
-0.025175489 -0.043281693 0.030485615 -0.20547509 -0.22582297 0.95225197 0.025131045
-0.022502089 -0.043363944 0.03038227 0.073964983 -0.2697885 0.96007466 0.021120572
-0.01975639 -0.043226596 0.030470705 0.29288894 -0.13460001 0.94662499 0.036694061
-0.012809044 -0.044850413 0.030271318 -0.025639622 0.55997312 0.82811391 0.060496889
-0.011401956 -0.044838373 0.030507619 0.13408884 0.41348612 0.90058291 0.061382204
-0.025421595 -0.040477868 0.030793114 -0.31747612 -0.092588678 0.94373524 0.024767639
-0.022512754 -0.040537044 0.030761875 0.056895662 -0.10415196 0.99293268 0.0096177869
-0.019496145 -0.040443595 0.030728331 0.38932008 -0.050066225 0.9197408 0.034315445
-0.027110057 -0.038261086 0.030568546 -0.33000833 0.19220866 0.92420256 0.039111111
-0.02534979 -0.037770521 0.030979224 -0.22668949 0.28133449 0.93244994 0.040596608
-0.022513531 -0.037547793 0.030947601 0.035461269 0.38650435 0.92160565 0.03966577
-0.019543421 -0.037778456 0.03091109 0.32031289 0.18761645 0.92854714 0.042628046
-0.0067058415 -0.036104448 0.030094111 -0.1508373 -0.33165503 0.93126428 0.00090310181
-0.0042303288 -0.036456287 0.030175332 -0.08946187 -0.40162846 0.91142267 0.011473338
-0.0014876609 -0.03651122 0.030261109 0.012822678 -0.41520447 0.90963769 0.0073329904
0.0013233346 -0.036402568 0.030166732 0.092476942 -0.37379533 0.92288953 0.0055575566
0.0033231897 -0.036095448 0.030060381 0.20570989 -0.39006692 0.89751387 0.011596682
-0.009641177 -0.033676621 0.030194636 -0.20034896 -0.22160387 0.95433331 0.0042867842
-0.0074016806 -0.034439918 0.030447887 -0.14411415 -0.26816279 0.95253342 0.0045251483
-0.0044442993 -0.034814436 0.030672038 -0.084949791 -0.27957803 0.95635754 0.0041834963
-0.0014755068 -0.034512144 0.030692743 0.017859224 -0.21684405 0.97604287 0.0040047076
0.0015519613 -0.034681134 0.030677672 0.080437951 -0.24014767 0.96739799 0.0045932806
0.0044652019 -0.034204308 0.030460505 0.15768626 -0.23830765 0.95830292 0.0087795192
0.0066661923 -0.033517014 0.030163312 0.25528219 -0.29677641 0.92019284 0.012295493
-0.012365398 -0.030646702 0.030141309 -0.24096873 -0.15371872 0.95828211 0.0045014792
-0.010734488 -0.031651139 0.03041378 -0.21301481 -0.17828426 0.96064526 0.0042702276
-0.0076837563 -0.031712763 0.030708963 -0.098865986 -0.12158573 0.98764485 0.00698594
-0.0044601937 -0.031879183 0.030984687 -0.076552041 -0.14975625 0.98575491 0.0055010347
-0.0012366533 -0.032127809 0.031152597 0.012827748 -0.19663209 0.98039341 0.0043728123
0.0017075653 -0.031904086 0.030835629 0.085667349 -0.17582405 0.98068702 0.0035439911
0.0046467213 -0.031412993 0.030746259 0.11611326 -0.13229282 0.98438632 0.0055454662
0.0074929893 -0.031318557 0.03048853 0.2142141 -0.16173944 0.96330303 0.0080528213
0.0092723975 -0.030609647 0.03010953 0.32387602 -0.20291698 0.92408276 0.01394742
-0.013067735 -0.028420538 0.030218814 -0.29112902 -0.10642332 0.95074594 0.003862248
-0.010619469 -0.028518282 0.030658413 -0.14200328 -0.079661831 0.98665553 0.0081178062
-0.0082528023 -0.029367827 0.03083051 -0.10534698 -0.090560585 0.9903034 0.006537491
-0.0011689565 -0.029670002 0.032513354 -0.023074221 -0.28974444 0.95682591 0.0050089313
0.0021011925 -0.028881855 0.032231838 0.15954025 -0.25951326 0.95247036 0.004262697
0.0050541037 -0.028681004 0.031012213 0.15994798 -0.13046803 0.9784655 0.0089505436
0.007635735 -0.028583568 0.030735124 0.17283273 -0.084906355 0.98128474 0.0071074632
0.0097588766 -0.028315196 0.030273015 0.28636134 -0.11116707 0.95165068 0.010419023
-0.013392626 -0.025866503 0.030342774 -0.31081459 -0.030611005 0.94997746 0.0065487083
-0.011202107 -0.025270408 0.030809306 -0.14535254 -0.0063306121 0.98935968 0.0081924628
-0.00898581 -0.026841909 0.031159693 -0.1238662 -0.051117335 0.9909814 0.010224234
0.0027727815 -0.0265576 0.032763712 0.49271122 -0.1035377 0.86401129 0.020848561
0.0052337232 -0.025650773 0.031619035 0.24943669 -0.067551658 0.96603221 0.0088261627
0.0075981799 -0.025458314 0.030814448 0.20219673 -0.040722579 0.97849792 0.0070224465
0.010037522 -0.025436193 0.030417629 0.28582808 -0.035032447 0.95764029 0.0070145237
-0.013422754 -0.022478504 0.030326791 -0.3223601 0.05629183 0.94494194 0.0071731531
-0.010871635 -0.022336528 0.030645182 -0.097600952 0.056778561 0.99360466 0.014162465
-0.0088604037 -0.021811694 0.031087618 -0.13715722 -0.003511047 0.99054313 0.016737694
0.0026844337 -0.021688815 0.032674067 0.44302312 0.16842033 0.88054818 0.013036083
0.0051569794 -0.022330578 0.031580623 0.24739705 0.047812063 0.9677338 0.0087741511
0.0075006005 -0.022448285 0.030785881 0.19924557 0.047200095 0.97881228 0.0056860107
0.010020724 -0.0225545 0.030400673 0.30050015 0.041406821 0.95288259 0.0063137524
-0.012825762 -0.019570418 0.030247789 -0.29543245 0.13034554 0.94643003 0.0064207441
-0.010811106 -0.018808268 0.030611757 -0.20317158 0.12414127 0.97124159 0.0062668119
-0.0080099907 -0.01881312 0.030692149 -0.12052121 0.090874799 0.98854262 0.010022175
-0.004828908 -0.018383758 0.031686679 -0.15936001 0.15904312 0.97432518 0.010581701
-0.0012673991 -0.018680707 0.032245301 0.076304458 0.3273724 0.94180942 0.007595635
0.0020341189 -0.019071881 0.03193545 0.16014709 0.26026344 0.9521637 0.0081274305
0.0049052457 -0.019310098 0.030877747 0.16397902 0.13355404 0.97738129 0.0072216769
0.0077121668 -0.019362286 0.030665858 0.19976494 0.10417312 0.97429049 0.0049963887
0.0096759452 -0.019753871 0.030245086 0.32421157 0.12660153 0.93747467 0.009502369
-0.01219368 -0.017391128 0.030082298 -0.33461708 0.24778385 0.90919441 0.007022778
-0.01045648 -0.016449258 0.030383969 -0.21653458 0.19061734 0.95748514 0.0062674284
-0.0076573472 -0.016078318 0.030756742 -0.12798856 0.17759193 0.97574592 0.0088138403
-0.0047105076 -0.015834209 0.03067602 -0.071601279 0.175667 0.98184234 0.0090977158
-0.0013856274 -0.015930349 0.030785544 -0.0044219759 0.16357529 0.98652089 0.0070797279
0.0015679509 -0.0164626 0.030787865 0.056861028 0.16673167 0.98436141 0.0067571136
0.0046273465 -0.016420422 0.030726414 0.12636231 0.15998681 0.97899789 0.0048735724
0.0073105958 -0.01666783 0.030421413 0.23727901 0.1979564 0.95105839 0.0074130124
0.0092106974 -0.017491907 0.030070338 0.43943673 0.24987598 0.86281943 0.015303044
-0.0094260257 -0.014626089 0.030154517 -0.22958381 0.27703348 0.93302929 0.0073445039
-0.0072509903 -0.013764056 0.030351693 -0.12438517 0.24074727 0.96258461 0.0068804058
-0.0044903667 -0.013359725 0.030557383 -0.054860108 0.23311973 0.9708994 0.0063522966
-0.0014982406 -0.013206058 0.030591685 -0.013411874 0.22914305 0.97330034 0.0068910122
0.00163587 -0.01332558 0.030538661 0.069412045 0.2317912 0.97028601 0.0066576768
0.0043074517 -0.013906799 0.03034424 0.17553101 0.28888807 0.94113362 0.0097366748
0.0065447143 -0.014562211 0.030110827 0.28200525 0.33619407 0.89858037 0.0072840247
-0.0038379617 -0.011722341 0.030071603 -0.057703599 0.36773276 0.92813951 0.011962214
-0.0016805846 -0.011685015 0.0300844 0.0021866886 0.36942115 0.92925954 0.0084147761
0.00070481497 -0.01179131 0.03009793 0.078345992 0.39982703 0.91323614 0.011286956
-0.0038285013 0.011915136 0.030061498 -0.077024363 -0.56755656 0.81972355 0.011243347
-0.0013361295 0.011824311 0.03010449 -0.00044208637 -0.57935411 0.81507581 0.012827728
0.00094003632 0.011870636 0.030037411 0.10706437 -0.49842906 0.86029392 0.0029020477
-0.0094720246 0.014783782 0.030097898 -0.27190116 -0.3502616 0.89631832 0.011709934
-0.0071781846 0.014036665 0.030294579 -0.13522351 -0.26274595 0.95534247 0.0089515243
-0.0044432613 0.013601749 0.030519707 -0.063302383 -0.25478593 0.96492326 0.0074107633
-0.0014977597 0.013406279 0.030574964 0.0058754138 -0.2774072 0.96073449 0.0063849119
0.0015785933 0.01356025 0.03045021 0.094863258 -0.27217656 0.95755982 0.0080106035
0.0042391084 0.014171877 0.030266309 0.16754749 -0.30023798 0.93903404 0.010110951
0.0063618715 0.014699494 0.030052019 0.27576056 -0.40667984 0.87095785 0.016246621
-0.012221757 0.017608415 0.030053075 -0.46975121 -0.35193646 0.80961382 0.009009853
-0.01024582 0.016609576 0.030374056 -0.23437907 -0.22114672 0.9466576 0.0058537284
-0.0076921368 0.016086321 0.03071391 -0.13745579 -0.17573185 0.97479445 0.0076031671
-0.0044865855 0.015995707 0.030668747 -0.060084004 -0.19561143 0.97883922 0.0084855184
-0.0014388093 0.016214166 0.030706845 0.019228864 -0.22990701 0.97302264 0.02219166
0.0016124675 0.016512124 0.030827437 0.074767657 -0.17792618 0.98119926 0.0067106253
0.0046094377 0.016410785 0.030725317 0.12351493 -0.17536888 0.97672403 0.0058229868
0.0071773394 0.01680818 0.030358015 0.25353485 -0.21545054 0.94302762 0.0076788911
0.0091180764 0.017807126 0.030066641 0.46740422 -0.24720328 0.84877783 0.01910294
-0.01268054 0.019660609 0.030247884 -0.33997676 -0.16394453 0.9260335 0.0059281471
-0.010850629 0.018900087 0.030591071 -0.22283001 -0.1405675 0.9646697 0.0045202416
-0.0077834325 0.018966269 0.030784851 -0.123388 -0.10884669 0.98637104 0.0072135911
-0.0047147516 0.018599117 0.031753052 -0.11057015 -0.18731056 0.97605789 0.0062750527
-0.0014917711 0.018824361 0.032284807 -0.011716782 -0.24525864 0.96938694 0.007462834
0.0022808996 0.018824499 0.031592872 0.059518281 -0.21124595 0.97561908 0.030806363
0.004755016 0.019351723 0.030847283 0.15218091 -0.13016289 0.97974414 0.0094758281
0.0076718847 0.019416824 0.030663677 0.19206659 -0.10046789 0.97622573 0.0057297465
0.0095928507 0.019920612 0.030219512 0.32149148 -0.1382872 0.93676031 0.012320432
-0.013357919 0.022493383 0.030310832 -0.33988181 -0.072708815 0.93765336 0.0053946576
-0.010750709 0.022389907 0.030683784 -0.15547171 -0.063600704 0.98579079 0.0071288329
-0.0086760791 0.021476286 0.031259276 -0.18032271 -0.057278 0.98193836 0.0057752389
0.002564623 0.021623977 0.032559738 0.6033541 -0.36166111 0.71074975 0.07541845
0.0050996901 0.022233456 0.031524554 0.2428083 -0.097451702 0.96516693 0.0072176936
0.0074764821 0.022469023 0.030775052 0.1794154 -0.06766177 0.98144388 0.0066099302
0.0099607697 0.022550957 0.030384302 0.29592979 -0.049993452 0.95390046 0.0081447987
-0.013131123 0.025523014 0.030458545 -0.28564379 0.012265702 0.95825744 0.0093846498
-0.011195106 0.025472911 0.03081811 -0.15459393 0.014458702 0.98787224 0.0086921183
-0.0089677889 0.02694004 0.031074144 -0.12859644 0.042991996 0.99076468 0.012893931
0.0029030934 0.026442572 0.032653596 0.41046011 0.05592541 0.91016197 0.016866541
0.0051808511 0.025511736 0.031710044 0.26368284 0.025084594 0.96428323 0.009624959
0.007534116 0.025491795 0.030838849 0.21990518 0.014784428 0.97540921 0.0081672417
0.010016675 0.025480391 0.030436182 0.29740849 0.014660023 0.95463777 0.0060281395
-0.013183071 0.028392617 0.030242857 -0.25120822 0.075545236 0.96498054 0.0069135618
-0.010665266 0.028615506 0.03055907 -0.1611387 0.048619233 0.98573351 0.012215771
-0.0084664291 0.029394425 0.030719286 -0.087907113 0.078460932 0.99303377 0.012627323
-0.00070160686 0.029536776 0.032638498 0.12217391 0.35916993 0.92524081 0.0098087536
0.0021924011 0.029071607 0.032245502 0.1869725 0.24750738 0.95067418 0.0043285927
0.0050258613 0.02863612 0.03121049 0.18897353 0.12885511 0.97349137 0.0077996221
0.0075936969 0.028517848 0.030719129 0.20222761 0.087629117 0.97541028 0.0061828736
0.0098061208 0.028324651 0.030311679 0.30864513 0.1135554 0.9443745 0.010128143
-0.012454513 0.030766845 0.030133834 -0.25576308 0.13886477 0.95671409 0.0055235918
-0.010842141 0.031924669 0.030384783 -0.20943773 0.16142979 0.96440458 0.005874515
-0.0077404799 0.031787738 0.030634845 -0.11584444 0.117404 0.9863044 0.0079695713
-0.0044970261 0.032129414 0.030968994 -0.079073973 0.14248399 0.98663348 0.0098181833
-0.0010242948 0.032152325 0.031334024 0.014525224 0.20565075 0.97851759 0.0076735057
0.0018384411 0.032109868 0.03090116 0.087105691 0.16221622 0.98290306 0.0056973454
0.0046658721 0.031486195 0.030698646 0.1272022 0.12748218 0.98365033 0.0054388409
0.007547434 0.031439114 0.030547112 0.21981968 0.14703669 0.96439594 0.0076914192
0.0093725109 0.03061045 0.030125612 0.35126808 0.18871307 0.91705954 0.013005055
-0.027073629 0.035887789 0.030134497 -0.29805356 -0.17775394 0.93785268 0.021591282
-0.025198197 0.035025746 0.030311259 -0.17687006 -0.2879082 0.94118315 0.018538827
-0.022622377 0.034694839 0.030356387 -0.0084548667 -0.32659745 0.9451257 0.022530513
-0.019901184 0.03500336 0.030266823 0.1934872 -0.28337345 0.93928814 0.020007079
-0.0098171998 0.033835314 0.030200947 -0.19538434 0.23135614 0.95304728 0.0041938312
-0.0074055698 0.034624703 0.030479018 -0.13690971 0.25225481 0.95792657 0.0045631542
-0.0044360729 0.03504074 0.030680966 -0.068568178 0.25255185 0.96515077 0.004095614
-0.0014533169 0.034628395 0.030677157 0.018339785 0.19910276 0.97980696 0.0056760823
0.0015778274 0.034741193 0.030662367 0.071343787 0.20603204 0.975941 0.0040685418
0.0045166556 0.034444746 0.030512441 0.13790244 0.21026637 0.96786934 0.0055529433
0.006722827 0.033665545 0.030232994 0.25949031 0.26419693 0.92890513 0.01064786
-0.027375702 0.037818078 0.030232942 -0.34171492 -0.077791356 0.93657857 0.02165479
-0.025551265 0.037524123 0.030394839 -0.2199856 -0.11217649 0.96903187 0.020163834
-0.022543279 0.037475966 0.03047589 0.003259558 -0.030954788 0.99951553 0.0030755999
-0.01954858 0.037593771 0.030381734 0.23429088 -0.064952865 0.96999437 0.02200415
-0.017861333 0.037965011 0.030223979 0.38594177 -0.023648329 0.92221999 0.029285282
-0.0065036151 0.036380164 0.030103756 -0.15078793 0.35151616 0.92395854 0.0011063961
-0.0043246532 0.036626037 0.030226434 -0.066281147 0.33227962 0.94084913 0.0062357392
-0.0015455325 0.03686526 0.030250847 0.0090204263 0.31511524 0.94901055 0.003324453
0.0013160486 0.036588572 0.03022475 0.090695299 0.34091201 0.93571013 0.0079125641
0.0035417494 0.036229413 0.030124597 0.18285996 0.35369894 0.91731083 0.0069763353
-0.027388148 0.039438613 0.030192725 -0.34289268 0.13171048 0.9300952 0.023799045
-0.025468834 0.040412754 0.030357713 -0.23700184 0.22135025 0.94595683 0.019537881
-0.0224836 0.040485788 0.030433826 0.032562036 0.14929862 0.9882558 0.017889543
-0.019578038 0.040419608 0.030337043 0.2895726 0.20966202 0.93391085 0.02121643
-0.017813066 0.039526571 0.030213796 0.34337911 0.17435433 0.92287123 0.027990596
-0.034343068 0.044905759 0.030210029 -0.012102784 -0.41426218 0.9100771 0.029508201
-0.032889105 0.044898268 0.030170349 0.10194918 -0.37312299 0.92216349 0.022244159
-0.024728736 0.042403772 0.030274011 -0.1481429 0.32705322 0.93332195 0.021151356
-0.022538548 0.042601362 0.030295795 0.012207801 0.3661243 0.93048584 0.02108025
-0.020338604 0.042433385 0.0302436 0.19413224 0.31777674 0.92807895 0.025863357
-0.012224115 0.04483144 0.030124614 -0.083328284 -0.38677561 0.9184013 0.020678069
-0.011059251 0.044805493 0.030149588 0.0042868177 -0.34189242 0.93972933 0.032827519
-0.03707891 0.046893951 0.030314848 -0.25652352 -0.25201446 0.93310475 0.016593749
-0.0345014 0.046548326 0.030379595 -0.040819231 -0.28550276 0.95750821 0.030266324
-0.031659298 0.046663109 0.030314917 0.24499092 -0.27110711 0.93084931 0.018774979
-0.029826781 0.047418322 0.030185001 0.31541395 -0.19268301 0.92918634 0.024114972
-0.015325455 0.04742315 0.030202743 -0.28594613 -0.1943875 0.93832207 0.026103195
-0.01330451 0.046693783 0.030338684 -0.19652811 -0.28229553 0.93898135 0.021388419
-0.010449521 0.046491895 0.030367151 0.089171663 -0.26821113 0.95922428 0.025153583
-0.0079514226 0.046893936 0.030279981 0.33257917 -0.18493012 0.92476588 0.017056158
-0.039047133 0.049513817 0.030194717 -0.42243633 -0.0038896012 0.90638423 0.02875793
-0.037436847 0.04948448 0.030378921 -0.29204205 -0.045255356 0.95533419 0.020773729
-0.034525741 0.049508367 0.030484319 -0.0053187748 -0.0091591561 0.99994391 0.00032658724
-0.031523429 0.049491912 0.030416081 0.18936391 -0.070312135 0.97938627 0.022957509
-0.029499182 0.049493104 0.030233594 0.41902336 -0.030595604 0.9074598 0.0251955
-0.015512627 0.049513146 0.030278848 -0.35684508 -0.013518778 0.93406576 0.019597946
-0.013459229 0.049500581 0.030428344 -0.15030675 -0.034504488 0.98803711 0.017056501
-0.010463454 0.049500152 0.030481763 0.058281295 -0.007323063 0.99827331 0.0064118239
-0.0075013298 0.049488153 0.030340197 0.36882195 -0.013559317 0.92940116 0.023553029
-0.037205923 0.052284092 0.030326853 -0.27034432 0.20601633 0.9404633 0.016803583
-0.03459049 0.052485656 0.030409992 0.0056158076 0.17097613 0.98525918 0.021503748
-0.031645212 0.052424323 0.030349584 0.27822322 0.27787727 0.91944331 0.018839044
-0.029687164 0.051647346 0.030213006 0.36978573 0.1698004 0.91346937 0.022393459
-0.015355137 0.051770952 0.030246092 -0.34254226 0.13645492 0.92954016 0.017603649
-0.013363457 0.052446034 0.030359445 -0.20716161 0.23146273 0.95053095 0.020147476
-0.010467636 0.052502126 0.030401997 0.12846996 0.1954902 0.97225469 0.024085412
-0.0078805666 0.052232727 0.030298734 0.34970024 0.14965855 0.92483073 0.016968818
-0.036193281 0.05422065 0.030209044 -0.19765176 0.30306682 0.93224692 0.023794862
-0.034371447 0.054356035 0.030277872 0.042188153 0.42768684 0.90294194 0.027164198
-0.032476991 0.054258715 0.030244352 0.18905738 0.41320407 0.89079726 0.020693555
-0.024459239 0.056650765 0.030157855 -0.15377697 -0.32548413 0.93295908 0.023867071
-0.022387609 0.056579109 0.030241864 0.073495902 -0.43191972 0.89891243 0.028769752
-0.020519618 0.05678647 0.030189579 0.18662298 -0.32796392 0.92607319 0.023603985
-0.01261769 0.054292563 0.030251613 -0.14207807 0.3389332 0.93002051 0.021864004
-0.010457945 0.054356843 0.03026416 0.11844464 0.36639035 0.92289162 0.027566828
-0.0086155124 0.054109495 0.030117052 0.26714864 0.34056863 0.90146804 0.022869417
-0.027232403 0.059449207 0.03017425 -0.33564222 -0.16204756 0.92794657 0.020911152
-0.025348328 0.05867013 0.030343696 -0.24902585 -0.25201088 0.93513459 0.01871906
-0.022511525 0.058449607 0.030405896 0.054860611 -0.19716051 0.97883505 0.024992572
-0.019657716 0.058673576 0.030314801 0.28127298 -0.24380024 0.92814165 0.016038312
-0.017809222 0.059770186 0.030108668 0.33577278 -0.13974822 0.93151867 0.02167871
-0.027369652 0.061416417 0.030233586 -0.3654103 0.00094470201 0.9308461 0.032992199
-0.025524737 0.061532553 0.030401824 -0.21343803 0.046386484 0.97585475 0.019182077
-0.022476504 0.061483249 0.030482434 0.0081684925 0.0039150245 0.99995899 0.00031042323
-0.019517815 0.061526235 0.030386269 0.24203886 0.019637033 0.97006774 0.027065992
-0.017786674 0.061310474 0.030196244 0.39101756 0.017244585 0.92022163 0.031474631
-0.027133379 0.063316621 0.030172706 -0.35285363 0.23829545 0.90482575 0.020017866
-0.025267461 0.064185657 0.03032895 -0.16767833 0.27999523 0.94524419 0.014812627
-0.02253519 0.064515688 0.030378951 0.030312868 0.31775936 0.94768673 0.019724419
-0.019788114 0.064194188 0.030307574 0.20402478 0.27701601 0.93895471 0.014847964
-0.017726969 0.063015804 0.030160774 0.29267165 0.14105496 0.94575202 0.024103904
-0.024155598 0.066010371 0.030075235 -0.16481318 0.36294439 0.91711938 0.033464748
-0.022432463 0.066066116 0.030226359 0.01304536 0.42206502 0.90647173 0.032867461
0.0016175009 -0.027778978 0.033223599 0.30506867 -0.35341182 0.8843264 0.0094092926
0.0027883234 -0.02605932 0.033264652 0.49270958 -0.10353756 0.8640123 0.020848986
0.0031248925 -0.024822414 0.033401288 0.49271482 -0.10353724 0.86400932 0.020847633
0.0025516166 -0.022080593 0.033295196 0.51208431 0.18458305 0.83886755 0.011299111
0.0031382767 -0.023709362 0.033410691 0.40963027 0.12733299 0.90332127 0.018670484
0.001399687 -0.020601157 0.033391699 0.31417295 0.33749655 0.8873508 0.011686508
0.00070821017 0.02063477 0.033225793 0.24832866 -0.40840614 0.87837195 0.008898831
0.0023719461 0.022132194 0.033427726 0.43682024 -0.21058226 0.87455314 0.011372437
0.0031042069 0.023682322 0.033299826 0.43676135 -0.21056995 0.87458557 0.011347707
0.0028637522 0.026426679 0.033213638 0.34735262 0.066767119 0.93535465 0.020499028
0.0031477227 0.025029678 0.033418998 0.41344559 0.052251197 0.90902835 0.016150769
0.0016472605 0.028092934 0.033248905 0.31297758 0.308213 0.89835954 0.010649313
-0.003281709 -0.03304052 0.037648596 -0.081806138 -0.65080684 0.75482327 0.02614565
-0.0012876224 -0.033124868 0.037769467 0.029352784 -0.41625512 0.90877396 0.037767004
0.0003377395 -0.033024162 0.037489653 0.099738784 -0.54088271 0.83516347 0.040770341
-0.0072272606 -0.031123504 0.03789426 -0.27421555 -0.44792241 0.85098261 0.039425388
-0.004559502 -0.032621 0.03786698 -0.11768564 -0.48442644 0.86688012 0.030763105
-0.00049927336 -0.032949556 0.038642447 0.061889037 -0.56733763 0.82115632 0.032372918
0.0016026751 -0.032471001 0.037983753 0.18412524 -0.4195548 0.88885975 0.03657594
0.0041526947 -0.030949844 0.037912771 0.36703151 -0.42085499 0.8295595 0.04169194
-0.0096145095 -0.028109537 0.03796785 -0.2877591 -0.16406243 0.94354552 0.037674598
-0.008687282 -0.029636869 0.038126618 -0.28824177 -0.25829571 0.92206287 0.040150315
0.0056047393 -0.029421171 0.037824709 0.4105908 -0.2777988 0.86847168 0.05126844
0.006424149 -0.027987251 0.037795007 0.39681962 -0.23244435 0.88797742 0.050095249
-0.010449465 -0.025241554 0.03780923 -0.46335503 -0.060335942 0.88411635 0.034946844
0.0071123117 -0.025556004 0.037847497 0.57004929 -0.08182364 0.81752604 0.041092377
-0.010333732 -0.022462882 0.037827197 -0.43464407 0.12929296 0.89127314 0.039041262
0.0070346398 -0.022482773 0.037859701 0.58157629 0.11872644 0.80478138 0.042884864
-0.0094539579 -0.020021062 0.03788219 -0.39653409 0.26125014 0.88006198 0.040723246
-0.0084031643 -0.018528104 0.038088702 -0.33077723 0.24296466 0.91189617 0.042405315
0.0053395582 -0.018804632 0.037875913 0.3854025 0.30406833 0.87121028 0.051121164
0.0063485089 -0.020354019 0.037760682 0.45757172 0.27427655 0.84581345 0.045644816
-0.0069785789 -0.017186739 0.037872486 -0.27018738 0.2819044 0.92061323 0.038127515
-0.0041220309 -0.015792459 0.038131762 -0.033782341 0.32562587 0.94489497 0.031892665
-0.0012669091 -0.015446904 0.038099449 0.039978784 0.30164111 0.95258301 0.031780165
0.001658462 -0.016047247 0.037824988 0.18027075 0.36639744 0.91282815 0.046217807
0.0038876634 -0.017304843 0.03776183 0.38161027 0.38458157 0.84051818 0.047809765
-0.0068137748 0.017538432 0.037826255 -0.32386285 -0.43699214 0.83913684 0.034372631
-0.0045046075 0.016401609 0.037969898 -0.035753705 -0.30385971 0.95204574 0.036301665
-0.00141413 0.015965434 0.038060453 0.05890175 -0.47087103 0.88023359 0.040768672
0.0016536189 0.016546268 0.037857395 0.22135694 -0.40216571 0.8884052 0.046058673
0.0035225372 0.017515874 0.037819814 0.35719681 -0.47740033 0.80280715 0.033024818
-0.0093219886 0.020378457 0.038195442 -0.32157904 -0.22655515 0.91938001 0.038779531
-0.0081520164 0.018798195 0.038188435 -0.37510714 -0.31198335 0.87290376 0.036477458
0.0052104359 0.019167989 0.037916642 0.44883096 -0.37701997 0.81018937 0.037399601
0.0062581934 0.020623375 0.037679382 0.55379468 -0.3013199 0.77622014 0.034346581
-0.010136527 0.022274582 0.037853662 -0.42767203 -0.17434701 0.88696098 0.035552878
0.0069472808 0.022603313 0.037855957 0.57710117 -0.13628134 0.80522144 0.036271352
-0.010472834 0.02535205 0.037834592 -0.45672542 0.041904774 0.8886202 0.03611318
0.0071790754 0.025476355 0.037944805 0.56454593 0.059338745 0.82326597 0.039871808
-0.0097501222 0.028242009 0.038176939 -0.21468945 0.13444373 0.96738482 0.032590352
-0.0088948635 0.029768983 0.038216636 -0.25229663 0.26312071 0.93118954 0.031182341
0.0057434831 0.029611848 0.038049623 0.39414802 0.27392188 0.87727654 0.047094945
0.0066050757 0.027983218 0.037873123 0.36290476 0.17990854 0.91429377 0.046761408
