# .PCD v0.7 - Point Cloud Data file format
VERSION 0.7
FIELDS x y z normal_x normal_y normal_z curvature
SIZE 4 4 4 4 4 4 4
TYPE F F F F F F F
COUNT 1 1 1 1 1 1 1
WIDTH 556
HEIGHT 1
VIEWPOINT 0 0 0 1 0 0 0
POINTS 556
DATA ascii
0.030374033 0.032834064 -0.011815158 -0.26472369 0.70362616 -0.65941763 0.0032270688
0.062511496 0.031682167 -0.011522755 0.49130642 -0.22207719 -0.84219939 0.0017817457
0.063801065 0.031761296 -0.01057959 0.56085193 -0.21900916 -0.79842353 0.0012140336
-0.0630202 0.035748746 -0.009125825 -0.61617798 -0.43122301 -0.6590687 0.0027934357
-0.061137561 0.034809243 -0.010193303 -0.58986229 -0.39985284 -0.70155555 0.0019417014
-0.059222717 0.034344126 -0.011451458 -0.52182853 -0.34922984 -0.77828878 0.0017492034
-0.027894421 0.03549578 -0.011601848 0.30333573 0.65864182 -0.68860614 0.0013824549
-0.025326399 0.035048846 -0.010887734 0.30532968 0.72903264 -0.61260527 0.0014366419
-0.02254498 0.034314815 -0.010413607 0.2788642 0.74270868 -0.60878444 0.002185663
-0.01966406 0.033679437 -0.009913695 0.26786733 0.75682318 -0.59620947 0.001557025
-0.017358741 0.033256665 -0.0093790283 0.24318363 0.76634896 -0.59461832 0.0013091172
0.023499206 0.033036444 -0.0090807769 -0.2489064 0.79010099 -0.56016612 0.0011911392
0.025893407 0.033349857 -0.0095065357 -0.24395461 0.78287214 -0.57236123 0.0010117394
0.028687291 0.033841275 -0.010031313 -0.25863463 0.77325064 -0.5789572 0.0016924123
0.031546742 0.034511738 -0.010465561 -0.28317827 0.76733905 -0.57532674 0.001506045
0.034306083 0.035164844 -0.011000036 -0.31000996 0.733257 -0.60516769 0.0018646573
0.036633771 0.035682242 -0.011631892 -0.32540455 0.67986071 -0.65719199 0.0020694553
0.064281508 0.034602318 -0.011080334 0.51163411 -0.11037744 -0.8520841 0.0012090533
0.066558741 0.035138976 -0.0094300583 0.6306237 -0.16269663 -0.7588436 0.0010968689
-0.063778028 0.037935805 -0.0096023902 -0.61337483 -0.33648396 -0.71452779 0.0023395324
-0.061643429 0.037358515 -0.010980511 -0.54875749 -0.2849884 -0.78590506 0.0024531553
-0.059886858 0.036899272 -0.011881608 -0.47754446 -0.18546081 -0.8588106 0.0029769777
-0.03629924 0.038881008 -0.011793735 0.3066012 0.63815337 -0.70622659 0.0035148726
-0.034076955 0.038549468 -0.011427987 0.32305825 0.68179381 -0.65634638 0.0016173072
-0.031361066 0.037875805 -0.010738752 0.33524913 0.72506446 -0.60157251 0.0016005483
-0.028670132 0.037013974 -0.010298067 0.32453853 0.73692042 -0.59297812 0.0017386276
-0.02607034 0.03640382 -0.0095751723 0.3205322 0.74991733 -0.57869089 0.0012794263
0.03281869 0.036063064 -0.0091280797 -0.3282291 0.77394062 -0.54155475 0.00084320852
0.034880001 0.036518008 -0.0096567348 -0.33476487 0.75671089 -0.56153458 0.0012633683
0.037633874 0.037237469 -0.010344156 -0.34639457 0.72917742 -0.59017885 0.0018868035
0.040279854 0.038087774 -0.010975815 -0.36210731 0.69312662 -0.62326074 0.0017218738
0.042580321 0.038670231 -0.011708628 -0.34138662 0.65036386 -0.67858827 0.001343425
0.064797774 0.03777492 -0.01126221 0.51713741 -0.056365769 -0.85404444 0.0017788383
0.066532344 0.038205884 -0.010047048 0.5969823 -0.065711029 -0.79955876 0.0016897046
-0.066110432 0.041751027 -0.0091177635 -0.65404105 -0.24576157 -0.71542412 0.0031029908
-0.064092785 0.040685885 -0.010233134 -0.54988116 -0.16380814 -0.8190223 0.0036261044
-0.062093079 0.040495072 -0.011511091 -0.46974316 -0.10424028 -0.87662727 0.0027027684
-0.042596266 0.041793659 -0.011855197 0.29490319 0.64930749 -0.70102203 0.00082078163
-0.040142078 0.041450016 -0.011437401 0.30857575 0.65635782 -0.68845874 0.0015842799
-0.037360605 0.040745057 -0.010749337 0.33592725 0.70940554 -0.61959398 0.0015485239
-0.034686428 0.040018726 -0.010099455 0.35072079 0.72773516 -0.58940345 0.0015617296
-0.032193825 0.039314464 -0.0094456514 0.36270642 0.74521971 -0.55954587 0.0013393509
0.038983755 0.03904625 -0.0093076862 -0.41862115 0.72828615 -0.5425455 0.0013359506
0.040953606 0.039607499 -0.0096743861 -0.40630817 0.71626097 -0.56734818 0.0015125469
0.043562755 0.040422633 -0.010399516 -0.36465973 0.68363857 -0.63218784 0.0014223931
0.046203345 0.04117262 -0.011136862 -0.33191189 0.64059687 -0.69243783 0.00120859
0.048722971 0.041716252 -0.011753662 -0.28475067 0.61355829 -0.73652112 0.0018798627
0.064549305 0.040683303 -0.011552937 0.42056224 0.10219175 -0.90149003 0.0034588221
0.066888414 0.040887535 -0.010033992 0.5276742 0.062329743 -0.84715694 0.0022162285
-0.066339232 0.043932095 -0.0093252202 -0.58953857 -0.10736694 -0.80057275 0.0035448694
-0.064491726 0.043556821 -0.010455338 -0.50020093 -0.044357635 -0.8647725 0.0024699064
-0.062146954 0.04368313 -0.011648328 -0.40136924 0.033571422 -0.91530079 0.0041090851
-0.05994029 0.04479897 -0.011963272 -0.27615318 0.15608937 -0.94835413 0.0050694747
-0.048620738 0.044773471 -0.011835994 0.21156521 0.61109811 -0.7627576 0.0022070489
-0.046224598 0.044345114 -0.011392653 0.27224088 0.64205456 -0.71669436 0.001609718
-0.043368112 0.043711975 -0.010699991 0.31859562 0.67504853 -0.66543692 0.0015957562
-0.040662911 0.042967174 -0.010086321 0.34775624 0.71763557 -0.60337782 0.001775209
-0.03828115 0.042309798 -0.00947027 0.37095475 0.73176217 -0.57176626 0.0014772699
0.044694033 0.042219587 -0.0091944952 -0.42491406 0.700167 -0.57377183 0.0018018003
0.046804283 0.042800885 -0.0098128747 -0.38652343 0.68206483 -0.62079561 0.0016572556
0.049465302 0.043535113 -0.010492973 -0.31533137 0.63300323 -0.707017 0.0012767962
0.052271277 0.044083226 -0.011214048 -0.25612089 0.5906589 -0.76519543 0.0014982085
0.055141162 0.044540372 -0.011718194 -0.18053843 0.53717571 -0.82392246 0.0022740827
0.058255021 0.044767257 -0.011866348 -0.042731263 0.45271233 -0.89063215 0.0032953878
0.062043719 0.044534773 -0.011840197 0.13630445 0.32867482 -0.93455547 0.0045204563
0.064140454 0.043586195 -0.011494883 0.27051005 0.26036534 -0.92684102 0.0029184429
0.066708669 0.043884359 -0.010063162 0.45377362 0.15825561 -0.87695193 0.0026347085
-0.066530384 0.046574578 -0.0092699807 -0.51832557 0.03974935 -0.85425913 0.0050420505
-0.06450282 0.046597518 -0.010347871 -0.37746519 0.16625409 -0.91097736 0.005779794
-0.061506845 0.04669353 -0.011396926 -0.23242283 0.31137511 -0.9214257 0.0072186505
-0.058555711 0.04721259 -0.011646361 -0.036155902 0.43723786 -0.89861882 0.0037636359
-0.055316057 0.047183216 -0.011562827 0.093057737 0.52545357 -0.84571797 0.0026238502
-0.052379433 0.046984658 -0.011186814 0.17857254 0.58966672 -0.78765786 0.0020467096
-0.049469098 0.046582505 -0.010586418 0.25756395 0.63516164 -0.72816926 0.0014212526
-0.046676006 0.045972001 -0.009984307 0.32821041 0.68928558 -0.64588177 0.0018705004
-0.044206176 0.045401298 -0.0093458686 0.36450079 0.70357347 -0.61001927 0.0014259513
0.050509941 0.045297757 -0.0093037812 -0.37367246 0.66976827 -0.64170039 0.0019983856
0.052724753 0.045933474 -0.0098211961 -0.32423049 0.6486963 -0.68852574 0.0021560551
0.055490971 0.046531484 -0.010378234 -0.25766709 0.58911604 -0.76586556 0.0022761675
0.058394615 0.046626646 -0.010999135 -0.10330315 0.50312752 -0.85801589 0.0025366356
0.061195936 0.046646271 -0.011129502 -0.0022653183 0.45795035 -0.88897491 0.0035292797
0.064324521 0.04657029 -0.010580808 0.21358097 0.33029163 -0.91939694 0.0036817305
0.066687286 0.046613041 -0.0096639758 0.31046531 0.29087743 -0.90498716 0.0027348872
-0.066321097 0.048954297 -0.0091885393 -0.3418619 0.23842315 -0.90900213 0.0083841514
-0.064371824 0.049523 -0.0097130202 -0.22604093 0.31870994 -0.92050505 0.0061730114
-0.061460853 0.049573518 -0.010203727 -0.11131187 0.45311993 -0.88447267 0.0063042222
-0.0584963 0.049542602 -0.010298506 0.05362235 0.56733561 -0.82173896 0.0037156658
-0.055584334 0.049312726 -0.010087761 0.15115471 0.62310529 -0.76739305 0.0031913011
-0.052728403 0.048791982 -0.0097493539 0.24492151 0.66900438 -0.70174539 0.0026004196
-0.050430868 0.048312481 -0.0093251355 0.30857068 0.68520343 -0.65975779 0.002110312
0.056336373 0.048292961 -0.0092817293 -0.29479185 0.63603789 -0.71312946 0.0029228076
0.058617126 0.048806977 -0.0095754787 -0.19800311 0.59121138 -0.78183365 0.0038278203
0.061435968 0.049300086 -0.0097129662 -0.086138949 0.5245645 -0.84700185 0.003684815
0.064099632 0.049549017 -0.0095291222 0.05541154 0.433599 -0.89940059 0.0040649995
0.066357158 0.04880207 -0.009242652 0.21805635 0.33261865 -0.91750544 0.0058947704
-0.063888833 0.051247973 -0.0091322046 -0.14508551 0.42817855 -0.89197159 0.0082028778
-0.061622053 0.051310878 -0.0092069181 -0.0013859314 0.5780732 -0.81598365 0.005019513
-0.05902062 0.051177103 -0.0091585685 0.10976177 0.6581648 -0.74482983 0.0025420685
-0.0034853711 0.0027389727 -0.0077636545 -0.09260451 -0.82068771 -0.56382275 0.0013271592
9.7828044e-05 0.0027990753 -0.0081039127 -0.047320914 -0.77871019 -0.6255967 0.00017089736
0.0037215482 0.0028598392 -0.0084479889 -0.0081132241 -0.78741825 -0.61636573 0.0002632816
-0.01916967 0.0057788924 -0.0075309039 -0.2409348 -0.81077975 -0.53346664 0.0015117767
-0.016344128 0.0052076103 -0.0077469544 -0.20891951 -0.82743925 -0.52124566 0.0011609594
-0.013508831 0.0043722647 -0.0075925426 -0.2032426 -0.83084542 -0.51806211 0.001507721
-0.010549601 0.0039095893 -0.0079121711 -0.16652174 -0.8313176 -0.53026563 0.0015189906
-0.0068774135 0.0034698576 -0.008116073 -0.12059537 -0.8077234 -0.57709587 0.0014318245
-0.0048777112 0.0032454492 -0.0082088858 -0.10389441 -0.80574685 -0.5830763 0.0018650882
-0.0029123775 0.0032573415 -0.0085394708 -0.084504224 -0.80314159 -0.58976495 0.0022434783
0.00066084735 0.0033257236 -0.0088927904 -0.041864883 -0.77646887 -0.62876344 0.000130796
0.0047654337 0.0031748724 -0.0088909362 4.046192e-05 -0.78740561 -0.61643529 0.00022806966
0.0074661206 0.0031466458 -0.0087372018 0.013274183 -0.744959 -0.66697818 0.00093493471
0.010359687 0.0030430893 -0.0084594851 0.026156906 -0.75238991 -0.65819854 0.00066342269
-0.028228808 0.0087719345 -0.0067550973 -0.34864548 -0.8373673 -0.42102548 0.0020842259
-0.025235822 0.0082413619 -0.007833167 -0.30588126 -0.80388379 -0.51010537 0.0023484749
-0.022660052 0.0070850546 -0.0074694813 -0.30339777 -0.81417555 -0.49504349 0.0020305011
-0.019921632 0.0064670895 -0.0081269005 -0.25459534 -0.78403342 -0.56610322 0.0014721487
-0.017763827 0.0060852342 -0.008517378 -0.23031503 -0.81466287 -0.53224003 0.0014785689
-0.036214426 0.011976466 -0.0062495042 -0.43279019 -0.81474113 -0.38586214 0.0036013031
-0.034417439 0.011520971 -0.0070493007 -0.36043972 -0.80714113 -0.46755365 0.0011374665
-0.03154229 0.010625493 -0.007595981 -0.34447369 -0.80229789 -0.4874998 0.0014511256
-0.028879184 0.0097994022 -0.0080318842 -0.34317935 -0.80164677 -0.48947978 0.0026155694
-0.026409201 0.0091295633 -0.0085500218 -0.29247352 -0.78799772 -0.5417738 0.00084085239
-0.039824374 0.014423966 -0.0072843083 -0.41206896 -0.76714492 -0.49161756 0.0011383267
-0.037624117 0.01357865 -0.0077914773 -0.41107833 -0.76994443 -0.48805761 0.0012285614
-0.034423716 0.012652555 -0.0087783011 -0.32928839 -0.70385873 -0.62940615 0.00051996962
-0.045512576 0.017601246 -0.0065585743 -0.50056344 -0.7398299 -0.44954193 0.0008879744
-0.04355371 0.016980633 -0.0076467451 -0.46830106 -0.70820886 -0.5283317 0.00082973693
-0.041434996 0.015550353 -0.0077027366 -0.4313944 -0.70011055 -0.5689851 0.0012130254
-0.048818693 0.020581191 -0.0074856919 -0.50666618 -0.68106896 -0.52861565 0.0011223844
-0.046617534 0.019332239 -0.0079940492 -0.49711114 -0.68997777 -0.52612853 0.00095555227
-0.044490796 0.018227784 -0.008613185 -0.5113582 -0.69387347 -0.50700337 0.0023775527
-0.054119542 0.023653444 -0.0060250075 -0.56712896 -0.74188381 -0.35773349 0.0031402898
-0.052652698 0.023465851 -0.0074321628 -0.53475273 -0.67181921 -0.51254117 0.00094826607
-0.05010448 0.021710763 -0.0077519775 -0.5101195 -0.67985374 -0.52685577 0.00093520217
-0.057242692 0.026405681 -0.0062618284 -0.59366351 -0.67195314 -0.44276711 0.0007208946
-0.055157799 0.0258155 -0.0078538982 -0.55535477 -0.65061373 -0.51796031 0.0010679311
-0.0533842 0.024525395 -0.0081569897 -0.53145754 -0.65372932 -0.53869373 0.0011937424
-0.060523681 0.029706612 -0.0063017989 -0.65832573 -0.60520792 -0.44758302 0.0011698625
-0.058485854 0.028579099 -0.007558974 -0.62709874 -0.59691852 -0.50043523 0.0016137123
-0.056619525 0.02757596 -0.0085096369 -0.58185965 -0.60579187 -0.54263759 0.0016929897
-0.00018710982 0.029889831 -0.0089801364 0.069183603 0.77299184 -0.6306324 0.0013655167
0.0020873467 0.029918203 -0.0088686235 0.039700534 0.79531902 -0.60488975 0.0012412058
0.0044174264 0.029905422 -0.0088430382 0.0015564442 0.8015765 -0.59789026 0.0014424531
0.0072018928 0.029901788 -0.0088783065 -0.040930219 0.80263799 -0.59506047 0.0012663964
0.0093517052 0.029883357 -0.0089535313 -0.072257847 0.78781646 -0.61165684 0.00098817272
-0.063095525 0.032512195 -0.006243689 -0.68192112 -0.53283852 -0.50106567 0.0012807911
-0.061513428 0.031928625 -0.0076380512 -0.63316381 -0.48443189 -0.60367984 0.0018321909
-0.059397366 0.03040953 -0.0084661823 -0.60398823 -0.55404007 -0.57292044 0.0021091399
-0.015257591 0.032966208 -0.0087947892 0.24796113 0.77667171 -0.5790478 0.0016478559
-0.013095397 0.032624267 -0.0084778406 0.22381593 0.81153423 -0.53973949 0.0016140037
-0.010358534 0.032343023 -0.0078554107 0.1966808 0.8475529 -0.49292058 0.0018097128
-0.0074981754 0.031923775 -0.0075259465 0.16273706 0.86374199 -0.47693434 0.0015908779
-0.0044843187 0.031455114 -0.0075172572 0.12301244 0.86590296 -0.48485047 0.0028241747
-0.0014538881 0.031091891 -0.007494275 0.088452101 0.86675429 -0.49082908 0.0021301559
0.0015709302 0.030895874 -0.0074746669 0.042853158 0.86761159 -0.4953925 0.002179994
0.0044974503 0.0308399 -0.0074306671 0.0045430958 0.87006408 -0.4929176 0.0022119414
0.007568147 0.030869843 -0.0074405125 -0.036078826 0.87506121 -0.48266563 0.0021765353
0.010515301 0.031039996 -0.007524611 -0.085777745 0.87493145 -0.47658899 0.0018995324
0.013512467 0.031376086 -0.0075265616 -0.13123327 0.87315333 -0.46944776 0.0027111236
0.016481571 0.031894453 -0.0075699599 -0.1883536 0.86932892 -0.45693547 0.0017536394
0.019258032 0.032367881 -0.0079050958 -0.22424607 0.85053396 -0.47571591 0.0017489229
0.021796435 0.032694463 -0.0085979449 -0.24582803 0.80869097 -0.53440392 0.0012607902
-0.06383758 0.034763798 -0.00742226 -0.66318232 -0.45279619 -0.59595704 0.0016292083
-0.06230979 0.034026828 -0.0086291786 -0.63180703 -0.4261243 -0.64748585 0.0021809323
-0.024305595 0.035986114 -0.0087269358 0.33422691 0.79824382 -0.5010981 0.001557985
-0.022072984 0.035592116 -0.0083968733 0.31133613 0.811198 -0.49500272 0.0016649734
-0.019453017 0.035088636 -0.0076115904 0.29668766 0.84001642 -0.45425636 0.0017206508
-0.016497029 0.0341735 -0.0075167688 0.24947265 0.84286863 -0.47679752 0.0017106589
-0.013661269 0.033613138 -0.0071092281 0.23045039 0.85416102 -0.46615613 0.0017086837
-0.011019283 0.033221401 -0.0064775054 0.20378065 0.86626333 -0.45613727 0.0016154725
0.020041326 0.033284176 -0.0066468487 -0.23206916 0.86977148 -0.43547839 0.0017152489
0.022644171 0.033707004 -0.0072943256 -0.24300222 0.8607778 -0.44722643 0.0019218418
0.025502959 0.034398478 -0.007535337 -0.25757003 0.85254699 -0.45477614 0.0019047725
0.028355787 0.035198644 -0.0076788273 -0.29223177 0.85236275 -0.43368009 0.0014600577
0.030836372 0.0356603 -0.0084157158 -0.31628826 0.80798137 -0.49711946 0.0011331564
0.033091385 0.035983957 -0.0087261451 -0.34631735 0.78299958 -0.51669711 0.0035067205
-0.066476919 0.038050823 -0.0068196589 -0.69939172 -0.40476096 -0.58908391 0.0021297839
-0.065119915 0.037415627 -0.0079917675 -0.68103373 -0.3908976 -0.61918664 0.0030449184
-0.030320993 0.038893946 -0.0087179756 0.37479892 0.77175647 -0.51372927 0.0015285667
-0.028113872 0.038380373 -0.0079607135 0.36895984 0.81076545 -0.45445356 0.0015609753
-0.025436014 0.03743805 -0.0075460603 0.34552333 0.81942141 -0.45734262 0.0020264513
-0.022743164 0.036615673 -0.0070967167 0.32624406 0.83148253 -0.44966838 0.0014938711
-0.020565778 0.036131825 -0.0062863249 0.31514958 0.84539139 -0.43127024 0.0011637161
0.029417424 0.036196217 -0.0064751278 -0.30246419 0.86320299 -0.40422276 0.0015772693
0.031708676 0.036665965 -0.007160347 -0.32313916 0.84240699 -0.43119767 0.001890718
0.034476418 0.037646819 -0.0075196009 -0.37367472 0.81589848 -0.44122216 0.0024669669
0.036984887 0.038476732 -0.0081211338 -0.40530765 0.78670424 -0.46564156 0.0021352388
0.039041281 0.038922243 -0.0088507123 -0.41341946 0.73800534 -0.53332204 0.0019637207
0.068777025 0.037777793 -0.0078485431 0.65446621 -0.076176494 -0.75224406 0.0011195436
-0.067346573 0.040731553 -0.0074289707 -0.70796925 -0.31859744 -0.63029766 0.0025654526
-0.065727994 0.039796181 -0.0086470554 -0.65795392 -0.27032942 -0.70286459 0.0028704987
-0.036388755 0.04186042 -0.0087140882 0.38631371 0.75707775 -0.52687281 0.0013217357
-0.034203932 0.041314743 -0.0078673949 0.39841515 0.79516631 -0.45713881 0.0016511948
-0.031546094 0.040254138 -0.0074676112 0.3735697 0.80909014 -0.45367259 0.0018001907
-0.029085666 0.0394345 -0.0068357424 0.37825972 0.81854993 -0.43231416 0.0013719199
0.035777763 0.039071012 -0.0061496757 -0.42794508 0.82810557 -0.36208305 0.0023657845
0.037900332 0.039622325 -0.0070021283 -0.42778492 0.79260749 -0.43448076 0.0018271835
0.040415455 0.040737789 -0.0075684772 -0.45003474 0.77513313 -0.44343817 0.0018064588
0.042674679 0.041594859 -0.0083277561 -0.44584942 0.73424494 -0.51195949 0.0017891638
0.06852179 0.040505894 -0.008515683 0.64331281 -0.023768328 -0.76523447 0.001541413
0.069570594 0.041299567 -0.0075503602 0.67342079 0.0033272442 -0.73925191 0.0011058608
-0.069424763 0.044014316 -0.0064404686 -0.72758228 -0.23696254 -0.64379567 0.0021695688
-0.067664646 0.043521442 -0.0080662938 -0.65298134 -0.14806175 -0.74276048 0.0032440955
-0.042217825 0.044863045 -0.0086318729 0.39260766 0.75722909 -0.52198011 0.001834066
-0.040209565 0.044332448 -0.0079287244 0.40673232 0.77683628 -0.48072249 0.0021704575
-0.037577759 0.043267418 -0.0074573336 0.39602563 0.78897178 -0.46977347 0.001734412
-0.035218254 0.042457189 -0.0067748665 0.40824693 0.80338645 -0.43347979 0.0012585358
0.041619256 0.042208556 -0.0063835159 -0.47036237 0.77115661 -0.42904162 0.0011258186
0.043707788 0.042922068 -0.0072415839 -0.46146572 0.75264293 -0.46965727 0.0020656381
0.046253804 0.04410613 -0.0077904756 -0.43669939 0.74265581 -0.50769675 0.0021613806
0.048529681 0.044745881 -0.0087077012 -0.40280199 0.68863374 -0.60293782 0.0013412437
0.068247065 0.043644316 -0.0088309031 0.62916875 0.054261237 -0.77537239 0.0018453654
0.069567695 0.043600991 -0.007572744 0.68209612 0.052126899 -0.7294023 0.0014516972
-0.069772542 0.046717882 -0.0068014581 -0.67192441 -0.10271667 -0.73346215 0.0040493668
-0.067933068 0.046546403 -0.008312176 -0.57181054 -0.028164517 -0.81990206 0.002999197
-0.048392192 0.047838274 -0.0088088932 0.3242242 0.69759834 -0.63893288 0.0015490041
-0.046151284 0.047348704 -0.0080261482 0.3688713 0.75779933 -0.53821379 0.0027764337
-0.043503229 0.04637048 -0.0074435533 0.39640218 0.78216034 -0.4807187 0.0019260775
-0.041110728 0.045495711 -0.0068476666 0.42389092 0.78776145 -0.44693229 0.0015269914
0.047238588 0.045459539 -0.0066436096 -0.46842706 0.74584526 -0.47359353 0.0021350787
0.049585033 0.046348188 -0.0073945089 -0.41532615 0.74245137 -0.52561396 0.0017655957
0.052133709 0.047235485 -0.0081389053 -0.36916226 0.69402677 -0.6180988 0.0020444437
0.054343894 0.047828682 -0.0087903924 -0.32545549 0.66813129 -0.66908842 0.0024481851
0.06822136 0.046926916 -0.0085174898 0.50276941 0.18129107 -0.84519613 0.0033896423
0.069603719 0.046868745 -0.0073345383 0.58542281 0.1527835 -0.79620183 0.0026642636
-0.069979936 0.049547996 -0.006843247 -0.60256135 0.003312035 -0.79806572 0.0072094253
-0.067581527 0.049801242 -0.0084252236 -0.40726987 0.16857411 -0.89761573 0.0055333893
-0.065775424 0.050742902 -0.0088855429 -0.23822847 0.27707717 -0.93084663 0.0076018376
-0.057893317 0.050921619 -0.0088300835 0.094677947 0.63678879 -0.76520342 0.0049170419
-0.054934993 0.050678924 -0.0087163812 0.20533893 0.67436236 -0.70927519 0.001904235
-0.05227505 0.050162937 -0.0080866041 0.2935915 0.73651963 -0.60937905 0.0025860737
-0.049579993 0.049417235 -0.0074777915 0.34879079 0.76800311 -0.53713703 0.0017361698
-0.046951495 0.048573054 -0.0068112211 0.39845538 0.7743727 -0.49150807 0.0018653247
0.0509133 0.048193179 -0.0061222655 -0.4556607 0.72091347 -0.52216583 0.0020528818
0.052870926 0.04871906 -0.0068626944 -0.42641273 0.72381753 -0.5424577 0.0023169096
0.055432737 0.049587566 -0.0075423587 -0.34956816 0.6987316 -0.62416035 0.0024748317
0.058201041 0.050233457 -0.0082593588 -0.27736259 0.65353835 -0.70424259 0.0033452262
0.061105624 0.050655756 -0.0087737674 -0.15720296 0.57532251 -0.80267751 0.0039494969
0.065268479 0.050704494 -0.0088786446 0.040105458 0.43092135 -0.90149778 0.0072733429
0.067199305 0.049684837 -0.0085980333 0.26479444 0.31697184 -0.910721 0.0044307867
0.06974142 0.048957691 -0.0069405213 0.56708342 0.16631354 -0.80669463 0.0054941424
-0.070076063 0.052646987 -0.0067127673 -0.44805729 0.14805564 -0.88165987 0.0093835238
-0.067394145 0.052494548 -0.0078654932 -0.22496086 0.33496341 -0.91498208 0.012318512
-0.064524151 0.05269793 -0.0081948275 -0.059720092 0.48642668 -0.87167805 0.0096123377
-0.061469924 0.052783068 -0.0080084652 0.093834437 0.61437458 -0.78341502 0.0038487345
-0.058492791 0.052599933 -0.007588156 0.17585693 0.71819001 -0.67325878 0.0032761181
-0.055622183 0.052028477 -0.0073657255 0.248935 0.76008219 -0.60025525 0.0028329638
-0.052974191 0.051525734 -0.0067630871 0.34248391 0.77260691 -0.53458703 0.0017057029
-0.050917245 0.051047947 -0.0060554813 0.36318752 0.78318572 -0.50469291 0.0011869022
0.056529414 0.051299486 -0.0062926486 -0.43052828 0.70938301 -0.55805117 0.0027647333
0.058669899 0.051864687 -0.0068717753 -0.35518312 0.67988795 -0.64155847 0.0036862064
0.061384931 0.052547883 -0.0074453373 -0.26136255 0.60729629 -0.7502538 0.0036636365
0.064241283 0.052684098 -0.0079693934 -0.084899873 0.49496654 -0.86475444 0.0055847247
0.067095958 0.052701011 -0.0076271063 0.11799666 0.39593109 -0.91066754 0.0062146937
0.069383532 0.052898142 -0.0064609442 0.43229312 0.25006631 -0.86636567 0.0066990978
-0.069908865 0.055197716 -0.0063334242 -0.28991622 0.32483897 -0.90023792 0.012571978
-0.067490727 0.05531247 -0.0067023202 -0.064112879 0.45923847 -0.88599634 0.0098768501
-0.064543992 0.054984346 -0.0067240428 0.10465787 0.59315419 -0.79825735 0.0098957336
-0.061687056 0.054484833 -0.0064925696 0.19718525 0.68689412 -0.69949591 0.0059287697
-0.059503369 0.054113012 -0.0061829709 0.2531912 0.74510133 -0.61702371 0.0027804561
0.062293336 0.054342702 -0.006364387 -0.34346238 0.62993026 -0.69657844 0.0062037255
0.06455376 0.055101927 -0.0065790471 -0.23660444 0.53921223 -0.80825031 0.0088660875
0.067115508 0.055634584 -0.0065668942 -0.088303678 0.43210658 -0.89748889 0.013362211
0.069344334 0.054397255 -0.006373879 0.13902356 0.34761646 -0.92727298 0.0066085462
-0.068423048 0.057050377 -0.0060013342 -0.055385955 0.5428021 -0.83803242 0.010291739
0.067420542 0.057276938 -0.0060586785 -0.23176515 0.36687806 -0.90093583 0.011467137
-0.01293305 0.0027984511 -0.0047291517 -0.17456746 -0.85563117 -0.48725924 0.00062353775
-0.0062012421 0.0020229316 -0.0055852686 -0.13200998 -0.84509349 -0.51806402 0.0013801851
-0.022533903 0.0055285431 -0.004215789 -0.323643 -0.84970248 -0.41624621 0.0013738356
-0.019738365 0.0050081415 -0.005581887 -0.31494975 -0.8502937 -0.42167202 0.0017354487
-0.016445206 0.0039858255 -0.0053774123 -0.21936901 -0.85241026 -0.47463045 0.00039497481
-0.014276323 0.0032977818 -0.0051774066 -0.21732917 -0.84876019 -0.48205209 0.00033631842
-0.028187457 0.0077224593 -0.0043262569 -0.35894877 -0.86581451 -0.34859881 0.0019938042
-0.025859814 0.0073473938 -0.0057163127 -0.3360444 -0.86288965 -0.3774859 0.00084135617
-0.037592299 0.011657352 -0.0035513027 -0.4447996 -0.84373719 -0.30043441 0.0019438497
-0.035309073 0.010923668 -0.0048884852 -0.40266365 -0.85412073 -0.32915014 0.0020588797
-0.031614393 0.0093248701 -0.0047742412 -0.36123866 -0.87118232 -0.33248776 0.0014960547
-0.042736463 0.014426306 -0.0035314956 -0.48773807 -0.81899387 -0.30225933 0.0017687868
-0.040422227 0.013572514 -0.0048408271 -0.46567839 -0.82706326 -0.3148174 0.0016830213
-0.037465382 0.012239625 -0.0054282793 -0.43318403 -0.84237874 -0.32054606 0.0015693353
-0.046158381 0.017136427 -0.004581565 -0.53673255 -0.79098696 -0.29369691 0.0017901871
-0.043924574 0.015655728 -0.0047547761 -0.5253824 -0.79582655 -0.30105385 0.0018440064
-0.051172376 0.020521512 -0.0039340272 -0.57735586 -0.76679295 -0.28051534 0.0014560985
-0.04999258 0.019979639 -0.0048314082 -0.54417276 -0.73762369 -0.39973402 0.001199363
-0.047651034 0.018388363 -0.0051999679 -0.54830676 -0.78524631 -0.28765953 0.001799603
-0.054599524 0.023268575 -0.0043093842 -0.59736419 -0.73934197 -0.31069198 0.0026630906
-0.053334162 0.022620056 -0.005086429 -0.56652385 -0.72538805 -0.39097682 0.0015926394
-0.058265209 0.026498441 -0.0047181901 -0.62934303 -0.6794275 -0.37723404 0.0021031906
-0.056163855 0.024941202 -0.0051125237 -0.60174817 -0.7066226 -0.37226817 0.00099992077
-0.061044358 0.029172316 -0.0044542281 -0.68034118 -0.63138127 -0.3721472 0.0014304458
-0.059485018 0.027829321 -0.0049949563 -0.65048909 -0.64204264 -0.40576488 0.0012452401
-0.063740492 0.032158546 -0.0044534365 -0.71018147 -0.54098445 -0.45053095 0.0029834153
-0.062239736 0.030724943 -0.0048939777 -0.69718295 -0.59542531 -0.39925519 0.0014754072
-0.007007617 0.032806423 -0.0055102487 0.163112 0.92640382 -0.33936775 0.0025324
-0.0043605096 0.032606177 -0.0050444426 0.13748765 0.92959476 -0.34198049 0.0022635795
-0.0014688893 0.032433458 -0.004553501 0.10588701 0.94323105 -0.3148064 0.0027946357
0.0014776052 0.032213368 -0.0045381715 0.055712406 0.94928914 -0.3094289 0.0027219786
0.0045338939 0.032076541 -0.0046615605 0.0069583552 0.94352973 -0.33121485 0.0028209193
0.0075278911 0.032139551 -0.0045549343 -0.031792764 0.94915599 -0.31319675 0.0027146842
0.010500174 0.032344807 -0.0045434139 -0.10398876 0.94834828 -0.29970285 0.0029311914
0.013326597 0.032564454 -0.0047779256 -0.15378441 0.93636388 -0.31555209 0.0024287747
0.016106986 0.032782897 -0.0055045891 -0.19267401 0.92571622 -0.32546318 0.0027042823
0.018049436 0.032922372 -0.0055623832 -0.19774812 0.92637652 -0.32050321 0.0031390944
-0.066495515 0.035393335 -0.0039986284 -0.76357931 -0.53179437 -0.36625317 0.0023576303
-0.06496679 0.034176506 -0.005101053 -0.72170776 -0.55379218 -0.41527352 0.0025383972
-0.018630644 0.035770915 -0.0055549978 0.30895609 0.89527225 -0.32098863 0.0027925698
-0.016327292 0.035445735 -0.004703104 0.28940317 0.90930617 -0.29901183 0.0023635065
-0.01348182 0.034664579 -0.0045423191 0.25848037 0.91622406 -0.30613953 0.0024524794
-0.010452452 0.033883449 -0.0044965097 0.20461653 0.93274897 -0.29683563 0.0023335614
-0.007620078 0.033422846 -0.0042157681 0.15970014 0.94431955 -0.2876741 0.0023806985
-0.0047699008 0.033170655 -0.0036452711 0.13086589 0.95627016 -0.2615751 0.0017693938
-0.0027523406 0.033003967 -0.0032835682 0.10374302 0.9754352 -0.19432853 0.0020624246
0.014227387 0.033130843 -0.0035764526 -0.14130694 0.95394862 -0.26460224 0.0023345735
0.016662801 0.033383392 -0.0041169347 -0.1904362 0.94201064 -0.27631518 0.0024759907
0.0194938 0.033930782 -0.004535899 -0.23194398 0.92969751 -0.28611961 0.0023216852
0.022484586 0.0347731 -0.0045343428 -0.26967371 0.92222488 -0.27708709 0.0015865368
0.025275538 0.035502996 -0.0047317031 -0.28661457 0.91534156 -0.28284612 0.0020990048
0.02744996 0.035842445 -0.0055735447 -0.2920562 0.90687782 -0.30376923 0.0023610101
-0.067680828 0.037846599 -0.0047384799 -0.77328914 -0.46044347 -0.43590793 0.0030968019
-0.065886095 0.036167346 -0.0059448266 -0.70894551 -0.45598 -0.53803211 0.0032587764
-0.027199226 0.038913351 -0.0056066695 0.37292311 0.86464339 -0.33663064 0.0026051593
-0.025109055 0.038528338 -0.0049241264 0.37165615 0.87920588 -0.29810849 0.0022250914
-0.022487419 0.037572287 -0.0045968737 0.3542127 0.88234818 -0.30983067 0.002593332
-0.019608583 0.036565714 -0.0043259235 0.30435735 0.9087556 -0.28553441 0.0028944903
-0.017480237 0.036146991 -0.0037060389 0.27298599 0.92220074 -0.27390602 0.0024143048
0.026353111 0.036179561 -0.0036312218 -0.2800779 0.92544705 -0.25515527 0.0019133812
0.028586889 0.036657151 -0.0043886504 -0.30340797 0.91219789 -0.27538827 0.0023201739
0.031494785 0.037654843 -0.0044714552 -0.35788071 0.8925761 -0.27427965 0.0022289248
0.033913601 0.038563136 -0.0048528877 -0.40574625 0.86732209 -0.28830945 0.0025151947
-0.069677569 0.041086219 -0.0044186045 -0.80552453 -0.37282494 -0.46057761 0.004625815
-0.068677649 0.040338092 -0.0055666072 -0.7886011 -0.37381914 -0.48822898 0.0041600429
-0.03331637 0.041909005 -0.0057212347 0.42325351 0.83773512 -0.34504536 0.0024579796
-0.031290077 0.041355427 -0.0047557685 0.42321238 0.85536844 -0.29872409 0.0020870916
-0.028479684 0.040097639 -0.0045107678 0.38421389 0.87666452 -0.28954944 0.0023375757
-0.026214976 0.039315097 -0.0040578293 0.36378688 0.8885352 -0.2795788 0.0022657777
0.035109397 0.039390251 -0.0040791621 -0.40373865 0.87016004 -0.28251839 0.0022716059
0.037525918 0.040495981 -0.0044744578 -0.45510042 0.84287441 -0.28713456 0.0028979171
0.03967924 0.041613508 -0.0049046441 -0.50085872 0.8194595 -0.27861556 0.0023565858
-0.070444688 0.043470483 -0.0046894443 -0.81666422 -0.30170181 -0.49197102 0.0041367034
-0.039230023 0.044907615 -0.0057388004 0.44657475 0.8200714 -0.3578462 0.0039569912
-0.037223544 0.044351775 -0.0047531263 0.44595855 0.84304047 -0.30067214 0.0020999713
-0.034539141 0.043084953 -0.0045027602 0.42258754 0.85481167 -0.30119237 0.0021223212
-0.032427821 0.042277299 -0.0038164607 0.4208594 0.86142331 -0.28430119 0.0022196523
0.040977258 0.042645346 -0.0042542024 -0.4997699 0.81827545 -0.2839987 0.0021768494
0.043340277 0.044019695 -0.0045892731 -0.50926685 0.80650878 -0.30031809 0.002727665
0.045240279 0.044803225 -0.0056034978 -0.49575403 0.78712755 -0.36695808 0.0035673417
0.070887372 0.044557467 -0.0059075435 0.74548894 0.056710999 -0.66410106 0.0015972066
-0.072261401 0.047002632 -0.0036092438 -0.83710337 -0.28222167 -0.46862444 0.0034596794
-0.071259126 0.0463854 -0.0049209488 -0.82130718 -0.23104471 -0.52160591 0.0062001199
-0.043018568 0.047490835 -0.0047639902 0.45090774 0.82849139 -0.33209071 0.002509801
-0.040520474 0.046235681 -0.0044927206 0.44934103 0.83508784 -0.31736565 0.0022920086
-0.038402762 0.045325652 -0.0038349957 0.44217637 0.84488755 -0.30107319 0.0023132218
0.04460543 0.045233209 -0.0035745956 -0.51334673 0.80986768 -0.28388283 0.0022844488
0.046544757 0.046150625 -0.0044290298 -0.51489866 0.79472148 -0.32139856 0.0029276712
0.048858847 0.047452059 -0.0048728134 -0.50739628 0.7886613 -0.34722093 0.0034526961
0.07135427 0.047055516 -0.0052071214 0.69065672 0.11339679 -0.71423697 0.0026071938
-0.072690964 0.049597461 -0.0040181209 -0.77875209 -0.2258894 -0.58525139 0.0062339976
-0.071414821 0.049607377 -0.0055609262 -0.70729148 -0.079705492 -0.70241427 0.0061920672
-0.051130023 0.05097308 -0.0058940682 0.40742308 0.75137383 -0.51907974 0.0039414722
-0.048915934 0.050564587 -0.0050138775 0.42749813 0.82614213 -0.36706206 0.0033061979
-0.046500754 0.049501263 -0.0045078839 0.4414672 0.82421577 -0.35464779 0.0024460887
-0.044254869 0.048473272 -0.0040159966 0.43772087 0.83308583 -0.33818412 0.0021666884
0.05010679 0.048580859 -0.0041359756 -0.50209302 0.7879529 -0.3564167 0.0025706885
0.052402336 0.049846649 -0.0045747044 -0.49768701 0.78772271 -0.36304349 0.003031201
0.054517139 0.050693665 -0.0054354849 -0.47411215 0.75966823 -0.44510889 0.0049138037
0.071063869 0.049819045 -0.0053547518 0.64875531 0.12953947 -0.74989069 0.0058117392
0.072318316 0.048404627 -0.0034042699 0.75247037 0.06961415 -0.65493679 0.001115575
-0.073163219 0.052703831 -0.0044536577 -0.69832206 -0.14454584 -0.70103693 0.0062864935
-0.071589798 0.052319352 -0.0056843692 -0.56480581 -0.00057460018 -0.82522362 0.0074887476
-0.057527855 0.053804684 -0.0057465015 0.26970968 0.78767514 -0.55391747 0.004395755
-0.055222068 0.053464543 -0.0048963134 0.3239044 0.85386997 -0.40742102 0.0035990856
-0.052561942 0.052571081 -0.0045954129 0.36044383 0.84304285 -0.39919785 0.0029911816
-0.050066467 0.051527489 -0.0041547166 0.41913858 0.83588731 -0.35442254 0.0029904202
0.053684786 0.051193058 -0.0034399293 -0.49299586 0.79322684 -0.35741609 0.0021870469
0.055672467 0.051994186 -0.004330833 -0.46866712 0.78981584 -0.39565384 0.0037461084
0.05814847 0.053190898 -0.0048452476 -0.47060981 0.75155729 -0.46226409 0.0055446494
0.06027614 0.053814065 -0.0057691159 -0.40026167 0.68493652 -0.60881251 0.0048610237
0.070861369 0.052687176 -0.0052451519 0.56962228 0.18909524 -0.79985839 0.0066127311
0.072131008 0.053037427 -0.0037302654 0.6494804 0.10402391 -0.7532292 0.004088216
-0.075163186 0.055931929 -0.0032587308 -0.85592639 0.27494556 -0.43794405 0.038473003
-0.073752172 0.055796288 -0.004418693 -0.63238961 0.31648564 -0.70705032 0.029450579
-0.070999339 0.056039713 -0.0057758577 -0.3416014 0.24541332 -0.90723801 0.013065882
-0.067123458 0.056769345 -0.0058616642 0.037794758 0.54912847 -0.83488292 0.0070017492
-0.064241573 0.056436017 -0.0054713925 0.2257508 0.65614033 -0.72008085 0.0059870109
-0.061418787 0.05586268 -0.0046712416 0.32412973 0.78014964 -0.5350762 0.0079039847
-0.058611713 0.054893158 -0.0044623381 0.28399062 0.83570361 -0.47005194 0.0037113279
-0.056110166 0.054321922 -0.0037793533 0.32931328 0.87368387 -0.35809124 0.0027816491
0.059192527 0.054553881 -0.0038341151 -0.50293326 0.73329198 -0.45753792 0.0049927495
0.061463755 0.055546056 -0.0045677312 -0.43430573 0.69954979 -0.56745797 0.006637786
0.063990802 0.056344602 -0.0055050985 -0.34174153 0.55968094 -0.75496352 0.0081318012
0.067231596 0.056761328 -0.0059165494 0.029310066 0.34768674 -0.9371525 0.020198591
0.070543386 0.055791777 -0.0051137772 0.39075828 0.20269193 -0.89789975 0.010840106
0.072220437 0.055135287 -0.0033420315 0.55885667 0.15733095 -0.81420285 0.011545611
-0.07312502 0.057961043 -0.0039696787 -0.52639151 0.67455471 -0.5175789 0.018832456
-0.070563383 0.058807861 -0.0044709025 -0.23299919 0.69466758 -0.68055004 0.02635736
-0.067512266 0.058529951 -0.0046107392 0.15301268 0.68836468 -0.70904249 0.0098573416
-0.064715378 0.057989951 -0.0040704319 0.34941736 0.7278173 -0.59007591 0.0066322922
-0.062465731 0.057293329 -0.0034067265 0.41499576 0.74934876 -0.51599902 0.005314982
0.062560454 0.057367291 -0.0034183383 -0.51986229 0.63119197 -0.57562131 0.009581048
0.06451311 0.058366235 -0.0042822608 -0.53357297 0.50046283 -0.68178934 0.016037924
0.067112498 0.058794018 -0.0053337864 -0.28195938 0.38657704 -0.87809861 0.013709947
0.069684766 0.058085106 -0.0053271744 -0.018859528 0.27647719 -0.9608354 0.014225557
0.072371617 0.059374772 -0.0033076296 0.27917677 0.1607237 -0.9466933 0.012110575
-0.069427155 0.060100742 -0.0032351497 -0.12237799 0.89627695 -0.42627603 0.025651339
-0.068229415 0.060137961 -0.0032534525 0.05152775 0.86877596 -0.49251723 0.031693887
0.065419264 0.061063573 -0.0034770148 -0.59318662 0.32545638 -0.73634756 0.013537787
0.067180634 0.061571985 -0.0043773265 -0.50428849 0.29549429 -0.81140375 0.016832562
0.069898196 0.061541498 -0.0046844967 -0.20688653 0.21865718 -0.95361787 0.012147795
0.072343655 0.061876673 -0.0033706706 0.21820961 0.069633462 -0.97341448 0.01869054
0.065843351 0.063337915 -0.0031676393 -0.81666291 0.26985931 -0.51013488 0.032083672
0.067395993 0.064454757 -0.0037543029 -0.57625759 0.20318657 -0.7916075 0.014417772
0.069938831 0.064377137 -0.0044190548 -0.36642486 0.15660575 -0.91717356 0.017126616
0.072317101 0.06501811 -0.0035623664 0.065266386 0.0015431598 -0.99786663 0.017224342
0.067875691 0.067490406 -0.003601515 -0.6604805 0.14497946 -0.73671329 0.013213237
0.070030533 0.06767974 -0.004359168 -0.46412572 0.11709242 -0.87799579 0.01475475
0.072637163 0.067778274 -0.0037984019 0.027873045 -0.050695267 -0.99832511 0.017737707
0.06827765 0.070481025 -0.0034525499 -0.73050517 0.11965213 -0.67234331 0.026117368
0.070063315 0.070559129 -0.0043094587 -0.51369411 0.067912333 -0.85528141 0.019160949
0.072692215 0.070862286 -0.0043367366 -0.041968454 -0.0042709135 -0.9991098 0.020653671
0.068472005 0.073461771 -0.0033668156 -0.76072252 0.206789 -0.61525571 0.036509812
0.069984436 0.073613621 -0.0044145673 -0.47600198 0.16003016 -0.86476153 0.039227415
0.073004551 0.074077457 -0.0049711289 0.099026069 0.33082673 -0.93848151 0.07336016
0.075547338 0.074636847 -0.003768496 -0.75916445 0.54771042 0.35168543 0.088624179
0.068697482 0.075891085 -0.0032957681 -0.58303434 0.58560449 -0.56315029 0.071686707
0.07035622 0.0761033 -0.0041422867 -0.3425504 0.64708483 -0.68113172 0.083255954
0.073219307 0.075723246 -0.0041942704 0.12933934 0.76011956 -0.63678062 0.06303373
0.075384721 0.075172432 -0.0032593422 0.049539227 0.98232424 -0.18051316 0.069152385
-0.023984415 0.005611836 -0.0026794763 -0.34197271 -0.90217996 -0.26291832 0.0031932152
-0.031946693 0.00867821 -0.00145312 -0.3778972 -0.89978826 -0.21811654 0.00039867772
-0.029180337 0.0076601552 -0.0027449769 -0.34456387 -0.90944541 -0.23277639 0.00090962346
-0.037555881 0.011306897 -0.002025685 -0.4316496 -0.86970377 -0.23936166 0.00063940015
-0.0359811 0.010447033 -0.0018725271 -0.40959221 -0.8820622 -0.23280992 0.00051276485
-0.032959625 0.0093022706 -0.0029062962 -0.39455959 -0.88426822 -0.24978484 0.00095453806
-0.04323557 0.014342146 -0.0015038195 -0.5020678 -0.83083045 -0.24010144 0.001843966
-0.040378794 0.012734421 -0.0014773265 -0.46714815 -0.85478306 -0.22609413 0.00052904786
-0.048198916 0.017814921 -0.0018443419 -0.56435484 -0.79287851 -0.22988567 0.00075979286
-0.046709012 0.016749123 -0.0015197055 -0.55303693 -0.79287386 -0.255932 0.00085778406
-0.044681698 0.015344311 -0.0016756371 -0.55803704 -0.79264683 -0.24557233 0.00085339061
-0.051691342 0.020389229 -0.0017071905 -0.59322637 -0.77834153 -0.20558915 0.0008021543
-0.049666975 0.018855322 -0.0015519439 -0.57105672 -0.78734988 -0.23232391 0.00079875649
-0.055230826 0.023077404 -0.0015444336 -0.60776597 -0.76819056 -0.20125587 0.00042501668
-0.053058185 0.021400657 -0.0016394502 -0.59680426 -0.77458864 -0.20937318 0.00073260296
-0.058672011 0.025902275 -0.0014370084 -0.65459669 -0.72522181 -0.21343963 0.00056089787
-0.056855168 0.024440549 -0.0017912434 -0.62234974 -0.75234807 -0.21599349 0.00061587838
-0.061416581 0.028714743 -0.0020947328 -0.71399462 -0.66590548 -0.21629031 0.0020838741
-0.06455297 0.032031264 -0.0015311643 -0.76616317 -0.6252439 -0.14853962 0.0017325684
-0.062960796 0.030263888 -0.0020103964 -0.73365974 -0.66051549 -0.15957004 0.00098324567
-0.00097587053 0.032916836 -0.0024949645 0.10761729 0.98282892 -0.1498858 0.0016014021
0.0016717087 0.03281929 -0.0017958676 0.074943334 0.98977935 -0.12132778 0.0025309962
0.0044975053 0.032763582 -0.0015658125 0.025479227 0.99264008 -0.11839097 0.0022559403
0.0075552966 0.032766651 -0.0017046778 -0.043485157 0.99126089 -0.12454277 0.0029819577
0.010253762 0.032879755 -0.002136027 -0.093181118 0.98577571 -0.13986951 0.0019603644
0.012371687 0.032957252 -0.0026272228 -0.11079916 0.98489213 -0.13308299 0.0023843655
-0.066901021 0.034996916 -0.0016203412 -0.80536526 -0.57371116 -0.14913829 0.0030307181
-0.065798715 0.033655427 -0.0021441204 -0.78815329 -0.59600693 -0.15359065 0.0024016569
-0.01550163 0.035849206 -0.0018770855 0.30193511 0.94805908 -0.10009575 0.0021994861
-0.013515395 0.035317671 -0.0015153713 0.26997775 0.95623302 -0.11282922 0.0021387869
-0.01047511 0.034518097 -0.0014659407 0.22292355 0.9634282 -0.14869826 0.0028795486
-0.0075070579 0.033923931 -0.0015320439 0.16514105 0.97665691 -0.13736726 0.0023513793
-0.0045046378 0.033466879 -0.0015091493 0.12483697 0.98416167 -0.12586328 0.0019556088
-0.0017091617 0.033171181 -0.0011593741 0.088890836 0.99057299 -0.10422883 0.0026457249
0.00080687413 0.033069827 -0.00053187035 0.050524399 0.9977532 -0.043997727 0.0032223046
0.0037227899 0.033013638 -0.00017264909 0.020149358 0.99970609 -0.013480513 0.0010798381
0.0086576464 0.03303647 -0.00027690962 -0.033442911 0.99906141 -0.027529277 0.0020585328
0.01087994 0.033101566 -0.00081621832 -0.076155819 0.99593472 -0.048106782 0.0026954815
0.013594213 0.033330716 -0.0014657128 -0.13223219 0.98456627 -0.1146471 0.0023570077
0.016524738 0.033832602 -0.001511646 -0.19265333 0.97398287 -0.11934047 0.0027538713
0.019498629 0.034527402 -0.0015282538 -0.25569302 0.961492 -0.10076807 0.0016361728
0.022498088 0.035350323 -0.0015469209 -0.27230859 0.95790905 -0.090875313 0.0017114145
0.024452856 0.035854537 -0.0020258233 -0.30588374 0.94735932 -0.09457992 0.0020647626
-0.069239005 0.038609646 -0.0019565276 -0.84312409 -0.47414804 -0.25362459 0.0032457979
-0.068152688 0.036967594 -0.0021341732 -0.81521308 -0.4999719 -0.29232803 0.0030936413
-0.024295153 0.038891122 -0.0021107285 0.39683983 0.90983534 -0.12131678 0.0020600813
-0.022501888 0.038234469 -0.0014919866 0.3662467 0.9222312 -0.12390705 0.0017948567
-0.019455463 0.03706938 -0.0014823503 0.31314251 0.93970346 -0.13747427 0.0034150369
-0.016877986 0.036316562 -0.0013925239 0.27167022 0.9574374 -0.097514071 0.0020573225
0.025798028 0.036328528 -0.0013728318 -0.28509623 0.95490128 -0.082967944 0.0020651456
0.028507628 0.037188131 -0.0015301342 -0.31071302 0.94355345 -0.11473594 0.0023052653
0.031527013 0.038266625 -0.0015003927 -0.36277372 0.92755508 -0.089648597 0.0026394054
0.033193693 0.038878288 -0.0020176044 -0.43069777 0.89798415 -0.090132624 0.0028613794
-0.07050965 0.040800847 -0.0018466481 -0.88902295 -0.42014191 -0.18198639 0.0043535698
-0.030574689 0.041703112 -0.0017138611 0.4612357 0.88208044 -0.095894448 0.0017395709
-0.028458338 0.040709369 -0.0014982091 0.4124248 0.90558338 -0.099118702 0.0019384356
-0.02570907 0.039569996 -0.0014195326 0.37740052 0.91805369 -0.12143444 0.0020077059
-0.023981029 0.039031085 -0.00034377837 0.35681987 0.9332332 -0.041897886 0.0056931712
0.032922566 0.039026178 -0.00040480937 -0.399526 0.91509783 -0.054542944 0.0037030692
0.034655552 0.039666019 -0.0014715685 -0.43092972 0.89763349 -0.092486173 0.0026625304
0.037457209 0.041110832 -0.001539793 -0.49208999 0.86476225 -0.10016887 0.002808423
0.039087109 0.041911129 -0.0024350451 -0.52650511 0.84319001 -0.10873365 0.003044504
-0.072186403 0.04439193 -0.0011351156 -0.92906725 -0.3292149 -0.16867585 0.0055776141
-0.071457803 0.042974282 -0.0017253167 -0.91565412 -0.35825801 -0.18228757 0.0052513424
-0.036527939 0.044729065 -0.0017169856 0.48466718 0.86891598 -0.10041255 0.0019463003
-0.034478728 0.043720685 -0.0014869221 0.45078188 0.88744909 -0.096071817 0.0018447427
-0.032030433 0.042484473 -0.0014274878 0.43498099 0.89517742 -0.097205594 0.0019467421
0.038872197 0.042076491 -0.00094225968 -0.5136798 0.85243517 -0.097402595 0.0030692392
0.040534865 0.043000638 -0.0014721371 -0.51697755 0.84992844 -0.10176412 0.0030859839
0.042824667 0.044462919 -0.0015901247 -0.55919069 0.82434994 -0.088051133 0.0021633247
-0.072807498 0.046470139 -0.0016408829 -0.93058574 -0.30176005 -0.2072466 0.0067814165
-0.042249635 0.047859415 -0.0019586519 0.49208498 0.86221057 -0.12018862 0.0024736817
-0.040449329 0.046909194 -0.0015173686 0.47999614 0.87043381 -0.10930985 0.0023052739
-0.037982278 0.045541231 -0.0014014419 0.45985153 0.88189352 -0.10392512 0.0021561722
0.044307038 0.045462772 -0.0013996004 -0.54718047 0.82922018 -0.11396249 0.0034421617
0.046488274 0.046902373 -0.0015323441 -0.54679102 0.83114868 -0.10105179 0.0035400614
0.048140489 0.047866601 -0.0022632729 -0.54775757 0.82625365 -0.13140267 0.0033680543
-0.073802009 0.049395554 -0.001862868 -0.888816 -0.35927927 -0.28447235 0.011886986
-0.048106294 0.050943613 -0.0027729862 0.44578663 0.880328 -0.16216297 0.0037667302
-0.046390135 0.050241239 -0.0015618929 0.48569378 0.86305887 -0.13867545 0.0029046689
-0.04371487 0.048756868 -0.0014387966 0.47411191 0.87355477 -0.1100908 0.0028789695
0.047865819 0.048105899 -0.00039610453 -0.54690915 0.83294141 -0.084255695 0.0038146868
0.049571175 0.048980445 -0.0014855863 -0.53466302 0.8363654 -0.12094773 0.0040489826
0.051816318 0.050463159 -0.0016273964 -0.56525105 0.81724906 -0.11222829 0.0032523877
-0.075518511 0.05301572 -0.0012989813 -0.94591308 -0.16979592 -0.27643794 0.01925211
-0.074634537 0.051897176 -0.0023709512 -0.85899025 -0.27283728 -0.43323854 0.015715338
-0.054237012 0.053903222 -0.0027245949 0.33582518 0.92294651 -0.18812551 0.0054568658
-0.052471872 0.053451002 -0.0017461927 0.39544624 0.89836216 -0.19122678 0.003394414
-0.049494106 0.051946957 -0.0015332039 0.44420785 0.88333189 -0.14968073 0.0030536768
-0.047777634 0.051110707 -0.00083924469 0.46434745 0.87568313 -0.13251562 0.0036601454
0.053289201 0.051474724 -0.00142196 -0.53547382 0.83059484 -0.15290529 0.0060737417
0.055506516 0.052891627 -0.0015327279 -0.5436725 0.8283276 -0.13525407 0.006511623
0.057274703 0.053867485 -0.0023354962 -0.56912309 0.7945897 -0.21148568 0.0082013123
-0.075840637 0.055951372 -0.0015416718 -0.92405236 0.28287092 -0.25712126 0.038844038
-0.074933097 0.055603746 -0.0028827237 -0.72913629 0.49482882 -0.47276297 0.024096064
-0.060495365 0.056742512 -0.0020467145 0.49858356 0.84371066 -0.19891395 0.0090521825
-0.058427729 0.055884361 -0.0016021502 0.39032209 0.90224236 -0.18332291 0.0081061227
-0.055500027 0.054697383 -0.0015698749 0.34339589 0.92223793 -0.17764127 0.0047573023
-0.053715218 0.054101668 -0.00078153622 0.37504581 0.91650295 -0.13915108 0.0058540343
0.056896869 0.054050826 -0.00039977362 -0.54972076 0.83395511 -0.048228469 0.007928662
0.058609892 0.055063378 -0.0014604105 -0.54783309 0.82270789 -0.1517584 0.0098089594
0.060608048 0.056467995 -0.0017479357 -0.67391491 0.71996272 -0.16580814 0.012511481
0.072719291 0.055145402 -0.0026068308 0.58944285 0.14986017 -0.79378778 0.0086824717
-0.075322442 0.057276502 -0.0011806265 -0.80936646 0.54637295 -0.21541265 0.040096976
-0.073533662 0.058309816 -0.0015615753 -0.55711144 0.80171448 -0.21651949 0.02059968
-0.071073383 0.059547018 -0.0015140752 -0.39456537 0.90984255 -0.12847069 0.0048058666
-0.066176087 0.059811864 -0.0026247667 0.26309156 0.88759029 -0.37810889 0.018475695
-0.064354889 0.059209779 -0.001706972 0.48753008 0.83992863 -0.23839962 0.0081648007
-0.061877456 0.057732224 -0.0014707067 0.46581581 0.85732985 -0.21909158 0.010631423
0.062065858 0.05806461 -0.0013865302 -0.77470654 0.60351157 -0.18868901 0.021377137
0.063436612 0.059450481 -0.002041213 -0.75776309 0.61468214 -0.21899989 0.022561679
0.072358474 0.0573406 -0.0029960494 0.4756057 0.070947737 -0.87679285 0.014366427
-0.069572493 0.060255658 -0.0014721806 -0.21860474 0.96580392 -0.13940868 0.018533058
-0.067682363 0.060647428 -0.0014925912 0.014716568 0.99286675 -0.11831784 0.017261716
-0.065670796 0.060241319 -0.00091957999 0.31212819 0.93889612 -0.14508648 0.02081163
0.064355671 0.061479706 -0.001560471 -0.86506456 0.38839126 -0.31751472 0.028904349
0.073006891 0.061452255 -0.0027421194 0.25906521 0.12870298 -0.95724648 0.023062199
0.065271527 0.064416029 -0.0013530456 -0.93953055 0.24447365 -0.23982275 0.034065265
0.066258788 0.065132774 -0.0026348778 -0.84785557 0.19834174 -0.49173322 0.025274247
0.07334476 0.063782528 -0.002480078 0.34383625 -0.011271681 -0.93896198 0.009406615
0.065737002 0.06706474 -0.00085031497 -0.95485866 0.22409858 -0.1949994 0.036710098
0.066474594 0.067800686 -0.0020485173 -0.91114497 0.26126075 -0.31868118 0.031029195
0.074473083 0.067875914 -0.0023480721 0.37986895 -0.12677154 -0.91631252 0.010656135
0.065957978 0.069101334 -0.00045901592 -0.97542524 0.17166607 -0.13811748 0.054340772
0.066883959 0.070491314 -0.0015389724 -0.90744871 0.20375502 -0.36745176 0.022798074
0.067370996 0.073475249 -0.0015536915 -0.92901677 0.1641961 -0.33161333 0.025091723
0.076439425 0.074829549 -0.0012776799 0.22730105 0.970218 -0.083733089 0.014027092
0.067946069 0.076309331 -0.0015014996 -0.80957878 0.53578931 -0.23981635 0.073751472
0.07033883 0.076754004 -0.0016376383 -0.12838227 0.94712865 -0.29404977 0.065013751
