# .PCD v0.7 - Point Cloud Data file format
VERSION 0.7
FIELDS x y z normal_x normal_y normal_z curvature
SIZE 4 4 4 4 4 4 4
TYPE F F F F F F F
COUNT 1 1 1 1 1 1 1
WIDTH 676
HEIGHT 1
VIEWPOINT 0 0 0 1 0 0 0
POINTS 676
DATA ascii
-18.820467 11.935391 -1.3792496 -0.069264077 0.1827113 0.9807238 0
-18.817537 11.935353 -1.3795567 -0.12679112 0.00010349969 0.99192947 0
-18.814638 11.93502 -1.3797565 0.27395785 0.19131614 0.9425208 0
-18.81163 11.934791 -1.3798976 0.062890649 -0.010149466 0.99796885 0
-18.809299 11.934695 -1.3799595 -0.0050883116 -0.02347404 0.99971151 0
-18.861263 11.937014 -1.3774867 -0.10330871 0.027543308 0.994268 0
-18.859367 11.937604 -1.3783391 -0.32564324 0.01898101 0.94530219 0
-18.856611 11.938684 -1.3784347 0.061138574 0.18252711 0.98129809 0
-18.85392 11.939604 -1.3785387 0.028801331 0.029068315 0.99916244 0
-18.837143 11.939946 -1.3785644 -0.023578024 -0.095637828 0.99513692 0
-18.835278 11.939481 -1.378499 -0.99792665 -0.051562689 -0.038518291 0
-18.832363 11.938376 -1.3781956 -0.051063236 -0.046947397 0.99759126 0
-18.829737 11.937733 -1.3787287 0.12949021 0.41472581 0.90068573 0.011613428
-18.826593 11.937511 -1.3795248 0.50553542 0.75790483 0.41232783 0
-18.82345 11.937352 -1.3797849 0.022789454 0.063563377 0.9977175 0.0078648552
-18.821102 11.937098 -1.3797414 -0.02395959 0.076588891 0.99677485 0.009027929
-18.852381 11.94014 -1.3779951 -0.090785511 0.008315485 0.99583578 0
-18.849808 11.940714 -1.3786979 -0.26160723 0.95517582 0.13856731 0.11451422
-18.847639 11.941099 -1.3782482 0.010054612 0.097656474 0.9951694 0
-18.844248 11.941145 -1.3785486 0.50861418 0.86097831 0.0052929418 0
-18.841248 11.940821 -1.3785686 -0.010277979 0.6972428 0.71676135 0
-18.838554 11.940346 -1.3785655 0.043940179 0.94646555 0.31980017 0.019875355
-18.83671 11.940022 -1.3785945 0.05343315 -0.046699461 -0.99747884 0
-18.894932 11.76399 -1.3749931 -0.0177397 0.61384541 0.78922695 0
-18.893734 11.763906 -1.3744233 0.010406344 0.25035763 0.96809757 0
-18.888342 11.764318 -1.3744745 0.39234865 0.1328093 0.91017818 0.050179508
-18.886456 11.765073 -1.3751023 0.018953975 0.17467515 0.98444366 0
-18.884644 11.765903 -1.3759919 0.018841479 0.042446446 0.99892104 0
-18.885265 11.766304 -1.3743653 0.07406313 0.67430818 0.73472667 0
-18.883858 11.767639 -1.375442 0.076192141 0.12394203 0.98935992 0
-18.882656 11.770414 -1.3753173 0.03505509 0.015802117 0.99926043 0
-18.881939 11.771616 -1.3759918 0.29667175 0.85881412 -0.41764122 0
-18.882198 11.772697 -1.3743088 0.044341087 0.13959172 0.98921585 0
-18.881592 11.773603 -1.3755314 -0.21195902 0.86982954 0.44549987 0
-18.881039 11.776491 -1.3753159 0.3309823 -0.20877253 0.92025262 0
-18.880527 11.779531 -1.3753124 0.14539975 0.68753344 0.711447 0
-18.880136 11.782701 -1.375326 0.15610698 0.97935188 0.12845448 0.010511912
-18.879856 11.785606 -1.3753723 0.37903783 0.63623774 -0.67196119 0
-18.879612 11.788656 -1.3751564 -0.017878255 0.095287472 0.99528927 0
-18.879463 11.791652 -1.3755386 0.34500504 0.64092308 -0.68570334 0
-18.879433 11.794942 -1.3756391 -0.0082216123 0.43104064 0.90229511 0
-18.879454 11.797016 -1.3757901 0.27462035 0.41246605 0.86859393 0
-18.879486 11.800578 -1.3753738 0.1121415 0.53986949 0.83424526 0
-18.879631 11.803543 -1.3752468 -0.51395571 -0.85065162 -0.11064017 0.050499406
-18.879723 11.806434 -1.3752326 -0.0038888769 0.75981122 0.65013212 0
-18.879807 11.809416 -1.3754313 0.96262491 -0.2300273 0.14297083 0.031213721
-18.879829 11.812471 -1.3754256 0.055071987 0.13679007 0.98906809 0
-18.879831 11.815458 -1.37543 0.007216536 0.71043491 -0.70372587 0
-18.87978 11.818529 -1.3753166 0.15095784 0.70851088 -0.68936491 0
-18.879677 11.821497 -1.3755178 0.64927101 -0.20073131 0.73358995 0
-18.879503 11.824482 -1.3754096 0.028445547 0.056074679 0.9980213 0
-18.879276 11.827566 -1.3751972 -0.090209842 -0.95750946 -0.2739304 0
-18.878992 11.828868 -1.3741598 0.038328607 -0.080320828 -0.99603194 0
-18.87915 11.830139 -1.3757937 0.18242814 0.95943171 -0.21496668 0.026647696
-18.87888 11.830898 -1.3747612 -0.24633597 0.80795223 0.53528672 0.039204545
-18.878765 11.833426 -1.3752692 0.013296162 0.99913341 0.039440576 0
-18.878471 11.836362 -1.375419 0.97163349 -0.22864568 0.060412012 0
-18.878056 11.839493 -1.3752497 0.12781525 0.57993603 0.80457282 0
-18.915022 11.842484 -1.3746581 0.44216529 0.46922293 -0.76440811 0.028621061
-18.877575 11.842602 -1.375294 0.49390107 -0.48906326 -0.71894288 0.00014679984
-18.87711 11.845604 -1.3753257 0.96286732 -0.26960963 -0.014038931 0
-18.876604 11.848526 -1.3753426 0.1313504 -0.98114008 -0.14181443 0
-18.91386 11.850555 -1.3746146 0.025569858 0.55304843 0.8327567 0.071368381
-18.876175 11.850959 -1.3755097 0.49920866 0.86299652 -0.077638045 0
-18.875862 11.852367 -1.3753868 -0.048936192 -0.58901829 0.80663669 0
-18.91297 11.854988 -1.3748876 -0.077330507 0.011818722 0.99693549 0.039701011
-18.875374 11.854498 -1.3753936 0.2259257 0.2376347 0.9447155 0
-18.91213 11.858845 -1.3753431 -0.047910798 -0.050942 0.9975518 0
-18.874599 11.85751 -1.3752729 0.94575214 0.31853884 0.063920334 0.057970878
-18.912092 11.85916 -1.3745921 0.0059978818 0.15690261 0.98759586 0.027444568
-18.911398 11.8614 -1.3762673 -0.01187651 0.04408893 0.99895704 0
-18.873842 11.860338 -1.3753632 -0.23979805 0.9643355 -0.11204445 0
-18.911062 11.863238 -1.3753549 0.12593186 0.94082868 0.31461501 0.0046312329
-18.873238 11.862675 -1.3757937 0.41245615 0.53933835 0.73416215 0
-18.872574 11.864274 -1.3749853 0.99846476 0.028474946 0.047511898 0
-18.910288 11.866261 -1.3754498 -0.3679935 -0.30960897 0.87676859 0
-18.871834 11.866731 -1.3752983 0.079611287 0.63724381 0.76653922 0
-18.909718 11.868966 -1.3749278 0.19817728 0.83525467 -0.51290888 0
-18.870895 11.869438 -1.3752455 -0.10850319 0.9939971 -0.014031424 0
-18.909029 11.87107 -1.3756621 0.20949244 -0.014347936 0.977705 0
-18.908762 11.872066 -1.3750683 0.07996656 0.9593026 -0.27082077 0
-18.870239 11.871687 -1.3760996 -0.063692823 0.94393557 0.32392719 0
-18.86956 11.872818 -1.3749526 0.015634073 0.03660775 0.99920744 0
-18.90781 11.875232 -1.3751665 -0.037804414 0.020820206 0.9990682 0
-18.868671 11.875229 -1.3754838 0.18110894 0.97655803 0.1163355 0.043939367
-18.906744 11.878256 -1.375608 -0.058895882 -0.0018426264 0.99826247 0
-18.867542 11.877787 -1.3755937 -0.9264695 -0.18408433 -0.32827917 0
-18.866589 11.879381 -1.3749145 -0.066771805 0.80795527 -0.58544844 0
-18.906185 11.880286 -1.3748038 -0.27462369 0.88201284 0.38292986 0.096848667
-18.905443 11.881832 -1.3757086 0.37609881 0.92215711 -0.09042076 0
-18.865391 11.881696 -1.3750471 0.47737417 0.87787038 0.03817765 0.016594831
-18.904408 11.884716 -1.3753086 0.062794499 0.13000934 0.98952234 0.040150229
-18.864391 11.883557 -1.3750976 -0.59907681 -0.79025507 -0.12885623 0
-18.86356 11.884998 -1.375195 -0.30890965 0.231058 0.922598 0.028155286
-18.903446 11.887099 -1.375252 0.34661332 0.79704428 0.4945499 0.027343199
-18.902945 11.888576 -1.3748053 0.023023471 0.010533905 0.99967945 0
-18.862022 11.887528 -1.3753246 -0.00022289193 0.18554273 0.98263615 0
-18.860907 11.888819 -1.3745348 -0.044374861 0.9841249 0.17184021 0
-18.90193 11.890687 -1.3753424 0.61531341 0.68663573 -0.38719612 0
-18.859894 11.890661 -1.3751068 -0.2873005 0.95653057 0.050077416 0.060053468
-18.900745 11.893464 -1.3751137 0.016726471 0.11005674 0.99378455 0
-18.89994 11.89446 -1.3765689 -0.049324792 0.1175716 0.99183869 0
-18.858444 11.892872 -1.3756318 0.03990794 0.2649557 0.9634344 0
-18.857435 11.894207 -1.3752179 0.76273882 -0.33684498 0.55205524 0.054882523
-18.899244 11.89634 -1.3754662 0.019895127 -0.018591462 0.9996292 0
-18.855957 11.896278 -1.3754398 0.020921903 0.11455071 0.99319702 0
-18.85487 11.897677 -1.375344 0.19802044 0.72391856 0.66085535 0.024757242
-18.89781 11.899254 -1.3751663 0.28304508 0.95615202 0.075224765 0
-18.896788 11.900485 -1.376413 -0.042126507 0.018458765 0.99894178 0.11864743
-18.853493 11.899508 -1.3754523 -0.033046015 -0.05878593 0.99772352 0
-18.895878 11.902617 -1.3753344 0.21397418 0.91355795 -0.34587139 0
-18.852257 11.901257 -1.3769139 0.025384733 -0.17872062 0.98357236 0
-18.85099 11.902643 -1.3754234 0.047402959 0.1881839 0.98098916 0
-18.894434 11.905016 -1.3750846 -0.21829206 0.61200118 -0.76013362 0.056791268
-18.893353 11.906395 -1.3757582 -0.064376563 0.3474724 0.93547773 0
-18.84943 11.904514 -1.3752775 0.18680157 -0.19087367 0.96367651 0.066510729
-18.848143 11.905993 -1.3756448 0.059037093 0.52120847 0.85138494 0
-18.892126 11.908757 -1.3753275 -0.0045155236 0.089393966 0.99598616 0
-18.846615 11.907707 -1.375442 0.03421469 0.22146381 0.97456819 0
-18.845249 11.909313 -1.3755182 -0.7337538 -0.67758554 -0.049831167 0
-18.891281 11.910416 -1.3748102 -0.021659104 0.0584272 0.99805671 0
-18.890085 11.911845 -1.3753853 0.060285024 0.34162289 0.93790174 0.030013498
-18.843887 11.910837 -1.3754606 0.068292737 -0.0094006769 0.99762106 0
-18.84252 11.912346 -1.3755614 0.29839432 0.55246711 0.77829367 0
-18.888521 11.914074 -1.3752917 -0.042160969 -0.051695477 0.99777257 0
-18.887394 11.915454 -1.3756667 -0.088095345 -0.072021276 0.993505 0
-18.841028 11.914007 -1.3753736 0.0020218294 0.12560017 0.99207884 0
-18.83963 11.915437 -1.3757017 0.074067988 0.26947597 0.96015447 0
-18.886061 11.917174 -1.3753296 -0.033020154 -0.14603816 0.98872775 0
-18.884764 11.91851 -1.3757674 -0.10627888 0.93689454 -0.33306682 0.055620547
-18.838043 11.917273 -1.3753541 0.069352657 0.7334314 -0.67621636 0
-18.836699 11.918581 -1.3760432 0.60048097 0.79448849 0.090612434 0
-18.883255 11.920328 -1.3753674 0.00097267801 0.0028995834 0.99999535 0.050784107
-18.881721 11.921763 -1.376116 -0.015235752 -0.15075585 0.98845363 0
-18.835316 11.920492 -1.3754774 0.011716361 -0.87789571 -0.47870848 0.023678301
-18.83374 11.92184 -1.3766166 0.38480949 0.90569562 -0.1778684 0
-18.880333 11.923427 -1.375376 -0.46166617 0.12507887 0.87819111 0
-18.878639 11.924799 -1.3767241 -0.070906207 -0.21473017 0.97409612 0
-18.834293 11.922297 -1.3744565 0.10275032 0.99425191 0.030090885 0
-18.832859 11.923616 -1.3756187 0.74366468 0.66828305 0.018989863 0
-18.877306 11.926364 -1.375405 -0.031423431 -0.05527864 0.99797642 0
-18.875607 11.927922 -1.3753179 -0.028252797 0.97132617 0.23606628 0
-18.831465 11.925861 -1.3751709 0.2288499 -0.97115344 0.066997461 0
-18.83025 11.927086 -1.3758142 -0.28059629 -0.73674065 -0.61520636 0
-18.874081 11.929143 -1.3754914 0.084281601 0.18890162 0.97837251 0
-18.872269 11.930573 -1.3755039 -0.063850321 0.14555021 0.98728836 0
-18.829344 11.929692 -1.3752378 0.0072079021 0.0913238 0.99579513 0
-18.827442 11.930176 -1.3766348 0.96263236 -0.21132189 0.16935772 0
-18.870815 11.931615 -1.3754722 -0.09048067 -0.0056836666 0.99588203 0
-18.868587 11.933132 -1.3755114 -0.10061706 0.024152359 0.99463207 0
-18.831518 11.933076 -1.3745022 -0.05253084 0.0081395144 0.99858612 0
-18.829563 11.932483 -1.3755144 0.023335213 0.0266874 0.99937147 0.0024295894
-18.827257 11.932179 -1.3766047 0.32281104 0.0027394118 0.94645947 0
-18.867168 11.934053 -1.375293 -0.072402418 0.058410864 0.99566364 0
-18.865421 11.93505 -1.3754815 -0.091743119 -0.013575179 0.99569017 0
-18.862711 11.936427 -1.3754719 0.2631852 0.92024636 0.28962067 0
-18.834503 11.936736 -1.374063 -0.080121376 0.012523358 0.99670649 0
-18.832289 11.935624 -1.3751873 0.14016773 0.34847891 0.92677689 0
-18.830093 11.93489 -1.3764845 0.068922557 0.51115608 0.85672003 0
-18.861301 11.937086 -1.3755391 -0.078216158 -0.015544401 0.99681526 0.10941941
-18.859602 11.93778 -1.37549 0.0075163511 0.041387521 0.99911493 0
-18.856543 11.938918 -1.3753998 0.35041243 0.90649509 0.23553737 0
-18.854094 11.939703 -1.3755201 -0.50147867 0.42688817 0.75251961 0
-18.837608 11.939829 -1.3753545 0.12255141 -0.99242365 -0.008735464 0.020775307
-18.835207 11.938816 -1.3753166 0.20190579 0.37936661 0.9029479 0
-18.832932 11.937694 -1.3760141 0.015594961 0.46883383 0.88314873 0
-18.852539 11.940157 -1.3755516 0.14363217 0.024792615 0.98932058 0
-18.850428 11.940655 -1.3754573 0.037697606 0.02631662 0.99894261 0
-18.847488 11.941124 -1.3756123 0.55170876 0.8275336 -0.1039506 0
-18.844522 11.941 -1.3756212 0.42011487 0.3587071 0.83356619 0.045283351
-18.841417 11.940645 -1.3755157 -0.45969176 -0.88617951 -0.058046795 0
-18.838854 11.940175 -1.3751405 -0.37992471 0.14367904 0.9137907 0
-18.894905 11.765354 -1.3732445 -0.1943592 0.18312342 0.96368581 0
-18.892296 11.764972 -1.3729091 0.017292131 0.52820063 0.84894353 0
-18.889572 11.76519 -1.3728187 -0.088575654 0.21590118 0.97238934 0
-18.887302 11.765697 -1.3733041 -0.012013162 0.082680389 0.99650371 0
-18.897669 11.768152 -1.3723595 0.062903523 0.026389705 0.99767065 0
-18.895517 11.76722 -1.3719343 -0.0030325195 0.11933862 0.99284899 0
-18.892536 11.766766 -1.3715293 0.017360432 0.067371398 0.99757695 0
-18.88933 11.766913 -1.371439 -0.16328396 0.78400826 0.59889019 0
-18.886297 11.767471 -1.3724616 -0.2960937 0.93613374 0.1896894 0.026593745
-18.884602 11.768566 -1.3732862 -0.082153216 0.18068877 0.98010325 0
-18.90044 11.771547 -1.3720781 -0.037087537 -0.020428576 0.99910319 0
-18.898581 11.770123 -1.3714887 0.36771172 0.89599472 -0.24896106 0
-18.896839 11.769039 -1.3711635 0.10190912 0.14871918 0.98361433 0
-18.885441 11.769943 -1.3715999 0.4948037 0.86045396 0.12160701 0
-18.884018 11.770594 -1.3727732 -0.93530798 -0.34522557 -0.077578671 0
-18.901173 11.773369 -1.3715429 -0.0012396931 0.027179012 0.99962986 0.014043882
-18.883131 11.773393 -1.3724303 0.36230767 0.62016582 0.69579279 0
-18.881805 11.774943 -1.3734738 -0.04214599 0.18234943 0.98233008 0
-18.902063 11.77511 -1.3713686 -5.0193928e-05 -0.36113456 0.93251377 0
-18.882591 11.776276 -1.3718665 0.32945237 0.1439203 0.93313885 0.024344524
-18.881651 11.776789 -1.373158 -0.99560785 0.083380863 -0.042574197 0
-18.882195 11.778738 -1.3715661 0.48050755 0.70189041 -0.52579683 0
-18.881327 11.779613 -1.3727283 -0.78656495 0.61670125 0.031545077 0
-18.881044 11.782482 -1.3724658 0.074601345 0.98435384 -0.15963148 0
-18.880585 11.785552 -1.3724756 0.90846592 0.39916238 0.12393226 0
-18.880314 11.788502 -1.3722053 0.56196624 -0.8259005 0.045631912 0
-18.880163 11.791698 -1.3722082 0.13924983 0.36301726 -0.92131853 0.025425797
-18.879959 11.794978 -1.3721975 0.090465002 0.04336407 0.99495512 0
-18.879869 11.797772 -1.3723234 -0.0060541951 0.9598856 0.28032649 0
-18.879862 11.800595 -1.3722734 0.4612723 -0.2670249 0.84612381 0
-18.879919 11.803474 -1.3720822 0.10082509 0.9467563 0.30575633 0.035309706
-18.879955 11.806439 -1.3721336 -0.011776106 0.074184962 0.99717486 0.0083742188
-18.879969 11.809489 -1.3721131 0.61147827 0.78154063 0.12364656 0
-18.879957 11.812375 -1.3720762 0.58865315 0.78422058 0.19617757 0
-18.879929 11.815499 -1.3718663 -0.26409778 0.84146643 0.4713667 0
-18.879757 11.818478 -1.3722032 0.47375682 0.57915884 0.66342247 0
-18.879581 11.821538 -1.3724532 -0.056104586 0.72571796 0.68570089 0
-18.879372 11.824446 -1.3724946 0.81730253 0.57539707 -0.030574119 0.031340349
-18.879168 11.827282 -1.3721786 0.019727902 0.45350772 0.89103401 0.065265268
-18.878962 11.828634 -1.3723577 -0.18354401 0.96967453 0.16137806 0
-18.879086 11.829506 -1.3716941 -0.46939927 -0.65271777 0.5946629 0.022424877
-18.878853 11.830812 -1.3725581 0.00060590799 0.00048192713 0.9999997 0.022783829
-18.915533 11.834363 -1.372651 -0.0063536009 0.081081323 0.99668729 0.044108979
-18.878607 11.833452 -1.3723212 0.073360264 0.57226241 0.81678265 0
-18.915363 11.836832 -1.3727648 -0.039040986 0.11269073 0.99286288 0
-18.878273 11.836481 -1.3724842 0.61133093 -0.78773606 0.075805284 0
-18.915169 11.83976 -1.3730326 -0.10761295 -0.013180997 0.99410552 0
-18.877874 11.839412 -1.3722732 0.38616168 0.90316761 0.18752964 0
-18.915068 11.841463 -1.3737257 0.11333407 0.46404865 -0.87852961 0.022959286
-18.877422 11.842314 -1.3724339 0.73065591 -0.25507575 0.6333074 0
-18.914064 11.84619 -1.3710642 0.021571128 -0.083080865 0.99630934 0
-18.876862 11.845598 -1.3723903 0.30983543 0.72789675 0.61169302 0
-18.913921 11.848692 -1.3720893 0.48921168 0.85926986 -0.14942318 0.027683057
-18.876289 11.848623 -1.3724256 0.027891444 0.79315162 0.60838521 0
-18.875984 11.849659 -1.3721311 -0.13951106 0.43732205 -0.88841778 0.12187632
-18.913868 11.85003 -1.3735259 0.17760108 0.8805716 0.43937629 0
-18.875683 11.851599 -1.3724363 -0.014919622 0.022806972 0.99962854 0
-18.912933 11.854499 -1.3722081 0.070472583 0.18363968 0.98046422 0
-18.874992 11.854556 -1.3724382 0.097041406 -0.99503517 -0.022094732 0
-18.912067 11.858536 -1.3719871 -0.014303365 -0.080264784 0.99667096 0
-18.874226 11.857505 -1.3724352 0.62227708 0.77397072 -0.11722016 0.016365314
-18.912067 11.859159 -1.3736459 0.36986044 0.064326115 0.92685777 0
-18.911253 11.861689 -1.3711358 -0.11556745 -0.070018649 0.99082875 0
-18.873478 11.860269 -1.3725148 0.19740066 0.63263059 0.74887353 0
-18.872963 11.861577 -1.3718928 0.067914382 -0.073797755 -0.99495804 0
-18.911236 11.86256 -1.3726876 0.011515482 -0.013657566 0.9998405 0
-18.873051 11.862035 -1.3729444 0.018659217 0.1666586 0.98583817 0
-18.872532 11.8634 -1.372391 0.45465001 0.61812568 0.64125973 0.030372472
-18.910437 11.865834 -1.3723933 0.85063607 0.52556986 0.013952 0
-18.871517 11.866535 -1.3725219 0.22361563 0.9379074 0.26519004 0.019717129
-18.909668 11.868843 -1.3724955 0.0053649736 0.098211341 0.99515116 0
-18.908949 11.870773 -1.3714548 0.19088435 0.93695951 0.29269466 0
-18.870464 11.869558 -1.3725536 0.044755064 0.11863887 0.99192834 0
-18.869896 11.870751 -1.3719407 0.077054404 -0.014300308 -0.99692434 0
-18.908619 11.872451 -1.3722221 0.034775633 0.09951774 0.99442798 0
-18.869362 11.872465 -1.3724327 0.072431557 0.021430029 0.99714309 0
-18.907766 11.875471 -1.3727243 -0.016966088 -0.0094265211 0.99981165 0
-18.868134 11.875425 -1.3724291 0.024251686 0.026349971 0.99935859 0
-18.906649 11.878634 -1.3722607 -0.089758419 -0.060279682 0.9941377 0
-18.867313 11.877289 -1.3726341 0.058675874 0.044208571 0.9972977 0
-18.86655 11.878793 -1.3723605 -0.12262671 0.98229468 -0.14163271 0
-18.906139 11.88041 -1.3729334 0.066943929 0.33627161 0.93938273 0.064650849
-18.905476 11.882001 -1.37231 0.51071256 0.81864172 0.26267552 0
-18.865141 11.881527 -1.3724875 0.0064400267 0.0024141152 0.9999764 0
-18.904493 11.884664 -1.3724673 -0.012759 0.12033602 0.99265122 0
-18.864231 11.883157 -1.3718971 0.97730422 -0.21147752 -0.012399072 0.050220832
-18.863316 11.884798 -1.3724959 0.53074408 -0.41601726 0.73840392 0.0048675952
-18.903534 11.887033 -1.3724301 -0.55686945 0.16003913 0.81503612 0
-18.902903 11.888532 -1.372431 0.01295751 -0.0077080429 0.99988639 0
-18.861858 11.887275 -1.3724438 -0.0091405539 -0.063004747 0.99797142 0
-18.860815 11.888908 -1.3719913 0.54049879 0.84080583 0.030108057 0
-18.901964 11.890759 -1.3724339 0.62784189 0.65406185 -0.4219214 0
-18.859741 11.890589 -1.3725144 0.087362461 0.93640691 0.3398675 0.0061892192
-18.900711 11.893497 -1.3723832 0.040815905 -0.029256845 0.99873823 0
-18.899836 11.894768 -1.3711219 0.0029938805 -0.0084928367 0.99995953 0
-18.858414 11.89274 -1.3724004 -0.50471979 0.85961145 0.079536304 0
-18.857443 11.894136 -1.3724599 0.90155864 -0.42985684 0.049144082 0.035555765
-18.899275 11.896498 -1.3723829 -0.023660379 0.063260287 0.99771661 0.051458932
-18.855896 11.896332 -1.3723531 0.58445096 0.67402834 0.45177743 0.042103704
-18.854866 11.897831 -1.3721442 0.99415243 0.10215954 -0.034991913 0
-18.897902 11.899284 -1.3726131 -0.052781962 0.032767516 0.99806833 0
-18.896881 11.900814 -1.3713069 0.23204553 0.37470293 0.89763725 0
-18.853516 11.899571 -1.3724138 -0.0041061146 0.10416254 0.99455184 0
-18.896198 11.902429 -1.3724605 0.022747405 0.051163994 0.99843121 0
-18.852196 11.901409 -1.3719572 0.61196953 0.79073471 0.015230336 0
-18.851067 11.902779 -1.3724701 0.43697363 -0.89889616 -0.032244749 0
-18.89456 11.90521 -1.3724914 -0.15035298 0.30258891 0.94118756 0
-18.893473 11.906845 -1.3720032 0.061302438 0.16862082 0.98377287 0
-18.849606 11.904696 -1.372144 -0.65815997 -0.72979945 -0.18498187 0
-18.848331 11.906157 -1.3725765 0.47230271 0.58560276 -0.65878642 0
-18.892418 11.908652 -1.3723977 0.2092561 0.97484779 0.076705411 0.023228452
-18.846809 11.908116 -1.3722229 -0.029417202 0.036265217 0.99890912 0
-18.845581 11.909365 -1.3729048 0.0098732281 0.99785835 0.064662039 0.033035688
-18.89126 11.910524 -1.3727558 1.928388e-05 0.052924417 0.99859852 0
-18.890202 11.911928 -1.372352 0.18032646 0.14749031 0.97248602 0
-18.844139 11.911322 -1.3723844 0.31737623 -0.57092541 0.75717676 0
-18.8428 11.912785 -1.372689 -0.51943463 -0.84998661 -0.087809131 0
-18.888603 11.914117 -1.3724915 -0.10941996 0.080824263 0.99070412 0
-18.887344 11.915662 -1.3722808 0.061542004 0.086467229 0.9943521 0
-18.843033 11.913368 -1.3713049 -0.027419744 0.015599261 0.9995023 0
-18.841465 11.914484 -1.37251 0.085537136 -0.75101227 -0.6547243 0
-18.839849 11.915934 -1.3730545 0.1216423 -0.063493282 -0.99054116 0
-18.886118 11.917133 -1.372566 0.0069061555 0.10905202 0.99401206 0
-18.884764 11.918563 -1.3723271 0.050347265 0.047024421 0.9976241 0
-18.840315 11.916424 -1.3713911 -0.047799122 0.87876153 0.4748615 0
-18.838757 11.917625 -1.372622 0.52915961 0.83613819 -0.14444047 0.04779762
-18.883198 11.920325 -1.3724889 -0.033251483 0.076036684 0.99655044 0
-18.881718 11.921852 -1.3721465 0.15506659 0.98785841 0.0094957137 0
-18.837513 11.919653 -1.3718983 0.23445717 0.97212499 -0.001682769 0
-18.836205 11.920851 -1.3727448 0.26100001 -0.75164682 0.60572773 0.049842149
-18.880259 11.923404 -1.3725792 0.084507659 0.17130916 0.98158628 0
-18.878647 11.924855 -1.371675 0.27222595 0.94698721 0.17061155 0
-18.834808 11.923174 -1.3722667 -0.041397519 0.050228931 0.99787939 0
-18.833527 11.924303 -1.3731794 -0.44571325 -0.03753021 0.89438868 0
-18.877258 11.926299 -1.3725636 0.45827535 0.8872419 0.052778434 0
-18.875618 11.927739 -1.3723488 -0.12774239 -0.018612819 0.9916327 0
-18.834259 11.925577 -1.3711383 -0.063871346 0.024098812 0.99766719 0
-18.832644 11.926508 -1.3725774 0.9227258 0.35939634 -0.13932456 0
-18.83087 11.927747 -1.3738725 0.056142129 -0.12553857 -0.99049896 0
-18.874132 11.929007 -1.3725005 0.05718996 0.021426009 0.99813342 0
-18.872232 11.930476 -1.3722769 0.18190049 0.87563324 -0.44741327 0.010315743
-18.83238 11.929637 -1.3723115 0.15946421 0.24870551 0.95536208 0
-18.830647 11.929543 -1.3737116 -0.0035651191 0.17605987 0.98437297 0
-18.870779 11.931543 -1.3725857 -0.020183872 -0.075454094 0.99694496 0
-18.86842 11.933054 -1.3724563 -0.0048422189 -0.036048345 0.99933833 0
-18.866714 11.933892 -1.3712615 0.0623012 0.15458487 0.98601323 0
-18.834566 11.933085 -1.3715867 -0.10855909 0.38467956 0.91664422 0
-18.832861 11.932335 -1.3729224 0.20862697 0.51297539 0.83266509 0
-18.830902 11.931217 -1.3739201 -0.070822872 0.10573205 0.99186939 0
-18.865444 11.93482 -1.372522 -0.20774794 0.97806287 -0.015292323 0
-18.862616 11.936265 -1.3724527 -0.057848845 -0.044181276 0.99734724 0
-18.86087 11.936926 -1.3715301 -0.048060946 0.024775257 0.99853712 0
-18.837057 11.936338 -1.3712528 0.04705577 0.12550962 0.99097586 0.027460527
-18.835226 11.935696 -1.3722874 0.31850052 0.61129177 0.72448587 0
-18.833582 11.934959 -1.3735787 0.10444638 0.28700963 0.95221663 0.0098027671
-18.861328 11.937047 -1.3739201 0.0018432463 -0.073095344 0.99732333 0
-18.859596 11.937575 -1.3725265 0.2073586 0.8868348 -0.41294849 0.015493878
-18.856522 11.938684 -1.3724698 0.71204531 0.645585 0.2760644 0
-18.853451 11.939605 -1.3723717 0.60484421 0.37296543 -0.70360518 0
-18.851477 11.939876 -1.3714368 -0.20043696 0.21835668 0.95506305 0
-18.840738 11.939759 -1.3715425 -0.08698342 -0.28925219 0.95329273 0
-18.838251 11.939014 -1.3722382 0.02993542 -0.51872438 0.85441726 0
-18.836016 11.938033 -1.3730001 0.35579526 0.17499405 0.9180342 0
-18.852293 11.940089 -1.3734261 0.55464482 0.83084989 -0.045360781 0.20192848
-18.85 11.940552 -1.3730273 0.1441602 0.5787639 0.802652 0.025087127
-18.847519 11.940678 -1.3725665 0.09821815 0.89743745 -0.43006897 0
-18.844475 11.94059 -1.3723034 0.041096922 -0.40086874 0.91521329 0
-18.841774 11.940317 -1.3728892 0.57115304 0.79139924 0.21787928 0
-18.839235 11.940133 -1.3736925 0.2715646 0.94021064 0.20556435 0
-18.894793 11.768472 -1.3708477 -0.5312314 -0.22629553 0.81644565 0
-18.892612 11.768312 -1.370501 -0.17949292 -0.048730098 0.98255163 0
-18.889587 11.768246 -1.370528 0.14901242 -0.078325719 0.98572838 0
-18.887814 11.768615 -1.3708159 -0.08927311 0.050218038 0.99474043 0
-18.897877 11.771179 -1.3703483 -0.11096326 0.39412999 0.91233152 0
-18.895462 11.770553 -1.3697659 0.035987046 0.019729754 0.99915749 0
-18.892406 11.770476 -1.3692411 -0.06785357 0.24080808 0.968198 0
-18.889437 11.770522 -1.3693856 -0.53560507 -0.68501937 0.49383771 0
-18.886593 11.770716 -1.3703744 0.16360115 0.42435595 0.89059347 0
-18.900545 11.774223 -1.3703518 0.0087905861 0.043227691 0.9990266 0
-18.898483 11.773496 -1.3694645 0.024803828 -0.033831775 0.9991197 0
-18.895697 11.773285 -1.3684788 0.0084755244 0.38063121 0.9246881 0
-18.89271 11.772415 -1.3682592 0.0066314531 0.2829307 0.95911741 0
-18.889069 11.773159 -1.3683374 -0.39972314 -0.54040909 0.74039149 0
-18.886404 11.773592 -1.369331 0.017585648 0.99880701 0.04555513 0.0085050166
-18.884418 11.774036 -1.3706496 0.011722028 0.027136063 0.99956298 0
-18.903023 11.777543 -1.3706206 -0.20442106 -0.084731057 0.97520906 0
-18.901169 11.776754 -1.3694699 0.08305458 -0.88672876 0.45476815 0
-18.898834 11.775918 -1.3685367 0.2152341 0.32412392 0.92120463 0
-18.886549 11.77607 -1.3686461 -0.47602287 -0.19419803 0.85772341 0
-18.88401 11.776622 -1.3701636 -0.0019606941 0.031465184 0.9995029 0.017717287
-18.90387 11.779973 -1.3699102 0.028920395 0.2518146 0.96734333 0
-18.901854 11.779075 -1.3685894 -0.026557626 0.15353629 0.98778611 0
-18.885254 11.778996 -1.3684046 0.34286702 0.76969379 0.53852916 0
-18.883533 11.779554 -1.3697889 0.63275754 0.0759103 0.77062023 0
-18.906322 11.783216 -1.37077 -0.16754082 0.19668819 0.9660455 0.031238608
-18.904367 11.782172 -1.3689268 0.029248858 -0.14689161 0.98872012 0
-18.885641 11.781009 -1.3682187 0.34184468 0.2294406 0.91131735 0
-18.883802 11.782708 -1.3690062 0.2798391 -0.15257432 0.94784552 0
-18.881763 11.782701 -1.3708583 0.14545804 0.91788739 -0.36922187 0
-18.90645 11.786581 -1.3681854 -0.38319096 -0.66171402 0.64443719 0
-18.905144 11.784313 -1.3681456 -0.28199083 -0.61110723 0.73961425 0
-18.882927 11.785519 -1.3691769 -0.020849407 0.31690904 0.94822669 0
-18.881609 11.78564 -1.3705447 -0.056955837 0.015314717 0.99825925 0
-18.907314 11.787633 -1.3686638 -0.64758891 -0.4953275 0.57903308 0
-18.882874 11.788135 -1.3685726 -0.049944412 0.038760282 0.99799955 0
-18.881508 11.788536 -1.3700099 -0.16956542 0.68931401 -0.70433921 0
-18.882299 11.791419 -1.3685917 0.041801319 0.055150341 0.9976027 0
-18.881325 11.791306 -1.3699385 -0.33756867 -0.22783288 0.91331238 0
-18.882263 11.79498 -1.3683724 0.0078667216 0.15140335 0.98844075 0
-18.881186 11.794742 -1.3697081 0.36976054 0.39297444 0.84193122 0
-18.882162 11.798685 -1.3683492 -0.014218592 0.015504026 0.99977869 0
-18.881033 11.797822 -1.3696432 -0.042879775 0.16140138 0.98595685 0
-18.882151 11.801418 -1.3681741 0.56713349 0.05129927 0.82202685 0
-18.880976 11.800728 -1.3695588 0.017527858 0.10619365 0.99419099 0.023690628
-18.882141 11.803988 -1.3680434 -0.053664546 -0.17394201 0.98329264 0.033786219
-18.880951 11.803517 -1.3694868 0.35938168 0.88135397 0.306692 0.023916006
-18.880903 11.806231 -1.3694738 0.17849103 0.076388732 0.98097181 0.031830404
-18.880882 11.809372 -1.3693571 0.18339884 0.70793813 -0.68204731 0
-18.880821 11.812447 -1.3692542 0.62475324 0.63413513 0.45558321 0
-18.880714 11.815651 -1.3691578 0.27595708 0.87512988 0.39748642 0
-18.88031 11.818887 -1.3696951 -0.07433638 -0.016764749 0.99709237 0.0095876707
-18.880379 11.821381 -1.3690834 0.30593607 0.47610965 0.824453 0
-18.879906 11.824413 -1.3693427 0.29146704 0.95655596 -0.0069077704 0
-18.879797 11.827034 -1.3691996 0.092548363 0.34242389 0.93497622 0
-18.915216 11.829083 -1.3705264 -0.069835417 0.71309298 0.69758254 0.011635213
-18.914524 11.829295 -1.3684752 -0.070466228 -0.015594194 0.9973923 0.037076231
-18.879457 11.830907 -1.3690333 0.03614388 0.26209223 0.96436572 0
-18.878941 11.831341 -1.3704698 0.62262076 0.75104499 -0.21971536 0
-18.914476 11.833168 -1.3686925 0.13387115 0.044903271 0.98998094 0
-18.879202 11.833374 -1.3686819 0.69970471 0.71236569 -0.054299936 0
-18.878813 11.833689 -1.3700633 0.9973644 0.060892258 0.03945113 0.058751367
-18.914724 11.836016 -1.3697824 0.83821911 0.48379788 -0.25165141 0.064303242
-18.879242 11.835814 -1.3680682 -0.13797697 -0.21278645 0.96730781 0
-18.878614 11.836613 -1.3695816 0.40284353 0.78452265 0.47142473 0
-18.914246 11.839839 -1.3692168 0.045261454 -0.079600103 0.99579883 0
-18.878231 11.83947 -1.3693469 0.094809346 0.62553203 0.77441651 0.042986721
-18.913971 11.84239 -1.3691883 -0.091363922 -0.073921427 0.99307013 0
-18.877747 11.842422 -1.3693279 0.52788466 0.47354746 0.70504647 0.03698089
-18.913815 11.844853 -1.3696121 0.65744865 0.70943284 -0.25390235 0
-18.877174 11.845426 -1.3695078 0.085154191 0.68654549 0.72208315 0
-18.913277 11.84818 -1.3690759 0.51430792 0.82832044 -0.22219968 0
-18.87656 11.848469 -1.3694075 -0.48831621 -0.60847884 -0.62554032 0
-18.875984 11.849659 -1.370663 0.076922625 0.078410596 -0.99394906 0.036706693
-18.912867 11.851501 -1.3694869 0.051224567 0.25952744 0.96437627 0
-18.876179 11.850958 -1.3687928 -0.010500702 0.10321542 0.99460357 0
-18.875763 11.851789 -1.3698355 0.51093525 0.78831887 -0.34278065 0
-18.912258 11.854523 -1.3690362 -0.079235375 0.017048944 0.99671012 0
-18.87516 11.854523 -1.3695199 0.030129351 -0.061770774 0.99763548 0
-18.91213 11.85695 -1.3703655 0.088235386 0.0024326844 0.99609667 0
-18.911419 11.858166 -1.368668 0.15679373 -0.14026538 0.97762024 0
-18.874363 11.857544 -1.3694739 -0.0076404605 0.3346079 0.94232643 0.024586147
-18.911081 11.860705 -1.3695192 0.083178893 0.056182548 0.99494964 0
-18.873579 11.86028 -1.3693867 0.13387437 -0.78062725 -0.61049062 0
-18.872934 11.86159 -1.370159 0.25055158 0.5149343 -0.81979668 0
-18.910322 11.863862 -1.3694429 -0.044937182 -0.1034468 0.99361938 0
-18.873077 11.862328 -1.3685048 0.20409559 0.96865791 0.14158705 0
-18.872452 11.863655 -1.3694937 0.64162916 0.18589538 0.74414706 0
-18.909557 11.866789 -1.3694251 -0.13019647 0.01238656 0.99141085 0
-18.871513 11.866594 -1.3695058 -0.22754143 -0.76132721 -0.60712922 0
-18.909031 11.86856 -1.3692082 -0.17467208 -0.18651308 0.96680021 0
-18.908651 11.870204 -1.3695189 0.051148541 0.0048727677 0.99867922 0
-18.870533 11.86944 -1.3694582 0.058835462 0.65797389 0.75073886 0
-18.869888 11.870754 -1.3699455 0.14324377 -0.038169768 -0.98895115 0
-18.907976 11.872549 -1.369471 -0.27607074 0.060819447 0.95921111 0.11896103
-18.870115 11.871502 -1.3682728 -0.068345301 -0.17172319 0.98277164 0.0661439
-18.869392 11.872509 -1.3695982 -0.32691142 0.83328682 0.44582736 0
-18.907066 11.875507 -1.369495 0.066436514 0.0022912216 0.99778807 0
-18.868179 11.875505 -1.3693774 0.19998093 0.96913207 0.14418951 0.051377621
-18.906284 11.878031 -1.3697416 -0.35984579 0.80046928 0.47933286 0.028853383
-18.905554 11.879228 -1.3688537 0.33658287 0.93893713 0.071477912 0
-18.86729 11.877667 -1.3690611 0.0047634426 0.092128776 0.99573565 0.028569218
-18.866501 11.879025 -1.3695381 -0.012572725 -0.99716747 0.074155413 0
-18.90493 11.881593 -1.3694282 0.013575172 0.057218496 0.99826938 0
-18.865265 11.88155 -1.3693819 -0.56835943 -0.62459266 -0.53558522 0
-18.903942 11.884422 -1.3697637 0.016493082 0.082747005 0.99643409 0
-18.902971 11.885563 -1.3682281 -0.020252703 0.16080503 0.98677838 0
-18.864264 11.883596 -1.3690755 0.10670096 0.25284231 0.96160573 0.0235829
-18.863394 11.884955 -1.3695459 0.96606648 -0.17321184 0.19160718 0.035546914
-18.903542 11.88629 -1.370929 0.40114695 0.75797999 0.51434177 0
-18.902575 11.887523 -1.3693538 -0.10200491 -0.037488196 0.99407727 0
-18.861969 11.887514 -1.3694075 -0.024063708 -0.046767633 0.99861586 0
-18.860859 11.888835 -1.3704051 0.039029233 0.0078214686 0.9992075 0
-18.901377 11.890465 -1.3695862 0.12687956 0.17777722 0.97585696 0
-18.861092 11.889486 -1.3683009 0.98770142 0.15372062 -0.028565168 0
-18.860058 11.890661 -1.3696166 0.60593086 0.7058574 0.36689669 0.021594796
-18.900572 11.892607 -1.3700994 -0.056149755 0.087584049 0.99457341 0
-18.899656 11.893999 -1.3692727 -0.11709186 0.82584888 0.55160052 0.0020089154
-18.858683 11.893056 -1.3693508 0.005864175 0.10461815 0.99449521 0.050173532
-18.857679 11.894529 -1.3695167 0.039775264 0.037670393 0.99849832 0
-18.89851 11.896433 -1.369356 0.31801438 0.4173229 -0.85129809 0
-18.856396 11.8965 -1.3694239 0.0937493 0.099149913 0.99064642 0.018308766
-18.897621 11.898657 -1.3699968 0.059971269 0.17542545 0.98266447 0
-18.89661 11.900047 -1.3691185 -0.066539764 0.18891725 0.97973609 0.081873395
-18.855225 11.898494 -1.3688624 0.0094110705 -0.0051391916 0.99994248 0
-18.854111 11.899672 -1.3696165 0.14139685 0.98840582 -0.055324718 0
-18.895369 11.902528 -1.3695074 0.021231554 0.33189583 0.94307709 0
-18.852713 11.901777 -1.3692515 0.19691771 0.68655509 0.69990391 0
-18.851454 11.903292 -1.3696475 -0.012880309 0.69244254 0.72135806 0
-18.89422 11.904728 -1.3698044 0.63501245 0.77087885 0.05005043 0
-18.893194 11.906137 -1.3692294 0.1249825 0.93750495 -0.32475206 0
-18.850014 11.905365 -1.3694155 -0.79424709 0.60419858 -0.064152636 0
-18.84865 11.906659 -1.3702644 0.55380374 0.66217029 0.50480878 0.019479437
-18.891922 11.908312 -1.3696167 -0.022923699 0.85890681 -0.51161867 0.0049263095
-18.890717 11.909549 -1.3685938 -0.079993092 -0.17007625 0.98217881 0
-18.849152 11.907384 -1.3682578 -0.023372713 0.016382648 0.9995926 0
-18.847492 11.908591 -1.3695107 0.0051199286 0.037566748 0.99928105 0
-18.845791 11.909908 -1.370658 0.083482988 0.082962528 -0.9930498 0
-18.889711 11.911508 -1.3695141 0.04099226 0.16328095 0.98572761 0.090985566
-18.846394 11.91062 -1.3685951 0.27511677 0.74144942 0.61201596 0.016887426
-18.844997 11.911744 -1.3696377 0.61618572 -0.77963322 0.11174624 0
-18.888226 11.913633 -1.3696835 0.0099580456 0.015918244 0.99982375 0
-18.886976 11.91508 -1.3693115 -0.09401612 -0.10724907 0.98977709 0
-18.843758 11.913834 -1.3689529 0.03991323 0.1371737 0.98974252 0
-18.842319 11.915069 -1.3697364 -0.12883532 -0.39647171 0.90896183 0
-18.885771 11.916741 -1.3698051 -0.055362631 -0.11652716 0.99164331 0
-18.884407 11.918154 -1.3693198 0.013092456 -0.1006093 0.99483985 0
-18.841019 11.91717 -1.3692307 0.47628793 0.86339176 -0.16644663 0
-18.839388 11.918339 -1.3702924 -0.031951696 -0.061660923 0.99758565 0.029826496
-18.882898 11.919941 -1.3694937 0.0031316185 0.90006995 0.43573424 0
-18.881359 11.92152 -1.3692193 0.13886862 -0.074492447 0.98750514 0
-18.840321 11.919045 -1.3682574 0.74649256 0.63472438 0.19968396 0
-18.838417 11.920506 -1.3694336 0.011479082 0.23730536 0.9713673 0
-18.836872 11.921878 -1.370335 0.26187828 0.67310143 0.69163156 0
-18.879942 11.923106 -1.3696076 0.76724064 0.62504101 -0.14375538 0
-18.878372 11.924499 -1.3690567 0.035441164 0.29529569 0.95474839 0
-18.837465 11.922889 -1.3685454 0.97856134 0.15063481 0.14045237 0
-18.836025 11.923722 -1.3698431 0.75338918 0.30629835 -0.58188158 0.03364934
-18.876997 11.925979 -1.3696529 -0.011209247 0.082089171 0.996562 0
-18.875153 11.927468 -1.3692605 0.12213475 0.064700782 0.99040246 0
-18.837204 11.926937 -1.3680106 0.048501316 0.015653476 0.9987005 0.027850548
-18.83536 11.926602 -1.369346 0.22886358 0.63133657 0.74096936 0.0035639147
-18.833607 11.927301 -1.3707722 0.39263076 0.24557157 0.8863045 0.020871455
-18.873751 11.928728 -1.3696812 0.027412109 0.0080924202 0.99959147 0
-18.871675 11.930193 -1.3693447 -0.051963851 -0.032447901 0.99812168 0
-18.837469 11.930056 -1.3682328 -0.012935423 0.025145233 0.99960017 0
-18.835497 11.929576 -1.3694738 0.21522214 0.44170874 0.87096089 0
-18.833603 11.928856 -1.3707585 0.18587191 -0.12080215 0.97511971 0.012296352
-18.870298 11.931343 -1.3700126 0.089743622 -0.077744581 0.99292594 0
-18.868439 11.93237 -1.3694822 -0.053784952 0.078844838 0.99543494 0.091954976
-18.866264 11.933584 -1.3691186 0.045530919 0.17634273 0.98327529 0
-18.837786 11.932677 -1.3686556 0.022032725 0.38040766 0.92455643 0
-18.835882 11.932373 -1.3700835 -0.053278506 -0.23170845 0.97132522 0
-18.864927 11.934503 -1.3696793 -0.015431863 -0.081539564 0.99655062 0
-18.862562 11.93568 -1.3695174 -0.087507665 -0.11199978 0.98984772 0
-18.860086 11.936673 -1.3691612 -0.27365306 0.83566964 0.47620401 0
-18.840601 11.93644 -1.3682867 0.012615805 0.22044049 0.97531885 0.0065837591
-18.838409 11.935539 -1.3693722 0.16252716 0.68477112 0.7104038 0
-18.836557 11.934827 -1.3705473 -0.010203223 0.090728775 0.99582332 0
-18.858912 11.937343 -1.3699187 -0.042500149 -0.028146883 0.9986999 0
-18.855759 11.938236 -1.3688405 -0.02896479 -0.10389952 0.99416596 0
-18.853418 11.938949 -1.3694899 0.16148198 0.71613258 0.67902702 0.039462458
-18.850601 11.939639 -1.3692735 -0.016179187 0.074175954 0.99711394 0.0098220007
-18.847345 11.939664 -1.3685632 -0.41939479 0.15092331 0.89517045 0
-18.844275 11.939415 -1.3689309 -0.059944384 0.02402265 0.99791265 0
-18.841444 11.938558 -1.3693787 0.32894179 0.0859368 0.94043183 0.0053229872
-18.839014 11.937881 -1.370277 0.23713155 0.52808833 0.81540877 0.014088992
-18.84956 11.940156 -1.3708332 0.98618942 0.038858186 0.16099848 0
-18.84737 11.940195 -1.3703129 -0.023745589 0.12088677 0.99238229 0
-18.8452 11.940269 -1.3705378 0.29004735 0.49278808 0.82038558 0.021222686
-18.84292 11.940169 -1.370816 0.17484781 0.33108574 -0.92725968 0
-18.894632 11.774304 -1.3677616 -0.041096836 0.25577432 0.96586257 0
-18.892292 11.773916 -1.3676095 0.0049480298 -0.23097666 0.9729467 0
-18.889156 11.774554 -1.3676755 -0.90287524 0.42982236 -0.0083071264 0
-18.897947 11.777182 -1.3676362 -0.15812321 -0.22684698 0.96100861 0
-18.895397 11.776405 -1.3671415 0.12086061 0.20279463 0.97173405 0
-18.892426 11.776603 -1.3665986 -0.090129949 -0.051952425 0.99457407 0
-18.888889 11.77675 -1.3670678 0.65652126 0.75138915 -0.066288672 0
-18.88736 11.77672 -1.3677604 0.86958778 0.49323064 0.023248941 0
-18.900936 11.78014 -1.3675193 0.13846463 0.33521068 0.93191278 0
-18.898552 11.779556 -1.3668315 -0.015973294 -0.0387352 0.99912184 0.023082806
-18.895563 11.779373 -1.3661155 0.42867392 0.90294504 -0.030477634 0
-18.892584 11.77972 -1.3656026 0.059732199 0.14591403 0.98749238 0
-18.889067 11.779171 -1.3662546 0.22495575 0.9723115 -0.063287191 0
-18.886585 11.779577 -1.3673738 -0.033786401 0.25495198 0.96636325 0
-18.903772 11.783334 -1.3674785 0.05751105 0.061744332 0.99643373 0
-18.901438 11.78263 -1.3665973 -0.078522705 -0.14309761 0.98658872 0
-18.8986 11.782368 -1.3657227 -0.048623156 0.013954709 0.99871969 0
-18.895897 11.781873 -1.365311 0.021660781 0.22728612 0.97358716 0
-18.892151 11.781484 -1.3650771 -0.041527063 -0.15225178 0.98746896 0
-18.888943 11.782215 -1.3654666 0.69344401 -0.57294261 0.4368892 0
-18.886429 11.78244 -1.3667676 -0.1796342 0.18823996 0.96555543 0.010675939
-18.884712 11.78311 -1.367843 0.32264021 0.94648093 -0.0087791365 0.0171216
-18.90423 11.785583 -1.3667064 0.10219562 0.29796323 0.94909114 0
-18.901646 11.785404 -1.3655078 -0.1424934 -0.13888459 0.98000342 0
-18.898968 11.784338 -1.3650322 -0.0016617833 -0.050052963 0.9987452 0
-18.888287 11.785532 -1.3651876 -0.054803714 -0.13940731 0.98871744 0.0065201106
-18.886589 11.785007 -1.3661804 0.18808904 0.41914481 0.88822299 0
-18.884329 11.785862 -1.3674601 0.37439239 -0.92725646 0.0050843856 0.0089700511
-18.906664 11.789275 -1.3668742 0.098797411 -0.6215331 0.77713305 0
-18.904497 11.788226 -1.3656864 -0.11709345 -0.59040642 0.79856712 0
-18.902515 11.787306 -1.36514 0.016386481 -0.12025053 0.99260837 0
-18.885927 11.788516 -1.3658377 -0.047742873 0.011571054 0.99879259 0
-18.883934 11.788584 -1.3671921 0.18108138 -0.84040922 -0.51080519 0
-18.907021 11.791799 -1.3660662 -0.064390548 0.41401875 0.90798807 0
-18.90551 11.790851 -1.3652534 -0.36058137 -0.49036303 0.79342622 0
-18.885881 11.791634 -1.3653785 0.19414975 0.3539432 0.91489345 0
-18.883848 11.791561 -1.3669983 0.097782224 0.38205191 0.91895318 0
-18.909275 11.794805 -1.3672888 -0.017192762 0.093555644 0.99546564 0
-18.907017 11.79384 -1.3654763 -0.030139215 -0.00080242776 0.99954534 0
-18.885305 11.793803 -1.3654779 0.41898841 0.26221073 0.86930668 0
-18.883615 11.794816 -1.3667984 0.31637287 0.21137884 0.92478502 0.010176088
-18.909439 11.797885 -1.3662392 0.087765269 0.1175656 0.98917925 0
-18.908405 11.796588 -1.3653975 -0.0096116886 0.13617718 0.9906379 0
-18.885471 11.796755 -1.3652027 -0.060004007 0.88560325 0.46055001 0
-18.883568 11.797795 -1.366551 0.010533304 -0.086111531 0.99622983 0
-18.881872 11.797569 -1.3679379 0.17317978 -0.23398201 -0.95669287 0
-18.909979 11.800241 -1.3660122 -0.087146632 -0.10437949 0.99071211 0.009868389
-18.885445 11.800097 -1.3651452 -0.05912932 -0.01432606 0.99814755 0
-18.883476 11.800704 -1.3664073 0.0693736 0.026900738 0.99722791 0
-18.881674 11.800455 -1.3679569 0.095000185 0.0061640744 -0.99545819 0
-18.910448 11.802621 -1.3656292 0.64798915 0.24047655 0.72269022 0
-18.88332 11.803685 -1.3663244 0.1863181 0.48395213 0.85502982 0.018040972
-18.881678 11.803796 -1.3677702 -0.0009544731 0.069754869 0.99756372 0
-18.910881 11.806184 -1.3651698 0.014523829 0.032066643 0.99938023 0
-18.883144 11.806819 -1.3662187 -0.28661573 0.30855468 0.90699798 0.014381758
-18.881687 11.806815 -1.367801 -0.048488893 0.63563007 0.77046943 0.0024719702
-18.911804 11.809605 -1.3657603 -0.46314272 0.87854666 0.1168529 0
-18.882849 11.80978 -1.3662661 0.27528399 0.41472736 0.86730611 0.013601121
-18.881662 11.809452 -1.3676354 0.5385136 0.83814752 0.086670689 0
-18.882845 11.812747 -1.3659554 0.12535621 0.12997285 0.98356134 0.017769761
-18.881733 11.81245 -1.3672662 0.033445943 -0.20434345 0.97832769 0.012010648
-18.912159 11.81551 -1.3650366 -0.34916568 0.36900216 -0.86134821 0
-18.882591 11.815701 -1.3659722 -0.017377427 0.053906884 0.99839473 0
-18.881607 11.815401 -1.3671718 0.23512971 -0.9710843 -0.041343719 0
-18.912952 11.819309 -1.3654385 0.071960464 -0.064490385 0.99532044 0
-18.882452 11.818657 -1.3657813 0.15787265 0.18326251 0.97030461 0.010858723
-18.881445 11.818587 -1.3670623 0.022417385 0.053315401 0.99832606 0
-18.912987 11.822783 -1.3653511 0.0087726414 0.22939876 0.97329301 0.017278012
-18.882223 11.821631 -1.3656777 -0.1161078 0.070412554 0.99073756 0.0066317525
-18.881372 11.821235 -1.3670353 0.17205447 0.38425899 0.90705144 0
-18.913601 11.823459 -1.3664559 0.33689079 0.27999663 -0.89894742 0
-18.88225 11.824123 -1.3652977 0.024666684 -0.10025384 0.99465609 0.024457751
-18.881178 11.82474 -1.3668095 0.29329628 0.52319378 -0.80015343 0.016673842
-18.913666 11.827343 -1.3664948 -0.081533901 0.57151377 -0.8165319 0
-18.88114 11.827775 -1.366322 -0.31231031 0.17360432 0.93398273 0
-18.913446 11.830547 -1.3660848 0.023291048 0.13426217 0.99067211 0
-18.882046 11.82922 -1.3652146 0.051219456 0.5977881 0.80001622 0
-18.880737 11.830598 -1.3664213 0.42353678 0.57045865 0.70369995 0.035554487
-18.913227 11.83388 -1.365948 0.43372619 0.8394115 -0.32752103 0
-18.880465 11.833034 -1.3664236 -0.2120886 0.15858315 0.96429759 0
-18.913265 11.837372 -1.3662369 -0.25288263 -0.067334041 0.96515101 0.027458826
-18.880182 11.836212 -1.3661531 0.086183399 0.097053237 0.99154079 0.0072784778
-18.878986 11.837406 -1.3676054 0.030816657 0.1340902 0.9904899 0
-18.913044 11.839628 -1.3662734 0.16998161 0.714881 -0.67827088 0.0265742
-18.879782 11.839703 -1.3658246 0.096920408 0.19230069 0.97653824 0.019029291
-18.878807 11.840071 -1.3673811 0.10900741 0.14212839 0.98382771 0.018088702
-18.91263 11.843093 -1.3660524 0.30792561 0.95128399 0.015510734 0
-18.879326 11.842314 -1.3655776 0.58761835 0.33200994 -0.73788488 0
-18.878529 11.842546 -1.3670328 -0.032333251 -0.022185067 0.99923098 0.040072363
-18.912308 11.845392 -1.3657569 0.027308527 -0.072442569 0.99699867 0
-18.879324 11.844582 -1.3651016 0.15703592 -0.2345368 0.9593395 0.04230696
-18.878235 11.845447 -1.3665068 0.24139716 0.4353765 0.86728007 0
-18.91243 11.848045 -1.3669996 -0.016085248 0.2590676 0.96572524 0
-18.91194 11.849149 -1.3661917 -0.027987298 -0.014231855 0.99950701 0
-18.877613 11.848434 -1.3665521 0.76639605 -0.64153296 -0.032748789 0
-18.912514 11.850116 -1.3677567 0.073035225 0.11464312 0.99071836 0
-18.911478 11.851616 -1.3659633 -0.033179618 -0.20076169 0.97907805 0
-18.876976 11.851471 -1.366441 -0.046436541 0.07808058 0.99586499 0
-18.875887 11.852874 -1.3677478 0.33420622 0.42805064 -0.83968973 0.038906399
-18.911083 11.854631 -1.3659444 -0.11644627 -0.17941187 0.97685802 0.0041184425
-18.876457 11.854322 -1.3660243 0.47560811 0.63056153 0.61334252 0
-18.87566 11.854942 -1.3673804 0.091976993 -0.64864272 0.75551498 0
-18.910673 11.857479 -1.3664889 0.054265969 0.0721654 0.99591535 0
-18.876228 11.856768 -1.3654256 -0.074243717 -0.98214537 0.17285353 0.0062620346
-18.875278 11.857544 -1.3666183 -0.33479559 0.94026649 -0.061730802 0
-18.909979 11.860335 -1.366406 -0.011478396 0.030366072 0.99947298 0
-18.87447 11.860437 -1.3665211 0.65143633 0.17263474 0.73880172 0.034120262
-18.90955 11.863283 -1.3669081 0.11127754 0.47279936 0.87411559 0
-18.908764 11.863534 -1.3651989 8.914213e-05 0.25180879 0.96777695 0.010328486
-18.873604 11.863311 -1.3663185 0.7269997 0.58854502 0.35367516 0
-18.872746 11.864372 -1.3674837 -0.2056921 -0.84984022 -0.48524463 0
-18.909161 11.865751 -1.3674688 0.06347201 0.95746577 0.28147933 0
-18.907925 11.867321 -1.3655734 -0.10654747 -0.13895667 0.98455 0
-18.87319 11.865564 -1.3655432 0.25483286 0.57534975 0.77719551 0.0092629008
-18.872297 11.866738 -1.3666511 -0.10153058 0.05453464 0.9933365 0.022630777
-18.90765 11.86938 -1.366389 -0.071108781 -0.093221381 0.99310291 0
-18.871443 11.869499 -1.3664403 -0.024498284 0.13948207 0.98992157 0.034830771
-18.906729 11.872393 -1.3660555 0.045781795 0.082785755 0.99551523 0
-18.905794 11.87346 -1.3652617 -0.10665358 -0.043262944 0.99335462 0
-18.870571 11.872115 -1.3661962 0.096688412 0.2090653 0.97310996 0
-18.869736 11.873064 -1.3672704 0.2556048 0.72403538 0.6406551 0.050731152
-18.906443 11.874869 -1.3672273 -0.52440536 0.8329857 -0.17644784 0.15126564
-18.905525 11.875578 -1.365741 -0.010760638 0.14405765 0.98951083 0.0083678346
-18.870136 11.874319 -1.3652061 -0.94874185 -0.29837388 -0.10422111 0
-18.869024 11.875542 -1.3665352 -0.018712705 0.17457199 0.98446655 0
-18.904736 11.878468 -1.3660833 0.18817073 0.12985377 0.97351414 0.015565977
-18.867844 11.87841 -1.3662336 -0.24127567 -0.97024518 0.020257706 0
-18.866783 11.8795 -1.3674861 0.3381848 0.64827669 0.68217909 0
-18.90374 11.881236 -1.3660927 -0.087484874 -0.0069230115 0.99614185 0.048305731
-18.902494 11.88273 -1.3651333 -0.056332648 -0.038864702 0.99765539 0
-18.867277 11.880564 -1.365257 0.03833428 0.75250888 0.65746546 0.022904951
-18.866188 11.881515 -1.3665335 0.55510205 -0.82942492 -0.06257759 0
-18.903149 11.883786 -1.367 -0.094962373 -0.0081667481 0.9954474 0.034815632
-18.902336 11.884668 -1.3658471 -0.036697499 0.19651857 0.97981316 0.016525293
-18.864882 11.884313 -1.3662226 0.66602552 0.74480414 0.040948194 0
-18.863632 11.885554 -1.3674858 0.30924284 -0.9064613 -0.28757063 0.019690471
-18.901627 11.8873 -1.3664759 0.045837618 0.079969339 0.9957428 0.012848794
-18.864201 11.8867 -1.3652651 -0.14720483 0.029758958 0.98865825 0
-18.862938 11.887564 -1.3665059 0.58016104 0.80815333 -0.10149586 0.011397135
-18.900398 11.890024 -1.3663224 -0.02821032 0.012539662 0.99952334 0
-18.899647 11.890799 -1.3658001 -0.11715934 -0.013974624 0.99301481 0
-18.861679 11.89002 -1.3662328 -0.6233871 0.78085417 0.040685721 0
-18.860592 11.891201 -1.3670135 0.033422597 -0.99068099 -0.13203856 0.0093066478
-18.899069 11.893219 -1.366587 0.018718999 0.080138937 0.9966079 0
