# .PCD v0.7 - Point Cloud Data file format
VERSION 0.7
FIELDS x y z normal_x normal_y normal_z curvature
SIZE 4 4 4 4 4 4 4
TYPE F F F F F F F
COUNT 1 1 1 1 1 1 1
WIDTH 555
HEIGHT 1
VIEWPOINT 0 0 0 1 0 0 0
POINTS 555
DATA ascii
-0.067462362 0.055274177 -0.0065868646 -0.076167613 0.43181077 -0.89874244 0.0096080843
-0.064634077 0.054913063 -0.0066790082 0.094050698 0.57979035 -0.80931932 0.009071528
-0.061722949 0.054437246 -0.0064632236 0.18533179 0.67871672 -0.71063054 0.0061242934
-0.059616167 0.054173708 -0.0061008241 0.24161568 0.72516316 -0.64479476 0.0044536525
0.062369037 0.05428708 -0.0062913317 -0.31676376 0.60764629 -0.72830403 0.0064776707
0.064810999 0.054948688 -0.0065548196 -0.11871161 0.47479036 -0.87205595 0.0098742731
0.067484684 0.055271029 -0.006481891 0.14440361 0.33860627 -0.92978138 0.017554777
0.06924206 0.054769766 -0.0061437511 0.47109592 0.23649912 -0.84978628 0.01211035
0.06731125 0.057044812 -0.0060305772 0.048399147 0.32937571 -0.94295764 0.02242288
-0.015118916 0.0029815002 -0.0033263473 -0.26975223 -0.91329777 -0.30515715 0.0022566058
-0.012905528 0.0026668501 -0.004094447 -0.21763881 -0.91352689 -0.34365976 0.0018566527
-0.010302236 0.0024247151 -0.0048419824 -0.14981519 -0.91255879 -0.3805154 0.0014782459
-0.0074467808 0.0020205162 -0.0048339106 -0.13151018 -0.90957367 -0.39418364 0.0013882985
-0.00435297 0.0015647473 -0.0047734668 -0.099661671 -0.91794956 -0.38397422 0.0015469962
-0.0014916422 0.0013336415 -0.0046941028 -0.047406167 -0.93388116 -0.35442716 0.0024134223
0.0014064084 0.0012597766 -0.0048350054 -0.038545597 -0.92215484 -0.3848958 0.0026427954
0.0046751052 0.0011059176 -0.0046291468 0.0047517009 -0.91784894 -0.3969014 0.0017257794
0.0073145619 0.0011383831 -0.0044414974 0.049362838 -0.9274658 -0.37063509 0.0019709384
0.010446317 0.0013801845 -0.0047341646 0.063536882 -0.92541623 -0.37358794 0.0020491974
0.013435838 0.0017118522 -0.0048630154 0.10045438 -0.92791027 -0.35901463 0.0017114725
0.016518366 0.0020494384 -0.004676593 0.12859604 -0.93561304 -0.32877266 0.0016118017
0.01951454 0.0024821474 -0.0046699131 0.16388829 -0.93622565 -0.31084108 0.0015319525
0.021903327 0.0026808917 -0.0037149121 0.2008051 -0.94387597 -0.2622506 0.0015296431
0.024115162 0.0029338498 -0.0030937726 0.19275101 -0.97052187 -0.14468704 0.0021647774
-0.024358079 0.0059464248 -0.0032468725 -0.34430262 -0.91492319 -0.21064499 0.0016206775
-0.022010872 0.0055319853 -0.0044998932 -0.30894929 -0.87402183 -0.37501472 0.0013077171
-0.019348584 0.0047266963 -0.0048637921 -0.26640472 -0.87552577 -0.40309197 0.0015223874
-0.016420493 0.0039389296 -0.0049312818 -0.25029519 -0.88835925 -0.38492864 0.0013425229
-0.013809564 0.0033917986 -0.0053668348 -0.21860504 -0.8813625 -0.41882208 0.0012883765
-0.011381481 0.0030664736 -0.0058711967 -0.16462553 -0.88465399 -0.43621761 0.0028096077
0.020692548 0.0031330602 -0.0058666579 0.16950172 -0.9206236 -0.35174048 0.0018496471
0.022849789 0.0032888767 -0.00506109 0.2060366 -0.92630142 -0.31545952 0.0016378069
0.025788128 0.0038726288 -0.0048082536 0.24073352 -0.91696519 -0.31815442 0.0012373251
0.02852935 0.0046033091 -0.0046835113 0.26012772 -0.91288626 -0.3145985 0.001777105
0.031327814 0.0053901505 -0.0045612003 0.28312975 -0.91426909 -0.28974038 0.0019942413
0.03335448 0.0057102665 -0.0035427543 0.32267854 -0.91414851 -0.24537939 0.0020636918
-0.030363759 0.0088128923 -0.0046004374 -0.34599128 -0.85571438 -0.38476336 0.0010870636
-0.028378159 0.0081685595 -0.0050379881 -0.33116496 -0.85413432 -0.40097934 0.0011803064
-0.025587216 0.007039167 -0.0049199779 -0.32536718 -0.85870612 -0.3959294 0.0011527248
-0.023258135 0.0063281492 -0.0053973766 -0.32951397 -0.85578156 -0.39882135 0.0014585267
0.032644093 0.006142633 -0.0057013268 0.30802014 -0.89264488 -0.3291029 0.0021314337
0.034612697 0.0065360866 -0.0046019885 0.34721544 -0.8950668 -0.27981552 0.0014153434
0.037615374 0.0077098897 -0.0047089034 0.34894934 -0.89090914 -0.29071519 0.0016709812
0.039856311 0.0084708994 -0.0042275386 0.38604206 -0.8879934 -0.24987859 0.0020248683
-0.036609001 0.011625757 -0.0047571776 -0.40345949 -0.8360737 -0.37175435 0.0018187325
-0.034399994 0.010720742 -0.0050954209 -0.38865873 -0.84079015 -0.37685046 0.0011927682
-0.031707615 0.0096108681 -0.005199743 -0.3672289 -0.84758782 -0.3830637 0.0015423999
-0.02973954 0.0090996027 -0.0059567415 -0.37155092 -0.83044016 -0.41511342 0.0017690497
0.041243922 0.0093619656 -0.0049480172 0.41365427 -0.86924636 -0.27074131 0.0016788504
0.043518752 0.010308912 -0.0045649144 0.42040411 -0.86042202 -0.28798321 0.0014170285
0.046024919 0.011464441 -0.00428394 0.4423728 -0.85019004 -0.28545243 0.0017396843
-0.042357229 0.014681675 -0.0047598975 -0.47541103 -0.78388584 -0.3993836 0.0010764773
-0.040259555 0.013696974 -0.005110207 -0.43602553 -0.79818302 -0.4156749 0.0011506218
-0.037934229 0.01258484 -0.0053544315 -0.42026249 -0.8104431 -0.40811935 0.00083902292
0.04735769 0.012467613 -0.0049667521 0.47586522 -0.83180839 -0.28573945 0.0013413602
0.04939682 0.013532922 -0.00464326 0.49251702 -0.81778836 -0.29774016 0.0015485508
0.051593646 0.014659405 -0.0041718339 0.50893784 -0.81211942 -0.28538468 0.0018157727
-0.046141498 0.017194126 -0.0045432588 -0.53641826 -0.77518576 -0.33368006 0.001509455
-0.04368202 0.015837897 -0.0052811811 -0.5019744 -0.77009034 -0.39367837 0.00095540378
0.052848596 0.015759148 -0.0047748322 0.53554302 -0.79314858 -0.29001546 0.0014116403
0.055116586 0.01717467 -0.0043111467 0.56295794 -0.77140582 -0.29666725 0.0016877471
-0.051452208 0.02076539 -0.0037827545 -0.56776792 -0.76983333 -0.29154107 0.0016005082
-0.049890485 0.020073617 -0.0049451538 -0.55176663 -0.7369405 -0.39047694 0.00096193375
-0.047351923 0.018391645 -0.0053605167 -0.5347572 -0.74852049 -0.3921119 0.0011691406
0.056380622 0.018355347 -0.0050426312 0.57902956 -0.75962871 -0.2961233 0.0020217814
0.058407284 0.019741843 -0.004440662 0.61195803 -0.72587806 -0.31402004 0.0020169746
0.060185585 0.020821359 -0.0034491499 0.64395851 -0.71421784 -0.27424514 0.0025086356
-0.054441839 0.023510102 -0.0048742616 -0.57643461 -0.71728528 -0.39143947 0.0010741532
-0.053199481 0.022525856 -0.0049195769 -0.56607342 -0.72406673 -0.39406624 0.0010184079
-0.050628204 0.021091435 -0.0058827898 -0.54840094 -0.71058011 -0.44083139 0.001018253
0.059638143 0.021291019 -0.0053308257 0.62860632 -0.6950286 -0.34898323 0.0018578144
0.061472964 0.022533659 -0.0044205501 0.66945469 -0.67729425 -0.30512771 0.00116555
0.063265167 0.023788271 -0.0033822753 0.70344806 -0.64564246 -0.2971642 0.001821807
-0.057891179 0.02616182 -0.0044094622 -0.62134832 -0.69800848 -0.355964 0.0015474895
-0.055659745 0.024724495 -0.0052877492 -0.5818544 -0.70108545 -0.41221926 0.0012008351
0.062735982 0.0242396 -0.0053423904 0.68713415 -0.62599182 -0.36875597 0.0018761533
0.064336382 0.025681317 -0.0045367633 0.72730821 -0.59318066 -0.34519479 0.0018547281
0.066011406 0.026920883 -0.0032644246 0.76384246 -0.57205939 -0.29881912 0.0019229675
-0.060800012 0.029016126 -0.0044603036 -0.6812669 -0.64331889 -0.34930822 0.0019089372
-0.059559546 0.028049102 -0.0050744512 -0.64363199 -0.64530265 -0.41148791 0.001119137
0.065507405 0.027639067 -0.0052531292 0.74856186 -0.54823309 -0.37295508 0.0022748297
0.066769511 0.028895546 -0.004417486 0.77900535 -0.50728995 -0.36852089 0.0023209157
-0.063406534 0.031984705 -0.0046307379 -0.70170766 -0.56515259 -0.43383041 0.0011670649
-0.062049937 0.030929383 -0.0053900108 -0.68526208 -0.58475703 -0.43413723 0.0013072834
-0.0094073564 0.032992724 -0.0059827995 0.20120321 0.87914997 -0.43198678 0.00051146245
-0.0073698252 0.032860603 -0.0055361115 0.17144375 0.90692419 -0.38483196 0.0020665813
-0.0043097069 0.032614402 -0.0049932837 0.13835083 0.91065902 -0.38930607 0.001763304
-0.0015064325 0.032398991 -0.0046667149 0.10219113 0.9253251 -0.36514434 0.0020472032
0.0015368318 0.03220287 -0.0045857928 0.06138226 0.93091232 -0.36004779 0.0026441826
0.0043557892 0.032166809 -0.0044435156 0.020578334 0.93397325 -0.35674986 0.0024596702
0.0074831243 0.032127123 -0.0045521762 -0.046986833 0.94571114 -0.32159415 0.0027625812
0.010418121 0.032248046 -0.0047603305 -0.09824691 0.92746586 -0.36076969 0.0028960959
0.013490262 0.032567903 -0.0048133633 -0.14594731 0.92352003 -0.35469723 0.0022040461
0.016066527 0.032788832 -0.0054293289 -0.19591352 0.90698165 -0.37282977 0.0023094115
0.067991443 0.031297136 -0.0048797703 0.80838144 -0.42112586 -0.4113059 0.0023552717
0.069190755 0.032462534 -0.0035704575 0.83548653 -0.41480434 -0.36041582 0.002397062
-0.066537365 0.035579093 -0.0039033692 -0.75286812 -0.5210852 -0.40206933 0.0018538604
-0.064729616 0.034048975 -0.0051140576 -0.71057832 -0.52597231 -0.46736661 0.0015372925
-0.018638607 0.035782777 -0.0055077714 0.30384803 0.88319814 -0.35726359 0.00254336
-0.016417451 0.035379514 -0.0049514119 0.27333021 0.89289814 -0.35780364 0.0018877604
-0.013416351 0.034591939 -0.0047107516 0.25273719 0.89502144 -0.36750567 0.0020431865
-0.010637465 0.033892557 -0.0046002129 0.20054129 0.91654474 -0.34601867 0.002247768
-0.0075902464 0.033439841 -0.0042126472 0.16103879 0.92448735 -0.3455281 0.0025728
-0.0051256493 0.033300824 -0.0034203213 0.13996994 0.95600897 -0.25778911 0.002291692
0.014141371 0.033102155 -0.0036406547 -0.14615664 0.9524048 -0.26751316 0.0016844183
0.016694495 0.033400223 -0.0040870328 -0.19223617 0.9294849 -0.31480646 0.0024092032
0.019548066 0.033867121 -0.0047358265 -0.23036027 0.9088096 -0.34784928 0.0020016059
0.022546271 0.034765583 -0.004597913 -0.26722121 0.90003526 -0.34428114 0.0012951687
0.025187394 0.035448197 -0.0047934055 -0.27545571 0.89094526 -0.36102724 0.0014585572
0.027245596 0.035767209 -0.0055363909 -0.29278836 0.88903439 -0.35198417 0.0018268507
0.068726845 0.033495776 -0.0055980398 0.82993573 -0.34502783 -0.43836328 0.002409463
0.069704585 0.034710567 -0.0046077007 0.85276848 -0.32080472 -0.4121533 0.002654654
-0.066899091 0.037127711 -0.0051044053 -0.7344594 -0.45995918 -0.499006 0.0019443117
-0.065975226 0.036123693 -0.00584818 -0.75924575 -0.47275913 -0.44726366 0.0059917374
-0.027109541 0.038969979 -0.0057420991 0.38464102 0.85317916 -0.35233021 0.0033622552
-0.025203632 0.038553804 -0.0049946122 0.36895162 0.86763537 -0.33329201 0.0019617677
-0.022477351 0.037578486 -0.0045936061 0.34960476 0.8791014 -0.32397109 0.0022303886
-0.019847266 0.036625281 -0.004447809 0.306979 0.89485359 -0.32403836 0.0023957314
-0.017591096 0.036250375 -0.0035857086 0.2823121 0.91197902 -0.29764742 0.0018059216
0.026440276 0.036141075 -0.003844379 -0.2828494 0.9021132 -0.32586506 0.0013682171
0.028366877 0.036543641 -0.0044884509 -0.29524919 0.89066434 -0.34575263 0.0013085853
0.031579658 0.037608568 -0.0046870988 -0.34223709 0.86361402 -0.37019521 0.0015670508
0.034054197 0.038574424 -0.0049713906 -0.38506979 0.85080045 -0.35757491 0.0020198296
0.070614539 0.037515115 -0.0046797153 0.87267232 -0.23808575 -0.42633095 0.0025697288
-0.069562219 0.041124094 -0.0044390578 -0.79196417 -0.36445847 -0.48986 0.0030505564
-0.068581 0.040439561 -0.0055207708 -0.75054854 -0.35611519 -0.55664957 0.0029987472
-0.033177897 0.041881915 -0.0057273321 0.41587114 0.83253211 -0.36598024 0.002552934
-0.031327836 0.041388068 -0.004768753 0.42058161 0.84782463 -0.32296208 0.0019402459
-0.028533515 0.040094811 -0.0046238052 0.37878281 0.87073922 -0.31358701 0.0021395865
-0.026287878 0.039376453 -0.0040896717 0.36133686 0.87511384 -0.32188728 0.0019980865
0.035231631 0.039436918 -0.0041175042 -0.40814087 0.84520626 -0.34503239 0.0016354835
0.037422817 0.040367648 -0.0046297642 -0.45347229 0.81365359 -0.36377296 0.001514769
0.039512511 0.041497454 -0.0049005579 -0.48725301 0.79678088 -0.35738593 0.00097204337
0.071242675 0.040421847 -0.0047427756 0.87852407 -0.15296946 -0.45254374 0.002508892
0.072074242 0.041427799 -0.0032367015 0.94470334 -0.15499353 -0.28898525 0.0038694439
-0.070054695 0.043516383 -0.0051284484 -0.75646418 -0.24188125 -0.60766387 0.0025771016
-0.039079703 0.044927549 -0.0058068139 0.44706199 0.80141228 -0.39733341 0.002567586
-0.037187438 0.044352151 -0.0047583845 0.43788859 0.83497769 -0.33326557 0.001969527
-0.034569398 0.043097261 -0.0045398367 0.42847055 0.84755784 -0.31314301 0.0022202432
-0.032442924 0.042318203 -0.0038683261 0.41968456 0.85727161 -0.29824525 0.0026859867
0.040995821 0.042595521 -0.0043823295 -0.48043597 0.79752588 -0.36487499 0.0012285925
0.043546874 0.044045065 -0.0047955369 -0.48682502 0.78090471 -0.3913939 0.001059309
0.045339305 0.044797242 -0.0056605958 -0.47073519 0.79700899 -0.37839815 0.0039779977
0.071419112 0.043400943 -0.0050727981 0.86070871 -0.052760817 -0.50635654 0.0031675752
0.072185971 0.043681804 -0.0036043292 0.9062373 -0.065473989 -0.41766864 0.0032297196
-0.072252877 0.047019329 -0.0034695386 -0.80410993 -0.24256092 -0.54274428 0.0028641294
-0.071084544 0.046596341 -0.0050510806 -0.72802597 -0.15736751 -0.66724336 0.0029893913
-0.042976819 0.04741383 -0.004928913 0.44888785 0.82079476 -0.35326439 0.0023902019
-0.040487159 0.046214718 -0.0045341626 0.45726851 0.82589608 -0.32985023 0.0022857576
-0.038354203 0.045323987 -0.0038420022 0.45143697 0.84226632 -0.29460505 0.0027814305
0.044809733 0.04527555 -0.0037515231 -0.50052893 0.78632736 -0.36216018 0.001217453
0.046670329 0.046077926 -0.0047016093 -0.48664019 0.76392764 -0.42378742 0.001557537
0.049140774 0.047406115 -0.0052365479 -0.46598732 0.75573611 -0.46012923 0.0016891755
0.071452111 0.046504784 -0.0050474177 0.83820617 0.024092132 -0.54482096 0.0030955907
0.072238766 0.04674311 -0.0036217675 0.90300477 -0.0029835966 -0.4296203 0.0031157583
-0.072537556 0.049997479 -0.0041715731 -0.71958268 -0.15607087 -0.67664069 0.0029639415
-0.071275882 0.049517576 -0.0055536595 -0.69152671 -0.088869661 -0.71686327 0.004073082
-0.051013969 0.050940279 -0.0059834016 0.34973305 0.76198101 -0.54504287 0.0020427029
-0.048904732 0.050487541 -0.0052013579 0.41580161 0.80965263 -0.41421211 0.0028941073
-0.046491198 0.049490545 -0.0045459466 0.43507487 0.82125008 -0.36913148 0.0027008802
-0.044136342 0.048412774 -0.004043988 0.43968904 0.83317894 -0.33538991 0.0024412323
0.050218884 0.048536342 -0.0043609273 -0.46926332 0.76603585 -0.4392961 0.0015932689
0.052359082 0.049617089 -0.0048771366 -0.4672415 0.75450766 -0.46087256 0.0017187515
0.054495759 0.050569724 -0.0054955194 -0.45095354 0.74528116 -0.49111807 0.0028585449
0.071280248 0.049532991 -0.0051053609 0.8058607 0.061106533 -0.58894348 0.0045573912
0.072316058 0.04952611 -0.0034717142 0.8800295 0.01566815 -0.47466055 0.0043197856
-0.07309331 0.052681882 -0.0043763006 -0.62534958 -0.06112884 -0.77794683 0.0065847612
-0.071486548 0.052679468 -0.0056667784 -0.55926931 0.023569196 -0.82865089 0.0073171007
-0.057440557 0.053720228 -0.0057664495 0.24405316 0.77608562 -0.58148873 0.0031995098
-0.055227578 0.053431675 -0.0049834447 0.30296221 0.83568764 -0.458083 0.0035733478
-0.05245249 0.052474555 -0.0047127414 0.36174697 0.82379818 -0.43645802 0.002623521
-0.050040189 0.051447872 -0.0043411921 0.41146114 0.82084882 -0.39611468 0.0023245707
0.053738721 0.051183861 -0.0034885108 -0.48426473 0.77866989 -0.39894968 0.0019986858
0.055759739 0.051808693 -0.0046569151 -0.43980601 0.75022382 -0.49369517 0.0022860896
0.058295004 0.053063732 -0.0050410843 -0.41432893 0.71703672 -0.56052643 0.0044745314
0.060312971 0.053748012 -0.0057201562 -0.40412265 0.67115933 -0.62147409 0.0052149091
0.071027212 0.052570317 -0.0050782575 0.73483336 0.0806669 -0.6734336 0.0050926679
0.072344743 0.052503932 -0.0033892521 0.81148618 0.032442987 -0.58347034 0.0051126587
-0.075161919 0.055604562 -0.0031069403 -0.6480791 0.041523568 -0.76044023 0.025438461
-0.073292032 0.055498783 -0.004583498 -0.54032862 0.14095844 -0.82956362 0.019461902
-0.07085254 0.055925574 -0.005684929 -0.30117577 0.22459526 -0.92674166 0.014885321
-0.067431256 0.056747857 -0.0058038044 0.037706636 0.5451194 -0.83750999 0.0084643206
-0.064194575 0.056271475 -0.0055097719 0.20740345 0.65216684 -0.72915173 0.0063473973
-0.061565265 0.055871531 -0.0047129132 0.29654092 0.74912483 -0.59234744 0.0065934248
-0.058698501 0.054900948 -0.0045061265 0.27966464 0.81528383 -0.50705022 0.0032329052
-0.056149304 0.054299898 -0.0038902401 0.32335231 0.85375613 -0.40809765 0.0024838026
0.059354655 0.054412525 -0.0041095437 -0.46086434 0.69608641 -0.55051595 0.003374509
0.061582573 0.055385612 -0.0047151837 -0.41331345 0.66156304 -0.62570465 0.0057003591
0.064215295 0.056265693 -0.0054984963 -0.25202897 0.54827303 -0.79741961 0.010404293
0.067625336 0.056715667 -0.0059107584 0.054255098 0.38735002 -0.92033494 0.016307006
0.070659257 0.055560604 -0.0049940166 0.55515712 0.12326756 -0.82256049 0.012198086
0.072251737 0.0553657 -0.0033946428 0.75642961 0.036850285 -0.6530363 0.0068566152
-0.072800308 0.057575133 -0.0045301621 -0.38352209 0.41631836 -0.82437235 0.028604044
-0.070321925 0.058308378 -0.0049059377 -0.15189381 0.5768286 -0.8026188 0.021120029
-0.067542873 0.05846281 -0.0045881048 0.15376104 0.64902806 -0.7450639 0.0089619486
-0.064685345 0.057866175 -0.0041476502 0.31040424 0.70473105 -0.63796806 0.0063556153
-0.062534407 0.057338588 -0.0033772339 0.42283335 0.76532722 -0.48526919 0.0085329572
0.06264361 0.057278667 -0.0034967964 -0.47344527 0.61395735 -0.63159001 0.0085660554
0.064786762 0.058298454 -0.0043817367 -0.42213303 0.44596341 -0.78925306 0.012022097
0.067566924 0.05848081 -0.005322624 -0.0090302406 0.31948566 -0.94754815 0.017493777
0.070526473 0.058540974 -0.0046178703 0.47613356 0.11174765 -0.87224382 0.019029019
0.072221883 0.058549907 -0.0033512432 0.73960179 0.022838712 -0.67265713 0.018488126
-0.069254383 0.060088135 -0.0033086902 -0.061561488 0.83824319 -0.54181051 0.024461735
-0.067945115 0.060083739 -0.0032690072 0.19545001 0.78122848 -0.59285873 0.022622444
0.06560909 0.061031617 -0.003492268 -0.484712 0.31037319 -0.81775475 0.011527999
0.067594163 0.061463911 -0.0043784776 -0.23115869 0.25033775 -0.94015771 0.02032581
0.070529588 0.061532419 -0.0043403683 0.32403636 0.089586087 -0.94179338 0.023829097
0.072361805 0.06154621 -0.0033547804 0.64358866 -0.015234302 -0.76522005 0.021018386
0.067838706 0.064433642 -0.0038159217 -0.32781169 0.1301723 -0.93573213 0.01931425
0.070511445 0.064511709 -0.004150806 0.17464291 0.023494476 -0.98435152 0.02800329
0.072513461 0.064633034 -0.0033689747 0.52278697 -0.062731959 -0.85015202 0.024262004
0.068165012 0.067386299 -0.0036014777 -0.40119645 0.060957436 -0.91396147 0.014997136
0.070562594 0.067462996 -0.0042017205 -0.022864254 -0.0097495951 -0.99969101 0.026442612
0.072878204 0.067584798 -0.0035804862 0.51482183 -0.11217481 -0.84992665 0.015734555
0.068463393 0.070224784 -0.0034423023 -0.39851865 0.034147102 -0.91652441 0.019275667
0.07058987 0.070456982 -0.0042512077 -0.14285366 -0.050079156 -0.9884761 0.02405142
0.073342942 0.070594631 -0.0038471853 0.39160648 -0.19242404 -0.89978737 0.019983765
0.075108945 0.071625642 -0.0031312425 0.67180556 -0.22288206 -0.70639992 0.015582071
0.068714097 0.073535383 -0.0034120358 -0.59149051 0.11331453 -0.79830992 0.021934044
0.070597775 0.073450677 -0.0044681225 -0.26851287 0.015194028 -0.96315628 0.024783708
0.073528774 0.073479988 -0.0045230095 0.35827056 -0.050693095 -0.93224055 0.046434
0.075541407 0.073835276 -0.0035490606 0.60866976 -0.12189765 -0.78400391 0.060214996
0.068855084 0.075784698 -0.0033149268 -0.45817351 0.32562158 -0.82707173 0.051744021
0.070593305 0.075790845 -0.0043895803 -0.1904826 0.28666997 -0.93890184 0.060840312
0.073276468 0.075447693 -0.0046491674 0.18375729 0.31247136 -0.93198436 0.056620155
0.075284824 0.075100861 -0.0035691657 0.66896391 0.25633591 -0.69769567 0.078652427
-0.015757442 0.0028357452 -0.0014703493 -0.24615867 -0.95580816 -0.1607379 0.0010988682
-0.014016793 0.0024501402 -0.0020393308 -0.22947207 -0.93794906 -0.25998861 0.0011449059
-0.01041688 0.0016901949 -0.0021961231 -0.16184004 -0.94931346 -0.26946571 0.0017678014
-0.0076178461 0.0012665695 -0.0020347661 -0.14039332 -0.960154 -0.24164842 0.0019093712
-0.0042857039 0.00085243629 -0.0022569278 -0.083831303 -0.96539295 -0.24695934 0.0028030849
-0.0010642705 0.00050639879 -0.0012450926 -0.054032911 -0.97465301 -0.21709885 0.0025157831
0.0015843799 0.00052470877 -0.0021886649 -0.032650545 -0.9651897 -0.25950509 0.0019163912
0.0044585853 0.00035913213 -0.0016016274 0.012172138 -0.9907428 -0.13520537 0.0050358893
0.0074719694 0.00046446189 -0.0014005152 0.044351332 -0.9912259 -0.12451606 0.0035274159
0.010570848 0.00071100314 -0.0020312693 0.085964009 -0.9735201 -0.21182251 0.0030900293
0.013132846 0.00088228507 -0.0014667329 0.11395994 -0.96816486 -0.22286749 0.0020846764
0.016645439 0.0013881039 -0.0017222499 0.13661885 -0.97156864 -0.19336444 0.0021621655
0.019625686 0.0018347454 -0.0017165196 0.1768017 -0.96845382 -0.17560834 0.0016154733
0.022428202 0.0024192051 -0.0016296364 0.20505652 -0.96553147 -0.16031486 0.0012387857
0.024868155 0.0028951033 -0.0011606358 0.23148359 -0.96233004 -0.14260525 0.0011297206
-0.0246075 0.0057529132 -0.0015279067 -0.35028142 -0.91603327 -0.19541217 0.00069841446
-0.02250699 0.0049504065 -0.0015538879 -0.33606163 -0.92092216 -0.19739529 0.00044324272
-0.019366715 0.0038480929 -0.0015328347 -0.29395962 -0.93946105 -0.17607 0.000644674
-0.017086314 0.0033409277 -0.0022939495 -0.26353785 -0.92828721 -0.26235592 0.00081048656
0.025960971 0.0032396629 -0.0019634918 0.25243819 -0.95267737 -0.16935401 0.0013337431
0.02830863 0.0038466922 -0.0014504087 0.27041259 -0.95084375 -0.15090801 0.00091699971
0.031373899 0.0047591175 -0.0014504452 0.29207847 -0.94576371 -0.14220116 0.00095350703
0.033965372 0.005610202 -0.0013433808 0.3262873 -0.93469918 -0.1409754 0.0015043624
-0.031328488 0.0084679099 -0.0015877526 -0.36832204 -0.9013952 -0.22765245 0.0004994811
-0.028665101 0.0074162837 -0.0019379711 -0.3540903 -0.90597242 -0.23202176 0.0012164185
-0.025965868 0.0063825822 -0.0021837745 -0.34335878 -0.90454328 -0.25279689 0.0015315999
0.035324328 0.0061787209 -0.0017999792 0.35563099 -0.9253276 -0.13151196 0.0011938219
0.037495531 0.0069806711 -0.001556599 0.36704484 -0.92197645 -0.12344054 0.0010905846
0.040385131 0.0081827492 -0.0015352662 0.39458063 -0.90545118 -0.15641116 0.0011225645
0.042182781 0.0089185722 -0.00065170485 0.42226973 -0.8963272 -0.13522521 0.0013198786
-0.037453055 0.011255396 -0.0016598171 -0.42464906 -0.8753981 -0.23097926 0.00083667901
-0.034667734 0.0099655082 -0.002121385 -0.39952722 -0.87856811 -0.26171774 0.00063324079
-0.032701701 0.0090936953 -0.0021291373 -0.37536222 -0.89731097 -0.23224185 0.00066702469
0.041842349 0.0090299072 -0.002840454 0.40945581 -0.89228851 -0.19017659 0.0021866814
0.043579318 0.0097033456 -0.001663023 0.43514013 -0.88697523 -0.15468661 0.0010985621
0.046524547 0.011170294 -0.0014971067 0.45954812 -0.87357402 -0.16026203 0.0011392976
0.048103366 0.011931448 -0.00063548854 0.46274149 -0.88323909 -0.075888917 0.0028735942
-0.042991158 0.014245973 -0.0015704151 -0.50926811 -0.8320204 -0.21997252 0.0024592634
-0.040523734 0.01289017 -0.001751101 -0.46574527 -0.85228515 -0.2380996 0.00083797314
-0.038763996 0.01205958 -0.0025725674 -0.45455003 -0.85886323 -0.23608938 0.00085202901
0.047936745 0.012042274 -0.0021643089 0.48776361 -0.86610794 -0.10928718 0.0022265445
0.049591944 0.012937681 -0.0016119102 0.50859416 -0.84849966 -0.1462203 0.00094687595
0.051976033 0.014329791 -0.0014184091 0.52938735 -0.83610225 -0.14381231 0.0012659839
-0.048189282 0.017795507 -0.0012685026 -0.56763101 -0.79014319 -0.23123337 0.00086452806
-0.046574038 0.016724437 -0.001593071 -0.55147231 -0.79726547 -0.24545085 0.002371798
-0.044576105 0.015363473 -0.0018901443 -0.55451655 -0.79801208 -0.2359831 0.0026271951
0.053404301 0.015351385 -0.0017777915 0.55932248 -0.81814015 -0.1334359 0.0013326751
0.055467367 0.016737722 -0.0014254863 0.56693149 -0.81126434 -0.14296515 0.0013470703
0.057248421 0.017903527 -0.00098204252 0.5927512 -0.79256409 -0.1431368 0.001554212
-0.051686306 0.020457303 -0.0016738125 -0.59505427 -0.77662373 -0.20679936 0.00095187174
-0.049599346 0.01887013 -0.0015586087 -0.57046038 -0.78723568 -0.23416851 0.00070913677
0.056906279 0.018040318 -0.0029298898 0.58821088 -0.76920009 -0.24967845 0.0019434284
0.058656588 0.019130958 -0.0016200845 0.61824244 -0.77254033 -0.14476767 0.0018424735
0.060419507 0.020563962 -0.0013554858 0.65478969 -0.74187279 -0.14448255 0.0025603678
-0.055077586 0.023049904 -0.0017261117 -0.60991353 -0.76680547 -0.20003706 0.00082442112
-0.053160112 0.02156016 -0.0017211973 -0.59949827 -0.77049589 -0.21665165 0.0014557118
0.061888974 0.021997163 -0.001638053 0.69569731 -0.70714343 -0.12630711 0.0030451724
0.06339068 0.023491658 -0.0015398437 0.72307652 -0.67685336 -0.13794833 0.0031044255
-0.058345105 0.025740614 -0.0016357609 -0.65055156 -0.73113102 -0.20549946 0.0007700639
-0.056643028 0.024326941 -0.0015760754 -0.62244666 -0.75545323 -0.20457414 0.0010026788
0.064918645 0.025248513 -0.0016228431 0.76462823 -0.62253261 -0.16672336 0.0023391678
0.066200815 0.026742313 -0.001022257 0.79581159 -0.58619797 -0.15184136 0.002620412
-0.061423808 0.028650334 -0.0012573266 -0.71290725 -0.67752403 -0.18089904 0.00091514207
-0.059848793 0.027102351 -0.0021255629 -0.67362052 -0.70227939 -0.23030217 0.0012528416
0.067481749 0.028698929 -0.0017137749 0.82316333 -0.53921759 -0.17789486 0.0023311919
-0.063896909 0.031480979 -0.0021053266 -0.73991972 -0.62583619 -0.24667355 0.0013217339
-0.06278304 0.030248582 -0.0024911845 -0.73953503 -0.65293992 -0.16357692 0.0011942474
-0.00070216827 0.032931969 -0.0025461051 0.092660531 0.97714126 -0.19133468 0.001918059
0.0015336854 0.032901581 -0.0015899939 0.059608184 0.97343111 -0.22108543 0.0019020934
0.0044455202 0.032869272 -0.0011357046 0.017693944 0.97329992 -0.22885416 0.0020123904
0.0073865079 0.03286586 -0.0012070696 -0.046450339 0.97429764 -0.22042339 0.0026226735
0.010319802 0.032896731 -0.0023063268 -0.088963673 0.96559501 -0.24435998 0.0018521155
0.012219735 0.032963 -0.0027582741 -0.1236884 0.98100579 -0.14942819 0.0022730026
0.068662904 0.030628104 -0.0017612638 0.85384154 -0.50395244 -0.13033254 0.0030719633
0.069485255 0.032033782 -0.0015414525 0.88590342 -0.43110019 -0.17125319 0.003687575
-0.066584557 0.034794826 -0.0018624499 -0.78524864 -0.57257056 -0.23568532 0.0019521377
-0.065590009 0.033617362 -0.0021907864 -0.77944952 -0.6044243 -0.16471086 0.0020947994
-0.015595014 0.035897706 -0.0020699401 0.28610119 0.94601685 -0.1523097 0.0023999156
-0.013480533 0.035345405 -0.0015825124 0.26801959 0.95288515 -0.14204018 0.0016875581
-0.010532681 0.034589574 -0.0014072286 0.21143661 0.95912015 -0.18810406 0.0022615618
-0.0074027497 0.033959683 -0.0014562504 0.16284181 0.96933717 -0.18403278 0.0015733915
-0.0043577026 0.033477664 -0.0016105162 0.13216566 0.97637498 -0.1709507 0.0014916747
-0.0021925892 0.033325579 -0.00074348046 0.10144713 0.98078042 -0.1666678 0.0013808842
0.00097454595 0.03308031 -0.00052055356 0.044461545 0.99782485 -0.048670903 0.0020199048
0.004783025 0.033014752 -7.3329655e-05 0.0096455486 0.99995315 -0.00077614468 0.0021230895
0.0084159095 0.033027403 -0.00032755436 -0.034054767 0.99923652 -0.019147329 0.0014238163
0.010793788 0.033119157 -0.00083913887 -0.079627357 0.99375653 -0.078150071 0.0027862438
0.013679051 0.03335711 -0.0016408435 -0.14924106 0.96589333 -0.21160631 0.0022410101
0.016366977 0.033850871 -0.0014103188 -0.18518125 0.95999914 -0.21002276 0.0024023782
0.01917745 0.03445752 -0.0016808884 -0.236396 0.95262223 -0.19138384 0.0021919634
0.022504937 0.035380971 -0.0016066553 -0.27447391 0.9540211 -0.12044799 0.0015455746
0.024365202 0.03586993 -0.0018964644 -0.30371219 0.94464117 -0.12414514 0.0019575907
0.070517831 0.034478579 -0.0019195951 0.91184616 -0.34765223 -0.21834487 0.0025972428
-0.069250897 0.038630903 -0.0016894313 -0.83787864 -0.46684539 -0.28286892 0.0027870331
-0.068188839 0.037234858 -0.0022685952 -0.79306185 -0.50437468 -0.34155387 0.00168021
-0.024250226 0.038920663 -0.002141692 0.38209167 0.9139514 -0.13674393 0.0017993217
-0.022640048 0.038346328 -0.0014818325 0.37116224 0.91564673 -0.15436837 0.0014518566
-0.019688074 0.037196897 -0.0014917391 0.31238589 0.93642491 -0.15976097 0.0023806309
-0.016924679 0.036382034 -0.0013899752 0.27737516 0.95153707 -0.13281648 0.0022367155
0.02584118 0.036373142 -0.0013626827 -0.2855548 0.94749355 -0.14392506 0.0019784658
0.028586987 0.037246075 -0.0015249773 -0.30523103 0.93991852 -0.15292868 0.0011238649
0.031390343 0.038259342 -0.0013761914 -0.36136517 0.92086864 -0.14634255 0.0020051023
0.033118248 0.038860466 -0.0022445871 -0.40140668 0.90772855 -0.12207162 0.0032080519
0.071541943 0.037397008 -0.0018435669 0.92961168 -0.29486006 -0.22108731 0.0028962523
0.072098546 0.038640682 -0.00076173962 0.9557842 -0.24641001 -0.16049537 0.0051302495
-0.070171148 0.040451132 -0.0021514122 -0.8273387 -0.41133118 -0.38251454 0.0029376401
-0.030622358 0.041770153 -0.0018554791 0.45759624 0.87773627 -0.14207301 0.0016625941
-0.028649965 0.040871195 -0.0014335946 0.41018519 0.90086472 -0.14209493 0.0019076572
-0.025752028 0.039637759 -0.0014714032 0.37414613 0.91721833 -0.13684058 0.00162972
-0.023940792 0.039101593 -8.4539417e-05 0.37990624 0.91738921 -0.11860996 0.00083290262
0.032968499 0.039092723 -2.3347806e-05 -0.36541238 0.93051672 -0.024748113 0.0029687861
0.034627151 0.039675552 -0.0014507981 -0.43165153 0.8952409 -0.11054724 0.002939756
0.037422612 0.041112062 -0.0015146686 -0.48611757 0.86265427 -0.13970445 0.0019346758
0.071908861 0.039441098 -0.0026644585 0.94651765 -0.19128394 -0.25983593 0.0036101316
0.072342217 0.040603794 -0.001559956 0.96720201 -0.15480769 -0.20138271 0.0034497343
-0.072260976 0.044621587 -0.00095103204 -0.89735663 -0.38381919 -0.21779345 0.0051918728
-0.071505137 0.043485373 -0.002096958 -0.83482754 -0.31702858 -0.45006198 0.00167369
-0.036571383 0.044767305 -0.0020896704 0.468876 0.87160766 -0.1430226 0.0020496519
-0.034568992 0.043839712 -0.0014509184 0.45011091 0.88328797 -0.13115865 0.0014878722
-0.031963885 0.04252084 -0.0013998939 0.43011463 0.8911497 -0.14440729 0.0018442015
0.038808037 0.042067807 -0.00063485984 -0.50831616 0.85381687 -0.11230018 0.0031956888
0.040516764 0.043000337 -0.0015153418 -0.51528239 0.84702927 -0.13048126 0.0023168258
0.043296829 0.044709045 -0.0022307618 -0.52423054 0.81188565 -0.25695142 0.001235454
0.07269375 0.043457899 -0.0016945768 0.97598153 -0.074745469 -0.2046293 0.003625483
-0.072705291 0.046778005 -0.0021853691 -0.8237195 -0.28077382 -0.49259746 0.0020169234
-0.042187229 0.047792524 -0.0024771481 0.48039734 0.86378211 -0.1519829 0.0025883631
-0.04054505 0.047037348 -0.0015023695 0.47690421 0.86640626 -0.14799528 0.0015818519
-0.037944868 0.045589481 -0.0014235928 0.4651441 0.87474501 -0.13587517 0.0017461763
0.044316236 0.0454817 -0.0014188961 -0.54561055 0.82552671 -0.14427303 0.0035941217
0.046804316 0.047085673 -0.0018562792 -0.53200781 0.81780404 -0.21946359 0.0024387739
0.048114352 0.047820374 -0.0026217084 -0.54794091 0.82327956 -0.14822766 0.0031891472
0.072820149 0.046388797 -0.001739343 0.97061664 -0.041478455 -0.23702966 0.0047504762
-0.073630616 0.049835961 -0.0024060071 -0.75756383 -0.21726701 -0.61554217 0.0031796496
-0.046292331 0.050258953 -0.0015877484 0.47699422 0.86242062 -0.16943218 0.0020015417
-0.043562308 0.048739836 -0.0014839743 0.47852778 0.86444992 -0.15406947 0.0018207474
0.047963575 0.048048291 -0.000488016 -0.53893811 0.83550471 -0.10713421 0.0037084431
0.049761627 0.048998851 -0.0021581789 -0.5118019 0.80429006 -0.30195406 0.0018084627
0.051790964 0.050280005 -0.0024564671 -0.51033854 0.79734272 -0.32217878 0.001703629
0.072947234 0.049713682 -0.0017118774 0.9391523 -0.0087658176 -0.34338903 0.0061192452
-0.075297758 0.05320577 -0.0018746661 -0.77415836 -0.060468446 -0.63009709 0.025396204
-0.074477151 0.051989716 -0.0024545104 -0.68923485 -0.12668188 -0.71337724 0.0041353446
-0.052178632 0.053355437 -0.0019245014 0.41124555 0.88111258 -0.23349033 0.0022677686
-0.049501237 0.052005183 -0.001646982 0.45278537 0.87029248 -0.19384682 0.0021530294
-0.047796283 0.051182471 -0.00093682791 0.46458018 0.86634481 -0.18333565 0.0020005486
0.053196151 0.05138132 -0.0017993146 -0.50662434 0.80936927 -0.29707426 0.0024195069
0.055388335 0.052725367 -0.0020794608 -0.50510955 0.78553063 -0.35749972 0.0027526196
0.057345133 0.053851809 -0.0025124934 -0.51824421 0.77753645 -0.35617414 0.0037591516
0.07299573 0.052507628 -0.0018260066 0.90178663 0.0034449517 -0.4321678 0.0070691253
-0.075400814 0.055198539 -0.002355522 -0.66141444 0.076643005 -0.74609435 0.025508288
-0.074881136 0.054101441 -0.0029932759 -0.72955048 0.10466282 -0.67587113 0.022669766
-0.060474984 0.056744296 -0.0021750659 0.44440293 0.83803302 -0.31655452 0.0073512299
-0.058382459 0.055871677 -0.0018567055 0.38335717 0.88130176 -0.27630487 0.005557782
-0.055614293 0.054805052 -0.0016039239 0.34566039 0.90587288 -0.24477191 0.0029076955
-0.053551722 0.054108053 -0.00081373873 0.38349256 0.90189028 -0.19881482 0.0034693654
0.05696455 0.054055754 -0.0004480434 -0.54592258 0.83485711 -0.070585042 0.0057720034
0.058739923 0.055069823 -0.0018877065 -0.52635372 0.75662512 -0.387905 0.0032916346
0.060808562 0.056354899 -0.0024475248 -0.56847167 0.6872825 -0.45219767 0.0062003275
0.073056653 0.05559314 -0.0017511633 0.89116651 0.014443469 -0.45344636 0.012472377
-0.075305969 0.057309903 -0.0012895315 -0.63913172 0.71441132 -0.28482801 0.040392019
-0.073633954 0.058304731 -0.001696866 -0.53966415 0.79959553 -0.26345697 0.022868386
-0.071043082 0.059616972 -0.0015875545 -0.36248174 0.91269177 -0.18868127 0.010074106
-0.066375226 0.05972822 -0.002819201 0.32105848 0.79058504 -0.52143711 0.017103398
-0.064360395 0.05915786 -0.0019610019 0.43373337 0.80554187 -0.403705 0.0060661887
-0.061906289 0.057772458 -0.0015755945 0.46081018 0.82955021 -0.31543696 0.0073774261
0.062267426 0.057823982 -0.0022047085 -0.60283321 0.58351827 -0.54414934 0.010165772
0.063621141 0.05933651 -0.0023920774 -0.60051179 0.52022624 -0.60724807 0.0083452165
0.073154978 0.058632806 -0.0018414985 0.82399249 -0.025697527 -0.56601763 0.013485999
-0.069529861 0.060276028 -0.0018443762 -0.090229765 0.92758304 -0.36255795 0.025819192
-0.067080647 0.060497817 -0.0019587318 0.2387258 0.85009915 -0.46940559 0.02128787
-0.065634534 0.06021915 -0.0011593177 0.36799225 0.84654093 -0.38464272 0.015451116
0.06468913 0.061519545 -0.0020858177 -0.6047976 0.35669959 -0.71202892 0.0093062157
0.073424749 0.061529841 -0.001916347 0.78099388 -0.062900677 -0.62136292 0.014521538
0.065561697 0.064330876 -0.0018455738 -0.59430426 0.22065024 -0.7733795 0.012833653
0.066405147 0.064945646 -0.0027518389 -0.52412939 0.20545058 -0.82648557 0.014817029
0.073794395 0.06453301 -0.0019293296 0.75444621 -0.12385215 -0.64457083 0.015256356
0.065712251 0.066708624 -0.00096395344 -0.74613929 0.20291814 -0.63411391 0.0068120984
0.066740118 0.067611814 -0.0023353468 -0.59473932 0.12908499 -0.79348737 0.014173836
0.074368745 0.067349426 -0.0021240145 0.73794401 -0.21237662 -0.64057386 0.012943235
0.075220361 0.068084821 -0.00085168763 0.81574285 -0.23741077 -0.52744657 0.01594664
0.067331411 0.070540823 -0.0021918633 -0.62079519 0.07724195 -0.78015834 0.01036417
0.074623644 0.069872424 -0.0026799999 0.65033954 -0.2623097 -0.71291804 0.020396277
0.075635038 0.070701413 -0.0016925734 0.77726066 -0.24650061 -0.57888126 0.01422783
0.067731895 0.0733722 -0.0021688496 -0.66456014 0.12282943 -0.73707038 0.016513726
0.076538481 0.073337562 -0.0018949808 0.8387984 -0.06239108 -0.54085547 0.046541724
0.068202913 0.076177195 -0.001967422 -0.54267925 0.38841248 -0.74473816 0.043473072
0.070016548 0.076863691 -0.0020507122 -0.23660602 0.70252949 -0.67117053 0.062580273
0.073552303 0.075818442 -0.001489486 0.4078657 0.88751507 -0.21438867 0.03776779
0.07556843 0.075195499 -0.0014190387 0.35764992 0.90315014 -0.23750041 0.050023992
-0.01822491 0.0029227086 0.0023737946 -0.24012089 -0.96990937 -0.040221814 0.0056701358
-0.016274501 0.0025915913 0.001628915 -0.23201843 -0.97087514 -0.059740353 0.0026039146
-0.013565081 0.0019986939 0.0014259436 -0.19953659 -0.97895968 -0.04269712 0.0012686871
-0.010531773 0.00146174 0.0015943376 -0.16664173 -0.98584247 -0.018579949 0.0019383073
-0.0078809522 0.0011378492 0.0018380675 -0.13260101 -0.99108601 -0.01286189 0.00069780293
-0.0042768898 0.00062060059 0.00084832823 -0.095113069 -0.99406862 -0.052735891 0.0021024956
-0.0015875468 0.00052314741 0.0017755711 -0.055438604 -0.99791157 0.033151302 0.0025087455
0.0015013256 0.00035290691 0.0010024768 -0.017447658 -0.99965513 -0.019628163 0.0017136738
0.0044998885 0.00028505854 0.0010046355 0.019454351 -0.99979693 0.0052637216 0.0033381414
0.0072501986 0.00043324995 0.0014838813 0.038601942 -0.99790257 0.051964048 0.0032690719
0.010513744 0.00054728281 0.0010068797 0.067787588 -0.99746579 0.021608073 0.0046170922
0.013604009 0.0008645443 0.0010872139 0.12556906 -0.9919855 -0.014043905 0.0036505398
0.016382635 0.0012746024 0.001436147 0.15531182 -0.98769045 0.018594855 0.0021146084
0.019654555 0.0017415222 0.0010898948 0.18473166 -0.98273706 -0.010103276 0.0021409644
0.022588283 0.0023777008 0.0013102124 0.20076077 -0.97892749 0.037364706 0.0021536404
0.02485683 0.0028224902 0.00076236599 0.22017041 -0.97539955 -0.010983697 0.001903954
-0.027496068 0.0058540334 0.0020334346 -0.33194017 -0.93093073 -0.15226182 0.0054805074
-0.025992362 0.0055301893 0.0016952172 -0.33881932 -0.9169488 -0.21072803 0.00094954809
-0.022556026 0.004454182 0.0015432935 -0.31507081 -0.938833 -0.1390072 0.0010789377
-0.019548234 0.0035034362 0.001501298 -0.28298122 -0.95238376 -0.11352016 0.0014221312
-0.017540742 0.0031354197 0.00071507285 -0.25932601 -0.9595809 -0.10933665 0.0018264609
0.026211118 0.0031909563 0.0012879684 0.25623298 -0.96652675 -0.013062061 0.0018410761
0.028559532 0.0038511888 0.0010727497 0.28647137 -0.95795572 -0.015967155 0.0013579318
0.031550571 0.004747598 0.001116677 0.3067542 -0.95169848 0.0131095 0.0014436753
0.034066126 0.0056210263 0.0013884113 0.32957879 -0.94385952 0.02251528 0.0016428478
-0.034073729 0.0085581373 0.0017355707 -0.38209945 -0.89716631 -0.22156857 0.0017736999
-0.031542402 0.0076739779 0.0016146024 -0.36359733 -0.90427148 -0.22380796 0.00062427251
-0.028564095 0.0066761328 0.00132535 -0.35157016 -0.91513133 -0.19731489 0.0015913895
-0.026555022 0.0062609282 0.0007058059 -0.35063821 -0.92006755 -0.17472424 0.0023297837
0.035531014 0.006216397 0.0017424725 0.35995474 -0.93244582 0.031262893 0.0012783881
0.037409969 0.006919472 0.0015466536 0.37060937 -0.92773378 0.044257339 0.001051884
0.040836919 0.0083139697 0.00095471012 0.3966918 -0.91759169 -0.02571395 0.0015361974
0.042344213 0.008949969 0.00043422301 0.41788369 -0.90803009 0.029233469 0.002086371
-0.04205377 0.011957156 0.002583612 -0.53092504 -0.79588389 -0.29101115 0.0051690224
-0.04026458 0.011463732 0.0018034106 -0.45245257 -0.85557067 -0.25156599 0.0010333922
-0.037726663 0.010343503 0.0015880481 -0.42582497 -0.86775202 -0.25627998 0.00072600698
-0.035129927 0.0093021952 0.0012942975 -0.40171114 -0.88206869 -0.24613599 0.00055283832
0.041994601 0.0090414966 0.0027695887 0.36342648 -0.9132666 0.18402542 0.0061182119
0.043960404 0.0097971633 0.0010500123 0.44717798 -0.89407969 -0.025562709 0.0011934296
0.046492167 0.011119735 0.0015295073 0.46724111 -0.88378537 0.024681086 0.0016568112
0.048119754 0.011938823 0.00051668537 0.48909718 -0.87220532 -0.0064678681 0.0015181053
-0.045551989 0.014581116 0.001866768 -0.53743714 -0.80374628 -0.25525138 0.0022140061
-0.043315135 0.013271767 0.0016947857 -0.48879367 -0.83040297 -0.26741666 0.0018019901
-0.040988732 0.012530461 0.00096085999 -0.48451248 -0.83728349 -0.25338507 0.0023317789
0.049571969 0.012885761 0.0015523266 0.51004601 -0.85676605 0.076190501 0.002106885
0.052025758 0.014259477 0.0008009529 0.54465646 -0.83735722 -0.046713214 0.0015957532
-0.049018331 0.017154381 0.0017768315 -0.56301993 -0.78245616 -0.26602799 0.0012772367
-0.046882138 0.015913572 0.0014991071 -0.54036433 -0.79925209 -0.26306349 0.0022874409
-0.044742148 0.015159597 0.00073819089 -0.54237878 -0.80399972 -0.24374102 0.0030593078
0.053473167 0.01533216 0.00140438 0.5590167 -0.82838058 0.035861049 0.0019868826
0.055809978 0.016920626 0.0011436612 0.59039557 -0.80677509 -0.023389878 0.0015292147
0.057258099 0.017893499 0.00085587305 0.60046655 -0.79825234 0.047256023 0.002174404
-0.054226775 0.020640878 0.0024643748 -0.60198534 -0.74297732 -0.29257208 0.0037353516
-0.052376851 0.019736094 0.0018403817 -0.58712792 -0.75791252 -0.28434035 0.0027146435
-0.050209083 0.018480893 0.0013455325 -0.57282776 -0.76930636 -0.2829065 0.0017887398
0.058661841 0.019082278 0.0013226302 0.64145637 -0.76702291 0.014475887 0.002188392
0.060370915 0.020494945 0.0012264773 0.66795099 -0.74265003 0.048087448 0.0022514332
-0.057392355 0.023544772 0.002448506 -0.64430892 -0.71991789 -0.25803924 0.0015875637
-0.055494949 0.022314413 0.0018344972 -0.62526971 -0.73139238 -0.27221847 0.0030940971
-0.053530883 0.021420723 0.00099521957 -0.58330935 -0.75883764 -0.28968209 0.0037458341
0.062249236 0.022400161 0.0020562664 0.7044602 -0.70760846 0.055009402 0.0018010424
0.063407555 0.023477335 0.0013907299 0.72992837 -0.67966455 0.07253132 0.0023186894
-0.060434502 0.026576659 0.0024503998 -0.7193768 -0.66461056 -0.20196483 0.0011801086
-0.058672234 0.025097817 0.0019949663 -0.66930515 -0.7056058 -0.23270364 0.0017859894
-0.056757793 0.024136158 0.00058107905 -0.62394339 -0.74620467 -0.23210637 0.002097337
0.065164067 0.025438333 0.0012154586 0.7708447 -0.63590354 0.037752192 0.0027538033
0.066256508 0.026810061 0.00099649059 0.79292649 -0.59671766 0.12327023 0.0030302105
-0.063193321 0.029915411 0.0022858158 -0.75461215 -0.64424008 -0.12456017 0.00087668013
-0.061611578 0.028262883 0.0019030705 -0.72816098 -0.66375965 -0.17089398 0.0011975422
0.067269072 0.02828867 0.0013639462 0.83349329 -0.55233973 0.014485158 0.0028063888
-0.064073302 0.031116212 0.0020319496 -0.76415116 -0.63105512 -0.13357531 0.00073631626
-0.00029069177 0.0329597 0.0028421697 0.10314218 0.97862738 0.1779049 0.0038088339
0.0019935488 0.032900922 0.0022011755 0.057387646 0.99384838 0.094720408 0.0031448109
0.0048592794 0.032886203 0.0017419554 0.0040108813 0.9974575 0.071150832 0.0027469986
0.007293758 0.032910995 0.0016223886 -0.026540617 0.99916017 0.031215953 0.0023974876
0.010645631 0.032979947 0.0025903343 -0.078294635 0.99285132 0.090090327 0.0023221634
0.068578109 0.030303812 0.0011716835 0.86460108 -0.5024032 0.0074823098 0.0029601755
0.069391698 0.031802304 0.0014510892 0.89262611 -0.45000738 0.026684588 0.0031905056
-0.066790812 0.034749739 0.0014584063 -0.80908006 -0.58653867 -0.036905102 0.00018576825
-0.065587997 0.033181563 0.0015399598 -0.78784299 -0.60904777 -0.091456115 0.00089409016
-0.015301016 0.035860427 0.0024748223 0.29602751 0.95389789 0.049462229 0.0026795473
-0.013585968 0.035551388 0.00087978254 0.26032698 0.96403706 -0.053501442 0.0018706259
-0.010412754 0.034696538 0.0010974786 0.2257251 0.97411358 -0.012286109 0.0024813931
-0.0078206304 0.034255337 0.0006268755 0.17633784 0.98151034 -0.074446738 0.0022647332
-0.0050080079 0.033809699 0.00094427157 0.14204364 0.98740214 -0.069718465 0.0022953278
-0.0017011154 0.033306479 0.0010810145 0.10076617 0.99490744 0.002325366 0.0027645011
0.0014162314 0.033101395 0.00066829531 0.033466209 0.99913043 0.024867624 0.0026581706
0.0040315781 0.033024184 0.00036103427 0.025309503 0.99942189 0.022700027 0.002483693
0.008154273 0.0330205 0.00084233849 -0.039999392 0.99907297 0.015910128 0.0028048537
0.010494485 0.033151124 0.0011940548 -0.073973991 0.9967863 0.030740233 0.0031820589
0.013677829 0.033529762 0.0008730765 -0.13025552 0.99140221 0.012459191 0.00312176
0.016291838 0.033926956 0.0014636355 -0.19709907 0.98036057 0.0067159045 0.003678537
0.01955254 0.034681346 0.0014505686 -0.25580588 0.96672153 -0.0035740538 0.0023946224
0.022398623 0.035456173 0.0013221081 -0.27614063 0.96108168 -0.0082672248 0.0014850104
0.024122238 0.035890281 0.0020410488 -0.29499784 0.9538064 0.056829639 0.0026506791
0.070639186 0.034438245 0.0011689994 0.92680514 -0.37526849 0.014348974 0.0020406269
-0.069087021 0.038092762 0.00064514886 -0.82715464 -0.55539268 -0.085757457 0.0032342628
-0.068227232 0.036816336 0.0011650475 -0.83067602 -0.55665779 -0.010466339 0.00041788936
-0.024377771 0.038988862 0.0026849932 0.38397905 0.9108057 0.15163444 0.0037867106
-0.022165002 0.038290936 0.0011102312 0.36430666 0.93041444 -0.040120002 0.0022192311
-0.0194974 0.037255175 0.0012703635 0.31555632 0.94869566 0.020020483 0.0024346625
-0.016614396 0.036407083 0.001320763 0.27928096 0.95882916 -0.05146585 0.0021573205
0.025121728 0.03629607 0.00083752547 -0.28703457 0.95779777 -0.015314497 0.0021860576
0.028488142 0.037313823 0.0013597697 -0.31342134 0.94899672 0.034239046 0.0018101527
0.031462248 0.038381603 0.0012012423 -0.36740413 0.92924881 0.038869753 0.0020825083
0.033106107 0.038899481 0.002489906 -0.40427378 0.9134627 0.046353895 0.0030013449
0.07155288 0.037062917 0.0012353427 0.95142704 -0.30749577 0.015261041 0.0028476594
0.072100319 0.038693428 0.00087237166 0.96710622 -0.25436926 0.0013245413 0.0042779013
-0.070073687 0.039955117 0.0018945311 -0.86970204 -0.48576933 -0.087444305 0.0024808135
-0.03027256 0.041772917 0.0011512026 0.45216611 0.89193374 -0.00018967032 0.0019114601
-0.028675165 0.041003082 0.0013698353 0.4190973 0.90736461 -0.03235637 0.0017499489
-0.025701599 0.0397707 0.00093222421 0.38238505 0.92300975 -0.042832572 0.0020863938
-0.023915742 0.039019533 0.0010267824 0.36759022 0.92842197 -0.053945415 0.0023000392
0.03284952 0.039084312 4.4516077e-05 -0.37428242 0.89629972 -0.23782255 0.0023763829
0.034481984 0.039726175 0.0011469639 -0.42781684 0.90319681 0.034759935 0.0032292204
0.037416961 0.041200101 0.0012609066 -0.49092153 0.86832982 0.07070636 0.0024155595
0.071964167 0.039766584 0.0028234029 0.96569443 -0.19028473 0.17670847 0.0033348023
0.07242886 0.040467344 0.00096953334 0.98527557 -0.16816515 0.030862598 0.0035035743
-0.036242954 0.044807673 0.0011993638 0.47310627 0.88099712 0.0038121894 0.0017249542
-0.03462176 0.043990299 0.0013467743 0.45525593 0.8896544 -0.035454601 0.0013801787
-0.031845491 0.042604994 0.0010063588 0.44104624 0.89639229 -0.044261087 0.0016744586
0.038857579 0.042127505 0.00062104058 -0.52535778 0.85037172 0.0294457 0.0030962632
0.040441956 0.043008957 0.0013435263 -0.52332038 0.84794396 0.084420532 0.002560602
0.042648267 0.044399593 0.0015579513 -0.53844118 0.84129804 0.047945123 0.0027348527
0.072843857 0.0438907 0.00133231 0.9940986 -0.088008672 -0.063421853 0.0025709078
-0.042103775 0.047842201 0.0025228651 0.48200503 0.87177753 0.087608144 0.0039136414
-0.040365696 0.047087207 0.0010841773 0.48303396 0.87438399 -0.046162106 0.0015587562
-0.037719246 0.045612879 0.0010462267 0.46684715 0.88298368 -0.048924003 0.0018397673
0.044186082 0.04545619 0.0012192853 -0.53921843 0.84111434 0.042072214 0.0034192868
0.046500567 0.046977863 0.0013795933 -0.55416608 0.83237386 0.0073373774 0.0028322975
0.048128042 0.047963861 0.0022982843 -0.57873815 0.80802077 0.11029381 0.0029905948
0.072973423 0.04658391 0.0011400599 0.99824798 -0.048080537 -0.034485742 0.0038557213
-0.04621949 0.050379202 0.0010473464 0.48793516 0.87164319 -0.046447758 0.0019931502
-0.043532796 0.04887135 0.0010657388 0.48854509 0.87085825 -0.054125335 0.0020689161
-0.041968357 0.048012689 0.00032759385 0.44470525 0.89466757 0.042512272 0.0068984791
0.049414907 0.048969612 0.0011752284 -0.56170106 0.82733649 -0.0024959394 0.0023504035
0.051596668 0.050465316 0.00099765335 -0.55567271 0.83136356 -0.0079014534 0.003018501
0.073165581 0.049404472 0.00063683558 0.99208599 -0.046832588 -0.11649944 0.0067812228
-0.054099668 0.053989455 0.002979333 0.37269562 0.89044392 0.2611661 0.0068339645
-0.051959153 0.053503878 0.00080079958 0.43339756 0.8986336 -0.068000704 0.0022222074
-0.049534932 0.052209899 0.00093414943 0.46232134 0.88427001 -0.065767735 0.0022234244
