# .PCD v0.7 - Point Cloud Data file format
VERSION 0.7
FIELDS x y z normal_x normal_y normal_z curvature
SIZE 4 4 4 4 4 4 4
TYPE F F F F F F F
COUNT 1 1 1 1 1 1 1
WIDTH 571
HEIGHT 1
VIEWPOINT 0 0 0 1 0 0 0
POINTS 571
DATA ascii
-0.016295498 0.0054190164 0.009683108 -0.16887829 -0.79357404 0.58456856 0.0011112889
-0.013427756 0.0051791621 0.010088327 -0.13852666 -0.78476584 0.60411334 0.0011228177
-0.010460072 0.0049459413 0.010353331 -0.10383815 -0.77530795 0.62298894 0.0013275836
-0.0074854046 0.0047640265 0.010508641 -0.070124455 -0.77121019 0.6327064 0.0016155365
-0.0045059514 0.0045876228 0.010540318 -0.036439359 -0.76601356 0.64179069 0.001247622
-0.0014872745 0.0044841948 0.010535526 -0.011697552 -0.76251048 0.64687008 0.001352711
0.0015209167 0.0045170658 0.010572526 0.015093749 -0.75069165 0.66048026 0.0017853366
0.0045130439 0.0046008485 0.010561626 0.038811486 -0.74521136 0.66569793 0.0017861578
0.0075065061 0.0047004758 0.010457542 0.062149711 -0.74998677 0.6585266 0.0019793443
0.010473467 0.0048485813 0.01030804 0.09126284 -0.74906611 0.65617919 0.001606719
0.013476439 0.0050718305 0.010115845 0.11627723 -0.75187409 0.64897221 0.001439541
0.016427821 0.0053298436 0.0098257409 0.13902986 -0.75602126 0.63961118 0.0011164109
0.019279813 0.0056322906 0.0094505036 0.16000108 -0.75616246 0.63452178 0.00060497684
0.021519583 0.0058623077 0.0090887444 0.15926456 -0.75137788 0.64036405 0.0005917555
-0.02804813 0.0086477948 0.00954377 -0.27326 -0.79281747 0.54476553 0.00078665302
-0.025335461 0.0082020052 0.010154953 -0.24966878 -0.78670728 0.56458592 0.0011919494
-0.022465421 0.0075947512 0.010485345 -0.21557729 -0.77830327 0.58972067 0.0011921151
-0.019672958 0.0070882463 0.010812521 -0.19557711 -0.77211183 0.60464275 0.0010361752
-0.016680924 0.0066419323 0.011135406 -0.15570132 -0.76208615 0.62847579 0.0010857183
-0.013627057 0.0064029214 0.011543381 -0.12035795 -0.71066159 0.69316238 0.00097201188
-0.010694761 0.0062273941 0.011800383 -0.08412049 -0.71019751 0.69895864 0.0011888344
-0.0081751607 0.0060623726 0.011892234 -0.049088355 -0.7142908 0.69812536 0.0016098164
-0.0053592138 0.0060218526 0.011966737 -0.026257567 -0.69007146 0.72326469 0.002488303
0.0014134049 0.0060172542 0.011976574 0.031595871 -0.67667586 0.73560286 0.0026367223
0.0059183622 0.0060589076 0.01199124 0.056674499 -0.71780324 0.69393557 0.0014355462
0.0077688731 0.0061056251 0.011878994 0.047635358 -0.67179281 0.7392059 0.0029989539
0.010740693 0.0062358459 0.011740838 0.078090802 -0.7047919 0.70510292 0.0019199223
0.013629355 0.0064796987 0.011607856 0.10394945 -0.71324533 0.69316345 0.0017209407
0.016647251 0.0066902642 0.011301921 0.13257377 -0.7211597 0.67996538 0.0015397491
0.019608945 0.0070002624 0.010967135 0.16171147 -0.70278937 0.69277447 0.0013725873
0.02254015 0.0073740338 0.01056195 0.17654282 -0.70867145 0.68309402 0.00069752382
0.025408333 0.0078471201 0.010241967 0.18662663 -0.69434851 0.69501853 0.00049687352
0.028374849 0.0081781568 0.0097918594 0.19776875 -0.69920945 0.68701792 0.00051834295
0.031285826 0.0085592652 0.0094392253 0.20525934 -0.69536537 0.68872029 0.00086240395
0.033551656 0.0087966863 0.0090956772 0.23887558 -0.72056437 0.65094203 0.0020953771
-0.036576834 0.01178092 0.0093309358 -0.35705158 -0.77747428 0.51773351 0.0008735258
-0.034347314 0.011297694 0.010011463 -0.32168522 -0.77287263 0.54697943 0.0011059702
-0.031511098 0.010629036 0.01059496 -0.28192103 -0.77173269 0.57004321 0.0011670844
-0.02866894 0.0098504536 0.010908567 -0.26084119 -0.77073914 0.58131158 0.0012422638
-0.025831657 0.0094401101 0.011565965 -0.22207308 -0.72235274 0.65489697 0.00091414939
-0.023646539 0.0091050658 0.011929125 -0.20674838 -0.71629 0.66647112 0.0015686922
0.023839774 0.0091314251 0.011932881 0.17894185 -0.67063838 0.71987784 0.0018236684
0.025938803 0.0093769738 0.01167066 0.18592177 -0.66720444 0.72129828 0.00053785945
0.028657265 0.0098163206 0.011247925 0.19546036 -0.65804243 0.72716951 0.00042904154
0.031597976 0.010315624 0.010872931 0.20160893 -0.63058341 0.74947882 0.00041623833
0.03443649 0.010519478 0.010322821 0.22038627 -0.65724158 0.72073811 0.0013029961
0.037371669 0.011018328 0.0099010924 0.25628307 -0.68086427 0.6861071 0.0024935037
0.040035959 0.011584844 0.0094536841 0.30343166 -0.6753428 0.67219144 0.0022576458
-0.042398326 0.014706317 0.0092873387 -0.44089362 -0.73931813 0.50894165 0.0008713851
-0.040262435 0.01421153 0.01021322 -0.3936139 -0.73006803 0.55863118 0.0010211385
-0.037582811 0.013245191 0.010711017 -0.34740093 -0.74065751 0.57509911 0.00081265433
-0.034776766 0.012561008 0.011455876 -0.30198067 -0.72158664 0.62299305 0.00071632885
-0.03270109 0.012090341 0.011862529 -0.27940792 -0.71991193 0.63534087 0.001460943
0.032761782 0.012211923 0.011947282 0.20751134 -0.59406179 0.77719343 0.001159486
0.034832712 0.012402517 0.011695753 0.20970683 -0.60930729 0.76470095 0.00027505061
0.037634443 0.01286349 0.011339684 0.22248712 -0.58649021 0.77879947 0.00052072975
0.040571786 0.013360869 0.010803982 0.25024581 -0.59090519 0.76694715 0.00068324176
0.043360069 0.013813862 0.010112456 0.34014213 -0.65358257 0.67611623 0.0027133322
0.045859724 0.014491443 0.0095304223 0.37642831 -0.6637798 0.64629567 0.0029357329
-0.045962524 0.017292172 0.0097902268 -0.47444698 -0.70288408 0.52995658 0.0010991468
-0.043539502 0.016427122 0.010629305 -0.42553893 -0.7053647 0.56690145 0.0010979081
-0.041020893 0.015477109 0.011303979 -0.38207668 -0.69176817 0.61275953 0.00087271747
0.041584123 0.015180895 0.011868611 0.24809881 -0.56853616 0.78435552 0.0005378502
0.043784399 0.015740858 0.011506381 0.28139612 -0.56585479 0.77499974 0.00099266146
0.04660653 0.0163323 0.010795151 0.3251299 -0.57298833 0.75231302 0.001016271
0.049240004 0.016973136 0.0099901734 0.41041827 -0.63446641 0.65498793 0.0027223041
0.051458791 0.017697953 0.0092895962 0.45180941 -0.64681989 0.61440402 0.0019480456
-0.051291041 0.020736523 0.0093510514 -0.5073781 -0.67855853 0.53115511 0.0010811978
-0.049071167 0.020082057 0.010530125 -0.48486233 -0.65919423 0.57477957 0.0012345351
-0.046857737 0.018994231 0.011119545 -0.45663172 -0.67206222 0.58294082 0.0012580948
-0.044713698 0.018195525 0.011873556 -0.41645333 -0.64938068 0.63629496 0.0016608139
0.047573864 0.018270971 0.011845071 0.32754269 -0.54635125 0.77085412 0.0014033285
0.049800646 0.018963136 0.0113315 0.35642028 -0.52380759 0.77368617 0.0014629132
0.05239214 0.019576719 0.010372178 0.41867808 -0.57562625 0.70239806 0.0026463538
0.054708455 0.020375492 0.0095583703 0.49185014 -0.60100424 0.62998205 0.0024540729
-0.054669332 0.023654573 0.0096150693 -0.54855841 -0.62947857 0.55030942 0.00094586873
-0.052313827 0.022597156 0.0106005 -0.49876621 -0.62362009 0.60193866 0.001524888
-0.050075304 0.021595916 0.011429513 -0.46904296 -0.61522073 0.63364208 0.00080659788
0.053082105 0.021691406 0.011566345 0.38100624 -0.48260194 0.78862512 0.0017759333
0.055544671 0.022425899 0.010612073 0.44706494 -0.5045169 0.73864454 0.0013401808
0.057834428 0.023199676 0.0096319579 0.533216 -0.55648315 0.637187 0.0019158864
-0.057643119 0.026438553 0.0095910635 -0.60402459 -0.56366855 0.56341112 0.0012459869
-0.055422947 0.02551089 0.010806484 -0.54377306 -0.55931288 0.62568367 0.0013919096
-0.053424306 0.024426827 0.011542705 -0.51434046 -0.56625617 0.64405572 0.0011392006
0.056343306 0.024691312 0.011626743 0.43618208 -0.4290317 0.79099745 0.0020479418
0.058548007 0.025429914 0.010665211 0.48462316 -0.44072065 0.75558299 0.0010496272
0.0606975 0.026153533 0.0095634796 0.57925063 -0.49508771 0.6475777 0.001895688
-0.060440838 0.029404918 0.0093641644 -0.6378808 -0.51469618 0.5728839 0.0016571232
-0.058429215 0.028506245 0.010607031 -0.59497243 -0.48124284 0.6437493 0.0014035009
-0.056587387 0.027379973 0.01145314 -0.56641918 -0.53139406 0.62991244 0.0010970633
-0.012245907 0.029807689 0.011872107 0.19775121 0.68779606 0.69844908 0.0034024974
-0.010158391 0.02960081 0.011658069 0.16992518 0.70122564 0.69239295 0.0017833221
-0.0071448307 0.029409708 0.011159359 0.13763535 0.68632829 0.71414989 0.0013026022
-0.0041090716 0.028993661 0.011048474 0.11299678 0.69496036 0.71011394 0.001175446
-0.0014909224 0.02875587 0.010902095 0.087173767 0.73327649 0.67431915 0.0012315511
0.0016123282 0.028559139 0.010807283 0.050816342 0.70931828 0.70305419 0.001974161
0.0046934811 0.028324861 0.010952902 0.01204612 0.70170307 0.71236771 0.0018036641
0.007496905 0.028162364 0.011145619 -0.028438104 0.64397496 0.76451784 0.0017981734
0.01034235 0.028481098 0.010937767 -0.070081212 0.7082994 0.70242482 0.0024862429
0.013483858 0.028667167 0.011128758 -0.10343727 0.67844695 0.72733104 0.002603949
0.016608182 0.02899326 0.011360528 -0.14592957 0.67406082 0.72411782 0.0016872777
0.019242844 0.029435022 0.011535672 -0.17449181 0.67157954 0.72009265 0.0014690709
0.021634379 0.029861813 0.011762723 -0.18335606 0.64885527 0.73848993 0.00176101
0.059295658 0.027916333 0.011564922 0.46841231 -0.35090899 0.81083465 0.0015414139
0.06147394 0.028533066 0.010391749 0.55126369 -0.38315555 0.74114776 0.002129331
0.063349605 0.029400347 0.0093708951 0.63217288 -0.4204869 0.65080583 0.0019877837
-0.063055404 0.032919239 0.009117594 -0.67125624 -0.39835167 0.62508476 0.0013249237
-0.060972236 0.031404357 0.010289744 -0.64096314 -0.43293947 0.63382149 0.00202493
-0.059355684 0.030864082 0.011457358 -0.58904958 -0.39401495 0.70553017 0.0017727156
-0.021614391 0.032883547 0.01181848 0.26260835 0.68873096 0.6757859 0.00056045322
-0.018907957 0.032244168 0.011601928 0.23958072 0.69507009 0.67784858 0.0010149039
-0.016362794 0.031882618 0.011043078 0.22930385 0.71170115 0.66400391 0.00094518851
-0.013513634 0.031221358 0.010811524 0.20380647 0.71073902 0.67328513 0.0014849876
-0.010381959 0.030642336 0.010556907 0.17254773 0.71208471 0.68056053 0.0013491141
-0.0076356782 0.030599102 0.0098404707 0.14821002 0.77951086 0.60860217 0.0018609257
-0.0046245274 0.030336747 0.0095525105 0.11631878 0.77738756 0.61817354 0.0011940949
-0.00093988859 0.030066943 0.0092943693 0.088396199 0.77476704 0.62603682 0.0011030082
0.00076283549 0.030022306 0.0091003906 0.056054607 0.8150745 0.57663816 0.0037264712
0.010309776 0.030008759 0.0091654975 -0.079999976 0.7713806 0.63132554 0.0012326663
0.013739896 0.030208098 0.0094398493 -0.12192432 0.72953618 0.67298692 0.0014034273
0.016577384 0.030449077 0.0097776549 -0.15849315 0.71100801 0.68508941 0.001402943
0.02005714 0.030723169 0.010442737 -0.1836855 0.68038732 0.70945942 0.0013172757
0.02217553 0.031004092 0.010762092 -0.19774589 0.69221836 0.6940679 0.0016261725
0.025936047 0.032007072 0.010924256 -0.20847237 0.66813618 0.7142362 0.0017447612
0.027956024 0.032114457 0.011479652 -0.2156242 0.65456086 0.72460753 0.0016853992
0.030547369 0.032752194 0.011723774 -0.24865283 0.66250932 0.70657855 0.0013506801
0.061938271 0.031291615 0.011329086 0.50808161 -0.29601461 0.80884391 0.0010087587
0.0640769 0.031653527 0.0099083437 0.61672997 -0.33969626 0.71010613 0.0021256481
-0.063611947 0.034738436 0.0096806763 -0.65841573 -0.35786936 0.66213161 0.0022442346
-0.061711349 0.034148034 0.011174975 -0.60186577 -0.31793457 0.73258114 0.0015400592
-0.027827347 0.035612702 0.011710033 0.31205425 0.69270134 0.65022069 0.0012897752
-0.02551445 0.035179161 0.011119105 0.29574162 0.71477795 0.63374233 0.0010588409
-0.022741852 0.034338854 0.010731327 0.27695116 0.72751546 0.62770957 0.00099624507
-0.019990323 0.033513822 0.010546796 0.25334874 0.73091775 0.63369846 0.00085852167
-0.0174411 0.033467889 0.0093780831 0.25468504 0.79434311 0.55150211 0.0018700042
0.025913943 0.033269577 0.0094823893 -0.23967049 0.74598283 0.62134349 0.0010884888
0.02858424 0.033767711 0.0099278325 -0.25268272 0.72570479 0.639925 0.0015734725
0.03154368 0.034212731 0.010618605 -0.24993812 0.66257387 0.70606422 0.002018878
0.034382809 0.034741882 0.011214792 -0.2793183 0.61858863 0.7343905 0.0025856167
0.037109002 0.035471033 0.011700374 -0.28029209 0.59854561 0.75045294 0.0024262983
0.062621884 0.033975031 0.011769574 0.49566817 -0.20082144 0.84497565 0.0019806267
0.064557485 0.034466699 0.010569821 0.5830918 -0.24814288 0.77358192 0.0017848784
0.066367589 0.03516908 0.0093444427 0.6669153 -0.26959726 0.69465196 0.0019330474
-0.066092268 0.038937066 0.0091502378 -0.71497959 -0.29016817 0.63608694 0.0026690264
-0.064156309 0.037535362 0.010399565 -0.62795961 -0.24144278 0.73984599 0.0015992488
-0.062531389 0.037178665 0.01165618 -0.58290488 -0.21335173 0.78402996 0.0021151649
-0.033883002 0.038471255 0.011651377 0.31739563 0.67812198 0.66288054 0.0011877307
-0.031452082 0.037920613 0.010961674 0.32174516 0.70902234 0.62750882 0.00092129019
-0.028648622 0.036993556 0.010555213 0.31639615 0.71435225 0.62417489 0.00099368545
-0.026058411 0.036418337 0.0097508552 0.32049739 0.75602722 0.57070512 0.00086370565
0.035143126 0.036498152 0.0097104255 -0.32983559 0.70498043 0.62786233 0.0014695511
0.037633829 0.037081085 0.010399084 -0.34471491 0.67243665 0.65498137 0.0025171149
0.040218689 0.037461929 0.011389653 -0.27749887 0.54157275 0.79353225 0.0017194387
0.042930108 0.038633928 0.01165396 -0.29068413 0.55813944 0.77716345 0.0017584596
0.062987819 0.036351632 0.011864498 0.52993244 -0.13216123 0.83767843 0.0016401849
0.064700581 0.037399381 0.011172436 0.53179628 -0.13003469 0.8368296 0.0013070246
0.06679152 0.037677944 0.0096755894 0.65791255 -0.17511553 0.73245186 0.0024072253
-0.066449031 0.040929709 0.009363099 -0.64209366 -0.17206725 0.74706662 0.0035127394
-0.064748086 0.040792838 0.010741577 -0.57373053 -0.11076009 0.81152046 0.0023750556
-0.039960559 0.041492049 0.011548241 0.30878073 0.66673523 0.67832041 0.0012534794
-0.037385605 0.040851947 0.01083487 0.33475405 0.70385581 0.62651956 0.0010547581
-0.034735732 0.039946295 0.010379295 0.33596975 0.71220291 0.61635327 0.00089752756
-0.032095097 0.039309092 0.0095223682 0.35508999 0.74690163 0.56218237 0.0010705262
0.038999632 0.039071705 0.0090558724 -0.4020803 0.69553459 0.59545201 0.0046242108
0.041033529 0.039750703 0.0096094459 -0.39268029 0.66178727 0.63862336 0.0014993423
0.043754548 0.040087532 0.010781751 -0.31892985 0.60247427 0.73164779 0.0015366935
0.046405029 0.040889204 0.011359351 -0.26518601 0.51900101 0.81259727 0.0011043518
0.048697498 0.041746296 0.011614705 -0.25171953 0.53237236 0.80821836 0.0020860785
0.064889587 0.040429574 0.011374264 0.49086508 -0.026731983 0.87082535 0.0025814644
0.06710612 0.040534761 0.0098714503 0.62405372 -0.074899957 0.77778333 0.0031765283
-0.066783987 0.043804005 0.0095426142 -0.58869714 -0.033314433 0.80766696 0.0037561399
-0.064584643 0.043541092 0.011050682 -0.45129505 0.077353485 0.88901585 0.004835418
-0.062903874 0.044356398 0.011922994 -0.39116302 0.1095667 0.91377604 0.005729524
-0.048310168 0.044802479 0.011876136 0.24569087 0.62205493 0.74342698 0.0025161549
-0.045895018 0.044332538 0.011457951 0.2820181 0.64836955 0.70716524 0.0011773549
-0.0433602 0.043774027 0.010803553 0.32258561 0.67793661 0.66056073 0.0011324632
-0.040799532 0.042984035 0.010301039 0.33313274 0.69607878 0.63600069 0.0011982145
-0.038488764 0.042306412 0.0097651491 0.3474296 0.71395802 0.60791165 0.0006855689
0.044615664 0.042044897 0.0093927458 -0.40020639 0.66624737 0.62924498 0.0010478869
0.046837706 0.042586487 0.01011853 -0.33164629 0.62092459 0.71025586 0.0013853749
0.049763389 0.043093871 0.010983782 -0.24933569 0.53440601 0.80761498 0.0011688322
0.052989852 0.043893155 0.011538737 -0.16000381 0.44138739 0.882936 0.0011478871
0.055537146 0.044453014 0.011837392 -0.10491831 0.41005805 0.90600473 0.0020392584
0.057374369 0.044820566 0.011920967 -0.069896229 0.4411853 0.89468992 0.0063721011
0.062517859 0.044488061 0.011888121 0.17397311 0.2171904 0.96050072 0.0056098057
0.06467206 0.043440878 0.011359488 0.4246096 0.097464673 0.90011513 0.0047952053
0.067220226 0.043418676 0.009914198 0.58296716 0.019603163 0.8122592 0.0039245058
-0.066777773 0.04626153 0.0096131386 -0.51188439 0.063719951 0.85668784 0.0039075059
-0.064336181 0.046642575 0.010862829 -0.37167805 0.20382366 0.9057104 0.0047187465
-0.061672203 0.0469325 0.011676145 -0.20574799 0.32083437 0.92451775 0.0051467856
-0.058556937 0.047600035 0.011806737 0.0067182458 0.48558205 0.8741653 0.0030573015
-0.054996174 0.047461707 0.01161673 0.10924339 0.57626808 0.80992651 0.0026352245
-0.052484483 0.047117043 0.011336381 0.20389132 0.61189735 0.7642054 0.0019912617
-0.049517419 0.046481855 0.010863207 0.2628701 0.64601296 0.71663553 0.0015372961
-0.046719618 0.045940131 0.010187204 0.32098609 0.70064563 0.63723129 0.0016831653
-0.044417441 0.045316368 0.0096833799 0.35606521 0.71987438 0.59581745 0.0020278599
0.050455607 0.045339327 0.0093853427 -0.37022823 0.65799606 0.65572268 0.0024274644
0.052821588 0.046018839 0.0099022305 -0.29104844 0.57407361 0.7653302 0.0015274376
0.055712551 0.046333704 0.010701477 -0.19636841 0.51072085 0.8370207 0.001278127
0.058633283 0.046132412 0.011427355 -0.023128543 0.39320409 0.91916025 0.0037377402
0.061695091 0.046390407 0.011382066 0.14599483 0.31596485 0.93747091 0.0045812475
0.064730763 0.046328072 0.010810692 0.33634734 0.21820505 0.91610968 0.0060969042
0.067206882 0.046345055 0.0096925693 0.5332486 0.11907451 0.83753639 0.0052206996
-0.066485591 0.049087852 0.0094022872 -0.3423036 0.26564413 0.90125549 0.005520883
-0.064468965 0.049485132 0.010006107 -0.2748313 0.32848695 0.90363938 0.005251932
-0.061491806 0.049584433 0.010522206 -0.098610856 0.46705234 0.87871385 0.0040125689
-0.058441997 0.049396388 0.010658818 0.031490952 0.53729814 0.84280425 0.003015046
-0.055465136 0.049320199 0.010265484 0.16604204 0.63398814 0.75530732 0.0025482136
-0.052517891 0.048831042 0.0097903302 0.259451 0.67952389 0.68624514 0.0015874839
-0.050515175 0.04834602 0.0095049748 0.31263462 0.68123519 0.66195023 0.0016786971
0.055757929 0.048306655 0.0092592398 -0.26856935 0.59391415 0.75837749 0.0017558151
0.058699291 0.048871286 0.0097874925 -0.13821837 0.50769144 0.85037935 0.0029244213
0.06188551 0.049118824 0.01013337 0.068707943 0.3747105 0.92459249 0.0044049192
0.064684585 0.04935018 0.0098711643 0.22791433 0.30982986 0.92307127 0.0061586387
0.066788331 0.049067259 0.0093526104 0.43462345 0.23967022 0.86813629 0.0061973813
-0.064390615 0.051456507 0.0091395602 -0.18132555 0.4303835 0.88424611 0.0073306356
-0.06142531 0.051240724 0.0094993729 -0.00590593 0.56434864 0.82551551 0.0037000808
-0.057904243 0.051347125 0.0090937819 0.15312088 0.65497833 0.73997116 0.0024106132
-0.056760751 0.051014364 0.0091677904 0.20408626 0.65184087 0.73037821 0.0043224595
0.06241351 0.051138941 0.0090505974 -0.099976219 0.51018459 0.85423434 0.0043143663
0.064412184 0.0511817 0.0091401078 0.17184186 0.37645459 0.91035831 0.0057145562
-0.0070126709 0.0059815436 0.012053866 -0.055702556 -0.6955955 0.71627098 0.00078026683
-0.0037161841 0.0059323194 0.012081907 -0.030773886 -0.7117607 0.70174754 0.0011370982
-0.0010635625 0.0058890898 0.01207441 -0.0054187584 -0.70534396 0.70884448 0.0012551449
0.0015439212 0.0059368829 0.012105301 0.022149678 -0.67578161 0.73676902 0.0020336388
0.0038564301 0.0059185685 0.012073278 0.034505542 -0.69062233 0.72239208 0.001598358
0.007618574 0.0059942985 0.012016197 0.057138979 -0.70299846 0.70889235 0.001181771
-0.021636378 0.0088193789 0.012250965 -0.19443749 -0.7104972 0.67630458 0.00096955226
-0.019438265 0.0085098157 0.012505214 -0.17007594 -0.69775134 0.69585717 0.0010826038
-0.016412908 0.0081607327 0.012807902 -0.13824718 -0.67972893 0.72031677 0.0010254959
-0.01346063 0.007853142 0.012997505 -0.10206763 -0.67779034 0.7281363 0.0010752002
-0.010470984 0.0076945405 0.013189548 -0.066388831 -0.65781766 0.75024557 0.0010392242
-0.0075149057 0.0075595952 0.013283503 -0.033512369 -0.63238919 0.77392554 0.0016163756
-0.0045462921 0.0074632983 0.013311804 -0.01743146 -0.62392795 0.78128737 0.0013949621
-0.0014898836 0.0074427691 0.013319095 0.0043563363 -0.5945279 0.8040632 0.0013112141
0.0015298707 0.0074884021 0.013303204 0.026984321 -0.58855689 0.80800527 0.0017428169
0.0045239949 0.0074542747 0.013163325 0.036358081 -0.58639926 0.80920583 0.0019176169
0.0074904077 0.0075286943 0.013048171 0.054165307 -0.5806939 0.81231809 0.0022000612
0.010494296 0.0077000358 0.012948956 0.074355528 -0.59106195 0.80319172 0.0017915325
0.013492663 0.0079516182 0.012833241 0.093546525 -0.59872544 0.79547274 0.0017342037
0.016459331 0.0081776166 0.012626581 0.11381319 -0.61347967 0.78146613 0.0019886417
0.01932385 0.0084899813 0.012416627 0.13895744 -0.63395834 0.76078093 0.0022161279
0.021776041 0.0087578669 0.012160983 0.16156438 -0.65923214 0.73437721 0.0015944763
-0.030654557 0.011726995 0.012353454 -0.26562873 -0.70054191 0.66233099 0.00077933294
-0.028375544 0.011332684 0.012763863 -0.23730873 -0.69187415 0.68190515 0.0010364446
-0.025411755 0.010835881 0.013180417 -0.20197284 -0.68362933 0.70132589 0.001285643
-0.022491254 0.010526937 0.013654787 -0.17121771 -0.64393169 0.74567848 0.0011320655
-0.019582687 0.010229028 0.014033172 -0.14428268 -0.61904615 0.77198726 0.0013981973
-0.01660426 0.0099388594 0.014306766 -0.11238931 -0.58542556 0.80289817 0.0013543438
-0.013544615 0.0096768672 0.014488064 -0.078352153 -0.57290363 0.81586909 0.0015165108
-0.010592517 0.0096001076 0.014654674 -0.047851335 -0.55399877 0.83114105 0.0016454112
-0.0075421003 0.0095072044 0.014707438 -0.021462077 -0.52723956 0.84944558 0.0017593406
-0.0044552344 0.0095026894 0.014734752 -0.0015166267 -0.49123451 0.87102604 0.0022269499
-0.0014793453 0.009537925 0.014721247 0.01497332 -0.47880572 0.87779319 0.0021101437
0.0015152415 0.0096306587 0.014690764 0.03119028 -0.46800941 0.88317287 0.0020816943
0.0045670993 0.0097340886 0.014621162 0.044823077 -0.4624657 0.88550347 0.001973368
0.007586949 0.0099139586 0.014543331 0.055651926 -0.46033847 0.88599741 0.0018053437
0.010540511 0.01010957 0.014443882 0.07084471 -0.45788717 0.88618302 0.0015778751
0.013543278 0.010385574 0.014331914 0.081570074 -0.46304378 0.88257396 0.0013546663
0.016511785 0.01043431 0.014054257 0.095801674 -0.47154304 0.87662381 0.0012823066
0.019511783 0.010451882 0.013694909 0.11704976 -0.48542863 0.86640543 0.001202545
0.022499904 0.010434275 0.013221375 0.14626689 -0.54972589 0.82243997 0.0025194234
0.025416458 0.010760557 0.012900949 0.16751792 -0.57301193 0.80224377 0.0022219364
0.028379863 0.011204849 0.012557077 0.1831366 -0.59390557 0.78341377 0.0016406953
0.030964507 0.011694924 0.012234257 0.19785234 -0.60487974 0.77134621 0.00055230706
-0.036953807 0.014489272 0.012539053 -0.33301657 -0.68068975 0.65250397 0.00083215279
-0.034383938 0.013924464 0.013114759 -0.28699899 -0.67568088 0.67903388 0.0014359262
-0.031498812 0.013461035 0.013742584 -0.23947605 -0.64084125 0.72936529 0.00084782182
-0.028575167 0.012936083 0.014210613 -0.206732 -0.62318593 0.75425529 0.0013164814
-0.025696408 0.012524054 0.014633587 -0.17869636 -0.63220686 0.7539112 0.0011369112
-0.023490708 0.012274324 0.014908087 -0.15075448 -0.61708444 0.77232111 0.0014037164
0.014747331 0.012136986 0.01496817 0.067132764 -0.36526683 0.92847902 0.0017731881
0.01691708 0.012254669 0.014898133 0.084154688 -0.34709451 0.9340468 0.001815155
0.019666592 0.012571839 0.014753652 0.10214201 -0.36791012 0.92423433 0.0021735998
0.022652036 0.012936299 0.0145664 0.12094572 -0.39953861 0.90870297 0.0019249407
0.025569692 0.013330452 0.014355447 0.13412704 -0.42883423 0.89337069 0.0016505299
0.028514311 0.013444077 0.013940657 0.15307267 -0.45674533 0.87632895 0.001410374
0.031496182 0.013447344 0.013346977 0.18878785 -0.51418495 0.83664382 0.001985024
0.034374788 0.013780478 0.012856155 0.19630075 -0.54584187 0.814569 0.00078675494
0.037246838 0.014313237 0.012448209 0.21176761 -0.55602777 0.80373353 0.0005095611
0.039623946 0.014735005 0.012123349 0.23816636 -0.56546134 0.78963935 0.00060123845
-0.042725936 0.017491497 0.012441088 -0.40094879 -0.64806914 0.64749241 0.0011322279
-0.040202115 0.016714893 0.013074029 -0.35774428 -0.64304811 0.67713231 0.0012853435
-0.037630644 0.01626005 0.013901955 -0.31368002 -0.61200774 0.72598302 0.0011974479
-0.034630526 0.015526704 0.014480515 -0.25429386 -0.62153566 0.74096423 0.0010317081
-0.032395657 0.01511392 0.014917069 -0.22911009 -0.6031962 0.76397836 0.0011286966
0.026462205 0.015182947 0.014955017 0.10174831 -0.28670678 0.95259988 0.0018092003
0.028880173 0.015513052 0.014834896 0.12468331 -0.33387506 0.93433481 0.0023634403
0.031651072 0.01591374 0.014626852 0.14668627 -0.3829045 0.91206759 0.0027418947
0.03460167 0.016353358 0.01434417 0.16591156 -0.43377116 0.88561612 0.0019745778
0.037522081 0.016436288 0.013743062 0.19886181 -0.46609631 0.86209524 0.00121795
0.040455315 0.016559007 0.013031694 0.22365688 -0.50441921 0.83398974 0.00058712618
0.043308455 0.017093178 0.012559447 0.25787047 -0.51384878 0.81820673 0.0010639377
0.045551464 0.017684208 0.012221944 0.2995922 -0.54156446 0.78546315 0.0015675445
-0.048317015 0.020906897 0.012106253 -0.45416796 -0.62323928 0.63663507 0.0010579206
-0.046107668 0.02013074 0.012813506 -0.42532468 -0.60787159 0.6705156 0.0010846958
-0.043483976 0.019441798 0.013727834 -0.37565905 -0.58140814 0.72169584 0.0011102168
-0.040790267 0.018663684 0.014483961 -0.3309904 -0.5782457 0.74570578 0.0010852639
-0.038960148 0.018026084 0.014722424 -0.32650712 -0.59230959 0.73658836 0.00096743798
0.035507131 0.018210901 0.014931607 0.12342768 -0.28508681 0.95052147 0.0032048337
0.037800752 0.018586904 0.014767892 0.17003608 -0.35060066 0.92095983 0.0031325964
0.040643606 0.019220306 0.014437299 0.20588112 -0.40191722 0.89223063 0.0013849194
0.043511599 0.019488083 0.013796531 0.23445611 -0.41691232 0.87818813 0.00067644683
0.046458129 0.019553285 0.012962031 0.27613187 -0.46003667 0.84387052 0.0010304202
0.049100995 0.020198947 0.012431794 0.32512537 -0.4846116 0.8120622 0.0018219644
0.051288035 0.020898394 0.012055454 0.37726918 -0.51584226 0.76913899 0.0019032395
-0.051408425 0.023644157 0.012384343 -0.47951415 -0.57466185 0.6631968 0.0014536947
-0.04920096 0.022814523 0.013142593 -0.44408906 -0.56254834 0.69736952 0.0014205697
-0.046756271 0.022225868 0.014135376 -0.40212205 -0.5230583 0.75147039 0.0011310092
-0.044561278 0.021478504 0.01477366 -0.36788341 -0.52446789 0.76785105 0.0019998241
-0.0034045554 0.023948919 0.014924789 0.09052632 0.49037674 0.86679626 0.0015853986
-0.00091895292 0.023657249 0.01484293 0.069808483 0.46043569 0.88494396 0.0020966325
0.001854196 0.0235314 0.014756956 0.047375388 0.44007111 0.89671236 0.0018952382
0.0044719055 0.02341832 0.014709439 0.021263851 0.42350224 0.90564549 0.0021657906
0.0075196531 0.023411956 0.014684447 -0.0066181147 0.41602096 0.90933084 0.0020584944
0.010390373 0.023461128 0.014701177 -0.027979579 0.40942088 0.91191655 0.0021953213
0.013401106 0.02347503 0.014816258 -0.047888879 0.37847292 0.92437273 0.0025478404
0.016030243 0.023734132 0.014886641 -0.072721928 0.35112882 0.93349886 0.0026934056
0.018295726 0.023987953 0.014944311 -0.094590731 0.39082244 0.91559291 0.0018253195
0.04163608 0.021130184 0.014942572 0.15115148 -0.27759331 0.94873345 0.0028507933
0.043952238 0.02174563 0.014724982 0.21702427 -0.32400715 0.9208256 0.0021988035
0.046629112 0.022400962 0.01424781 0.25447223 -0.36437193 0.89581084 0.00078381895
0.049523827 0.022441939 0.013370934 0.29887763 -0.40193424 0.8655178 0.00070370134
0.052230608 0.022851625 0.01260146 0.34769291 -0.43040791 0.83298177 0.001943841
0.054257955 0.02366128 0.012133346 0.41101021 -0.46047485 0.78678674 0.0020155609
-0.054370809 0.026404787 0.012452545 -0.51945299 -0.52180988 0.67667055 0.0010927686
-0.05232317 0.025630852 0.013280888 -0.47115031 -0.50290608 0.72463983 0.0018704403
-0.049865745 0.025053144 0.014369672 -0.42031232 -0.46809798 0.77731711 0.0014179323
-0.047980111 0.024432546 0.014922171 -0.41433623 -0.45730713 0.78688985 0.0014543345
-0.015248126 0.02696633 0.014921611 0.18360859 0.51549876 0.83698803 0.00035549904
-0.012835576 0.0265883 0.014753033 0.17090644 0.5308314 0.83006561 0.0015657138
-0.010180648 0.026165172 0.014519594 0.15085439 0.51821262 0.84184247 0.0016315081
-0.0073424885 0.025758002 0.014312704 0.13156368 0.53207165 0.83641529 0.0015232577
-0.0044541643 0.025346795 0.014182758 0.10079117 0.52318627 0.84623718 0.0012529708
-0.0015518987 0.025379078 0.013839992 0.071869224 0.54481775 0.83546907 0.0018633873
0.0014038194 0.025403056 0.01359998 0.057927787 0.54832613 0.83425587 0.0015133726
0.0044833831 0.025185511 0.013608202 0.022604337 0.53873491 0.84217203 0.0015554501
0.0073713446 0.025170272 0.013604752 -0.01572291 0.53599143 0.84407705 0.0017406805
0.010526601 0.025265722 0.013654237 -0.039790507 0.54225069 0.83927399 0.0020025037
0.013411012 0.025288483 0.013825355 -0.061958198 0.4802978 0.87491441 0.0010400387
0.016459785 0.025313301 0.014096934 -0.085941993 0.45972425 0.88389337 0.0018013432
0.01954587 0.025436999 0.014433395 -0.10436735 0.42242068 0.90037113 0.0021430226
0.022567015 0.025895685 0.01462255 -0.11310244 0.38221636 0.91712517 0.0025775416
0.025406212 0.026518269 0.014704228 -0.10518685 0.33750808 0.93542713 0.0023390306
0.02780991 0.026785512 0.014915696 -0.099552348 0.28933561 0.95203692 0.0024339792
0.047412444 0.02450189 0.014841418 0.20625749 -0.25270197 0.94530392 0.0031143592
0.04967308 0.025288517 0.014452755 0.27397853 -0.30213603 0.91304415 0.0011171115
0.052534241 0.02550015 0.013597351 0.3134349 -0.33492428 0.88858551 0.0005690179
0.055267155 0.025707692 0.012640622 0.38209233 -0.37477285 0.84471935 0.0019989589
0.057273299 0.026739972 0.012160367 0.453623 -0.4047589 0.79397511 0.0021052987
-0.057268906 0.029314661 0.012225882 -0.55077016 -0.44816434 0.70413136 0.0015314796
-0.055319957 0.028595764 0.013189899 -0.49827629 -0.42756647 0.75425959 0.0015865646
-0.052973606 0.028113279 0.014402753 -0.44350639 -0.39501041 0.80453026 0.0016488733
-0.021461731 0.029554905 0.014845059 0.21135429 0.52763015 0.82276106 0.0015219678
-0.019310849 0.029168537 0.014522063 0.2091106 0.56020993 0.80152214 0.0014265431
-0.016562395 0.028658519 0.014150386 0.20697676 0.5786314 0.78888935 0.0016497485
-0.013615862 0.028326474 0.013653699 0.18568222 0.60254383 0.77618492 0.0011941013
-0.010511617 0.028087156 0.013151498 0.15686774 0.61990571 0.76883638 0.0016227938
-0.007702332 0.027888741 0.012770197 0.1342995 0.63488549 0.76084429 0.0012680867
-0.0044662841 0.027536413 0.012554725 0.10932916 0.63456732 0.76509565 0.0018027128
-0.0019958171 0.027376115 0.012343036 0.083514221 0.65556312 0.75050807 0.0014038971
0.0011369295 0.027218765 0.012227771 0.049733505 0.64569509 0.76197404 0.0011264677
0.0045147543 0.027207458 0.012096071 0.031639162 0.58662575 0.80923992 0.0012746832
0.007839147 0.027126899 0.012107099 -0.01687604 0.61118156 0.79131049 0.0014688426
0.010692468 0.027232666 0.012185289 -0.051789917 0.61697274 0.78527862 0.0011637333
0.01341979 0.027433839 0.01228971 -0.080957323 0.61957651 0.78075016 0.0016048854
0.016525751 0.027513988 0.01265347 -0.11194339 0.55872738 0.82176173 0.0018369845
0.020032305 0.02785445 0.013030987 -0.1320613 0.50099266 0.8553164 0.0013354028
0.022655545 0.02805835 0.013369585 -0.14941232 0.48980007 0.85893649 0.0016349776
0.025652906 0.028074203 0.013936781 -0.14093736 0.43934342 0.88719445 0.0023615991
0.028512696 0.028305432 0.014303722 -0.12067384 0.38963386 0.91302973 0.0016274112
0.031496938 0.028754748 0.014568414 -0.12645939 0.36608514 0.92194885 0.0016976499
0.034389585 0.029371228 0.014749953 -0.12141764 0.3124533 0.94214147 0.0024016956
0.037010979 0.029817451 0.014914801 -0.12282609 0.31876597 0.93984145 0.0026241164
0.050532453 0.027559578 0.01486147 0.20805691 -0.1688305 0.96343577 0.0035628355
0.052626211 0.02838034 0.014487253 0.28513852 -0.23081139 0.93028063 0.0014358853
0.055535529 0.028496221 0.013520668 0.3436912 -0.27341232 0.89839971 0.00090416201
0.058138128 0.028787071 0.012541495 0.41834491 -0.30906084 0.85408956 0.0020823753
-0.058193646 0.031680591 0.012794102 -0.53573352 -0.33944985 0.77315164 0.001959394
-0.055698507 0.031320117 0.014256844 -0.46593478 -0.30086976 0.83209509 0.0017439161
-0.053766586 0.030154567 0.01488849 -0.46550593 -0.34242734 0.81611747 0.0025649057
-0.030413566 0.032916836 0.014951454 0.25527772 0.57022655 0.78081691 0.00065275969
-0.028213259 0.032495037 0.014719682 0.24641629 0.58677369 0.77134663 0.0013074955
-0.025317922 0.031821214 0.014265009 0.24542843 0.5725528 0.78227121 0.0017791311
-0.022483647 0.031356856 0.013716681 0.24156265 0.6222055 0.74465275 0.0014793575
-0.019641599 0.030989114 0.013131186 0.22910923 0.64664197 0.72757345 0.0016450823
-0.016833769 0.030536929 0.012664377 0.22083059 0.65132231 0.72595668 0.0011723028
-0.014328529 0.030226339 0.012202757 0.19792034 0.67955971 0.70641786 0.0011994049
0.023806043 0.030068817 0.012163175 -0.17515472 0.54850072 0.81759882 0.00076463301
0.025939927 0.030546963 0.012301394 -0.18156983 0.58997023 0.78674489 0.0014471221
0.028816532 0.030832451 0.012785137 -0.17344652 0.5451566 0.82019538 0.0020120016
0.031965513 0.0308573 0.013542587 -0.15566206 0.43404615 0.88734061 0.0018445796
0.03465974 0.031185022 0.013926055 -0.14259733 0.37715977 0.91510469 0.0016494719
0.037580542 0.031332605 0.014425904 -0.14320384 0.35811138 0.92263156 0.0015774569
0.040573582 0.031963795 0.014684268 -0.12610103 0.30020028 0.94550425 0.0020590597
0.043200053 0.032449737 0.01488689 -0.11380461 0.24920404 0.96174109 0.0020265668
0.045268785 0.032835394 0.014965616 -0.065067858 0.21494068 0.97445714 0.0019942876
0.053305689 0.031161204 0.014815457 0.21909884 -0.10112369 0.9704482 0.0030244275
0.055532228 0.031465441 0.01425527 0.28059959 -0.14948681 0.94811267 0.0025413064
0.058499157 0.031476505 0.013179759 0.36882579 -0.21287253 0.90479439 0.0019614024
0.060585942 0.031900343 0.012331604 0.46590567 -0.26366207 0.84463853 0.0019446661
-0.060530107 0.035071909 0.012487428 -0.5643788 -0.2843461 0.77499926 0.0018763173
-0.058376901 0.034516554 0.013695368 -0.48214889 -0.19377866 0.85439003 0.0027324879
-0.056322407 0.033777636 0.014660627 -0.42669651 -0.17331092 0.88763368 0.0035439972
-0.0364733 0.035855763 0.014774588 0.24954861 0.56719452 0.78486681 0.00051435392
-0.034231987 0.035332177 0.01459702 0.25095332 0.56251359 0.78778219 0.0014895051
-0.031220231 0.034473095 0.014194516 0.26229113 0.57433271 0.77546453 0.0011248518
-0.028516097 0.034285072 0.01333722 0.28138217 0.63188213 0.72218353 0.0015080438
-0.025569152 0.03359535 0.012859919 0.27150917 0.65676701 0.70351964 0.0014016097
-0.023424853 0.033307154 0.012237331 0.25775829 0.67747819 0.68890053 0.0015872594
0.03295115 0.033148225 0.012123323 -0.25651664 0.65458483 0.71113849 0.0031339508
0.035107221 0.033432044 0.012605047 -0.21084182 0.51506585 0.8308146 0.0016159045
0.037732121 0.034014292 0.013009697 -0.21339658 0.48313734 0.84914088 0.0019219422
0.040614471 0.0342835 0.013675319 -0.1812602 0.39147213 0.90216094 0.0017734151
0.043590281 0.034134623 0.014359785 -0.14156541 0.33702424 0.93079209 0.0016188669
0.046507575 0.034706686 0.014593214 -0.11316638 0.29327899 0.94930542 0.0017443585
0.049484566 0.035002496 0.014791666 -0.04651266 0.21512292 0.97547871 0.0021927257
0.052708518 0.034669481 0.01484946 0.069311984 0.10253743 0.99231142 0.0031495988
0.05555227 0.034376498 0.014514613 0.2198815 -0.0254266 0.97519517 0.004006614
0.058560207 0.034450952 0.013694308 0.3275905 -0.095686719 0.93996197 0.0026125007
0.061278205 0.034585647 0.012608021 0.42289945 -0.15026139 0.89363164 0.0022391737
-0.06139648 0.037969664 0.012624421 -0.50520325 -0.12956987 0.85321826 0.0041455324
-0.058276013 0.037409302 0.014231292 -0.38717082 -0.033460815 0.92140067 0.0044971504
-0.056595758 0.037535761 0.014889773 -0.31754562 0.0084020197 0.94820577 0.0040181717
-0.042751919 0.038632285 0.014856044 0.18607588 0.51727134 0.83534789 0.0014045668
-0.040449586 0.038258467 0.014452768 0.22924529 0.547418 0.8048479 0.001393927
-0.03746175 0.037424732 0.014092303 0.2601952 0.56703204 0.78151971 0.00098431378
-0.034600139 0.037130468 0.013284449 0.29765701 0.6315096 0.71595806 0.0015299981
-0.031697489 0.036528066 0.012619521 0.30046117 0.65361428 0.69463044 0.0010920088
-0.029809862 0.03617239 0.012128068 0.30351937 0.66973865 0.6777361 0.00050447602
0.041328102 0.036737215 0.012424911 -0.23578988 0.48757306 0.84064001 0.0018654999
0.043667704 0.036868691 0.01309421 -0.18814301 0.40897194 0.8929413 0.0016878217
0.046566427 0.037338708 0.013571614 -0.16104507 0.3877511 0.90758669 0.0017771415
0.049531288 0.037376888 0.014066879 -0.084460124 0.30026302 0.95010978 0.0020443869
0.052666079 0.037358545 0.014346975 -0.006130734 0.22889721 0.97343123 0.0032473602
0.055553865 0.037399594 0.014271287 0.10599466 0.14195298 0.98418218 0.0044444497
0.058578178 0.037375618 0.013807115 0.26714623 0.021532174 0.96341544 0.003764648
0.061566729 0.037442565 0.012821157 0.36582592 -0.050593492 0.9293071 0.0027970227
0.063245453 0.037886482 0.012110028 0.48324871 -0.097572781 0.87002885 0.0022151112
-0.063018106 0.041915745 0.012063454 -0.49602085 0.056473807 0.86647218 0.0068053482
-0.061373193 0.04038737 0.012876216 -0.44558075 0.00012739947 0.8952418 0.0047474694
-0.058275674 0.040659055 0.014114333 -0.28145775 0.14897603 0.94793862 0.0048622405
-0.055557422 0.040647704 0.014756309 -0.16336067 0.22409056 0.96077919 0.0044333315
-0.05256338 0.041411236 0.014741962 0.0080557605 0.37094855 0.92861849 0.0035340099
-0.049382616 0.041224718 0.014609847 0.11099523 0.45153013 0.88532519 0.0022013604
-0.046397384 0.040848512 0.014282603 0.18195201 0.51816744 0.83570087 0.0015616637
-0.043543268 0.040378414 0.013852113 0.22620289 0.55548924 0.80016488 0.0011029418
-0.040632199 0.040172555 0.013046782 0.28888252 0.62171096 0.72802633 0.0014734985
-0.037933044 0.039354913 0.012688969 0.29705527 0.64824718 0.70109469 0.0012137906
0.044974077 0.039158396 0.012064037 -0.31418124 0.57030386 0.75897539 0.0019948527
0.047041811 0.039625693 0.012470852 -0.21934704 0.47655919 0.85133904 0.0021271731
0.049904954 0.040342502 0.012814586 -0.15476289 0.40746611 0.900011 0.0019569846
0.052663323 0.040311318 0.013333963 -0.089966901 0.3443588 0.9345175 0.0025384498
0.055728108 0.040294293 0.013587976 0.022790357 0.26655731 0.96354961 0.0034038983
0.058604062 0.04036152 0.013433523 0.15809788 0.17658138 0.97150606 0.0043637683
0.06160051 0.040478364 0.012780126 0.29757833 0.074453369 0.9517898 0.0039286264
0.063304693 0.040374547 0.012176652 0.41643202 0.023148485 0.90887219 0.0031822028
-0.061341055 0.043412603 0.012674954 -0.3457177 0.15674232 0.92515463 0.004988173
-0.058440827 0.043523427 0.013475195 -0.20138343 0.2678754 0.94217169 0.0060027391
-0.0553881 0.043386113 0.013874675 -0.046590801 0.3826015 0.92273802 0.0043895547
-0.052406449 0.043509662 0.013713948 0.053287175 0.45086807 0.89099854 0.0026326748
-0.049519401 0.043463938 0.013271984 0.17017747 0.53362858 0.82842034 0.0021605212
-0.046850171 0.043091763 0.012849689 0.22691572 0.59724486 0.76929045 0.0018084941
-0.044096187 0.042420417 0.012456754 0.28142393 0.63654125 0.71806395 0.0011335216
0.052895647 0.042455174 0.012347656 -0.18070669 0.45525262 0.87183154 0.0020164349
0.055852234 0.042875994 0.012656973 -0.054121234 0.35872951 0.93187124 0.0024531165
0.058629196 0.043277718 0.012648119 0.065272853 0.28076711 0.9575538 0.0031595435
0.061434023 0.043243639 0.012384257 0.1896501 0.22089781 0.95668012 0.0049766726
0.063237414 0.04260442 0.01209041 0.33767608 0.1111429 0.93467754 0.0037381963
-0.060913846 0.04575038 0.012286806 -0.22953522 0.32564211 0.91720819 0.0052922135
-0.058475666 0.046060942 0.012551943 -0.069552697 0.41237888 0.90835357 0.004639734
-0.055606823 0.046041291 0.012577865 0.04438797 0.49219236 0.86935401 0.0027911123
-0.052422781 0.045578476 0.012465931 0.14636934 0.55598849 0.81820095 0.0031082493
-0.050483502 0.045401465 0.012118117 0.2316699 0.60855883 0.75893682 0.0018562756
0.060183186 0.045030382 0.012033408 0.031659983 0.37901717 0.9248479 0.0087055834
-0.021567851 0.011930645 0.015051961 -0.13802248 -0.6039958 0.78494513 0.0010409685
-0.019087242 0.011709432 0.015216502 -0.11511713 -0.57389218 0.81079942 0.0015852138
-0.016363135 0.011446687 0.015375856 -0.083810009 -0.54344797 0.83524859 0.0016590859
-0.013426964 0.011174713 0.015461062 -0.051405661 -0.51154345 0.85771835 0.0019449942
-0.010434054 0.01108731 0.015556601 -0.023986734 -0.48157445 0.87607688 0.0020216706
-0.007456386 0.010995776 0.015560807 -0.0026552295 -0.45677221 0.88957977 0.0020956239
-0.0044652293 0.010973126 0.015535966 0.012959023 -0.4360345 0.89983666 0.0022939688
-0.0014868058 0.010990835 0.015479357 0.025518231 -0.42370841 0.90543914 0.0021330605
0.0014684385 0.011054988 0.015403396 0.037408527 -0.41293129 0.90999359 0.0020409077
0.0043980964 0.011217073 0.015331931 0.045834232 -0.41001225 0.91092765 0.0021126713
0.007375747 0.011398708 0.015248973 0.053257119 -0.41093683 0.9101069 0.0020018658
0.010397909 0.011644152 0.015161588 0.063782334 -0.3969951 0.91560185 0.002254456
0.012869703 0.011818858 0.015083524 0.073049352 -0.40930411 0.90946907 0.0012389286
0.015281999 0.011946628 0.015061237 0.065681241 -0.31267002 0.94758821 0.0015413604
-0.0304325 0.014771843 0.015198189 -0.21078567 -0.60504276 0.76778424 0.0013705305
-0.02820117 0.014361079 0.015413582 -0.18078469 -0.57391542 0.79871011 0.0016294335
-0.025380202 0.013939776 0.015681934 -0.13971767 -0.53337705 0.83425891 0.0022968787
-0.02246967 0.013588053 0.01592394 -0.10755356 -0.48801312 0.86618441 0.0024875386
-0.019502303 0.013463397 0.016210051 -0.085473977 -0.45220256 0.88781029 0.0022743398
-0.016486077 0.013462908 0.016449574 -0.043200552 -0.40315315 0.91411221 0.0026957092
-0.013482615 0.013450275 0.016554752 -0.017184215 -0.36770365 0.92978424 0.002703361
-0.010509759 0.01351348 0.016600056 0.0040006507 -0.33428609 0.94246316 0.0026296384
-0.0075173643 0.013485474 0.016548418 0.021232905 -0.30706924 0.95145035 0.002696289
-0.0045358189 0.013483551 0.016457766 0.032533489 -0.28082547 0.9592073 0.0027429729
-0.0015043202 0.013397888 0.016321879 0.038347419 -0.26295933 0.96404457 0.0025776937
0.0014776635 0.013412744 0.016189514 0.040973004 -0.25223416 0.96679837 0.002322362
0.0044900212 0.013423368 0.016043708 0.044339865 -0.25129882 0.96689343 0.001932357
0.0075021931 0.013438853 0.015891064 0.04634985 -0.25167969 0.96670008 0.001711484
0.010510105 0.013432127 0.015729476 0.054325942 -0.26399362 0.96299326 0.0016571218
0.013505541 0.013488899 0.015557527 0.059834041 -0.27272457 0.96022975 0.0013570833
0.016450163 0.013698117 0.015418597 0.064333066 -0.28826451 0.95538723 0.0014433218
0.019399028 0.013985096 0.015283111 0.075081803 -0.31102845 0.94743025 0.0018649647
0.022255143 0.014413686 0.015171838 0.088890359 -0.3393636 0.93644589 0.0019816805
0.024653897 0.014774096 0.015071335 0.1060883 -0.36148265 0.92632371 0.0014246015
-0.036959562 0.017606949 0.015279498 -0.28021887 -0.56809795 0.77378434 0.0017813835
-0.034440819 0.017055115 0.015664307 -0.21835613 -0.52525735 0.82245082 0.0023678816
-0.031463832 0.016529763 0.016073724 -0.18669313 -0.49354476 0.84944648 0.0022823112
-0.028510774 0.016444093 0.016601369 -0.13583645 -0.44993752 0.88266903 0.0023861974
-0.025499338 0.016454453 0.017013943 -0.087069467 -0.37215251 0.92407864 0.0027553767
-0.022481851 0.01645677 0.01726405 -0.050657339 -0.31814766 0.9466868 0.0035906013
-0.019506434 0.016441528 0.017384855 -0.021115741 -0.28736031 0.95758981 0.0044116974
-0.016539557 0.016398326 0.017396063 -0.0015727656 -0.25111485 0.96795601 0.0049772775
-0.013576061 0.016382331 0.017336665 0.022944359 -0.19954641 0.97961968 0.0052173971
-0.010518939 0.016450841 0.017234998 0.044487268 -0.14441022 0.9885174 0.0051097511
-0.0075326543 0.016404668 0.017081982 0.05136586 -0.11914789 0.99154693 0.0053606089
-0.004451409 0.016276199 0.01690563 0.053757019 -0.12180161 0.99109763 0.0049579917
-0.0014929902 0.01638126 0.016751921 0.051262029 -0.10325976 0.99333262 0.0047117728
0.0015808486 0.016438978 0.016594186 0.043569129 -0.057391338 0.99740058 0.004667161
0.004557292 0.016397011 0.016460167 0.039925165 -0.072404943 0.99657595 0.004460067
0.007474327 0.01642297 0.016348723 0.036303576 -0.092720538 0.99503016 0.0037922314
0.010518328 0.016418638 0.01623513 0.035324685 -0.1008139 0.99427801 0.0033148779
0.013546602 0.016428618 0.0161229 0.039794929 -0.11721183 0.99230933 0.0027598937
0.016568512 0.01629536 0.015966058 0.042851657 -0.15484834 0.98700851 0.0022245257
0.01949711 0.016366659 0.015823925 0.04861027 -0.17526379 0.98332071 0.0017717626
0.022506604 0.016433133 0.015651604 0.060212132 -0.19700815 0.97855109 0.001454093
0.025482835 0.016457612 0.015441942 0.073780507 -0.22643858 0.97122699 0.0014143237
0.028354449 0.016809227 0.015290114 0.082948826 -0.26856548 0.9596833 0.0019618808
0.031232735 0.017437315 0.015205343 0.093947656 -0.2941573 0.95112836 0.0017152051
0.03365371 0.017758705 0.015067595 0.12685195 -0.35179698 0.92744142 0.002674429
-0.042464774 0.020658687 0.015199783 -0.35077384 -0.53800768 0.76648903 0.0017632747
-0.040032987 0.020027401 0.015741102 -0.28236544 -0.48912546 0.825243 0.003042357
-0.037354145 0.019420549 0.016255237 -0.24081522 -0.46179289 0.85367167 0.0023685137
-0.034536481 0.019569501 0.017012248 -0.17438394 -0.38263226 0.90729421 0.0024465946
-0.031500835 0.019425016 0.017457969 -0.11636299 -0.34130028 0.93272388 0.0034115913
-0.028570265 0.019123768 0.017680446 -0.076982498 -0.26719594 0.96056235 0.003842786
-0.025667839 0.018891281 0.017795712 -0.033146802 -0.21072683 0.97698283 0.0033789482
-0.02244609 0.019130474 0.017886253 0.0026746714 -0.13557722 0.99076319 0.0033581697
-0.019496806 0.019407371 0.017830022 0.038015712 -0.060955334 0.99741632 0.0034711787
-0.016636571 0.019487398 0.017675664 0.05580898 -0.0073219207 0.99841458 0.0029218241
-0.013519874 0.019419851 0.017442346 0.077588275 0.061068863 0.99511337 0.0057621212
-0.01052633 0.019414352 0.017192632 0.07682991 0.14466897 0.98649275 0.0045278515
-0.0074385493 0.01933806 0.016939728 0.079454429 0.16178441 0.98362225 0.0041469266
-0.0044575324 0.019288955 0.016706429 0.074264579 0.1791075 0.98102254 0.0036463877
-0.00149261 0.019439641 0.016463339 0.055050824 0.2125627 0.97559541 0.0032154589
0.0013493317 0.019361321 0.016321085 0.04897479 0.17803746 0.98280418 0.0025302656
0.0045191762 0.019381579 0.016181162 0.031823825 0.19286467 0.9807092 0.0027949172
0.0075293928 0.019430129 0.016089622 0.018882053 0.17761746 0.98391843 0.0029165351
0.010479911 0.019345872 0.016069382 0.010818202 0.15576486 0.98773491 0.0031732898
0.013483181 0.019353645 0.016060151 0.013087515 0.10040833 0.99486023 0.0030144237
0.016556103 0.019304123 0.016057599 0.0099356994 0.071181275 0.99741393 0.0033243499
0.019506751 0.019395163 0.016033985 0.015619482 0.028332895 0.99947649 0.0034484281
0.02251762 0.019431904 0.015982933 0.023463119 -0.0428041 0.99880791 0.003196937
0.025568707 0.019437237 0.015888166 0.034130067 -0.088634305 0.99547935 0.0023600708
0.028530056 0.019395195 0.015754469 0.038049348 -0.11986278 0.99206108 0.0019463417
0.031522442 0.019379841 0.015598415 0.059040986 -0.17683142 0.98246872 0.0016978557
0.034470562 0.01946912 0.015412733 0.080765545 -0.2159576 0.97305673 0.0020034916
0.037368286 0.019945845 0.015265654 0.11010972 -0.27289605 0.95572156 0.0034624299
0.039859056 0.020606002 0.015136865 0.15966074 -0.31824458 0.93446714 0.0026143009
-0.04583903 0.023361769 0.01537942 -0.36288142 -0.4789027 0.79935551 0.0024355254
-0.043374456 0.022578627 0.015938468 -0.32091311 -0.44302398 0.83710492 0.0021863454
-0.040456705 0.022464273 0.016832631 -0.23052877 -0.34567928 0.90959454 0.0023665873
-0.037532568 0.02246538 0.017501183 -0.17729366 -0.28121176 0.94312608 0.0039018991
-0.034718759 0.021925421 0.017805442 -0.13572405 -0.24427234 0.96016139 0.0037345595
-0.032320239 0.021325149 0.017929031 -0.076012112 -0.16182233 0.98388809 0.0030263329
-0.029655546 0.021361023 0.017976712 -0.032064594 -0.089515597 0.99546915 0.0028585233
-0.024700562 0.023327731 0.017938664 0.07943406 0.10831499 0.99093789 0.0025799843
