# .PCD v0.7 - Point Cloud Data file format
VERSION 0.7
FIELDS x y z normal_x normal_y normal_z curvature
SIZE 4 4 4 4 4 4 4
TYPE F F F F F F F
COUNT 1 1 1 1 1 1 1
WIDTH 549
HEIGHT 1
VIEWPOINT 0 0 0 1 0 0 0
POINTS 549
DATA ascii
0.022586195 -0.04516679 -0.01177361 0.0027864785 0.86621535 -0.49966308 0.00015983473
0.025830412 -0.045139797 -0.011684589 0.046695556 0.89497727 -0.44366115 0.0011062601
0.02867108 -0.04525242 -0.011401674 0.1046536 0.91872114 -0.38078743 0.0022343276
0.031590328 -0.045496155 -0.010740165 0.20190504 0.93974596 -0.27588385 0.0027301018
0.034545742 -0.046097014 -0.010550089 0.27117458 0.93440592 -0.23097603 0.0033162874
0.037424866 -0.047103956 -0.010592368 0.37812242 0.90470362 -0.19630267 0.0031963035
0.039159462 -0.047826808 -0.0095426561 0.49968031 0.85891461 -0.11218413 0.0056098611
-0.039144438 -0.044865806 -0.0092297699 -0.10644822 0.64310956 -0.75833958 0.02653431
-0.038397722 -0.044933397 -0.0090976115 -0.071560949 0.63278484 -0.77101386 0.024880175
0.0082684364 -0.044864945 -0.0091507174 -0.19161963 0.81627238 -0.5449599 0.00020386586
0.010728144 -0.044739455 -0.009465985 -0.14866886 0.83293998 -0.53301835 0.00016347109
0.013577959 -0.044500835 -0.0097608659 -0.10378963 0.84669805 -0.52185255 0.00015950625
0.01663306 -0.044464156 -0.010248337 -0.061379179 0.85932499 -0.50773335 0.00021932319
0.019495374 -0.044352621 -0.010329958 -0.015828669 0.87378085 -0.48606217 0.00056865613
0.022445571 -0.044386901 -0.010454193 0.030810559 0.89147931 -0.45201251 0.0012773488
0.025424927 -0.044487271 -0.010374589 0.086134277 0.91128343 -0.4026702 0.002112851
0.028293179 -0.044705503 -0.010070685 0.14780465 0.92946249 -0.33801368 0.002431876
0.030534044 -0.044910178 -0.0094412463 0.22571059 0.94256306 -0.24623068 0.0029397092
-0.052571654 0.047458652 -0.0097435284 -0.9970178 0.050287351 0.0585384 0.021897297
-0.049757849 0.047367882 -0.0096301567 0.25620291 -0.24783701 -0.93431091 0.047466662
-0.042577311 0.047758549 -0.0091096517 -0.13617806 -0.4212338 -0.89667034 0.006887591
-0.039319824 0.046674632 -0.0093076602 -0.18397936 -0.34078565 -0.92196351 0.015054892
-0.038328197 0.047318321 -0.010099323 -0.099273436 -0.14437917 -0.98453003 0.014176415
-0.034292839 0.047177367 -0.0092650335 0.17340209 -0.21570213 -0.96093929 0.004615617
-0.03251629 0.047296703 -0.0090298457 0.18960693 -0.14227231 -0.97149771 0.004455619
0.0020688535 0.047753148 -0.010023733 -0.30853096 -0.71834612 -0.62352836 0.0019090925
0.0043195612 0.047105353 -0.010231595 -0.27414533 -0.76727891 -0.57976502 0.00088485336
0.0064933258 0.046775457 -0.010633755 -0.23112133 -0.79680741 -0.55828393 0.00016841036
-0.052594602 0.049741574 -0.010515167 -0.87254012 0.20033081 -0.4455798 0.030066144
-0.050175235 0.049630169 -0.010754351 0.15951221 -0.12709267 -0.97898072 0.1060358
-0.045480534 0.049942218 -0.0090900753 -0.19600816 0.072256379 -0.97793651 0.0099268146
-0.043269537 0.050023858 -0.0093837352 -0.15082577 0.087166041 -0.98470992 0.0063032955
-0.040560886 0.049955375 -0.0096686501 -0.18824813 0.0073694177 -0.98209387 0.014518371
-0.038093876 0.049992077 -0.010630923 -0.096993603 0.13423809 -0.9861908 0.013123461
-0.034612343 0.049853001 -0.010037995 0.17590193 0.0036579722 -0.98440093 0.0037270258
-0.031749927 0.049943015 -0.0093948655 0.19905299 -0.00084980536 -0.97998834 0.0030013076
-0.029516574 0.050337337 -0.0091445437 0.17445114 0.035905439 -0.98401099 0.0030229357
-0.0035995981 0.050467018 -0.0092248619 -0.43301433 -0.34056199 -0.83457541 0.0061791237
-0.0015211152 0.050151106 -0.010211776 -0.47207192 -0.41482592 -0.77786088 0.0031931468
0.0014096518 0.049392603 -0.011475898 -0.44018763 -0.55571336 -0.70527834 0.0029550591
0.003468489 0.048409488 -0.011548772 -0.30874601 -0.71309149 -0.62942553 0.0021145488
-0.052381303 0.052577011 -0.010480133 -0.67766404 0.53822297 -0.50108629 0.055656701
-0.050301716 0.05296858 -0.010604601 0.27068123 0.7564289 -0.59543854 0.10720751
-0.045240149 0.051432528 -0.0090787895 -0.18973222 0.2521902 -0.94889504 0.01808795
-0.043205243 0.052252103 -0.0092914468 -0.16658731 0.42456046 -0.88994223 0.010781423
-0.040322065 0.052854784 -0.0094650835 -0.19729903 0.34755403 -0.91666758 0.012287034
-0.038087338 0.052542031 -0.010366761 -0.11452599 0.31862646 -0.94093627 0.010085831
-0.03448854 0.052499376 -0.0097779557 0.16414255 0.22260872 -0.96099043 0.0040989299
-0.031953655 0.052647423 -0.0092842635 0.17682679 0.26707065 -0.94731486 0.0033772923
-0.029412631 0.051584512 -0.0090865567 0.16773017 0.082306124 -0.98239112 0.0041304273
-0.0062964936 0.053539623 -0.009178644 -0.40898809 -0.15437664 -0.89938676 0.005261051
-0.0043228031 0.052698188 -0.0099049918 -0.4807767 -0.24240261 -0.84267122 0.0040983288
-0.0019699172 0.052497838 -0.011334357 -0.54548556 -0.28172228 -0.78935301 0.00366804
-0.051794656 0.054466352 -0.0096171051 -0.57940656 0.66333055 -0.47358266 0.054936998
-0.050297085 0.054578874 -0.0095653459 0.076940641 0.81228751 -0.57816023 0.063133709
-0.039322421 0.055174191 -0.0093186535 -0.26475665 0.61572123 -0.74215311 0.014718596
-0.037758414 0.054989431 -0.0095512439 -0.14222549 0.57164091 -0.8080833 0.013032297
-0.035029594 0.054761022 -0.009268797 0.10507265 0.51797706 -0.84891665 0.0076317564
-0.032133557 0.054300278 -0.0090575386 0.21324375 0.37749988 -0.90112203 0.0065396009
-0.0063758348 0.055519119 -0.0092034657 -0.47718644 0.0021911943 -0.87879938 0.0061135301
-0.0045517711 0.055645656 -0.01041315 -0.55954796 -0.0031995287 -0.8287918 0.0051716371
-0.0026455261 0.055422056 -0.011745021 -0.62021542 -0.09761598 -0.77833414 0.0038610881
-0.0062552802 0.05775423 -0.0091689536 -0.49535742 0.2058439 -0.84394866 0.0061652558
-0.0044193589 0.05865946 -0.010318339 -0.59415048 0.21569729 -0.7748934 0.0051099942
-0.0027187683 0.058883972 -0.011749779 -0.6560744 0.12589838 -0.74412084 0.0032074768
-0.0038629463 0.06138958 -0.0098480787 -0.61472487 0.41253543 -0.67225587 0.0034363435
-0.0022000161 0.061918285 -0.011128928 -0.64902383 0.34713399 -0.67695355 0.0027543833
-0.0031967207 0.063379586 -0.0092241168 -0.61014098 0.50786823 -0.60811001 0.0014051262
-0.0012408113 0.064434834 -0.010282421 -0.61929041 0.51497245 -0.59269118 0.001225397
0.000602516 0.065430209 -0.011347135 -0.60641611 0.56426066 -0.56024051 0.00044357634
0.048287619 0.064943917 -0.010433078 0.94615096 0.099883027 0.30793142 0.0054086181
-0.00030438395 0.066455923 -0.0092558861 -0.5966475 0.58220041 -0.55231732 0.00021056921
0.0016553918 0.067410216 -0.010362653 -0.58551073 0.59974861 -0.54541612 0.00022458559
0.0036622358 0.068386205 -0.011388661 -0.56539714 0.62056029 -0.54335171 0.00018039469
0.047628708 0.067875847 -0.0098375659 0.9129265 0.22805281 0.3384628 0.0028357892
0.04831475 0.067641981 -0.011110174 0.94703454 0.20224756 0.24944253 0.0049545811
0.0026483752 0.069268219 -0.0093742367 -0.56222671 0.62936914 -0.53646576 0.00016544985
0.0047316509 0.070210494 -0.010289152 -0.53344691 0.65740108 -0.53222013 0.0001710573
0.0069514494 0.071326204 -0.011082506 -0.50689256 0.68236661 -0.52672178 0.00020310569
0.046764683 0.071027309 -0.010329657 0.85080165 0.43097693 0.30065832 0.0028341131
0.048058577 0.069356561 -0.01178072 0.93237847 0.30228516 0.19822723 0.0067383186
0.005758787 0.07207229 -0.0090640532 -0.51737565 0.67833161 -0.52171713 0.00017434727
0.0079095149 0.072798699 -0.010043828 -0.48963436 0.70007104 -0.51976794 0.00016480371
0.010317701 0.073889136 -0.010731 -0.46463042 0.72623032 -0.5066638 0.00020112761
0.012535042 0.07470803 -0.011580732 -0.44588804 0.73846662 -0.50581712 0.00014055478
0.044735886 0.074542232 -0.010107514 0.74754429 0.62889957 0.21368887 0.0034467862
0.045766808 0.073398441 -0.010905808 0.78849173 0.57997036 0.20473213 0.0045402283
0.011346535 0.075391509 -0.0095590055 -0.44360831 0.75367177 -0.48496449 0.00065152743
0.013624866 0.076165207 -0.01038732 -0.43008855 0.77124876 -0.46925387 0.00063791499
0.016196711 0.077298895 -0.010790871 -0.40114358 0.81349337 -0.42108482 0.0015262358
0.018352346 0.077804863 -0.011729851 -0.39958438 0.79576409 -0.45507354 0.00067733065
0.041539695 0.077675253 -0.01049265 0.55318743 0.83043832 0.065998584 0.0043189828
0.043204054 0.076292418 -0.010666595 0.65409869 0.74612308 0.12431879 0.0045486852
0.017316706 0.078314766 -0.0097578401 -0.36415476 0.860614 -0.35599855 0.0025949725
0.019555777 0.078920498 -0.010462631 -0.34203058 0.87876397 -0.33284962 0.0020077373
0.02247457 0.079957962 -0.010507106 -0.29807922 0.92462367 -0.23710713 0.0023581451
0.025020111 0.080716357 -0.010723626 -0.25954154 0.94281244 -0.20914821 0.0031841884
0.027576858 0.080914371 -0.011891591 -0.10158812 0.96349376 -0.2477089 0.0039201407
0.03245895 0.080918849 -0.011757749 0.076318108 0.97858953 -0.19114935 0.0033255359
0.034690309 0.080741458 -0.010754698 0.2242011 0.96833205 -0.10984929 0.003111857
0.037388079 0.079903096 -0.010499777 0.34999225 0.93609607 -0.035065986 0.0029840919
0.039917614 0.078714952 -0.010681225 0.45706841 0.88935149 -0.011930489 0.0033596028
0.026297282 0.081166394 -0.010091694 -0.19279866 0.96884298 -0.15547316 0.0037262333
0.028482413 0.081378616 -0.010482636 -0.062510028 0.98945671 -0.13064438 0.0029209303
0.03141987 0.081332676 -0.010442702 0.067919791 0.99068862 -0.11799596 0.0021149328
0.033483431 0.081104346 -0.0099465679 0.17872672 0.9798646 -0.089006416 0.0041938596
0.0019395403 -0.069730006 -0.0072428514 -0.56843829 -0.61111397 -0.55083358 0.00010636348
0.0032128147 -0.069441952 -0.0089643504 -0.56800485 -0.61567229 -0.54618508 0.0001417606
-0.0010323431 -0.067132868 -0.0070470273 -0.58201003 -0.59994161 -0.54893935 0.00012103203
0.00037527457 -0.067019887 -0.0086308876 -0.57900167 -0.60351098 -0.54820758 0.00013422084
-0.0034430993 -0.064950742 -0.0067796321 -0.56464887 -0.57620353 -0.59089863 0.0010960483
-0.0022877443 -0.06479916 -0.0081720259 -0.6005863 -0.55312604 -0.57736272 0.00094921835
-0.0070200507 -0.06123222 -0.0069333292 -0.48075482 -0.47521022 -0.73691934 0.006019251
-0.005142624 -0.061509963 -0.0082642576 -0.59307516 -0.31304899 -0.74179655 0.0042127245
-0.023518864 -0.057047814 -0.0063861199 0.12892105 -0.2840744 -0.95009536 0.0020647559
-0.020058583 -0.057023242 -0.0062391507 0.026424054 -0.28926688 -0.95688373 0.0029867461
-0.016670512 -0.05725887 -0.0061955154 -0.043460686 -0.27246454 -0.96118379 0.0042826878
-0.013182636 -0.057633605 -0.0063806153 -0.14104961 -0.23597966 -0.96146685 0.0048799971
-0.010530743 -0.057896569 -0.0069277585 -0.30026615 -0.21006456 -0.93043709 0.0053957324
-0.0073695043 -0.05863186 -0.0080889743 -0.47292125 -0.2095059 -0.85583454 0.0063251304
-0.0056419042 -0.059147209 -0.0088999495 -0.56050986 -0.22348513 -0.79742283 0.0050771106
0.047548752 -0.058335599 -0.0086378604 0.88561541 0.45387244 0.098413303 0.0044201617
-0.051662482 -0.054400574 -0.0074545639 -0.4749116 0.78267187 0.40234774 0.067993596
-0.039566904 -0.055565562 -0.0082942024 -0.11484686 -0.19854653 -0.97333938 0.0086786579
-0.033606287 -0.054383207 -0.0088275168 0.17529565 -0.1982902 -0.96434045 0.0018625079
-0.03245781 -0.055261537 -0.0082143098 0.17240913 -0.22316216 -0.95941323 0.0014610101
-0.02835235 -0.055134296 -0.0077859708 0.17006139 -0.19653858 -0.96563536 0.0019502679
-0.025094122 -0.054765161 -0.0073455232 0.17494415 -0.10014193 -0.97947234 0.0023033619
-0.022483921 -0.055006817 -0.0070517445 0.1236867 -0.13114543 -0.98361701 0.004731447
-0.019305676 -0.055189833 -0.0067172567 0.054712184 -0.1944505 -0.97938532 0.0046176682
-0.016314007 -0.055001434 -0.0068101338 -0.0090639638 -0.12201007 -0.99248749 0.0052739382
-0.013207701 -0.055511523 -0.0069034253 -0.1340002 -0.084850401 -0.98734206 0.0069615096
-0.010362357 -0.055323195 -0.0075779497 -0.27149215 -0.035777293 -0.96177548 0.005931274
-0.0076752533 -0.055240687 -0.0085219974 -0.39845374 0.065167375 -0.91487044 0.0063691153
0.04625852 -0.055598341 -0.0081510041 0.83766556 0.53084254 0.12854071 0.0049246661
-0.051952288 -0.052387163 -0.0074037397 -0.81311661 0.4796716 0.32978252 0.062325247
-0.048298102 -0.052190453 -0.0086583886 0.3002702 0.092139162 -0.94939357 0.029999819
-0.046189707 -0.051524568 -0.0087178582 0.17811677 0.12448181 -0.97610384 0.035946772
-0.044190414 -0.052514363 -0.0087794606 -0.11951649 -0.084706798 -0.9892121 0.0031990055
-0.040434342 -0.053605344 -0.0088786716 -0.17036834 -0.26875252 -0.94802254 0.010261052
-0.030652426 -0.052559048 -0.0088377064 0.23149398 -0.027422698 -0.97244978 0.0040384457
-0.0284846 -0.052365091 -0.0084973378 0.22937645 -0.038687967 -0.97256863 0.0036575312
-0.025185563 -0.052115545 -0.0079769418 0.19504099 0.035675649 -0.98014605 0.0040627485
-0.022457005 -0.051913816 -0.0076836264 0.15054403 0.17128617 -0.97365171 0.0051604649
-0.019380385 -0.052392714 -0.0071732933 0.10654556 0.053824473 -0.99284989 0.0045900652
-0.016417081 -0.052397616 -0.0071009072 0.04632315 0.16591179 -0.98505193 0.0035816596
-0.013490577 -0.052339938 -0.007164096 -0.069919661 0.17972708 -0.98122853 0.0046788612
-0.01048922 -0.052418634 -0.0075955889 -0.2039711 0.175964 -0.96303296 0.0054893754
-0.0075837485 -0.052368686 -0.0083514489 -0.32462141 0.18064289 -0.92843366 0.0060332511
-0.0055430378 -0.051448386 -0.0088464003 -0.41613778 0.26968104 -0.8683902 0.0085926466
0.043699112 -0.051883612 -0.0076089129 0.7508741 0.64640051 0.13547888 0.003992531
0.045101088 -0.053648643 -0.00796335 0.80843002 0.56349009 0.17005824 0.0036247242
-0.052120171 -0.049334098 -0.0074550011 -0.98464417 0.1743504 -0.0088228229 0.039209798
-0.048041318 -0.049728274 -0.0088192942 0.29260558 0.13807164 -0.94621259 0.052296698
-0.04667281 -0.048876029 -0.0087749204 0.1730583 0.2581102 -0.95048934 0.04918468
-0.04443818 -0.048878074 -0.0088704592 -0.13163896 0.24291158 -0.96107501 0.011146992
-0.030402875 -0.048490405 -0.0088816686 0.27148217 0.24398407 -0.93100441 0.011654443
-0.028313581 -0.049020719 -0.0086252103 0.22674707 0.35095915 -0.90852267 0.006475789
-0.02528882 -0.049172927 -0.0080355657 0.20598425 0.34742773 -0.91480297 0.0059414268
-0.022350201 -0.049260981 -0.0074840821 0.15343741 0.3060303 -0.93957561 0.007195103
-0.019440247 -0.049203735 -0.0070030903 0.1237594 0.3078202 -0.94336116 0.006003431
-0.016462075 -0.049405586 -0.006769178 0.066148631 0.30493861 -0.95007199 0.0056921025
-0.013414273 -0.04940531 -0.0066810623 -0.028197329 0.31019673 -0.95025414 0.0058752759
-0.010397199 -0.049469259 -0.0069143334 -0.1222981 0.33888507 -0.93284512 0.0065580457
-0.0073729488 -0.049393009 -0.0074407551 -0.23092437 0.4189584 -0.87815022 0.0060989321
-0.0045866463 -0.049143847 -0.0082118809 -0.32374883 0.46766356 -0.82248253 0.0058208788
-0.0022563352 -0.048397366 -0.0086733224 -0.36828968 0.60310382 -0.70755106 0.0032722163
0.040585391 -0.048849307 -0.0076215542 0.58551925 0.80802524 0.065286763 0.0041511045
0.042427111 -0.050439108 -0.0078127822 0.69391841 0.71105433 0.11348582 0.0037407756
-0.05172845 -0.045996662 -0.007625524 -0.60472608 0.7324667 -0.31272814 0.062161822
-0.049518175 -0.045519233 -0.0077446019 -0.032118399 0.91051155 -0.41223419 0.021523219
-0.046388011 -0.046055496 -0.0075454614 0.02856425 0.70102274 -0.71256655 0.021753278
-0.043599036 -0.045967422 -0.0077312016 -0.12926954 0.67144954 -0.72968817 0.014969274
-0.040877558 -0.045883961 -0.0079562124 -0.24760675 0.60528445 -0.75651938 0.010626477
-0.036774989 -0.045186069 -0.008740833 -0.029126504 0.59973872 -0.79966557 0.014819935
-0.034295358 -0.045526922 -0.0084728692 0.15660813 0.65205026 -0.7418251 0.0092625776
-0.031380437 -0.045950193 -0.008021513 0.20051375 0.61060798 -0.766128 0.0066092541
-0.028435072 -0.0462749 -0.007473588 0.20399384 0.57433838 -0.79279369 0.008558345
-0.025576804 -0.046418823 -0.0069074812 0.17292938 0.54740095 -0.81880862 0.0062299897
-0.022634694 -0.046943899 -0.0066482509 0.15033349 0.52217764 -0.83948219 0.0051766741
-0.01962899 -0.047305692 -0.0063283071 0.12425035 0.50674909 -0.85309273 0.0041053705
-0.016760297 -0.047746286 -0.0062012901 0.067178853 0.51126522 -0.85679334 0.0038927849
-0.013595012 -0.047778111 -0.0061051836 0.0075046904 0.53414828 -0.84535748 0.0036845014
-0.010227883 -0.047777813 -0.006212228 -0.082170427 0.52457982 -0.8473866 0.0034705598
-0.0073352223 -0.047476429 -0.0063308859 -0.15505384 0.59610361 -0.7877937 0.0032306428
-0.0043076635 -0.047080126 -0.0067612692 -0.21650966 0.6484468 -0.7298221 0.0036820653
-0.0014562692 -0.046782762 -0.0075005186 -0.26719534 0.69098467 -0.67167467 0.0025184562
0.0014662808 -0.045971908 -0.0077377148 -0.25540638 0.77313089 -0.58054823 0.00049371773
0.0043170038 -0.045476548 -0.0083234189 -0.23446086 0.7931807 -0.56204307 0.00019957805
0.0067246016 -0.045150381 -0.0087730763 -0.19517787 0.81297857 -0.54860866 0.00015678293
0.032362867 -0.045159809 -0.007680133 0.30016133 0.9531191 -0.0383032 0.002933135
0.034485303 -0.045825746 -0.0075497166 0.33220297 0.94317198 -0.0082338694 0.0037367099
0.037420154 -0.046934851 -0.0075739352 0.41551483 0.90693682 0.069376007 0.004280006
0.039205592 -0.047872122 -0.0074421093 0.5407449 0.8361094 0.092282124 0.0049942769
-0.051358562 -0.044935673 -0.0063226707 -0.31090307 0.89847642 -0.30996674 0.037207425
-0.049567986 -0.044912819 -0.0062323529 -0.12197353 0.93010819 -0.346441 0.038800672
-0.046950974 -0.044910833 -0.0062049348 0.0074194991 0.87794906 -0.47869658 0.0054753032
-0.043539032 -0.044910416 -0.0062127146 -0.15943535 0.77996039 -0.60517943 0.011488133
-0.040017035 -0.044012062 -0.0071290797 -0.2094501 0.78050554 -0.58901763 0.011949128
-0.037520103 -0.044082049 -0.0073690861 -0.0070202695 0.82432812 -0.56606883 0.012465486
-0.034694552 -0.044299357 -0.0070656738 0.12858306 0.82224226 -0.55442232 0.006766825
-0.031739876 -0.044546802 -0.0066804853 0.14407891 0.75924402 -0.63465714 0.0062240637
-0.028971301 -0.044765174 -0.0063063144 0.14328174 0.73411351 -0.66373777 0.0016050851
-0.026168481 -0.044959959 -0.0061017093 0.1489397 0.63472623 -0.75824767 0.0055540795
0.0022582524 -0.044739883 -0.0063863965 -0.2388237 0.78433782 -0.57251853 0.00022152071
0.0047116401 -0.044392023 -0.0069201621 -0.21972981 0.80353779 -0.55321419 0.00015809495
0.0075751469 -0.044019841 -0.0074088201 -0.17688146 0.82160592 -0.54191953 0.00017997378
0.010455425 -0.043516807 -0.0074742115 -0.1341863 0.83735043 -0.5299418 9.7888238e-05
0.013402249 -0.04316758 -0.0075409459 -0.087716721 0.85326606 -0.51404548 0.00027391847
0.016441491 -0.042910904 -0.0075182309 -0.025672527 0.88035101 -0.47362751 0.0009553401
0.019497314 -0.042860854 -0.0075131729 0.040292844 0.91075587 -0.41097465 0.002712443
0.022520764 -0.043064613 -0.0074885054 0.10851835 0.93639672 -0.3337439 0.0035609484
0.025535222 -0.043506537 -0.0074988627 0.16897698 0.9487049 -0.26721847 0.0038841784
0.028523222 -0.044127192 -0.0075212754 0.20257117 0.96503544 -0.16634785 0.0036771907
0.030926866 -0.044727709 -0.0074067605 0.2604562 0.96081901 -0.094812527 0.002879305
0.014232515 -0.041997336 -0.0060050422 -0.064332597 0.87503326 -0.47976893 0.00096147129
-0.036512669 -0.015995203 -0.0061423373 -0.54539102 -0.10993519 -0.83094096 0.02774113
-0.035520107 -0.015947852 -0.0062825144 -0.33656245 -0.15921165 -0.9281041 0.014364079
-0.036878604 -0.01328799 -0.0063099922 -0.65590376 -0.10411432 -0.74762988 0.022727031
-0.035057366 -0.013784091 -0.0066455849 -0.32194138 -0.15583292 -0.93384683 0.019295238
-0.032293871 -0.013521437 -0.0061532911 0.9774574 0.066468552 -0.20039693 0.044670042
-0.037106719 -0.010458223 -0.0066124639 -0.69352037 -0.093761563 -0.71430963 0.025348339
-0.035030685 -0.010809259 -0.0071946331 -0.31606236 -0.17817205 -0.93185794 0.024526196
-0.031530097 -0.010399713 -0.006523808 0.21119802 -0.18043108 -0.96064562 0.00029841333
-0.02955023 -0.0096617332 -0.006174658 0.24521682 -0.18222179 -0.95218903 0.0001414755
-0.037436184 -0.0074530267 -0.0067917015 -0.70512056 -0.047261335 -0.70751071 0.015547274
-0.034788866 -0.0073172906 -0.0076605808 -0.31345037 -0.070868626 -0.94695646 0.031951085
-0.031516921 -0.0074985265 -0.0070658461 0.21021639 -0.15280965 -0.96563882 0.00049819634
-0.028555455 -0.0071762619 -0.0063327146 0.2607103 -0.14649302 -0.95423788 0.0001088511
-0.037472665 -0.0043969406 -0.0069683557 -0.70793641 0.048011292 -0.70464247 0.045283694
-0.035149932 -0.0046205795 -0.008057774 -0.41148266 0.094348736 -0.90652096 0.055410694
-0.031579364 -0.0046760309 -0.0075924033 0.067701794 -0.077048741 -0.994726 0.043776255
-0.02843445 -0.0042503113 -0.0067558559 0.26603767 -0.090192653 -0.95973396 0.00014650689
-0.026519867 -0.004091382 -0.0061498564 0.26688635 -0.10525413 -0.95796305 9.8648808e-05
-0.037403058 -0.0015712348 -0.007064797 -0.82017839 0.030630261 -0.57128727 0.051038936
-0.03487695 -0.0015102773 -0.0080064777 -0.27557695 -0.084062174 -0.95759642 0.07096862
-0.031787243 -0.0011189944 -0.0079909377 0.18648653 0.012910393 -0.9823727 0.026062192
-0.028819302 -0.0013473977 -0.0070936447 0.25267383 -0.033400286 -0.96697485 0.00048885174
-0.026505841 -0.0011399843 -0.0065410887 0.26080716 -0.0055305273 -0.96537507 0.00018291625
-0.037405342 0.001496076 -0.0071502454 -0.71213508 -0.052871641 -0.7000488 0.030316701
-0.034730356 0.0012731922 -0.0083456086 -0.28049642 0.040182348 -0.95901364 0.041388325
-0.031727344 0.0017027019 -0.007957031 0.14984915 0.03134219 -0.98821199 0.0076787127
-0.028655034 0.0016299905 -0.0071296874 0.25486723 0.037555698 -0.96624649 0.0002809953
-0.025964821 0.0015874971 -0.0064026169 0.25393674 0.036576495 -0.96652901 0.00022509914
-0.023933666 0.00049162877 -0.0060577416 0.25908273 -0.0096352305 -0.96580708 0.00080038089
-0.037481111 0.0045119706 -0.0070311129 -0.6660583 0.052114043 -0.74407697 0.018518398
-0.034658309 0.0044331164 -0.0081603611 -0.22987214 0.11027127 -0.96695346 0.031436913
-0.031437051 0.0045409119 -0.0076763197 0.18489593 0.085048124 -0.97907114 0.0023774509
-0.028489958 0.0047354111 -0.0068829879 0.24869496 0.082539693 -0.96505857 0.0001323273
-0.026035953 0.0044176159 -0.0062644589 0.24548361 0.077315591 -0.96631265 0.00013579984
-0.037232947 0.0074057579 -0.0069924393 -0.6369375 0.05055625 -0.76925588 0.019966112
-0.034701932 0.0075654942 -0.0078469496 -0.27279663 0.11139797 -0.95560056 0.033943139
-0.031597819 0.0076054959 -0.0073521761 0.16668414 0.12255672 -0.97836405 0.0038755524
-0.028580327 0.0074413777 -0.0065953205 0.2425521 0.11802192 -0.96293271 7.1418988e-05
-0.026192339 0.0067500905 -0.0061267838 0.23740676 0.10885274 -0.96529222 5.8353744e-05
-0.03711535 0.01042762 -0.0067692157 -0.60496885 0.066868916 -0.79343635 0.016521417
-0.034575377 0.010378432 -0.0074595781 -0.203894 0.13482682 -0.96966434 0.020956818
-0.031447686 0.010379863 -0.0069032689 0.19280449 0.15691817 -0.96860886 0.00034061217
-0.0288797 0.010282292 -0.0063039972 0.2253888 0.15090324 -0.96251136 0.00011387915
-0.02675081 0.0095136296 -0.0060285199 0.22798465 0.13609667 -0.9641062 9.678035e-05
-0.036905147 0.013523278 -0.0064010415 -0.50475276 0.10866099 -0.85639793 0.01480101
-0.034691177 0.013374779 -0.0068968241 -0.14375766 0.1543496 -0.97750187 0.015334344
-0.031677932 0.013384415 -0.0063950964 0.18851152 0.18548055 -0.96439642 0.00018802099
-0.029362028 0.012536849 -0.0061093401 0.21789004 0.17522793 -0.96011406 0.0001300524
-0.036552679 0.015937338 -0.0061877281 -0.4912976 0.16479804 -0.85525912 0.015789304
-0.034767188 0.016215703 -0.0063209515 -0.10819387 0.18311812 -0.97711909 0.011177314
-0.032334607 0.015791249 -0.0061090225 0.14685157 0.19765434 -0.96920967 0.0011149253
-0.036084704 0.018305669 -0.0060782996 -0.48512745 0.14353235 -0.86258328 0.0072716223
-0.035227399 0.018336073 -0.0060394183 -0.18641484 0.18988769 -0.96394616 0.010001559
-0.040397786 0.044388786 -0.0070934743 -0.16345361 -0.55009925 -0.81894672 0.0099957157
0.0054416624 0.044348106 -0.0066844625 -0.23304722 -0.7912578 -0.56533188 0.00013511868
0.0074198376 0.04457676 -0.007737847 -0.22582369 -0.79851693 -0.55800939 9.4749281e-05
-0.052095085 0.046993662 -0.007346441 -0.99804747 -0.027823856 0.055920448 0.0099593308
-0.048784547 0.047015063 -0.0086089093 0.36520636 -0.04241601 -0.92995977 0.025859235
-0.046278879 0.047152601 -0.0080410633 0.12546872 -0.027153883 -0.99172592 0.036799453
-0.044035524 0.047433846 -0.008533814 -0.063507006 -0.24887016 -0.9664526 0.0079869432
-0.039893787 0.045933593 -0.008483083 -0.13588788 -0.34772959 -0.92769533 0.014419665
-0.034335244 0.046609107 -0.0088204844 0.12653954 -0.41369358 -0.90157938 0.0091550387
-0.031208063 0.047400504 -0.0086026536 0.20540276 -0.13695809 -0.96904701 0.0055842409
-0.028897751 0.047590889 -0.0081283692 0.23611948 -0.19183774 -0.95259953 0.0036245435
-0.025447834 0.047192782 -0.0070690438 0.23061341 -0.21711574 -0.94851369 0.0042296974
-0.022452366 0.047471665 -0.0066202884 0.17509376 -0.36166593 -0.91571826 0.013541393
-0.020524343 0.047584958 -0.0063344091 0.14246763 -0.34934962 -0.92609811 0.002828381
-0.017389003 0.047681656 -0.0060491115 0.10167865 -0.52324563 -0.84609425 0.0047235331
-0.009313494 0.047859259 -0.0060914643 -0.082850739 -0.59151739 -0.80202425 0.0034570755
-0.0064191739 0.047573071 -0.0062893415 -0.22357105 -0.53019738 -0.81786722 0.0057765339
-0.0041922317 0.047514766 -0.0069550844 -0.20896621 -0.63389635 -0.74465334 0.0037829245
-0.0013934764 0.047008801 -0.007438485 -0.31220224 -0.65325797 -0.68977082 0.0032798892
0.0011996517 0.046447776 -0.0078416346 -0.2858336 -0.75217938 -0.59373844 0.0012185915
0.0035008206 0.045586064 -0.0077115395 -0.23547761 -0.79199195 -0.5632931 0.00012490118
-0.052232493 0.049582589 -0.0074757226 -0.99809533 0.047392529 0.039491225 0.019951079
-0.048367325 0.049392961 -0.0087961592 0.39004022 -0.03845118 -0.91999465 0.018963054
-0.046533734 0.049846955 -0.0087394547 0.06152267 0.066132523 -0.99591237 0.030512601
-0.044521797 0.048285488 -0.0088874092 -0.1134845 -0.17142892 -0.97863853 0.0062984722
-0.030474063 0.049237411 -0.0088183032 0.22633038 -0.026750335 -0.97368318 0.0036699104
-0.028088931 0.04979907 -0.0085420869 0.22298351 0.00584201 -0.97480476 0.0033073477
-0.02549994 0.049749028 -0.007965168 0.20126486 -0.025740089 -0.97919858 0.0032589966
-0.022451144 0.049933031 -0.0074516698 0.13673234 -0.044703234 -0.98959887 0.003827841
-0.019783258 0.050036892 -0.0069220853 0.11526114 -0.14007653 -0.98340905 0.004165303
-0.01644709 0.049650446 -0.0066248039 0.053247102 -0.26892409 -0.96168846 0.0045586871
-0.013544347 0.049819723 -0.0066656205 -0.029881824 -0.18506847 -0.98227125 0.0054351385
-0.010283927 0.049959417 -0.0069517302 -0.15340728 -0.27857435 -0.94808358 0.0038933388
-0.0075184768 0.050185062 -0.0076413257 -0.3156912 -0.30394217 -0.89886498 0.0052170898
-0.0047788071 0.049753193 -0.0082654236 -0.389074 -0.35568482 -0.84977037 0.0043138154
-0.0023750628 0.048586383 -0.0085484087 -0.3656745 -0.56875563 -0.73674917 0.0076780007
-0.052141149 0.052602615 -0.0074125486 -0.87070858 0.48812807 -0.059980046 0.06209984
-0.04840396 0.052888975 -0.0086067924 0.41385117 0.36030489 -0.83600694 0.029871123
-0.04615118 0.052975204 -0.008515005 0.073477402 0.57457787 -0.81514496 0.026730452
-0.043897778 0.053555913 -0.0087493872 -0.18325187 0.60601944 -0.77405381 0.012847634
-0.041063715 0.053769507 -0.0088789435 -0.2239311 0.50644118 -0.8326897 0.014380028
-0.03317938 0.053726502 -0.0089195454 0.20878641 0.23347804 -0.94968218 0.0047113812
-0.030591004 0.053222135 -0.0088417232 0.19681013 0.19390373 -0.96107602 0.0040420713
-0.028431132 0.0526006 -0.0085392008 0.20505604 0.14317006 -0.96822226 0.0031658078
-0.02555212 0.052638419 -0.0079936702 0.16561344 0.14806375 -0.97501248 0.0041881008
-0.022530634 0.052646987 -0.0075425683 0.12509978 0.11247315 -0.98574835 0.0052040513
-0.019448975 0.052619033 -0.0071589402 0.05554593 0.10087837 -0.99334699 0.0040737498
-0.016598914 0.052914448 -0.0070667402 -0.005785598 0.12010507 -0.99274433 0.0056707379
-0.013829162 0.052865993 -0.0071390034 -0.083649814 0.072605267 -0.9938466 0.0059850374
-0.010343622 0.052859861 -0.0076154261 -0.20794979 -0.041976869 -0.97723836 0.0066101975
-0.0073426161 0.052501902 -0.0084320894 -0.36133492 -0.17277513 -0.91628915 0.0053868941
-0.0054867272 0.051543608 -0.0087603033 -0.38937104 -0.30201295 -0.87015998 0.008188352
-0.051597644 0.055121299 -0.0075964266 -0.55268788 0.79548556 -0.24847306 0.050177068
-0.049608905 0.055503566 -0.0074048419 -0.070744403 0.9314 -0.3570565 0.055949155
-0.046376519 0.055038147 -0.0070625218 0.0642877 0.82980579 -0.55433697 0.021483026
-0.043496516 0.055137806 -0.0073137544 -0.2283771 0.72704166 -0.64749849 0.017428016
-0.040622033 0.05561772 -0.0077947238 -0.30505258 0.66771948 -0.67903882 0.01420646
-0.037541006 0.056495417 -0.0083914688 -0.10115287 0.7132147 -0.69360858 0.012595382
-0.034712952 0.056265049 -0.0083238222 0.043593373 0.67409736 -0.73735499 0.0074525559
-0.031665049 0.056008391 -0.008070305 0.077397138 0.60308546 -0.79391277 0.0059263604
-0.028320948 0.055927418 -0.0076526538 0.08751411 0.55733365 -0.82566363 0.0059662531
-0.02538377 0.055820152 -0.0072853495 0.085665509 0.48134089 -0.87233722 0.0065614004
-0.022368802 0.055832241 -0.0069692209 0.074223325 0.42152181 -0.90377557 0.0044993223
-0.019358678 0.055925187 -0.0067145876 0.023767179 0.34602875 -0.93792289 0.0045828931
-0.016655227 0.05608654 -0.0066659451 -0.048577376 0.29835138 -0.95321912 0.0040225205
-0.013357344 0.055454057 -0.0070191012 -0.12717195 0.19690929 -0.97213888 0.0044685826
-0.010700789 0.055898894 -0.0075175087 -0.26983202 0.20469408 -0.94089901 0.0051253238
-0.0080539193 0.05562507 -0.0083728693 -0.40870652 0.0908444 -0.90813339 0.0065029054
-0.040038429 0.057397958 -0.0067414124 -0.28022319 0.77586454 -0.56525141 0.010986423
-0.037522446 0.05751428 -0.0068767956 -0.10816629 0.80715466 -0.58034587 0.0076007666
-0.034583244 0.057629585 -0.0068453467 -0.0053742537 0.80327523 -0.59558386 0.0058748904
-0.031601369 0.057692286 -0.0067275758 0.01331367 0.77493352 -0.63190246 0.0056266333
-0.028684495 0.057688694 -0.0065736324 0.034924529 0.72797871 -0.68470961 0.0047978624
-0.025593141 0.05759057 -0.0064166361 0.035455748 0.66263115 -0.74810612 0.0049027959
-0.022576984 0.05751542 -0.0062476476 0.019718368 0.59289956 -0.80503494 0.005744678
-0.019819101 0.057748292 -0.0061910315 -0.026519381 0.59111226 -0.80615324 0.0034248296
-0.016125929 0.057678614 -0.0062179924 -0.086191647 0.47776714 -0.87424803 0.0054189241
-0.013243009 0.058157079 -0.006411572 -0.17359515 0.44141656 -0.88034993 0.0059066298
-0.010614077 0.058812473 -0.0068373373 -0.29237112 0.42301175 -0.8576597 0.0056280778
-0.0076060714 0.058818631 -0.0081241084 -0.47016451 0.30238041 -0.82916313 0.0073431847
-0.0057987641 0.059384059 -0.0088628139 -0.58124554 0.2599633 -0.77108544 0.0060186815
-0.0096125044 0.060651064 -0.0063162898 -0.35388672 0.52723742 -0.77251852 0.0032260132
-0.0072916523 0.061483502 -0.0070441696 -0.44871375 0.50521153 -0.73716843 0.0042237672
-0.0051021539 0.062114585 -0.0082665402 -0.58271486 0.43879098 -0.68403643 0.0038103524
0.047026314 0.062461458 -0.0072095357 0.85838264 0.10727666 0.5016681 0.001492314
-0.0063150721 0.063302219 -0.006304163 -0.50773597 0.57440555 -0.64207667 0.0011343547
-0.0042444835 0.06428048 -0.0072524687 -0.57446992 0.53823185 -0.61667717 0.0012331237
-0.0022835333 0.065318838 -0.0082638199 -0.5984602 0.55877495 -0.57412195 0.00038319977
0.046942182 0.064796895 -0.0073997062 0.85560495 0.13656788 0.49928883 0.0015842508
-0.0033244209 0.066234179 -0.0063853771 -0.56996012 0.57385987 -0.58807349 0.00034210077
-0.0012944466 0.067362159 -0.007272434 -0.58529299 0.59081131 -0.55531442 0.00021968043
0.00065816788 0.068365559 -0.0082616834 -0.57556683 0.60915083 -0.54558051 0.00020657638
0.046495281 0.067547373 -0.0074614938 0.84872246 0.2124989 0.48426691 0.0017572952
-0.00021662112 0.069259658 -0.0063287863 -0.56783992 0.61532247 -0.54675055 0.00019768775
0.0017512736 0.070159025 -0.0072723054 -0.55081111 0.64077705 -0.53480077 0.0001513748
0.0038558915 0.07131201 -0.0080510853 -0.53050464 0.66500008 -0.52568036 0.00017779823
0.04459184 0.071356528 -0.0064585749 0.77198118 0.34642512 0.53294909 0.0017414723
0.045631185 0.07084012 -0.0077492255 0.81250864 0.35588446 0.46170983 0.0021485437
0.0028304046 0.07218679 -0.0060977307 -0.52430844 0.67820877 -0.514911 0.00055745058
0.004932004 0.072864048 -0.0070949439 -0.51006645 0.69390792 -0.5082559 0.00048193516
0.0072609792 0.074035585 -0.0077336244 -0.46821502 0.73581374 -0.48923695 0.00073699158
0.0093640471 0.074757919 -0.0086404551 -0.4640938 0.7345891 -0.49497059 0.00035593845
0.044055827 0.074037649 -0.0077458667 0.75125808 0.57003826 0.33266744 0.0034498656
0.045228913 0.072464138 -0.0083928648 0.79607028 0.45328668 0.40100282 0.0024681413
0.0083784247 0.075409815 -0.0067090639 -0.43889126 0.78071159 -0.44481894 0.0019512647
0.010546589 0.076173291 -0.0074526053 -0.42000821 0.80683982 -0.41545463 0.0017894062
0.013242204 0.077359691 -0.0077129314 -0.3870655 0.85606223 -0.34254599 0.0018096489
0.015243853 0.077851117 -0.0086591942 -0.38848412 0.85587484 -0.34140646 0.003152536
0.041009761 0.077231824 -0.0073604761 0.58712584 0.76156229 0.27441931 0.0037140124
0.042768545 0.07590308 -0.0080432426 0.66785389 0.68029004 0.30195469 0.003523502
0.014424894 0.078215331 -0.0066344547 -0.35128966 0.89230824 -0.28351632 0.0035517139
0.016533583 0.078719996 -0.0074655917 -0.30787906 0.9229781 -0.23091544 0.0023589546
0.01950126 0.079648748 -0.0074846768 -0.26912731 0.95222878 -0.14432858 0.0033411602
0.022523019 0.08043737 -0.0075224219 -0.215005 0.97614217 -0.030321307 0.003126781
0.024607882 0.080890723 -0.0073848562 -0.20208311 0.97935724 0.0046667689 0.0026913914
0.032702442 0.080928154 -0.0061941561 0.16796561 0.97193038 0.16473874 0.0048476807
0.034668136 0.080659926 -0.0072128437 0.29217923 0.94528991 0.14511515 0.0034309984
0.037407506 0.079608984 -0.007550701 0.40205538 0.89697677 0.18380494 0.0047324006
0.039726619 0.078356259 -0.0076681487 0.50796467 0.83328795 0.21818151 0.0039342754
0.026022563 0.081186987 -0.0076309107 -0.15308179 0.98779213 0.02885551 0.002239102
0.028414048 0.081496052 -0.0075424523 -0.063148186 0.99461603 0.082166061 0.0025682929
0.031403892 0.081414029 -0.0075637666 0.10315141 0.98975378 0.098728098 0.002951758
0.033597898 0.081110433 -0.0083388174 0.22447857 0.9714756 0.07644973 0.0046909559
-0.0011985465 -0.069850236 -0.003917689 -0.54381353 -0.61394441 -0.57213557 0.00028261149
0.00032959928 -0.069871992 -0.0054119732 -0.5595575 -0.60940838 -0.56170881 0.00014526176
-0.0065084305 -0.066182867 -0.0030528444 -0.43751645 -0.62257582 -0.64882874 0.00080634828
-0.0044885981 -0.066832773 -0.0040588989 -0.5052948 -0.60970902 -0.61068171 0.00044958905
-0.0025432089 -0.067119852 -0.0055564689 -0.56528169 -0.59822232 -0.56796724 0.00023186064
-0.0075663831 -0.06379886 -0.0044576339 -0.44265622 -0.58906192 -0.67606336 0.0010104788
-0.0050720288 -0.064781941 -0.0054146694 -0.53356844 -0.56038564 -0.63346082 0.0009148118
-0.012129986 -0.060475513 -0.0050909696 -0.33182451 -0.5403741 -0.77323246 0.0071916492
-0.010434252 -0.061597634 -0.0047831698 -0.33298746 -0.58620101 -0.73857141 0.0036809975
-0.0082648117 -0.061612356 -0.0059270132 -0.40441558 -0.50524569 -0.76234823 0.0050932006
-0.020203436 -0.058154915 -0.0055607902 0.0263793 -0.29149085 -0.95620984 0.0026914594
-0.016659424 -0.058119006 -0.0056063486 -0.073413022 -0.29739299 -0.9519285 0.0039707278
-0.013551611 -0.059259675 -0.0054075955 -0.1906554 -0.31926727 -0.92828816 0.0048718685
-0.011248539 -0.059737433 -0.0058825202 -0.30193132 -0.39992023 -0.8653909 0.0075644748
-0.051396228 -0.054904032 -0.0047028949 -0.99543154 -0.092695288 0.022883745 0.0031188405
0.044050273 -0.054274391 -0.0042125862 0.74989963 0.5687058 0.33797076 0.0045214784
0.045191392 -0.055340085 -0.0052292505 0.82426894 0.51566201 0.23382333 0.0036561915
-0.051722743 -0.052002493 -0.004514392 -0.998312 -0.04787479 0.032882575 0.0020168375
0.043200068 -0.05255013 -0.0047225673 0.7140854 0.62149245 0.32222536 0.003270959
-0.051854834 -0.04932908 -0.0044722636 -0.9989596 0.042867064 0.015563163 0.0023132178
-0.01562994 -0.0480856 -0.0059610796 0.060867812 0.38626444 -0.92037761 0.0048557026
-0.01350667 -0.048167937 -0.0059277425 0.020414153 0.47225171 -0.88122731 0.0017540286
-0.011078572 -0.048094124 -0.0059588859 -0.074897736 0.46035516 -0.8845697 0.0046007484
0.038298 -0.048458729 -0.0036275717 0.50307667 0.80762166 0.30767038 0.0026673221
0.040333975 -0.049507007 -0.0046131867 0.60349542 0.72894114 0.32316881 0.0033038016
0.042058628 -0.050971497 -0.0048769317 0.6715048 0.65136796 0.35327184 0.0031682316
-0.051686566 -0.046314433 -0.004317421 -0.8897934 0.42582366 -0.1641399 0.050515793
-0.045517344 -0.045005746 -0.005995593 0.080717027 0.79138643 -0.60596389 0.011270824
-0.027382573 -0.045054346 -0.0059604766 0.15116821 0.72917765 -0.66741902 0.0021468822
-0.024990961 -0.045210559 -0.0057689222 0.14698775 0.66973525 -0.72790754 0.0031649976
-0.022414813 -0.045530207 -0.0055693914 0.13998389 0.60650939 -0.78265631 0.0041248715
-0.019427629 -0.045802977 -0.0052635069 0.11607009 0.58692914 -0.80127519 0.0030497725
-0.016496524 -0.046196219 -0.005189009 0.079797469 0.55522698 -0.82786191 0.0035068002
-0.013529322 -0.046287399 -0.0050498457 0.02063817 0.55910414 -0.82884049 0.003037716
-0.010501109 -0.046168778 -0.004942677 -0.048688333 0.59679824 -0.80091274 0.0028415609
-0.0075588385 -0.046016462 -0.0051056412 -0.11176303 0.63769358 -0.76213896 0.0022693109
-0.0045549981 -0.045610785 -0.0052706511 -0.15632473 0.70846218 -0.68821794 0.0012091262
-0.0017219043 -0.045321561 -0.0056127906 -0.19738168 0.75011617 -0.63116252 0.0013136765
0.00046502278 -0.045061287 -0.0059040366 -0.2315312 0.77435058 -0.58887547 0.00043838937
0.032262553 -0.045267869 -0.0043268176 0.38482359 0.91377866 0.13007446 0.0029274456
0.03440721 -0.046156198 -0.0045334208 0.37911791 0.91356677 0.14719152 0.002134579
0.037248306 -0.04740176 -0.0048184204 0.46593612 0.84958982 0.24718553 0.002660139
-0.051352374 -0.044550739 -0.0045862542 -0.51350486 0.82935959 -0.22017142 0.041082658
-0.049502321 -0.044313397 -0.0044596782 -0.17915307 0.9352268 -0.30537716 0.028268823
-0.046485025 -0.044325236 -0.0044936473 -0.036144812 0.91347706 -0.40528157 0.0049199099
-0.043416839 -0.043964755 -0.0043900078 -0.23307107 0.831339 -0.50453269 0.012686687
-0.040605377 -0.042906024 -0.0046227919 -0.19178848 0.79757482 -0.57191926 0.013159588
-0.037544359 -0.042810485 -0.0046680542 0.012402574 0.84619755 -0.53272492 0.0088280914
-0.034513131 -0.043064207 -0.0046821744 0.049646605 0.79455459 -0.60515964 0.0072477311
-0.031485289 -0.04325084 -0.004598062 0.10226732 0.76349872 -0.63766068 0.0046162559
-0.028486585 -0.043545723 -0.0044818688 0.11470859 0.7208761 -0.6835053 0.0031522573
-0.025562048 -0.043805949 -0.0043204189 0.11854442 0.6685226 -0.73418307 0.0026912689
-0.02261477 -0.044050321 -0.0040861918 0.11791676 0.62842351 -0.76888198 0.002223094
-0.019554382 -0.044230692 -0.0037383533 0.10335496 0.62022442 -0.77758563 0.0012470537
-0.01653773 -0.044429541 -0.0035810752 0.07059563 0.60552573 -0.79268837 0.0014048588
-0.013484214 -0.044520993 -0.0034508228 0.027524406 0.61724615 -0.78628844 0.00072377
-0.010470523 -0.044483233 -0.0034287649 -0.026860375 0.63330621 -0.77343506 0.0006114819
-0.0073881182 -0.044442046 -0.0036171745 -0.072305895 0.66267389 -0.74540937 0.00068606937
-0.0043393672 -0.044248197 -0.003850257 -0.10378078 0.70600295 -0.70056355 0.00078606873
-0.0014139508 -0.044049211 -0.0041595655 -0.13947506 0.75268072 -0.64344263 0.0010683323
0.001520681 -0.043606788 -0.0044636736 -0.20553483 0.7778542 -0.59388411 0.00076299813
0.0043913885 -0.04292652 -0.0046969098 -0.19906366 0.80232024 -0.56272185 0.00029045329
0.0073697823 -0.042578425 -0.005159698 -0.15906762 0.8240183 -0.54377508 0.00019389903
0.010365488 -0.04230633 -0.005509668 -0.12122815 0.84479296 -0.52118003 0.00020068248
0.013159774 -0.042161334 -0.0058385101 -0.066086531 0.86179274 -0.50293714 0.00060872041
0.016342733 -0.042089108 -0.0059048343 0.0025777118 0.9033215 -0.42895645 0.0015866768
0.019990789 -0.042139251 -0.005737274 0.087070294 0.94775009 -0.30690137 0.0029921539
0.022705924 -0.042329006 -0.0047416589 0.19398791 0.96254897 -0.18938899 0.002922555
0.025479788 -0.042955969 -0.0044781333 0.26709723 0.95906758 -0.094065733 0.0035540487
0.028476955 -0.043864887 -0.004540842 0.29795521 0.95434564 -0.021143906 0.0023000222
0.030844877 -0.044681974 -0.004575274 0.33727309 0.93957913 0.058633592 0.0026806381
-0.043068357 -0.041934811 -0.0030102218 -0.29460341 0.7284981 -0.61846536 0.016891321
-0.040320359 -0.041870609 -0.0031114146 -0.10092597 0.72046423 -0.68610877 0.023573076
-0.03738964 -0.041829128 -0.0032049837 -0.0091135353 0.55851203 -0.82944632 0.026479049
-0.034534674 -0.041818228 -0.0032569715 0.015275615 0.51656073 -0.85611427 0.018956397
-0.031840116 -0.041778471 -0.0031328157 0.10601106 0.57069951 -0.81428725 0.024190698
-0.029134113 -0.041907795 -0.0030808169 0.035920441 0.53625321 -0.84329253 0.019434646
0.0052555604 -0.041791234 -0.0033572849 -0.17487986 0.79869145 -0.57576823 0.00090055354
0.007722917 -0.041589681 -0.0037039553 -0.1330256 0.83308429 -0.53691226 0.00044009445
0.010613422 -0.041323096 -0.0039991154 -0.081864208 0.86343348 -0.49777597 0.0013138053
0.01348723 -0.041279126 -0.0043514757 -0.0073174546 0.89737231 -0.44121352 0.0024246287
0.016425887 -0.041362796 -0.0044287867 0.063478731 0.93014425 -0.36166573 0.0030061456
0.019310836 -0.041638378 -0.0043761847 0.13922906 0.94941604 -0.28146848 0.0032986195
0.02147321 -0.041853096 -0.003732149 0.19756085 0.95646787 -0.21479969 0.0029094259
-0.037146252 -0.033452958 -0.003074711 -0.71263313 0.018620325 -0.70128983 0.030582983
-0.037226561 -0.030955393 -0.0032264381 -0.57563287 -0.098740712 -0.81172472 0.016681096
-0.034724854 -0.030667871 -0.003068666 0.04558403 -0.099981636 -0.99394459 0.0026750173
-0.039285589 -0.027291989 -0.0030226153 -0.90467447 0.0068205907 -0.42604887 0.020238653
-0.037493713 -0.028267533 -0.0033909637 -0.67009366 -0.070752665 -0.73889679 0.012764907
-0.034807403 -0.02826838 -0.0032282826 0.012348003 -0.1520807 -0.98829091 0.0069338642
-0.032051194 -0.027607361 -0.003080938 0.13873261 -0.14966944 -0.97895473 0.00024297621
-0.039164141 -0.024937669 -0.0031124656 -0.83086556 -0.0072109867 -0.55642647 0.025515433
-0.037635092 -0.025380114 -0.0037951446 -0.71755183 -0.06113537 -0.69381684 0.015907949
-0.034779884 -0.025553951 -0.0037681237 0.019961081 -0.17797488 -0.98383254 0.0071948278
-0.031908702 -0.025110906 -0.0032974647 0.16778909 -0.18446834 -0.96841019 0.00016870945
-0.029271713 -0.024912575 -0.0031425736 0.12988697 -0.15663549 -0.97907853 0.00025741066
-0.039238594 -0.022010624 -0.0032140282 -0.81520277 -0.053636387 -0.57668674 0.019640543
-0.037650641 -0.022412706 -0.0043147821 -0.75820702 -0.073251829 -0.6478861 0.023299258
-0.034716662 -0.022855461 -0.0044174865 -0.18052693 -0.17544763 -0.96779555 0.014463827
-0.031371925 -0.022374211 -0.0037619702 0.17932142 -0.19821832 -0.96361476 0.00018437036
-0.028703094 -0.022490019 -0.0032693495 0.15059915 -0.17265283 -0.97340167 0.00015457998
-0.025797741 -0.022013243 -0.0031368476 0.1411512 -0.14738576 -0.97895545 0.00017472116
-0.039381474 -0.018947413 -0.0033687465 -0.91156799 -0.041889627 -0.40900984 0.033503126
-0.037666354 -0.019505545 -0.0047426699 -0.78434187 -0.073618934 -0.6159448 0.026180005
-0.03517751 -0.019243253 -0.0054146671 -0.31024793 -0.18370245 -0.93273771 0.016229142
-0.031616598 -0.019243591 -0.0045148139 0.18265676 -0.21333766 -0.95975178 0.00077055517
-0.028572803 -0.019663857 -0.0037981302 0.18116446 -0.19366308 -0.96419603 0.00024835658
-0.025791535 -0.019514346 -0.0033358529 0.16433266 -0.1723679 -0.97122812 0.00025861041
-0.023193104 -0.018432764 -0.0030750015 0.16237503 -0.13957076 -0.97680825 0.00017123821
-0.039337989 -0.016389158 -0.003716093 -0.94111824 -0.036014467 -0.33615386 0.030319607
-0.038121153 -0.016434764 -0.0046399524 -0.79416788 -0.063558765 -0.60436541 0.03393523
-0.033963371 -0.016485868 -0.0056886785 0.059264138 -0.24371016 -0.96803576 0.0089495452
-0.031148193 -0.016607864 -0.0050271857 0.20878983 -0.21865979 -0.95320237 4.9294136e-05
-0.028380305 -0.016603606 -0.0044139726 0.20647033 -0.20375414 -0.9570027 0.00019013317
-0.025345711 -0.0166473 -0.003769961 0.19301511 -0.16822909 -0.96666652 0.00026860752
-0.022622056 -0.016203877 -0.0033098704 0.19464153 -0.1412822 -0.97064626 0.00017420987
-0.019967904 -0.015646758 -0.0030983891 0.18727911 -0.11391342 -0.9756794 9.3601833e-05
-0.039231859 -0.013684878 -0.0041275071 -0.91403687 -0.051845159 -0.40230423 0.027302394
-0.038288843 -0.013628302 -0.0045066467 -0.84605694 -0.079257555 -0.52716786 0.02839076
-0.031314828 -0.013956116 -0.0056863427 0.213304 -0.21044117 -0.95405233 9.9570228e-05
-0.028511479 -0.013656137 -0.0050842073 0.22902916 -0.20163938 -0.95230621 9.8845871e-05
-0.025466956 -0.013728683 -0.0043348931 0.22460796 -0.17445202 -0.95870632 0.00021248958
-0.022526221 -0.013652548 -0.0036822136 0.20557036 -0.14682917 -0.967565 0.00020501891
-0.019747349 -0.013543768 -0.0031871134 0.19722928 -0.12266304 -0.97265327 0.00011746119
-0.01778998 -0.012649137 -0.003022834 0.19273823 -0.1022387 -0.97590947 9.5217983e-05
-0.039136134 -0.011081238 -0.0044313837 -0.9362061 -0.029849088 -0.35018158 0.026235642
-0.038402535 -0.010805628 -0.0046551879 -0.89295018 -0.041226741 -0.44826379 0.02561952
-0.030295579 -0.011634423 -0.0058817668 0.22699714 -0.19023967 -0.95513415 0.00013583856
-0.028138258 -0.010762013 -0.0055848048 0.24849288 -0.17984948 -0.95179069 0.00012788318
-0.025459087 -0.01045882 -0.0049281158 0.24887784 -0.16382983 -0.95457828 0.00016053356
-0.022383096 -0.010594117 -0.004114347 0.23043698 -0.14035802 -0.96291137 0.00018195684
-0.019422434 -0.010449111 -0.0034963628 0.2200148 -0.11101089 -0.96915948 7.569373e-05
-0.017425649 -0.0099307634 -0.003064815 0.21763605 -0.10820654 -0.97001338 7.4851545e-05
-0.039095186 -0.0080152238 -0.0051427558 -0.9764933 -0.055625301 -0.20824693 0.020942479
-0.03844665 -0.0079838932 -0.0050595682 -0.86117858 -0.083806254 -0.50134623 0.01785386
-0.027660757 -0.0079957191 -0.0058477991 0.263255 -0.14496104 -0.95377314 9.6478245e-05
-0.02549926 -0.0073283152 -0.0054447283 0.2650238 -0.14012946 -0.9540053 9.1375572e-05
-0.022590356 -0.0076148002 -0.0045977081 0.25475383 -0.12833342 -0.9584524 7.446087e-05
-0.019448236 -0.0075668623 -0.0037823215 0.24097131 -0.11471356 -0.96372908 6.47997e-05
-0.016971402 -0.0076952595 -0.0032280027 0.23111537 -0.10179286 -0.96758664 5.7772831e-05
-0.039370157 -0.0040536104 -0.0042707995 -0.90112883 -5.9287649e-05 -0.43355146 0.027728943
-0.038224496 -0.0036887708 -0.0050450447 -0.82516772 0.14263818 -0.54658264 0.048186403
-0.035242829 -0.0034193571 -0.0045834677 -0.35239568 0.7205599 -0.59716886 0.15586773
-0.025048239 -0.0045526573 -0.005675633 0.27212974 -0.10651212 -0.95634753 7.3650452e-05
-0.022315696 -0.0044907453 -0.0049891481 0.26458991 -0.095390208 -0.95963162 8.0627891e-05
-0.019168084 -0.0046985904 -0.0041161161 0.25033906 -0.10226133 -0.96274245 4.8033646e-05
-0.01647589 -0.0046560699 -0.0034246417 0.24524498 -0.092502393 -0.96503794 5.1684885e-05
-0.014590988 -0.0041933358 -0.0031353077 0.23795328 -0.086425118 -0.96742392 3.7919584e-05
-0.039346892 -0.0016435023 -0.0036257368 -0.87467265 0.013560118 -0.48452446 0.024465024
-0.03801515 -0.0019447133 -0.0049792849 -0.71019357 0.21461625 -0.67049599 0.093222886
-0.035072714 -0.0018611168 -0.0044040028 -0.78396881 0.54807192 0.29156476 0.19229168
-0.024670845 -0.0017113505 -0.0058428138 0.27464101 -0.053455349 -0.96005982 0.00029139154
-0.022775803 -0.0013423038 -0.0054210504 0.26380622 -0.04751062 -0.96340489 0.00033134595
-0.019676149 -0.001517817 -0.0045678476 0.25759318 -0.059135105 -0.96444225 0.00019561064
-0.016336743 -0.0013828613 -0.0036855952 0.25147763 -0.060197093 -0.96598935 0.00019833937
-0.01438033 -0.0013878406 -0.0031721184 0.24469392 -0.057438061 -0.96789759 0.0001741645
-0.039362773 0.000881663 -0.0036384207 -0.91647404 -0.025584586 -0.39927521 0.010389307
