# .PCD v0.7 - Point Cloud Data file format
VERSION 0.7
FIELDS x y z normal_x normal_y normal_z curvature
SIZE 4 4 4 4 4 4 4
TYPE F F F F F F F
COUNT 1 1 1 1 1 1 1
WIDTH 551
HEIGHT 1
VIEWPOINT 0 0 0 1 0 0 0
POINTS 551
DATA ascii
-0.029880174 0.021235086 -0.016370781 -0.18106858 -0.4201484 -0.88920724 0.00095095835
0.04124203 0.02108762 -0.016417518 0.23323762 -0.37586901 -0.89684039 0.00027643045
0.043925352 0.022392023 -0.016208682 0.26989427 -0.37055251 -0.88873392 0.00099955045
0.04654555 0.021887712 -0.015459793 0.33622417 -0.4343062 -0.83566225 0.00091768953
0.049484536 0.023609554 -0.015111852 0.37240052 -0.43270597 -0.82102585 0.0013337173
-0.043320213 0.025609395 -0.015344974 -0.31668091 -0.4002665 -0.85994184 0.0015275757
-0.040525019 0.025488226 -0.016005954 -0.27568841 -0.36985454 -0.88724494 0.0012265872
-0.038041435 0.02516292 -0.016445816 -0.24199474 -0.38732389 -0.8896172 0.00078872568
0.046855625 0.025062978 -0.016249312 0.28476512 -0.33253929 -0.89906979 0.00047236803
0.04959216 0.025473619 -0.01553911 0.34740916 -0.32522181 -0.87950993 0.0015251173
-0.049265686 0.029982522 -0.015031357 -0.37680566 -0.41686031 -0.82719105 0.00035073544
-0.046658538 0.028379023 -0.015314368 -0.32142773 -0.38222164 -0.86636645 0.0012339639
-0.043887988 0.028633842 -0.016107213 -0.28803763 -0.35361251 -0.88993967 0.00043241266
0.052082378 0.028413754 -0.015455818 0.36228645 -0.32061565 -0.87518805 0.0012657266
-0.00056433037 0.0059759296 -0.012042225 -0.050349072 -0.70565945 -0.70676011 0.0010811409
0.0022506618 0.0059034349 -0.012135258 -0.034434423 -0.70579076 -0.70758301 0.0014228314
0.0045533953 0.0059016664 -0.012183077 -0.0088838656 -0.70699525 -0.7071625 0.0012928261
0.0075127915 0.005847571 -0.012081642 0.013089788 -0.71444839 -0.69956571 0.0012891607
0.010188839 0.0059070121 -0.012074737 0.037922934 -0.72274256 -0.69007617 0.00094206777
-0.015735164 0.008754598 -0.012115535 -0.17088196 -0.67165726 -0.72088552 0.00097369991
-0.013416515 0.0085466914 -0.012380652 -0.14496058 -0.64226747 -0.752648 0.0011528613
-0.010457537 0.0082134893 -0.012635865 -0.11585666 -0.62882 -0.76887101 0.0011388763
-0.0074579553 0.0080034509 -0.012811097 -0.083933115 -0.59987128 -0.79568195 0.0019929733
-0.0044838837 0.0077049411 -0.012903427 -0.066500485 -0.58101541 -0.81117117 0.0013205413
-0.0013320431 0.0075652786 -0.012996522 -0.049502209 -0.60286814 -0.79630375 0.0017277529
0.0016514178 0.0074677896 -0.013079821 -0.036137152 -0.60853833 -0.79270118 0.0020519362
0.0046284059 0.0073626838 -0.013094872 -0.014761787 -0.61491001 -0.78845918 0.00099812832
0.0075472817 0.0073672622 -0.013103101 0.0045421664 -0.62290573 -0.78228378 0.0012021322
0.010489754 0.0074337968 -0.013137947 0.024588816 -0.63555026 -0.7716679 0.001177278
0.013432323 0.0075510591 -0.013077597 0.050730724 -0.6505416 -0.75777435 0.0013814452
0.016361671 0.007360626 -0.012679356 0.092778735 -0.72025365 -0.6874786 0.00079117779
0.020140629 0.0079524443 -0.012740903 0.1199367 -0.71216011 -0.69169587 0.00065737678
0.022382962 0.0082316166 -0.012696902 0.1332902 -0.68828678 -0.71308833 0.001335592
0.025396511 0.0086741066 -0.01244857 0.17481627 -0.71370304 -0.67828262 0.001004746
0.027262751 0.0086687999 -0.012045858 0.19576442 -0.71290696 -0.67337948 0.0020380924
-0.024904529 0.011778277 -0.012180055 -0.22966476 -0.6562627 -0.71873033 0.0010524796
-0.022233702 0.011297031 -0.012531216 -0.21330012 -0.62395293 -0.75178838 0.0012978521
-0.019325396 0.010699843 -0.012849954 -0.1886289 -0.59648579 -0.78014344 0.0012866004
-0.016410569 0.010278498 -0.01312428 -0.16193247 -0.58762205 -0.79276615 0.0016022408
-0.013531583 0.010118864 -0.013523926 -0.12989017 -0.56620812 -0.81396365 0.001265157
-0.010473206 0.010347571 -0.014081493 -0.094526172 -0.53087163 -0.84216398 0.001365529
-0.0079227788 0.0098281614 -0.014004451 -0.06944669 -0.50602996 -0.85971558 0.0015641926
-0.0043766564 0.010246198 -0.0145034 -0.052701164 -0.50411153 -0.86202908 0.0014543763
-0.0017109461 0.0098475274 -0.014426857 -0.04265552 -0.50624871 -0.86133188 0.0017764909
0.0013740067 0.009755455 -0.01453995 -0.04244829 -0.45009115 -0.8919732 0.0021081844
0.0043690065 0.0097066183 -0.014612718 -0.019201521 -0.48106679 -0.87647361 0.0014105935
0.0075666704 0.0096478201 -0.014630631 -0.016132241 -0.48430598 -0.87474996 0.0015666827
0.010661369 0.0097070485 -0.01469053 0.012173918 -0.48257169 -0.87577188 0.0021557789
0.013700884 0.0095245503 -0.014527747 0.029026086 -0.52759236 -0.84900165 0.00076361152
0.016918182 0.0095020421 -0.014340769 0.058601189 -0.5764702 -0.81501412 0.00084298616
0.019572843 0.0098627433 -0.014342367 0.090318963 -0.57076824 -0.81612873 0.0015017316
0.022460194 0.010107128 -0.014192346 0.10750657 -0.58317101 -0.80520427 0.0011994807
0.025697963 0.010326807 -0.013831367 0.13876618 -0.60320389 -0.78542286 0.0012886857
0.028063282 0.010151693 -0.013144034 0.19896276 -0.71721739 -0.66784215 0.001588869
0.031371716 0.010824469 -0.012948919 0.21754569 -0.65735769 -0.72149485 0.0016146376
0.03412481 0.011390083 -0.012561418 0.24671024 -0.6895988 -0.68087262 0.0013830726
0.036335293 0.011692678 -0.012090386 0.28657287 -0.70295787 -0.65094256 0.0016727018
-0.033325009 0.014782072 -0.012239865 -0.30516198 -0.62385792 -0.71949816 0.0015222625
-0.031105028 0.014576931 -0.012499196 -0.26072371 -0.63768291 -0.72483343 0.001243486
-0.028363319 0.013887788 -0.012814413 -0.23633929 -0.60599446 -0.7595489 0.001591656
-0.025500417 0.013416681 -0.013285997 -0.2089874 -0.57324415 -0.79228485 0.0019053059
-0.022553319 0.013310303 -0.013896272 -0.18592453 -0.53478032 -0.82428277 0.0010893621
-0.019846441 0.013016652 -0.014274818 -0.16796154 -0.52083516 -0.83697051 0.0015198287
-0.016717995 0.01261536 -0.014568478 -0.13257512 -0.50505197 -0.85284603 0.0012444815
-0.013295859 0.012287922 -0.014820275 -0.11431168 -0.479036 -0.87032026 0.0012577135
-0.010630605 0.012307964 -0.014932401 -0.081069529 -0.42938843 -0.89947391 0.0018356295
0.026376644 0.012218559 -0.014964802 0.12035923 -0.51008773 -0.85165972 0.00094191905
0.028732715 0.012483205 -0.014855247 0.14670984 -0.54563552 -0.82508069 0.0015158011
0.031535488 0.012762469 -0.014445116 0.19025207 -0.57678932 -0.79442942 0.0012284889
0.034775913 0.013165202 -0.013875429 0.23892622 -0.61821103 -0.7488187 0.00065421133
0.037347116 0.013469954 -0.013287494 0.28447703 -0.64445001 -0.7097584 0.0011456431
0.04035398 0.014180914 -0.012720303 0.31041828 -0.64556724 -0.69777042 0.001488802
0.042524371 0.01464706 -0.012177343 0.3443124 -0.66296184 -0.66477853 0.001587861
-0.037188228 0.017389361 -0.012447085 -0.31839791 -0.59790426 -0.73561764 0.0016303062
-0.034510586 0.016682269 -0.012944032 -0.28846639 -0.58739978 -0.75614053 0.0016039079
-0.031923514 0.01633136 -0.013621799 -0.25807497 -0.5835439 -0.76998299 0.00085716648
-0.028682819 0.01612805 -0.014284941 -0.20772554 -0.52559948 -0.82498199 0.0013255844
-0.025433997 0.015636256 -0.014715954 -0.17709875 -0.50029463 -0.84755021 0.0015498237
-0.023785712 0.015066301 -0.014991326 -0.13948792 -0.43318599 -0.89044541 0.0018651134
0.038085911 0.015602432 -0.014659446 0.25088841 -0.5603506 -0.78934288 0.0018827877
0.040677499 0.016024007 -0.014118272 0.28629684 -0.54875422 -0.78543174 0.0010615106
0.043428548 0.01627218 -0.013133835 0.35031587 -0.61339605 -0.70783055 0.0016702919
0.046075493 0.017141465 -0.012525849 0.38208956 -0.62142223 -0.68398976 0.0014178649
0.048262119 0.017812476 -0.012062926 0.4264544 -0.61574984 -0.66256231 0.00092709361
-0.042597301 0.020513093 -0.012479849 -0.38606051 -0.58494407 -0.71330059 0.0015752721
-0.040404428 0.019727908 -0.012889113 -0.37236935 -0.58573925 -0.71989626 0.001061485
-0.037687398 0.019099746 -0.013579181 -0.31646127 -0.57177812 -0.75691611 0.0011213799
-0.034554653 0.018966032 -0.014444188 -0.25270343 -0.5143671 -0.81949216 0.0020191448
0.041786171 0.018015655 -0.014979345 0.24857883 -0.49567333 -0.83217579 0.0035082416
0.043689262 0.018520446 -0.014642588 0.30542547 -0.51417613 -0.80146009 0.001304904
0.046419859 0.018927909 -0.013754192 0.36787114 -0.55893159 -0.74314624 0.00052708876
0.049197562 0.01946523 -0.012730321 0.42355633 -0.58414477 -0.6923691 0.00095134729
0.051433668 0.020616509 -0.012281727 0.45326975 -0.56573379 -0.68883365 0.0011429292
-0.045803022 0.023153538 -0.012632328 -0.40550107 -0.54619855 -0.7329638 0.00074000476
-0.043649659 0.022168674 -0.013064871 -0.3849076 -0.55514318 -0.73733449 0.0011186916
-0.040970463 0.022092842 -0.014100228 -0.32980719 -0.50086665 -0.80022484 0.00094594993
-0.038608711 0.021390397 -0.014608089 -0.30296364 -0.47325116 -0.82719189 0.0017340397
0.047737472 0.021689512 -0.014816587 0.31038254 -0.40012416 -0.86230117 0.0024395925
0.049837876 0.021819958 -0.013977324 0.4032276 -0.50080687 -0.76589811 0.00090657879
0.052630764 0.022317158 -0.012798887 0.4555366 -0.5405525 -0.70731139 0.001099311
0.054590236 0.023572585 -0.012458698 0.49061874 -0.51252538 -0.70470631 0.0011970325
-0.051285978 0.02645693 -0.012266129 -0.45084491 -0.53826612 -0.71204531 0.0017830631
-0.04944066 0.026043072 -0.012732983 -0.44039273 -0.55031323 -0.7093727 0.00093387451
-0.046985704 0.025182474 -0.013416365 -0.41773111 -0.53661942 -0.73317146 0.000811173
-0.044087477 0.024991937 -0.014507949 -0.3443107 -0.45092952 -0.82347602 0.0011045868
-0.041870557 0.024091557 -0.014593766 -0.34386113 -0.47946051 -0.80738914 0.00019286931
0.050773572 0.024333237 -0.014783587 0.36834303 -0.35820493 -0.85791183 0.003216448
0.052418455 0.024784379 -0.014364881 0.41101739 -0.41480777 -0.81178772 0.00103445
0.056146141 0.025327353 -0.012460797 0.50850666 -0.49224266 -0.70648295 0.00080972706
0.057659734 0.026603244 -0.012193896 0.53072131 -0.46216822 -0.71044737 0.0014343066
-0.054217286 0.029402133 -0.012244746 -0.48820466 -0.50227475 -0.71370602 0.0012860651
-0.052054137 0.028323546 -0.012664177 -0.45203033 -0.51294065 -0.72976738 0.0013307667
-0.049525931 0.028240798 -0.014180926 -0.37680435 -0.41685042 -0.8271966 0.0003530097
-0.047374427 0.027559873 -0.014468615 -0.35944417 -0.45080739 -0.81705117 0.001251654
0.053888392 0.028825492 -0.014896506 0.39577687 -0.29903451 -0.86829662 0.00050186168
0.055581365 0.028102832 -0.014016078 0.41746384 -0.33227634 -0.8457638 0.0014063171
0.058466297 0.028490026 -0.012638459 0.52178872 -0.35771462 -0.77445263 0.0016934475
-0.05747813 0.032944664 -0.012292783 -0.51870459 -0.36466137 -0.77328366 0.001469047
-0.055318099 0.031307515 -0.012813133 -0.4689413 -0.40347689 -0.78568476 0.001270053
-0.053124245 0.030688871 -0.013346493 -0.46034941 -0.46803534 -0.75433505 0.00075447431
-0.050585996 0.03080463 -0.014826701 -0.38643208 -0.41194412 -0.82521051 0.00035249681
0.058419935 0.03016969 -0.013237585 0.48183459 -0.33055106 -0.81152421 0.0022814393
0.060696051 0.032510333 -0.012573309 0.57154024 -0.30497009 -0.76179725 0.00077407726
-0.058058612 0.034571167 -0.01265349 -0.50579309 -0.34779197 -0.78943914 0.00093349285
-0.055889297 0.034348309 -0.013654537 -0.47223493 -0.34623259 -0.81062764 0.00091411284
-0.060241509 0.036439709 -0.012008791 -0.54369515 -0.32579103 -0.77346998 0.00049257942
-0.059319016 0.037078667 -0.012674003 -0.52295464 -0.32184729 -0.78926086 0.0010451082
-0.015332798 0.0058442634 -0.0091319662 -0.20387268 -0.76123625 -0.61559343 0.0020158014
-0.013239615 0.0055382601 -0.0094326604 -0.17979369 -0.78759784 -0.58937579 0.001198473
-0.010465723 0.0052666585 -0.009760675 -0.13630232 -0.78164864 -0.60864359 0.0010480291
-0.007532143 0.0048206779 -0.0097512621 -0.11605585 -0.77834666 -0.617015 0.0012536517
-0.0044224188 0.0044962214 -0.0098806759 -0.088043973 -0.79845715 -0.59557903 0.00094052032
-0.0014255265 0.0042139972 -0.0097921267 -0.051695477 -0.7881543 -0.61330283 0.0010925716
0.0012607259 0.0040137041 -0.0096849808 -0.032500617 -0.82343006 -0.56648618 0.00084223395
0.0045681852 0.0041477205 -0.0099941315 -0.0015176132 -0.80105591 -0.59858763 0.0010506443
0.0080728075 0.0039505577 -0.0096292971 0.036151867 -0.82137364 -0.56924367 0.00066795718
0.010458801 0.0040964349 -0.0097104749 0.056238655 -0.84138656 -0.53749955 0.0011484275
0.013585117 0.0046151332 -0.010043593 0.08109124 -0.80912715 -0.58201152 0.0012444188
0.016587006 0.004828081 -0.00987026 0.11038166 -0.79808646 -0.59234601 0.0014214568
0.019400714 0.0052879904 -0.0099442452 0.12956905 -0.79885554 -0.58740252 0.0010908725
0.02199547 0.0055322228 -0.009588209 0.15571946 -0.80375737 -0.57421738 0.0015664574
0.024608009 0.0057817958 -0.0092415605 0.19722827 -0.80936617 -0.55319756 0.0010161877
-0.024649793 0.0088703651 -0.0092289383 -0.28621036 -0.75510406 -0.58983165 0.0013626177
-0.022610914 0.0083374232 -0.0094564119 -0.27757946 -0.7710076 -0.57314646 0.0011370403
-0.019181972 0.0076570455 -0.010025338 -0.24890681 -0.76959896 -0.58801597 0.0011946892
-0.016487492 0.0070965425 -0.01020659 -0.20658502 -0.75241542 -0.62545478 0.0011338303
-0.01332216 0.0068699019 -0.010855765 -0.17817421 -0.74627012 -0.64135396 0.00080598908
-0.010138961 0.0066548064 -0.011307467 -0.12415631 -0.73470569 -0.66692793 0.00091446989
-0.0075034765 0.0064014988 -0.011508622 -0.10268792 -0.71069205 -0.69596839 0.0010568165
-0.0046308432 0.006159754 -0.011601813 -0.084866516 -0.739999 -0.66723239 0.00084546959
-0.002040501 0.0061555076 -0.011748252 -0.04815916 -0.69159228 -0.72068077 0.0023073626
0.001798005 0.0061642569 -0.011920774 -0.036366977 -0.69884855 -0.71434462 0.0012516628
0.0044760434 0.0060241595 -0.011909525 -0.0084383814 -0.69944674 -0.71463495 0.0011300903
0.0079439478 0.0061073937 -0.011956215 0.010843473 -0.70777857 -0.70635116 0.0013079892
0.01069507 0.0061066505 -0.011890343 0.030675622 -0.71333063 -0.70015597 0.0012076375
0.013910168 0.0061542746 -0.011799671 0.062609456 -0.71103412 -0.70036453 0.0012064603
0.016052546 0.0062395674 -0.011620904 0.092660055 -0.73363608 -0.67319554 0.00075445999
0.019806251 0.0065984088 -0.011418213 0.12268726 -0.76025772 -0.63793093 0.0010305695
0.022742203 0.006510979 -0.010696089 0.15903622 -0.794945 -0.58546555 0.0013998103
0.025583874 0.0068552257 -0.010324918 0.20210774 -0.78001106 -0.59222901 0.0013704842
0.028436586 0.0076721469 -0.01035846 0.22234675 -0.78853244 -0.57339215 0.0017583491
0.031389169 0.0083000781 -0.010060734 0.26235774 -0.80227578 -0.53621078 0.0010608553
0.033707123 0.008476085 -0.0091967117 0.29628107 -0.80828017 -0.50882286 0.0011050897
-0.030914884 0.011451247 -0.0093339225 -0.31239924 -0.7528702 -0.57930404 0.0009495081
-0.028346526 0.010733796 -0.0097395293 -0.30259994 -0.75782782 -0.57804 0.0009585442
-0.025586477 0.01028636 -0.010416813 -0.27430442 -0.73697913 -0.61775309 0.0011926899
-0.022560282 0.0099227279 -0.011204175 -0.25757921 -0.72847527 -0.63480449 0.00070846971
-0.020359805 0.0095411995 -0.01159887 -0.23697783 -0.71828628 -0.65414548 0.00087416294
-0.017438529 0.0090572266 -0.01193155 -0.17609729 -0.68233722 -0.70951086 0.0010250176
0.028970294 0.0090659875 -0.011846282 0.18764117 -0.72064495 -0.66742909 0.002001022
0.03185349 0.0095149279 -0.011444496 0.24142553 -0.71963799 -0.65102607 0.0017484439
0.034706596 0.0098359501 -0.010494131 0.29130995 -0.79089022 -0.53817403 0.0011004013
0.037483077 0.010698706 -0.010253908 0.32834592 -0.77931082 -0.53372616 0.0013326276
0.040359013 0.011412075 -0.0094967904 0.36540058 -0.77489448 -0.51577216 0.00092079944
-0.039026067 0.014892408 -0.0091875279 -0.38577661 -0.71679121 -0.58085012 0.0017765514
-0.037099726 0.014409397 -0.0095253037 -0.37704596 -0.7383725 -0.55914426 0.00081602891
-0.034397531 0.013425181 -0.0099213887 -0.33874562 -0.73775715 -0.58392268 0.0013889972
-0.03185723 0.012686554 -0.010334164 -0.31519657 -0.73624265 -0.59883034 0.0010415688
-0.029242592 0.012624026 -0.01141347 -0.28983176 -0.70856839 -0.64337265 0.00076456659
-0.025995884 0.012135973 -0.011924772 -0.2321827 -0.63686043 -0.73518705 0.00096031709
0.03862565 0.012260781 -0.011614769 0.30053502 -0.69715089 -0.65089124 0.0013942927
0.040831156 0.012690187 -0.010825414 0.35920867 -0.75362372 -0.55047292 0.0011057118
0.043474998 0.013443329 -0.010178528 0.39002225 -0.74888009 -0.53578103 0.0015406777
0.045970358 0.014366459 -0.0096454909 0.42447218 -0.71107626 -0.56053007 0.0010186667
-0.04266442 0.017426161 -0.0094243418 -0.46069306 -0.68425363 -0.56529534 0.0012728474
-0.040465474 0.016424213 -0.0097861225 -0.42097858 -0.72958779 -0.5389607 0.0011962781
-0.038072735 0.015753496 -0.010461978 -0.37377548 -0.69238746 -0.61716402 0.0010872957
-0.034964886 0.015150651 -0.011458392 -0.32669488 -0.69998431 -0.63505304 0.00086366554
0.044626575 0.015254205 -0.011617647 0.37909058 -0.65539527 -0.65325904 0.0018776068
0.046733983 0.015795207 -0.010745182 0.42228878 -0.72300965 -0.54674429 0.0012689527
0.048939679 0.016255608 -0.0097143101 0.45250499 -0.72673666 -0.51681054 0.0012951028
0.051416058 0.017581288 -0.0093466211 0.49138069 -0.66659772 -0.5605287 0.001397245
-0.048211187 0.020914983 -0.0093039116 -0.48954475 -0.66400856 -0.56518906 0.00050477142
-0.046343345 0.020097785 -0.0095933601 -0.47978482 -0.67944866 -0.55511796 0.0013391173
-0.043657914 0.018960934 -0.010317076 -0.44518515 -0.66637385 -0.59812707 0.0014574693
-0.041216582 0.018443037 -0.01145222 -0.38907087 -0.62969947 -0.67238563 0.0017252956
0.050318554 0.018540179 -0.011259912 0.44676507 -0.63461107 -0.6306107 0.00094661058
0.052957956 0.019425767 -0.01004506 0.51650202 -0.66569793 -0.53858328 0.0012928273
0.054638684 0.0203737 -0.0097647328 0.51899004 -0.62469816 -0.58343941 0.0011766693
-0.051496997 0.023661721 -0.0093099941 -0.506069 -0.64344531 -0.57434505 0.0012375476
-0.04964529 0.022604899 -0.0096296351 -0.51914322 -0.68503571 -0.51109338 0.00095594092
-0.046877481 0.021960627 -0.011079079 -0.44681513 -0.60312891 -0.66075093 0.0015061918
-0.044558659 0.021383464 -0.011844987 -0.39846614 -0.57606804 -0.7137019 0.0014665257
0.053761791 0.02150709 -0.011490817 0.49278286 -0.58428526 -0.64480674 0.001064116
0.055774681 0.022242829 -0.010556668 0.53117508 -0.5674814 -0.62914068 0.0016087309
0.057758562 0.023245987 -0.0097112069 0.56277394 -0.56754547 -0.60098052 0.0014019944
-0.054665413 0.026374219 -0.0095357047 -0.53060961 -0.61814666 -0.57995534 0.0016212141
-0.052461509 0.02544296 -0.010289506 -0.48792085 -0.5990181 -0.63490987 0.0020369883
-0.050010815 0.02460056 -0.011319377 -0.45564723 -0.58556157 -0.67044997 0.0013461102
0.056496397 0.024376864 -0.011672353 0.48100412 -0.4431341 -0.75648344 0.0017831251
0.058772478 0.025216969 -0.01048379 0.56031311 -0.5191865 -0.64536387 0.0013401288
0.06061561 0.02631972 -0.0097792801 0.59438604 -0.52676487 -0.60763812 0.0016978448
-0.057702065 0.029118882 -0.0095107816 -0.57900685 -0.56484836 -0.58796048 0.0014822496
-0.055588014 0.028298201 -0.010389961 -0.52975649 -0.55819255 -0.63857585 0.0017174463
-0.053294919 0.027586382 -0.011483826 -0.49136817 -0.56520915 -0.66264313 0.00084947812
0.059400909 0.028012678 -0.01181289 0.55425632 -0.43412104 -0.71016818 0.0014586879
0.062044173 0.028088341 -0.00967276 0.63264346 -0.47635186 -0.61061543 0.0017559219
0.063411638 0.029411271 -0.0092423856 0.66580683 -0.43136835 -0.60878783 0.0011216881
-0.060442403 0.032406606 -0.0094687482 -0.61933202 -0.53147489 -0.57789475 0.0011938961
-0.058574427 0.031297129 -0.01024624 -0.57197928 -0.511127 -0.64155197 0.00092837855
-0.055699032 0.030486649 -0.011827587 -0.51854891 -0.50726897 -0.68832064 0.00080555957
0.062178254 0.031120032 -0.011140266 0.57796437 -0.33299044 -0.74503326 0.001398753
0.064170398 0.031349923 -0.0096007828 0.6824767 -0.37583399 -0.62687665 0.000871027
-0.063343354 0.035874046 -0.0093813948 -0.62071204 -0.37014315 -0.69116622 0.0022683758
-0.061849747 0.034611192 -0.009802171 -0.63013643 -0.46215114 -0.62397468 0.0013640787
-0.059723228 0.033686392 -0.011127105 -0.59213245 -0.44699955 -0.67050028 0.001006701
0.065145165 0.033913918 -0.0098532578 0.67685527 -0.30461735 -0.67013073 0.00098917261
0.066310905 0.034956113 -0.0091321049 0.74265677 -0.29698321 -0.6002183 0.001148972
-0.064116381 0.037455812 -0.0094180787 -0.66740721 -0.42334697 -0.61265409 0.0012193359
-0.06176177 0.036997028 -0.011167837 -0.5673098 -0.33648726 -0.75162226 0.0012650545
0.066820562 0.036126345 -0.0090031037 0.74404031 -0.26297149 -0.61420691 0.0015352761
-0.066305391 0.04105391 -0.0091578895 -0.68257922 -0.29819858 -0.66720551 0.0011098408
-0.064621851 0.040028185 -0.010134137 -0.6350202 -0.31588066 -0.70496011 0.000736174
-0.062523596 0.039051749 -0.011383921 -0.57408798 -0.30922627 -0.75815707 0.00084278564
-0.0096540106 0.0028853179 -0.006342914 -0.15078305 -0.87656301 -0.45705768 0.001195584
-0.0075237849 0.002718793 -0.006613431 -0.11797813 -0.88281238 -0.45466858 0.0015971977
-0.0043236115 0.0024219076 -0.0068510375 -0.084800802 -0.89015573 -0.44769585 0.0017105576
-0.0014985645 0.0022273522 -0.0068306448 -0.048548236 -0.89444494 -0.44453493 0.001644254
0.0014035546 0.0022266069 -0.0070788637 -0.031811848 -0.89453936 -0.44585574 0.0012182451
0.0045110509 0.002129022 -0.0070260717 0.0037922671 -0.89624059 -0.44355193 0.0012772207
0.0075800703 0.0022287406 -0.0070046722 0.037755247 -0.90244812 -0.4291409 0.0014328012
0.01047718 0.0023193187 -0.0069503509 0.061348379 -0.89876366 -0.43412018 0.0011383193
0.013400086 0.0025961311 -0.0069198376 0.093998894 -0.89311159 -0.43990451 0.0014324443
0.016289953 0.0027350895 -0.0064846417 0.12228134 -0.90564477 -0.40602317 0.0010378007
0.018496502 0.0028393618 -0.0061894739 0.16170806 -0.90234578 -0.39952812 0.0016443518
-0.021521119 0.0058463332 -0.0062064519 -0.31071028 -0.8458277 -0.43362957 0.0012854565
-0.019473907 0.0054504094 -0.006790902 -0.25842649 -0.84462285 -0.46885827 0.001506543
-0.016552519 0.004886108 -0.0071060411 -0.23620333 -0.86199349 -0.44852573 0.0014299535
-0.013487757 0.004151803 -0.0072647398 -0.19709407 -0.86391789 -0.46346503 0.0015685358
-0.010576912 0.0036940379 -0.0075141159 -0.15817183 -0.86000282 -0.48515657 0.0010233783
-0.0077312896 0.0035620506 -0.0079826238 -0.1222083 -0.85711479 -0.50041926 0.0013504603
-0.0046359468 0.0034165976 -0.00839274 -0.082548708 -0.8383916 -0.53878123 0.0018039431
-0.0015294538 0.0032332942 -0.008476411 -0.047825493 -0.82827806 -0.55827242 0.0010734075
0.0014274338 0.0032843372 -0.0087862071 -0.027228966 -0.84548813 -0.53329951 0.00098024926
0.0044667502 0.0031939121 -0.0087571498 -0.0014250065 -0.84459025 -0.5354113 0.00098177418
0.0075185266 0.0033040184 -0.00876767 0.024748346 -0.85462564 -0.51865458 0.0010163777
0.01082949 0.0032197749 -0.0085032871 0.058375366 -0.83815628 -0.54229736 0.0011836075
0.013940183 0.003356355 -0.0082132304 0.097584866 -0.86370319 -0.49446332 0.0017772719
0.016360315 0.0034332345 -0.0078246277 0.11633769 -0.87649477 -0.46714285 0.0018301581
0.01953798 0.0036648023 -0.0073372656 0.16284736 -0.87483132 -0.45623553 0.0010632579
0.022608737 0.0043411795 -0.0074465307 0.18937713 -0.87908167 -0.43743759 0.0015457743
0.025608307 0.004912741 -0.0072687343 0.21268119 -0.87345022 -0.43800861 0.0013094795
0.028064691 0.0055095474 -0.0070878947 0.24091953 -0.87252057 -0.42504773 0.0016236887
0.030345416 0.0058764219 -0.0065091588 0.28142565 -0.87761009 -0.38807219 0.0014345249
-0.028025094 0.0085631935 -0.0067263106 -0.33746302 -0.83116698 -0.44190511 0.0013904152
-0.025477497 0.0078624841 -0.007147165 -0.30819571 -0.82860208 -0.46736917 0.0013376221
-0.022577634 0.00685752 -0.0072683897 -0.30624151 -0.8344 -0.45824972 0.0012833804
-0.019786062 0.0065273168 -0.0083474312 -0.25202045 -0.8111552 -0.52774316 0.0012409323
-0.017385466 0.0061954819 -0.0088003697 -0.21769813 -0.77797413 -0.58937573 0.00065966632
0.026898492 0.0061137364 -0.0088683153 0.23177491 -0.79802442 -0.55627096 0.0013228834
0.028973678 0.0063942908 -0.0082750432 0.24361433 -0.84889406 -0.46907458 0.0014499349
0.031481773 0.0067519322 -0.007548905 0.28561541 -0.87087685 -0.39999652 0.0011621322
0.034490883 0.0078039067 -0.0074855848 0.30951917 -0.84051484 -0.44467136 0.0014583042
0.037200548 0.0084732138 -0.0068221753 0.34378198 -0.84363776 -0.41241887 0.0012448651
0.039207943 0.0089165 -0.0062198988 0.38998708 -0.83253121 -0.39344871 0.0015416518
-0.036359634 0.011862978 -0.0063817985 -0.39963725 -0.7995007 -0.44842905 0.0015130793
-0.034373838 0.011353875 -0.0069972626 -0.36790368 -0.8110553 -0.4547925 0.0012585711
-0.031522065 0.010410944 -0.0073879464 -0.33877078 -0.8212226 -0.45915976 0.0013791607
-0.028892824 0.0095415823 -0.0077560521 -0.33361503 -0.81724197 -0.46991125 0.001300789
-0.026624361 0.0092455139 -0.0086512929 -0.30102742 -0.78794128 -0.53715086 0.0012204051
0.035919927 0.0090926941 -0.0088776201 0.32421386 -0.79780143 -0.50832886 0.0016708607
0.037885837 0.0094348639 -0.008128332 0.33920565 -0.82177776 -0.45784366 0.0015236384
0.040513903 0.010230816 -0.0073943059 0.3827408 -0.81604058 -0.43311349 0.0015969978
0.043118168 0.01123884 -0.0069823731 0.40598902 -0.82057405 -0.40228242 0.001336547
0.04530916 0.011896719 -0.0062534092 0.45185542 -0.82261151 -0.34516245 0.0015470013
-0.042149182 0.014865478 -0.0063363011 -0.46456087 -0.76836443 -0.44022647 0.0013615401
-0.040326606 0.014335523 -0.0069407634 -0.42852795 -0.7824136 -0.451877 0.0011633136
-0.037628796 0.013210313 -0.0073828264 -0.4081938 -0.79300535 -0.45223925 0.0010644036
-0.035119053 0.012430028 -0.0081895916 -0.36236101 -0.78177559 -0.50746572 0.0016192636
0.044166274 0.012420078 -0.008213968 0.40433177 -0.79119802 -0.45882627 0.0015196836
0.046476044 0.013317773 -0.0074858167 0.44929251 -0.78694582 -0.42290956 0.0013234857
0.049063519 0.01442715 -0.0067999801 0.47628582 -0.77722609 -0.411183 0.0014303265
-0.045590274 0.017608663 -0.0068670018 -0.51376373 -0.73947489 -0.43499851 0.0010768438
-0.043536693 0.016505891 -0.0073199384 -0.48600474 -0.74941772 -0.44963589 0.00089189404
-0.041120231 0.015501452 -0.0081513086 -0.43434808 -0.75403112 -0.49272588 0.0012467977
0.049886107 0.015608996 -0.0079605104 0.48018733 -0.76236844 -0.43383703 0.001482405
0.052259497 0.016797967 -0.0072387955 0.52031034 -0.73552006 -0.43392092 0.0012525498
0.054321002 0.017698083 -0.0063307621 0.54213399 -0.73667735 -0.40422428 0.002270635
-0.049053833 0.020293396 -0.0072133257 -0.5375089 -0.72266579 -0.43455535 0.0010648574
-0.046746768 0.018893454 -0.007571321 -0.51476473 -0.72730619 -0.45391962 0.0012015394
-0.044405978 0.018191084 -0.0088048736 -0.48953205 -0.72143549 -0.48978481 0.00097514479
0.053318955 0.018279625 -0.0083607156 0.51864147 -0.71570867 -0.46773088 0.0014130889
0.055495102 0.019277439 -0.0074154488 0.55942881 -0.70034444 -0.44334757 0.0010707134
0.057630319 0.02047004 -0.0066126352 0.58683479 -0.66585737 -0.46071571 0.0013377909
-0.054340143 0.023690177 -0.0064221523 -0.55853081 -0.69933087 -0.44607133 0.0010653884
-0.052342486 0.022763891 -0.007183908 -0.55185902 -0.71066958 -0.43634889 0.0010734239
-0.050460711 0.021616366 -0.0075875251 -0.53024453 -0.71061057 -0.46246448 0.0011720798
0.056848567 0.021215254 -0.0085202334 0.57562935 -0.65350908 -0.49150455 0.0010446364
0.058763806 0.022136994 -0.0073385108 0.61319363 -0.66023612 -0.43368402 0.0013944283
0.060543686 0.023416141 -0.00689233 0.62634909 -0.62386209 -0.46742159 0.0014721642
-0.05737837 0.026467819 -0.0066022747 -0.60218745 -0.68469411 -0.41056588 0.0012931938
-0.055365905 0.02527947 -0.0073008402 -0.57811642 -0.69143677 -0.43323976 0.0015705866
-0.053342003 0.024523027 -0.0085711889 -0.51808554 -0.63675725 -0.57107586 0.00086211
0.059860602 0.024162002 -0.0086692385 0.60924602 -0.57927161 -0.54153818 0.0011650536
0.061957974 0.025275873 -0.0072463206 0.67735809 -0.60945809 -0.41200346 0.0017938579
0.063475527 0.026460959 -0.006623914 0.68258905 -0.54068577 -0.49166158 0.0019116175
-0.060506485 0.029432613 -0.0064686099 -0.65186822 -0.60654008 -0.45516697 0.0015034223
-0.058543421 0.027938094 -0.007182634 -0.62073255 -0.64404142 -0.44710386 0.0013516477
-0.056765486 0.027300959 -0.0083627878 -0.58467716 -0.64260137 -0.495193 0.0013379899
0.062609226 0.02722308 -0.0085326079 0.6407128 -0.51244158 -0.57174361 0.001945832
0.064576834 0.028518749 -0.0071395272 0.71636325 -0.49671203 -0.49000084 0.0018949251
0.066040054 0.029958151 -0.0066484693 0.72240424 -0.4402031 -0.53324801 0.0019139656
-0.063417599 0.032415032 -0.0063846693 -0.67464334 -0.54487389 -0.49796468 0.0014029227
-0.06146339 0.030875238 -0.0069081672 -0.67123932 -0.60996467 -0.42116603 0.0020105508
-0.059811354 0.030652463 -0.0086328723 -0.616126 -0.54690713 -0.56681681 0.0011657842
0.065270968 0.030622775 -0.0080362177 0.71953303 -0.44155899 -0.5360018 0.001902535
0.066551499 0.03118889 -0.0066335257 0.75383747 -0.42866963 -0.4979673 0.0026892612
-0.066075966 0.035990711 -0.0065090368 -0.69788969 -0.47466987 -0.53631943 0.0019729293
-0.064455315 0.034693267 -0.0069476413 -0.70451307 -0.50670564 -0.49690104 0.0022118082
-0.0624227 0.03337194 -0.0082712397 -0.65671819 -0.50857496 -0.55684173 0.0015551376
0.065774329 0.033039525 -0.0087645445 0.73606616 -0.36085677 -0.57270324 0.0010687753
0.067720026 0.034332089 -0.0071529979 0.77364099 -0.32109657 -0.5462386 0.0012021449
-0.066817373 0.037704434 -0.0067752367 -0.72253168 -0.43794701 -0.53493023 0.0025736298
-0.065181926 0.036698654 -0.0078813322 -0.6893822 -0.44272044 -0.57336783 0.0012123589
0.068023041 0.037085347 -0.0079486473 0.78706098 -0.25229743 -0.56292182 0.001865102
0.069291428 0.037415538 -0.0064749364 0.82297713 -0.24955553 -0.51032412 0.0025258902
-0.069254994 0.041173324 -0.0061325533 -0.74613434 -0.34571674 -0.56900221 0.0029161479
-0.067626841 0.040306427 -0.0074386178 -0.7241444 -0.36099413 -0.58762068 0.0018064413
0.067880876 0.039759412 -0.0086959768 0.78855425 -0.18859886 -0.58533132 0.001294854
0.069715664 0.040049665 -0.0066963779 0.81937546 -0.17019944 -0.54740852 0.0023893095
-0.069582336 0.043193892 -0.0065431846 -0.79045665 -0.31019455 -0.52816433 0.0017296933
-0.067866489 0.042965908 -0.0083579384 -0.7093839 -0.27335545 -0.64965481 0.0018449191
0.070255838 0.042440016 -0.0063073146 0.85998774 -0.10671855 -0.49903136 0.0034094392
-0.070612937 0.045729298 -0.0062370179 -0.81633568 -0.27417466 -0.50835454 0.0018274416
-0.068596892 0.045032822 -0.0081120785 -0.73222661 -0.23129901 -0.64058185 0.00089743733
-0.071193397 0.048215684 -0.006208472 -0.77068669 -0.226616 -0.5955562 0.00075850368
-0.01537976 0.0029229373 -0.0033204323 -0.26480353 -0.93320572 -0.24291202 0.0019501271
-0.0133704 0.0026129391 -0.0040334053 -0.21302523 -0.93047827 -0.29804435 0.0019686585
-0.010496249 0.0022076424 -0.004444845 -0.16153355 -0.93282992 -0.32207957 0.0015267232
-0.0075225257 0.0017421407 -0.0043386789 -0.12912652 -0.93926901 -0.31796244 0.0026371055
-0.0045165708 0.0013560152 -0.004412265 -0.091490865 -0.93674111 -0.33785427 0.0024480156
-0.0014497483 0.0011073507 -0.0042624669 -0.04646942 -0.95207047 -0.30232823 0.0032471023
0.0015327017 0.0010686832 -0.004489257 -0.030403417 -0.94318646 -0.33087009 0.0027267188
0.0045724898 0.0010224222 -0.0045023002 0.010709435 -0.94402295 -0.3297058 0.0027973079
0.0075616143 0.001096168 -0.0043480489 0.041828703 -0.94253159 -0.33148831 0.0024871223
0.010507727 0.0012372425 -0.004358002 0.068254694 -0.94626784 -0.31609884 0.0024924746
0.013526812 0.0015935402 -0.0044789561 0.10968031 -0.94482511 -0.30866769 0.0017546436
0.016511396 0.0019357211 -0.0043433094 0.13120718 -0.9454816 -0.29807597 0.0016702072
0.01939778 0.0023925458 -0.004372546 0.16048294 -0.94980419 -0.26854643 0.0017175067
0.022014191 0.0027378807 -0.0037033879 0.2050887 -0.94470441 -0.25587535 0.001796633
0.024372872 0.0029768292 -0.003202345 0.24094404 -0.95914149 -0.14830251 0.0018085758
-0.024413213 0.0058720242 -0.0034728348 -0.34903786 -0.89332724 -0.28308856 0.0018449691
-0.022380559 0.0053548682 -0.0042374264 -0.32403883 -0.89662588 -0.30176282 0.0018104613
-0.019325379 0.0043131271 -0.0042258385 -0.27743402 -0.91101217 -0.30510199 0.0017833974
-0.016658545 0.0036347746 -0.0043732175 -0.25856787 -0.91452068 -0.31111822 0.0020888564
-0.014019186 0.0032757786 -0.0053179273 -0.21710968 -0.91232848 -0.34715998 0.0021020684
0.020708861 0.0030404981 -0.005532132 0.17708158 -0.93056452 -0.32045555 0.0015480928
0.022809755 0.0032884651 -0.0049575255 0.21411747 -0.93243825 -0.29105434 0.0019400386
0.025515299 0.0037464797 -0.0044728727 0.24213928 -0.9293806 -0.278604 0.0015229034
0.028410662 0.0045437291 -0.0043783155 0.26800144 -0.9262259 -0.26510516 0.001496464
0.03144234 0.0054480517 -0.0044191116 0.28938863 -0.91885376 -0.26825714 0.001713854
0.033422243 0.0058337124 -0.003499375 0.31756577 -0.9135288 -0.25419897 0.0022680727
-0.030886224 0.0086073708 -0.0040518078 -0.36426321 -0.88590455 -0.28720289 0.0021540215
-0.02849951 0.007736234 -0.0043834834 -0.34577423 -0.88664722 -0.30707812 0.0017747884
-0.025542259 0.0066003143 -0.0043404247 -0.34278452 -0.8911972 -0.29709652 0.0016757522
-0.023239177 0.0062254993 -0.0056688432 -0.32552493 -0.86309975 -0.3861247 0.0020149101
0.032678191 0.006218065 -0.005605753 0.31732318 -0.88804501 -0.33268917 0.002422289
0.034591317 0.0065954765 -0.0044905236 0.3334572 -0.90448701 -0.26591259 0.0018473491
0.037456647 0.0076690782 -0.0044564973 0.35309288 -0.89426708 -0.27497604 0.0014043365
0.040053897 0.0086396318 -0.0040160958 0.39192864 -0.88862878 -0.2381826 0.0012626457
-0.03703855 0.011376402 -0.004180077 -0.4188861 -0.85967803 -0.29238352 0.0019860885
-0.034440011 0.010220369 -0.0043582972 -0.39006522 -0.8761273 -0.28328434 0.0015825569
-0.031994004 0.0093211206 -0.0047113802 -0.37715504 -0.87599319 -0.30064937 0.0019637244
0.041138783 0.009409762 -0.0048212339 0.41099668 -0.87018377 -0.27177581 0.0012621776
0.043448702 0.010301718 -0.0041861525 0.43577981 -0.87201214 -0.22291425 0.00099681318
0.045955226 0.011558095 -0.0041593779 0.44707626 -0.85388458 -0.26646569 0.0016718118
-0.042734783 0.014424928 -0.0042279079 -0.48408231 -0.81948394 -0.30677408 0.001708861
-0.040451303 0.013224713 -0.004314268 -0.45600021 -0.83907062 -0.29668915 0.0018603847
-0.038330715 0.012282199 -0.0048101852 -0.44025025 -0.85000575 -0.28925765 0.0017088666
0.047215357 0.01250456 -0.0048065428 0.47527462 -0.83451176 -0.27875486 0.0015510094
0.049406391 0.013592641 -0.0042456025 0.50282222 -0.82783115 -0.24872752 0.0015797783
0.051539894 0.014636956 -0.0036376198 0.5165031 -0.81191492 -0.27206373 0.0016883748
-0.048207853 0.017836697 -0.0035311726 -0.5510152 -0.78989762 -0.26915407 0.001276697
-0.046305049 0.016901886 -0.0043188245 -0.53770679 -0.78982419 -0.29504094 0.0019724439
-0.044183351 0.01558583 -0.0047609033 -0.52944189 -0.795219 -0.29549614 0.0014864644
0.050948128 0.015044464 -0.0057969503 0.52426511 -0.77483529 -0.35323697 0.0040801894
0.052904654 0.015877713 -0.0043388586 0.54905313 -0.8024981 -0.23353241 0.0013503236
0.054987088 0.017282099 -0.0042292271 0.55650592 -0.77787113 -0.29192081 0.0017302599
-0.05153618 0.020503277 -0.0039107916 -0.56405312 -0.76829666 -0.30259597 0.0016550322
-0.049500737 0.019235076 -0.0045361402 -0.56788886 -0.76542234 -0.30270594 0.001998368
-0.04753685 0.018160719 -0.0053797443 -0.54656327 -0.77002728 -0.32913008 0.0026241839
0.056361139 0.018455083 -0.0047236895 0.58670115 -0.75535405 -0.29192808 0.001989912
0.058207028 0.019787412 -0.0042387187 0.62688851 -0.72530383 -0.28450865 0.0015692067
0.060160477 0.020854814 -0.0031530838 0.65400755 -0.71565878 -0.24516648 0.0018731169
-0.054944616 0.02315983 -0.0040604444 -0.59263092 -0.74698871 -0.30132455 0.001778711
-0.052944843 0.021833425 -0.0045914701 -0.58205479 -0.75996941 -0.28923807 0.0015202363
0.059492737 0.021406263 -0.0051725483 0.63900566 -0.69718564 -0.3249675 0.0017238378
0.061255325 0.022649935 -0.0043782163 0.67379469 -0.67379391 -0.30331904 0.0017831022
0.063155159 0.023944998 -0.0032896467 0.70971876 -0.64770859 -0.27707925 0.0029736373
-0.060032692 0.026969669 -0.0034006762 -0.65856373 -0.69893253 -0.27890342 0.0020381298
-0.058201462 0.025927758 -0.0042043873 -0.62866312 -0.71183741 -0.31316173 0.002032256
-0.056217246 0.024514485 -0.0047667711 -0.61336815 -0.72778732 -0.30676553 0.0017624173
0.062649384 0.024541842 -0.0053215767 0.69197959 -0.63505864 -0.34331459 0.0018503034
0.063970089 0.025525037 -0.0042690448 0.73256516 -0.61103946 -0.2999652 0.0020278154
-0.061177194 0.028726103 -0.0040841098 -0.69109082 -0.66163683 -0.2909126 0.0015835556
-0.059558328 0.027439509 -0.0049081813 -0.65249503 -0.68950796 -0.3143709 0.0022246195
0.065452218 0.027834887 -0.0049091675 0.76139498 -0.56226361 -0.32270309 0.0023058816
0.066781573 0.029261487 -0.0040746657 0.80393142 -0.54234684 -0.24403733 0.0023334764
-0.063969016 0.031758621 -0.0040215724 -0.72055233 -0.62557888 -0.29909104 0.0016642378
-0.06248844 0.030687561 -0.0050902194 -0.70615226 -0.63330841 -0.31665349 0.0016404175
0.067736387 0.031140253 -0.0044873925 0.83431441 -0.46576494 -0.29492804 0.0035574213
0.069187663 0.032819778 -0.0033536833 0.83581638 -0.40719226 -0.36824635 0.0026043339
-0.066658355 0.035163365 -0.0039828238 -0.7808134 -0.57189149 -0.25153658 0.0018709186
-0.065491728 0.033993736 -0.0044984156 -0.74634153 -0.60271233 -0.2823334 0.0021079967
0.06873931 0.033825085 -0.0052842977 0.84375662 -0.33850023 -0.41652411 0.002822733
0.069465518 0.034413397 -0.0041200398 0.88517803 -0.36760774 -0.28517455 0.0032358649
-0.069228001 0.038640145 -0.0035502443 -0.80767274 -0.48302636 -0.33815739 0.0022127747
-0.068332717 0.037606597 -0.0038139962 -0.80696726 -0.53996468 -0.23925312 0.0029108287
0.070637248 0.037875611 -0.0041518994 0.91570562 -0.2695846 -0.29800567 0.0026451126
-0.06996493 0.040391821 -0.004044211 -0.84380537 -0.43994403 -0.3073138 0.002553477
-0.068713404 0.039518569 -0.0054720775 -0.80265623 -0.44025257 -0.40239355 0.0035369992
0.071165279 0.04025083 -0.0042356206 0.91084105 -0.16813388 -0.37696096 0.001952062
-0.072154686 0.04476212 -0.0034403622 -0.86147279 -0.32966164 -0.38624847 0.0083299186
-0.071328685 0.043530602 -0.0039227814 -0.86960191 -0.35736552 -0.3407087 0.004038902
0.071434498 0.043168187 -0.0044560218 0.93341583 -0.085297927 -0.34851 0.0012711419
0.07213378 0.04471717 -0.0030021083 0.9476614 -0.065459073 -0.3124949 0.001604884
-0.072672874 0.046850897 -0.0036751139 -0.86090171 -0.27691889 -0.42680696 0.0030376511
-0.071575955 0.045837495 -0.005002554 -0.85339957 -0.28312245 -0.43766516 0.0034261323
0.071765825 0.046488941 -0.003967246 0.9687354 -0.05707648 -0.24144152 0.0044745612
0.072111607 0.04570723 -0.003138409 0.97807819 -0.034502424 -0.20535995 0.0051723463
-0.07308989 0.049975924 -0.0042985012 -0.85793877 -0.30690411 -0.41200846 0.0036779959
0.071743943 0.048490897 -0.0038943344 0.9747225 -0.033012133 -0.2209667 0.0031423201
0.07206656 0.048604853 -0.0034694336 0.98398453 -0.044478666 -0.17261548 0.0033854072
-0.075062729 0.052570429 -0.0030276841 -0.86556828 -0.34002751 -0.36765864 0.0088775828
-0.074223816 0.052349195 -0.0038868743 -0.88167715 -0.3319338 -0.33535853 0.0099515598
0.072071247 0.052721303 -0.0032419951 0.98655683 -0.074334547 -0.14553376 0.0024735865
-0.075366281 0.055042624 -0.0035046432 -0.91912574 -0.2998338 -0.25555357 0.016207632
0.073928185 0.071146175 -0.0033214106 0.90213537 -0.24664599 -0.35400215 0.018692359
0.074142233 0.073194005 -0.0038991033 0.88597095 -0.21671829 -0.4099862 0.024440996
0.075198278 0.073116243 -0.003184383 0.92227978 -0.2493766 -0.29531565 0.026804712
0.067851543 0.075404659 -0.0030163627 -0.93098819 0.19841078 0.30642158 0.034933873
-0.016041012 0.002715478 -0.001146423 -0.24379389 -0.9586519 -0.1468028 0.00089495425
-0.013440141 0.0020438305 -0.0014248673 -0.20747323 -0.96828359 -0.13921832 0.0015348505
-0.010519824 0.0014806067 -0.0013990855 -0.15548894 -0.97820526 -0.13761431 0.0024008702
-0.0074006338 0.0010343787 -0.0014317423 -0.13566343 -0.98097706 -0.13885053 0.0033623828
-0.00454725 0.00063775695 -0.0013268903 -0.094167098 -0.98758888 -0.12570114 0.0039693983
-0.0013961383 0.00045677117 -0.0014389374 -0.047796451 -0.98788303 -0.14765704 0.0040022451
0.0015259116 0.0003425481 -0.0013857019 -0.024430372 -0.99358892 -0.11038213 0.0030363812
0.004591966 0.00030762321 -0.0014351025 0.014850324 -0.99291265 -0.1179155 0.0037777768
0.0074979831 0.00043764905 -0.0014024316 0.045848023 -0.99499607 -0.088773303 0.0044500083
0.010498517 0.00059723877 -0.001425868 0.080579959 -0.98776013 -0.13355495 0.0035157816
0.013548445 0.00093842036 -0.0014771047 0.1186415 -0.98622596 -0.11524998 0.0037054725
0.016448623 0.0013209032 -0.0014354186 0.14651708 -0.98331249 -0.10783973 0.0030574233
0.019457018 0.001796513 -0.001445611 0.18153138 -0.97939056 -0.088546149 0.0019987843
0.022464633 0.0024469376 -0.0015185303 0.1964826 -0.9758274 -0.095684327 0.0018150504
0.024563896 0.0028597109 -0.0011329857 0.2209781 -0.97147208 -0.08608529 0.0019950278
-0.024945676 0.0056451359 -0.0012773016 -0.34647793 -0.92020059 -0.18216456 0.00076557917
-0.02250318 0.0047286768 -0.0014463931 -0.32069436 -0.92966908 -0.18130238 0.00033881448
-0.019506255 0.0036974538 -0.0014181985 -0.28235376 -0.94598156 -0.15935862 0.00074925064
-0.017412076 0.0031600038 -0.0017156773 -0.27042899 -0.94973934 -0.15768117 0.00073286053
0.025942996 0.0032562418 -0.0017513084 0.26451182 -0.96012056 -0.090565011 0.0017770194
0.028500756 0.0039764768 -0.001484146 0.28537074 -0.95489681 -0.082071304 0.0014434267
0.03141617 0.0048475619 -0.0014818483 0.29742682 -0.95117998 -0.082425348 0.0013138568
0.033816405 0.0056753941 -0.0014942925 0.32643729 -0.94192612 -0.078828193 0.0015852051
-0.033236519 0.008925477 -0.00063532672 -0.36893517 -0.89815068 -0.239191 0.0026131917
-0.031413302 0.0082598338 -0.0014789929 -0.38062605 -0.90280861 -0.20015098 0.0011262948
-0.028470851 0.0070298235 -0.0014704157 -0.35429087 -0.9112373 -0.21005823 0.00079365412
-0.026388111 0.0062419516 -0.0016439385 -0.3583456 -0.9125548 -0.19705883 0.00062224461
0.035352524 0.0062969569 -0.0018085291 0.36357734 -0.9280479 -0.080861337 0.0014565584
0.037561223 0.0071010576 -0.0015142639 0.37600356 -0.92258483 -0.086362727 0.0012720247
0.040453773 0.0083316462 -0.0013788604 0.40485489 -0.9118734 -0.067671143 0.001643364
0.042214423 0.0089414883 -0.0005199312 0.41990787 -0.89938372 -0.12159902 0.0020402151
-0.03929574 0.011861088 -0.0010883514 -0.45602462 -0.85481846 -0.2476427 0.0018905909
-0.037492085 0.010976162 -0.0015263155 -0.43168193 -0.87562317 -0.21664451 0.0019652306
-0.034605768 0.0096048377 -0.0014681459 -0.38448453 -0.88965911 -0.24632969 0.0023406136
-0.032781575 0.0090551712 -0.0025286397 -0.38489309 -0.89454281 -0.22726725 0.0030413561
0.041813381 0.0090927314 -0.0023087263 0.42450166 -0.90145171 -0.084752999 0.0019241471
0.043615114 0.0098306984 -0.0014200305 0.44315678 -0.89314646 -0.076820679 0.0014296602
0.046336543 0.011218131 -0.0014080534 0.46595407 -0.88108611 -0.081081063 0.0017039101
0.048084177 0.011978619 -0.00044053307 0.4801487 -0.87041771 -0.10876708 0.0021518446
-0.043231759 0.014052002 -0.0014434292 -0.50541079 -0.83560938 -0.21521373 0.0017855695
-0.040693562 0.012661104 -0.0015619588 -0.45701084 -0.855088 -0.24487858 0.0016738758
0.047760613 0.01211975 -0.0019269217 0.48765382 -0.86868387 -0.087074257 0.0016707735
0.049530543 0.01305426 -0.0014203897 0.50691301 -0.85884607 -0.073637567 0.001721409
0.051855154 0.014440602 -0.001349404 0.53358316 -0.84117085 -0.087867148 0.0016679805
-0.048463877 0.017631512 -0.0013414196 -0.57246089 -0.78886861 -0.22355056 0.0018641587
-0.046497211 0.01627804 -0.0014882921 -0.55359954 -0.79986209 -0.23183641 0.0010050677
-0.044742137 0.015133757 -0.0020410963 -0.55384189 -0.80381328 -0.21712525 0.00077973586
0.053304017 0.01546628 -0.0015274649 0.56365585 -0.82144314 -0.086736895 0.0015812712
0.055429876 0.016939048 -0.0014864031 0.57737201 -0.81171924 -0.08805377 0.0019202247
0.057155102 0.017895708 -0.00044395457 0.59929389 -0.79377818 -0.10374522 0.0023454747
-0.052015826 0.020253096 -0.001385236 -0.58767503 -0.78724086 -0.18678848 0.0010572379
-0.049940906 0.018716283 -0.0015128462 -0.57983387 -0.78382003 -0.2223033 0.0016494326
0.056816924 0.018058354 -0.0025422298 0.60000485 -0.78930289 -0.13036497 0.0023208761
0.058502983 0.019261112 -0.0015199977 0.63159859 -0.77100635 -0.081440225 0.0021858744
0.060262397 0.020677187 -0.0010857641 0.66493416 -0.73770094 -0.11687565 0.0027598196
-0.057127744 0.02396268 -0.00033875028 -0.6079098 -0.76831645 -0.20033865 0.0015408166
-0.055377129 0.022826012 -0.0014324388 -0.60761642 -0.77297521 -0.18251492 0.00069036789
-0.053474229 0.021374185 -0.0015774824 -0.60368454 -0.77003348 -0.20643041 0.0019815709
0.061675973 0.022105314 -0.001500711 0.69493735 -0.71146965 -0.10427368 0.0024639308
0.063282683 0.023666076 -0.001065047 0.73238707 -0.67220634 -0.10838696 0.0026150385
-0.060189046 0.026786728 -0.0011999292 -0.67912567 -0.71258366 -0.17610469 0.00088641205
-0.058325633 0.025265897 -0.0015469268 -0.64623725 -0.74144971 -0.18063734 0.00083616725
-0.056831162 0.024108127 -0.002071982 -0.62704486 -0.75670362 -0.18497156 0.00058485952
0.064645253 0.025311526 -0.0014900046 0.76428157 -0.63410372 -0.11741471 0.0022281194
0.066123568 0.026827449 -0.00042084977 0.79428709 -0.60187685 -0.082778893 0.00250856
-0.063208029 0.029859563 -0.0007323419 -0.73620564 -0.6609813 -0.14527541 0.00084071327
-0.061695799 0.028415736 -0.0014165669 -0.70993114 -0.68375605 -0.1687468 0.00089130807
0.065838605 0.027174506 -0.0027866673 0.79702759 -0.58571178 -0.14727125 0.0023415301
0.066954158 0.028393706 -0.0014849214 0.82327938 -0.55839443 -0.10201257 0.0026819375
-0.06446442 0.03141978 -0.0013885465 -0.74674904 -0.64530683 -0.16107391 0.0012935465
-0.06295605 0.030375578 -0.0027228249 -0.72760427 -0.66431957 -0.1710894 0.0015506715
0.068434961 0.03078071 -0.0015143912 0.8607583 -0.50412065 -0.070409216 0.0040356051
0.069202386 0.032045458 -0.0012504084 0.88240755 -0.46112743 -0.093372218 0.003288433
-0.067005768 0.034556028 -0.0012358943 -0.797948 -0.58958185 -0.12518851 0.0015375962
-0.065822296 0.033284158 -0.0022369341 -0.77781421 -0.60929394 -0.1541622 0.0015111971
0.070149206 0.034177322 -0.0011679805 0.91564661 -0.39877594 -0.050686117 0.0052863932
-0.069466561 0.038109321 -0.0011383047 -0.84272927 -0.5280363 -0.10480984 0.002625861
-0.068483748 0.036712781 -0.0014739278 -0.82217807 -0.55936879 -0.10549776 0.0017161074
0.071365237 0.03748659 -0.0012279244 0.94928139 -0.29526651 -0.10808553 0.0042926841
0.07208845 0.03882537 -0.00027178574 0.9743048 -0.21537098 -0.065920755 0.011677751
-0.070581868 0.039976045 -0.0012350762 -0.87842566 -0.47057617 -0.083224744 0.0026929025
0.071879916 0.039614279 -0.001514509 0.97308606 -0.20121409 -0.11232225 0.0062859454
0.072239563 0.040654119 -0.00099351315 0.97872913 -0.17363973 -0.10926374 0.004522915
-0.072317094 0.0435124 -0.00078419177 -0.92965007 -0.36428481 0.055202354 0.0046912609
-0.071694389 0.04241607 -0.001745827 -0.90427667 -0.41364887 -0.10572758 0.0043390831
0.071984462 0.042390905 -0.0029276886 0.95118868 -0.088374302 -0.29568586 0.0011624757
0.072474293 0.043197829 -0.0014140848 0.98682368 -0.10154432 -0.12596707 0.0042160177
-0.073509008 0.046888597 -0.0011301785 -0.92991978 -0.35538635 0.094602838 0.0044382317
0.072697535 0.046636261 -0.0013144023 0.99070221 -0.047124319 -0.12762651 0.0063593313
-0.075185575 0.050702646 -0.00051490928 -0.93136764 -0.36405331 -0.0044188709 0.015469564
-0.074415483 0.049409952 -0.0012535616 -0.92588168 -0.37507561 -0.045402382 0.010217719
0.072802626 0.049658105 -0.00094455457 0.99871981 -0.050578684 0.00074695441 0.0048289807
-0.075839423 0.052436728 -0.00092524645 -0.94329268 -0.31989646 0.088686161 0.010122927
-0.074923612 0.051127832 -0.0021473144 -0.91457415 -0.36091107 -0.18247581 0.0099958172
0.07287357 0.052015368 -0.0011320348 0.99450427 -0.062551737 0.083955474 0.0070643276
-0.076472655 0.054865114 -0.0012346304 -0.96498615 -0.23317252 -0.12013438 0.021928463
0.073064208 0.055145517 -0.0010149471 0.9946273 -0.059809398 0.084494486 0.0075501828
0.062163848 0.059225477 -0.00019040497 -0.70789391 0.57594347 0.40887091 0.012387701
0.073253922 0.058508113 -0.00090474356 0.9502247 -0.029047735 0.31020835 0.01646292
0.063770175 0.062153675 -0.00055930577 -0.82150495 0.39683861 0.40944928 0.010821405
