# .PCD v0.7 - Point Cloud Data file format
VERSION 0.7
FIELDS x y z normal_x normal_y normal_z curvature
SIZE 4 4 4 4 4 4 4
TYPE F F F F F F F
COUNT 1 1 1 1 1 1 1
WIDTH 555
HEIGHT 1
VIEWPOINT 0 0 0 1 0 0 0
POINTS 555
DATA ascii
-0.028697709 0.034066781 -0.013293672 0.26174027 0.55991912 -0.78611875 0.0012572743
-0.026409565 0.034095455 -0.012364612 0.27166051 0.63177925 -0.725986 0.0017290746
0.034953743 0.033945009 -0.01265309 -0.2548925 0.61191195 -0.74872798 0.0010637264
0.0376046 0.03438323 -0.013266933 -0.25474885 0.59922874 -0.75896502 0.0013159502
0.040454052 0.034511741 -0.014174243 -0.25028577 0.53060043 -0.80982733 0.0020790368
0.043409489 0.035313271 -0.014563071 -0.23681016 0.50097764 -0.83243155 0.0016268878
0.045735292 0.035706706 -0.014948808 -0.16169269 0.46564302 -0.87007588 0.0023011181
0.056737114 0.034627464 -0.014897392 0.26010102 0.015423993 -0.96545827 0.003356121
0.058608443 0.034405112 -0.014381426 0.3361007 -0.025779778 -0.94147319 0.0049502626
0.0615771 0.034440588 -0.013049021 0.46376136 -0.14651005 -0.87376213 0.0025208199
0.06338045 0.035244402 -0.012134141 0.5558309 -0.1901252 -0.80926168 0.0019651644
-0.060437128 0.038184918 -0.012173984 -0.50576884 -0.23605162 -0.82974547 0.0027760526
-0.058551043 0.037522417 -0.012921382 -0.4050405 -0.16130199 -0.89995766 0.0042399964
-0.055583011 0.037405521 -0.014174501 -0.31756961 -0.056252465 -0.94656497 0.0041407538
-0.053281605 0.037469614 -0.014844364 -0.21147664 0.025324512 -0.97705489 0.0045745089
-0.049750499 0.038885314 -0.014997443 -0.037353039 0.20181958 -0.97871017 0.0057731089
-0.047302775 0.038889375 -0.014967622 0.084054373 0.32637259 -0.94149661 0.0036764923
-0.043212377 0.03831578 -0.014727128 0.15778551 0.41704386 -0.89508557 0.0025743151
-0.040411241 0.037754588 -0.014453914 0.18957004 0.47690758 -0.85826707 0.0013866744
-0.037589107 0.037455276 -0.013826496 0.23787148 0.55254614 -0.79881781 0.0019274787
-0.034799337 0.036931701 -0.013285723 0.26919186 0.57864928 -0.76987064 0.0017182576
-0.032417234 0.036848679 -0.012361648 0.29583541 0.63722998 -0.71163154 0.0025679795
0.038793236 0.036034126 -0.01221434 -0.25325593 0.54180223 -0.80144364 0.00088647188
0.041032106 0.037002981 -0.012465931 -0.29121071 0.59365433 -0.75018054 0.00098597608
0.043618336 0.037279889 -0.013299547 -0.26855633 0.5549835 -0.78731871 0.0013994658
0.046512302 0.037510179 -0.014059784 -0.20340484 0.51702183 -0.8314535 0.0015276736
0.049494237 0.037818275 -0.014554651 -0.14193687 0.45382577 -0.87971365 0.0024527614
0.052487858 0.038262054 -0.014670374 -0.051713936 0.36559835 -0.929335 0.0030127019
0.055656005 0.037764281 -0.01474491 0.14072777 0.17161289 -0.97506142 0.0040561161
0.058510583 0.037315261 -0.014366415 0.253178 0.102553 -0.96196866 0.0049896608
0.061561052 0.037419636 -0.013301934 0.38545775 0.018989159 -0.92253006 0.0028599601
0.063537538 0.037500668 -0.012342915 0.50906765 -0.050949678 -0.85921723 0.003546899
-0.060678769 0.040524889 -0.012368872 -0.44371077 -0.080833696 -0.89251703 0.0040020891
-0.058492299 0.040444169 -0.013264886 -0.32655156 0.0075595034 -0.94514912 0.0037987686
-0.055402756 0.040507361 -0.014127799 -0.23852557 0.098573729 -0.96612042 0.0049225581
-0.052735489 0.040293198 -0.014583235 -0.1630023 0.1546462 -0.97443056 0.0023188114
-0.049571235 0.040476322 -0.014540092 0.021100506 0.36075321 -0.93242258 0.0067799604
-0.046530567 0.04044617 -0.014207061 0.13466664 0.47140303 -0.87157565 0.0018996524
-0.04352532 0.040343646 -0.013607359 0.19475682 0.52141559 -0.83078009 0.0016895623
-0.040735625 0.039938718 -0.013057385 0.24834332 0.55627543 -0.79302162 0.0018342095
-0.038178824 0.039476223 -0.012474595 0.2915549 0.60931987 -0.73737723 0.0012368945
0.044678099 0.039267614 -0.012140851 -0.28711411 0.57000983 -0.76984042 0.00071715366
0.046906911 0.039905131 -0.012545807 -0.25948778 0.54943144 -0.79422367 0.00133832
0.049662035 0.040286597 -0.013163421 -0.20157771 0.52415633 -0.82742167 0.0016046588
0.052549087 0.040423058 -0.013660938 -0.13866919 0.46216652 -0.87588412 0.0030900554
0.055670727 0.040198755 -0.014034827 0.071347177 0.28120422 -0.95699203 0.0029726401
0.05887283 0.040156968 -0.01374511 0.18328907 0.21316642 -0.95966935 0.004097892
0.061465669 0.040487368 -0.013057806 0.32021978 0.11955713 -0.93976879 0.0037091898
0.063571654 0.040360149 -0.012294645 0.44019917 0.067349181 -0.89537078 0.0036749877
-0.060857758 0.043435674 -0.012272228 -0.38124859 0.051914677 -0.92301369 0.0031130509
-0.058623414 0.043408412 -0.012945667 -0.25040755 0.12351784 -0.96022886 0.0042597777
-0.05548501 0.043070834 -0.013581209 -0.1571274 0.22830029 -0.96082777 0.0035922762
-0.052490838 0.043437928 -0.013424999 0.028299406 0.40410617 -0.91427422 0.0041275909
-0.04950618 0.043338209 -0.013112627 0.14671962 0.50158012 -0.85257888 0.0040309308
-0.046657987 0.04289256 -0.0127621 0.18849015 0.53466612 -0.82377398 0.0023924971
-0.044315778 0.042443335 -0.012351111 0.23171288 0.5652163 -0.79173213 0.00092639262
0.052821547 0.042686693 -0.01240083 -0.19234192 0.53479046 -0.82280236 0.0024263184
0.055715837 0.043106258 -0.012679183 -0.093702786 0.46571711 -0.87995869 0.0031648437
0.058592167 0.043364793 -0.012691408 0.027341098 0.37511885 -0.92657346 0.0045073442
0.061672375 0.04307102 -0.012456861 0.27484804 0.20585479 -0.93919241 0.002911614
0.063419692 0.042343862 -0.012125313 0.39324641 0.18437845 -0.90075624 0.003416399
-0.060225219 0.045399584 -0.012124393 -0.20125896 0.31127253 -0.92876488 0.0048185517
-0.058435522 0.045787975 -0.012299161 -0.12882294 0.32977661 -0.93522829 0.0053442232
-0.055668619 0.045762308 -0.012460893 0.0027884403 0.43822497 -0.89886099 0.0034642268
-0.05298949 0.045368642 -0.01248146 0.12031265 0.52067852 -0.84523296 0.0027531565
0.059638835 0.045147143 -0.012050881 0.024024634 0.43286455 -0.90113878 0.0090022134
-0.015708765 0.0059296833 -0.0092617273 -0.20976222 -0.76638055 -0.60717434 0.00095110189
-0.013294966 0.005579011 -0.0095669711 -0.18928397 -0.76213348 -0.61913174 0.0011400339
-0.010405378 0.0052390532 -0.0099299075 -0.14623208 -0.75807154 -0.6355657 0.0013134968
-0.0074442835 0.0049869055 -0.010128697 -0.11296939 -0.75511128 -0.64579016 0.0015401024
-0.0044756574 0.0047836397 -0.010374798 -0.086399108 -0.75729859 -0.64732832 0.0017336142
-0.0014710706 0.004662218 -0.010527667 -0.054355204 -0.75528902 -0.65313399 0.0016265881
0.0015099995 0.0045342608 -0.010566396 -0.038430274 -0.75410962 -0.65562314 0.0019148937
0.0045137531 0.004440695 -0.010592164 -0.0075991461 -0.77037966 -0.6375401 0.0010716864
0.0074904226 0.0044787219 -0.010577948 0.017584506 -0.77038443 -0.63733715 0.00088086311
0.010485615 0.0045613875 -0.010586199 0.04493504 -0.76669008 -0.64044303 0.0018368677
0.013468452 0.0047518709 -0.010530967 0.073826164 -0.77945971 -0.62208694 0.0019112037
0.016432136 0.0049019824 -0.010345985 0.10067756 -0.79483181 -0.59841996 0.0019875159
0.01942634 0.0051544704 -0.010146011 0.1364065 -0.79406118 -0.59233451 0.0014516092
0.022374684 0.0054451046 -0.0097675128 0.16093327 -0.80291766 -0.57395452 0.0013321204
0.025143936 0.0057130069 -0.009361309 0.19840346 -0.80852222 -0.55401063 0.0010518103
-0.024546122 0.0088339346 -0.0092014922 -0.29276353 -0.76289266 -0.57644099 0.0014522476
-0.022217192 0.0083920574 -0.009744253 -0.27638841 -0.73967475 -0.61358839 0.0012689616
-0.019410258 0.0078708716 -0.010292567 -0.24113946 -0.73653728 -0.63195294 0.0016307826
-0.016540846 0.007372722 -0.010637011 -0.19409926 -0.7311855 -0.65398258 0.0010090173
-0.01359311 0.0069702803 -0.011035343 -0.1737148 -0.73507088 -0.65535784 0.0012975702
-0.010656286 0.00662843 -0.011402176 -0.13100217 -0.6892336 -0.71259767 0.0013054637
-0.0077189724 0.0063780486 -0.011604394 -0.10096417 -0.72002482 -0.68656427 0.0013348917
-0.0048608151 0.0061463364 -0.011786704 -0.073899969 -0.68967623 -0.72033703 0.0021589224
-0.0014476413 0.0060418984 -0.011867967 -0.041617371 -0.67314249 -0.73834085 0.0029953886
0.013538696 0.0060892017 -0.011887382 0.056277439 -0.7327897 -0.67812395 0.00096845918
0.016772909 0.0061387145 -0.011771165 0.073812641 -0.71647567 -0.69369608 0.0018938441
0.019765329 0.0063942992 -0.011596221 0.11500069 -0.71009272 -0.69465327 0.0013022316
0.022578726 0.0066334736 -0.011292133 0.14530315 -0.74192727 -0.65454638 0.0013329284
0.025556922 0.0069347289 -0.010875377 0.18945904 -0.78161573 -0.59429127 0.0011790148
0.028472781 0.007480104 -0.010541596 0.21621074 -0.78684282 -0.5780409 0.0013482636
0.031377215 0.0080858357 -0.010251734 0.24953818 -0.77939153 -0.57469964 0.0014360218
0.034032214 0.008563038 -0.0096429745 0.29145846 -0.7860629 -0.54512113 0.0011395459
0.036378834 0.00897652 -0.0091559459 0.32932141 -0.78842437 -0.51955223 0.0010495007
-0.031067377 0.01163356 -0.0095112817 -0.31943697 -0.74481231 -0.58584535 0.0008915686
-0.028346738 0.01099912 -0.010088549 -0.30152252 -0.7386331 -0.60291409 0.0011626784
-0.025518799 0.010379271 -0.010640417 -0.2651228 -0.73457986 -0.62458175 0.0012152977
-0.022656424 0.0097879618 -0.011125292 -0.24926975 -0.71541059 -0.65272671 0.0012994144
-0.020012558 0.0093212733 -0.011629917 -0.21533674 -0.68886977 -0.69216228 0.0010082287
-0.01783015 0.0090158209 -0.011901105 -0.18055695 -0.65649235 -0.73240489 0.003534588
0.032014616 0.0093097007 -0.01158777 0.22852266 -0.72143751 -0.65368593 0.0012455999
0.034748025 0.009844373 -0.010996369 0.27351534 -0.76573837 -0.58209455 0.0014942285
0.037511848 0.010489303 -0.010479356 0.30869144 -0.77248329 -0.55495876 0.0008369594
0.040197629 0.011291695 -0.0099769747 0.34517431 -0.75196499 -0.56160778 0.0012342028
0.042417016 0.011767976 -0.0092013329 0.38022307 -0.76201564 -0.52417809 0.0010983149
-0.037019845 0.014499207 -0.009649138 -0.38109761 -0.71616775 -0.58469516 0.00095976453
-0.034382671 0.013781599 -0.010362572 -0.33100551 -0.70770425 -0.6241715 0.0013658563
-0.031585917 0.013014029 -0.010888762 -0.29997689 -0.72661263 -0.61810035 0.001382452
-0.028862983 0.012446324 -0.011464571 -0.26941842 -0.68781561 -0.67403519 0.00092097494
-0.026821826 0.012106835 -0.011916688 -0.25233412 -0.65705156 -0.71035957 0.0030304885
0.038807847 0.012130931 -0.011875935 0.31859481 -0.69360238 -0.64607507 0.0025770583
0.040862743 0.012593747 -0.01124549 0.33325291 -0.72435164 -0.6035372 0.0010239747
0.043526053 0.013347036 -0.010589396 0.36398008 -0.73856258 -0.56748909 0.001284382
0.046113092 0.014269016 -0.0099486448 0.41955698 -0.72064912 -0.55193907 0.0013790167
0.048210531 0.014905618 -0.0091674626 0.43096974 -0.71876878 -0.54556078 0.00095691578
-0.042561054 0.017566921 -0.0095379958 -0.46054447 -0.68486285 -0.56467837 0.0013280554
-0.040363073 0.016835965 -0.010301251 -0.40234891 -0.68778855 -0.60420388 0.0018219153
-0.037725601 0.015987856 -0.010918859 -0.36011285 -0.69816995 -0.61877096 0.0013891157
-0.035258833 0.01537896 -0.011606716 -0.32290119 -0.66644889 -0.67199749 0.0012016532
0.044758335 0.01514928 -0.011889363 0.3803024 -0.66174412 -0.64611518 0.0030026906
0.046839904 0.015710568 -0.011166721 0.39821556 -0.69335926 -0.60056424 0.0015807142
0.049340874 0.016595609 -0.010424835 0.43168509 -0.70318282 -0.56496179 0.0012809049
0.05158804 0.017488224 -0.0096838409 0.48264119 -0.66699338 -0.56760663 0.0011160894
-0.046081513 0.020279847 -0.0098748645 -0.47834086 -0.66039211 -0.57885432 0.0014294368
-0.043629844 0.019354148 -0.010661226 -0.43607536 -0.63920945 -0.6334427 0.0015073441
-0.041198324 0.01854652 -0.011507373 -0.39885181 -0.63732278 -0.65934587 0.00083588413
0.050483245 0.018406482 -0.011582718 0.45825565 -0.63378721 -0.62314957 0.0017971261
0.05264828 0.019271366 -0.010757917 0.4756645 -0.62949151 -0.61439699 0.002759502
0.054973666 0.020192495 -0.0098716551 0.52864957 -0.63136518 -0.56736904 0.0015418924
-0.051453903 0.023802646 -0.0093302773 -0.51555037 -0.64947438 -0.55891937 0.0013758787
-0.049230382 0.022896847 -0.010160581 -0.48023564 -0.63619643 -0.60384423 0.0016930467
-0.046841357 0.022000043 -0.011069166 -0.43548074 -0.60823852 -0.66362822 0.0016928451
-0.044776861 0.021145105 -0.011688706 -0.42768633 -0.6106388 -0.6664868 0.0016671042
0.053788036 0.021231607 -0.011780685 0.48635793 -0.59413415 -0.64067203 0.0013709472
0.055836469 0.022148123 -0.011029679 0.51129186 -0.54247737 -0.66655749 0.0016493994
0.058038574 0.023024991 -0.0098794615 0.56171101 -0.57107943 -0.59862268 0.0014725312
-0.054602291 0.026543049 -0.0094742738 -0.53492659 -0.59674925 -0.59811693 0.0015131133
-0.052358579 0.025614666 -0.010420269 -0.49098557 -0.58958358 -0.6413458 0.0018728385
-0.050011467 0.024735009 -0.011380308 -0.45677003 -0.58274752 -0.67213571 0.0015724977
0.056851469 0.024350017 -0.011942981 0.50339395 -0.47212073 -0.72366875 0.0010234383
0.058857262 0.025172779 -0.011002419 0.53159219 -0.47601756 -0.70058334 0.0011035354
0.06095935 0.025978545 -0.0098195681 0.60066277 -0.51784283 -0.60913306 0.0013281041
-0.057631452 0.029322015 -0.0094543938 -0.57808155 -0.56509757 -0.58863097 0.0015878709
-0.055527955 0.028505459 -0.010511696 -0.51999915 -0.51992309 -0.67770267 0.0013766832
-0.053235471 0.027691113 -0.011565943 -0.47848183 -0.53536862 -0.69601399 0.001037034
-0.012874763 0.0298762 -0.011728209 0.16955677 0.62350494 -0.76321179 0.0008988473
-0.010650378 0.029254474 -0.011870113 0.15830821 0.62708813 -0.76269192 0.00073526095
-0.0076159379 0.029240819 -0.01120715 0.12120576 0.63103741 -0.76622516 0.0010578884
-0.0044061271 0.028733913 -0.011178501 0.079639204 0.63663191 -0.7670446 0.00067934126
-0.0014486002 0.028309548 -0.011226866 0.055300865 0.62693518 -0.77710623 0.00083530135
0.0014990915 0.028235283 -0.011092242 0.026355162 0.62740171 -0.77824962 0.0006270163
0.004434837 0.028104596 -0.01115681 -0.011190997 0.63577044 -0.77179706 0.0010098149
0.0077341762 0.028267089 -0.011081901 -0.043789513 0.64126205 -0.76607144 0.00075652282
0.010860879 0.02867765 -0.010958457 -0.07817138 0.64446157 -0.76063031 0.0011437932
0.013610614 0.02944001 -0.010596695 -0.11165192 0.655873 -0.7465685 0.00069234363
0.016269917 0.029167663 -0.011267238 -0.13147976 0.61860579 -0.7746225 0.0013107733
0.0187399 0.02921853 -0.011973484 -0.16651961 0.620134 -0.76661932 0.0012892588
0.059679735 0.027369557 -0.011863559 0.54414231 -0.38907069 -0.74332565 0.0018605404
0.061648477 0.028375192 -0.010831378 0.57326096 -0.38289881 -0.72440344 0.001080728
0.063536443 0.029040327 -0.0095300796 0.65014189 -0.43055677 -0.62604821 0.0017768877
-0.060380995 0.032490581 -0.0094544329 -0.59956425 -0.49556461 -0.62844121 0.0025229824
-0.05840623 0.031533401 -0.010427304 -0.56073964 -0.45796922 -0.68980813 0.0017835702
-0.056326956 0.030806221 -0.011601117 -0.52096009 -0.4267686 -0.73923546 0.0025143444
-0.021270584 0.032517161 -0.011871303 0.24083531 0.63426965 -0.73464304 0.00068221311
-0.019412998 0.032441173 -0.01128634 0.25096625 0.67200303 -0.69672656 0.0032609184
-0.016877234 0.032367207 -0.010444117 0.23611598 0.70719361 -0.66642815 0.0029405635
-0.013227173 0.030510288 -0.011281686 0.16894816 0.63074857 -0.75737226 0.00093720038
-0.011573177 0.030132283 -0.011282039 0.16688396 0.62765813 -0.76039135 0.0011963352
-0.0072682523 0.030056383 -0.010233424 0.12707382 0.63319397 -0.7634905 0.0010824562
0.023662943 0.032530762 -0.0098184031 -0.22381626 0.71243119 -0.66509253 0.00081927108
0.025615266 0.032369744 -0.010787351 -0.24845754 0.67839897 -0.69140702 0.0016409202
0.028142469 0.032421444 -0.011658879 -0.23486809 0.67749226 -0.69702315 0.00055201747
0.06233111 0.031011231 -0.011548116 0.57941288 -0.29494074 -0.7597965 0.0012675491
0.064265549 0.03155097 -0.010225655 0.63917857 -0.34813198 -0.68575126 0.0016748999
-0.063169345 0.035727933 -0.0090721166 -0.64316148 -0.43974653 -0.62687021 0.0018260436
-0.061189324 0.034699704 -0.010131028 -0.60141933 -0.41346115 -0.68362606 0.0022438399
-0.059085872 0.034030225 -0.011440308 -0.51937312 -0.3502436 -0.77947491 0.0014973944
-0.027976174 0.03576031 -0.011399769 0.30500132 0.66857368 -0.67822081 0.0030236046
-0.025768071 0.034611136 -0.011640035 0.27167416 0.63625413 -0.72206223 0.0015906271
-0.022566587 0.034083121 -0.010805933 0.26361257 0.65834969 -0.70504194 0.001372325
0.032153744 0.034772526 -0.010591967 -0.26708579 0.68155295 -0.6812861 0.00060670584
0.033588812 0.034494609 -0.011538035 -0.28072581 0.66730112 -0.68985671 0.00069468049
0.036770277 0.035779543 -0.011733599 -0.30599141 0.64611351 -0.69921851 0.00093677867
0.064646728 0.034302011 -0.010974195 0.61098891 -0.22901882 -0.75778818 0.0017656743
0.066478826 0.034833256 -0.0095456578 0.67540389 -0.2568875 -0.69125855 0.0019323215
-0.063738309 0.037854742 -0.0096456334 -0.6155237 -0.33853057 -0.71170753 0.00273567
-0.061707992 0.037323024 -0.010968409 -0.54898214 -0.27736363 -0.78847194 0.0014118018
-0.059986662 0.036868341 -0.011846512 -0.50390708 -0.22803302 -0.83311385 0.0023460339
-0.033756681 0.038478367 -0.011377598 0.32812858 0.67211419 -0.6637727 0.0033416783
-0.032154389 0.037662476 -0.011474703 0.29481205 0.64500451 -0.70502126 0.0016145008
-0.029685393 0.037654903 -0.010161799 0.33470953 0.73972487 -0.5837608 0.00051563763
-0.026546367 0.036442455 -0.0098667927 0.30533046 0.72788984 -0.61396235 0.0011641103
0.035545468 0.036411732 -0.010348398 -0.33332309 0.71965128 -0.60909593 0.0014835979
0.038065176 0.037377171 -0.010593261 -0.32331643 0.69965976 -0.63713628 0.0031201432
0.040659629 0.038264051 -0.011161671 -0.36170784 0.70737273 -0.60728192 0.0019395356
0.064980917 0.037411582 -0.011382037 0.5652526 -0.099603578 -0.81888258 0.001915928
0.066883646 0.037414249 -0.009858056 0.66511774 -0.14784127 -0.73195726 0.0021216497
-0.066055983 0.041351616 -0.0091372635 -0.655527 -0.25837928 -0.70959467 0.002805616
-0.064304046 0.040543761 -0.010130992 -0.58199978 -0.21408024 -0.78450358 0.0038026168
-0.062049299 0.040411469 -0.011619152 -0.49443841 -0.14315376 -0.85734338 0.0026691065
-0.039512113 0.041062266 -0.011565479 0.31055626 0.64975381 -0.69381189 0.0031583006
-0.037892029 0.040620476 -0.011255015 0.29362276 0.6249494 -0.72334212 0.0015514079
-0.035435744 0.040279653 -0.010279879 0.35255885 0.71097374 -0.60845596 0.00081980787
-0.032363016 0.039608303 -0.0092112226 0.33755073 0.72266006 -0.60317653 0.0012892816
0.040043663 0.039256938 -0.009660637 -0.37844321 0.71577603 -0.58689481 0.0008633543
0.043513231 0.040360838 -0.010574169 -0.37461492 0.67571974 -0.63487524 0.0016880621
0.046151198 0.040949717 -0.011373989 -0.29266965 0.59239262 -0.75061011 0.0014047248
0.048698291 0.041841358 -0.011699874 -0.25698894 0.56844926 -0.78155112 0.0013105439
0.065120608 0.040507909 -0.011459175 0.51372194 0.016384799 -0.8578003 0.0032967383
0.067123957 0.040439192 -0.010030038 0.63096339 -0.045476969 -0.7744785 0.0024857854
-0.066472255 0.043725271 -0.009250273 -0.60213882 -0.13448827 -0.78698272 0.0031939382
-0.064493768 0.043421954 -0.010532583 -0.50703251 -0.079445638 -0.85825777 0.0038263586
-0.06230301 0.043535005 -0.011672036 -0.4205161 0.014120338 -0.90717512 0.0044103418
-0.046099931 0.043963283 -0.01176903 0.22097632 0.57025647 -0.79118711 0.0013946661
-0.043568898 0.043348264 -0.011272715 0.28322953 0.60636318 -0.74303752 0.0013540706
-0.040950969 0.042812657 -0.010466193 0.3167505 0.69065589 -0.65012592 0.0027214978
0.046509244 0.042877965 -0.0096903769 -0.39051512 0.68116426 -0.61928445 0.0014128907
0.050014276 0.043436415 -0.010861906 -0.2902599 0.61135137 -0.73620558 0.0012501599
0.052469213 0.044217769 -0.011204261 -0.2387104 0.58525103 -0.77491844 0.0014392186
0.054803342 0.044648357 -0.011587487 -0.19164523 0.53621781 -0.82203561 0.0034366958
0.057982665 0.044825125 -0.011914019 -0.026895409 0.42801747 -0.9033702 0.0031662767
0.062601946 0.044775985 -0.011727916 0.20075154 0.2896342 -0.93584764 0.0049295793
0.064741246 0.043314725 -0.011359255 0.43336174 0.13281359 -0.89137995 0.0034373852
0.067243643 0.043579474 -0.0098784575 0.58309108 0.059635945 -0.81021494 0.0035002735
-0.066548437 0.046443433 -0.009350583 -0.56544763 -0.0079947207 -0.82474548 0.0047493069
-0.064553976 0.046445962 -0.010416709 -0.42620742 0.10071414 -0.8990016 0.004708495
-0.061643139 0.046233151 -0.011578144 -0.31627011 0.19770582 -0.92783922 0.0049656364
-0.05851515 0.047279358 -0.011687151 -0.047699876 0.41534051 -0.9084146 0.002870285
-0.055305719 0.04721161 -0.011611238 0.08516819 0.53412253 -0.84110612 0.0030808335
-0.052544791 0.04683657 -0.011418873 0.14612742 0.54688627 -0.8243556 0.0019611719
-0.049635701 0.046152089 -0.011108013 0.2160961 0.60094893 -0.76952124 0.001476781
-0.047049981 0.045458235 -0.010779139 0.23862536 0.60918653 -0.75627351 0.0018206898
-0.044874046 0.046086621 -0.0090120751 0.31610957 0.69348103 -0.64742476 0.0014094786
0.050110605 0.045156103 -0.0093664015 -0.38045859 0.6804418 -0.6262989 0.0011956884
0.05270727 0.045959644 -0.0098174699 -0.26542872 0.60528326 -0.750453 0.0010518448
0.055701785 0.046462588 -0.010504261 -0.22873887 0.57743353 -0.7837404 0.0022129919
0.058496065 0.046531178 -0.011088792 -0.078479648 0.48466462 -0.87117231 0.0034944161
0.061493546 0.046424754 -0.011224471 0.10198638 0.41194883 -0.90548158 0.006665051
0.064543538 0.046556946 -0.01058448 0.30403483 0.28873104 -0.90785313 0.0081431046
0.066951632 0.046388522 -0.0096540321 0.53453076 0.14260547 -0.83303094 0.0036933802
-0.066495493 0.04900502 -0.0091726109 -0.47387162 0.11184018 -0.87346286 0.0036979055
-0.064532869 0.049431711 -0.0097348597 -0.24607618 0.27518424 -0.92936552 0.0074529881
-0.061594129 0.049416676 -0.010329291 -0.14720377 0.41014692 -0.90006143 0.0054255147
-0.058716513 0.049376182 -0.010495752 0.017941553 0.51967329 -0.8541767 0.0040786592
-0.055788636 0.048952259 -0.010493373 0.08718136 0.56544799 -0.82016337 0.0027889167
-0.052500628 0.04874159 -0.0098249521 0.20080967 0.61012948 -0.76643169 0.0013809716
0.055611704 0.048146497 -0.0090290448 -0.1974522 0.57164353 -0.79638958 0.00051996519
0.058745034 0.048859291 -0.0095821787 -0.16754691 0.56405449 -0.80856079 0.0027326038
0.061623842 0.049163047 -0.0098226368 -0.038209099 0.48848444 -0.87173563 0.0051742741
0.064527199 0.049431339 -0.0095563233 0.10565272 0.39832589 -0.91113883 0.0099823456
0.066487253 0.048932925 -0.0092191789 0.38822997 0.29617637 -0.87267238 0.0065777334
-0.064171255 0.051207013 -0.0091376174 -0.18234533 0.38535988 -0.90457058 0.0085877953
-0.06142522 0.051332343 -0.0092184311 -0.036105368 0.50244117 -0.86385721 0.0038584233
-0.059670608 0.051365074 -0.0091891848 0.057116266 0.57890451 -0.81339252 0.0013975005
-0.010042029 0.002855479 -0.0063058012 -0.16452049 -0.87297517 -0.45918116 0.0012407877
-0.0074371062 0.0026652047 -0.0066766539 -0.12413119 -0.8719756 -0.47355047 0.0017473516
-0.0043972223 0.0024268024 -0.0070450548 -0.09302216 -0.87511921 -0.47488236 0.0018899394
-0.001487989 0.0023054883 -0.0072159935 -0.051118799 -0.87642831 -0.47881138 0.0020027335
0.0014877724 0.0022360699 -0.0073330053 -0.031550635 -0.87858933 -0.47653472 0.0019539178
0.0045261653 0.0021657527 -0.0073666214 6.6169661e-05 -0.8826614 -0.47000942 0.0018431232
0.0074806553 0.0022413393 -0.0073440676 0.031100765 -0.88435072 -0.46578604 0.0019505066
0.0104735 0.0023219821 -0.007275986 0.055662919 -0.88821268 -0.45604807 0.0018465003
0.013447766 0.0024631964 -0.0070243482 0.09061607 -0.88857692 -0.44968846 0.0019490639
0.016358227 0.0026810027 -0.0067458749 0.11814069 -0.89060783 -0.4391588 0.0017491583
0.019010153 0.0028110964 -0.0062908144 0.16432026 -0.89243495 -0.42018893 0.0014917705
-0.021275625 0.0058460422 -0.0063052308 -0.31230798 -0.83493841 -0.45314637 0.0016907085
-0.019226631 0.0054760589 -0.0069660097 -0.26787457 -0.84596217 -0.4610762 0.0018642739
-0.016417183 0.0050133108 -0.0074729999 -0.22236887 -0.83747125 -0.4991934 0.0016506976
-0.01350113 0.0042900718 -0.0075678676 -0.20604433 -0.84678233 -0.49041352 0.0013865946
-0.010565939 0.0037485517 -0.0077840448 -0.1598582 -0.84708577 -0.50684422 0.0012572105
-0.0075801574 0.0035278425 -0.0081530176 -0.11880834 -0.84601873 -0.5197469 0.0017774348
-0.0046801348 0.0033466725 -0.008499261 -0.09296833 -0.81483597 -0.57218808 0.0011360819
-0.0016987337 0.0032195754 -0.0086876238 -0.05317026 -0.83115417 -0.5534941 0.0017022061
0.0013283525 0.0031517332 -0.008809003 -0.033400908 -0.81465477 -0.57898366 0.0012495304
0.0044101812 0.0030865364 -0.0088751065 -0.0044629863 -0.80192095 -0.59741354 0.00080023409
0.0075234282 0.0031222624 -0.0088217594 0.022460707 -0.80378097 -0.5945012 0.00087928568
0.010554716 0.003209749 -0.0088048605 0.048935924 -0.81198615 -0.58162159 0.00096887909
0.013561157 0.0032990065 -0.0085562048 0.083406702 -0.86129099 -0.50121957 0.0020040674
0.016597958 0.0034463501 -0.0082017109 0.10859478 -0.86436695 -0.49099588 0.0017487817
0.019669408 0.0036674205 -0.0077385753 0.15584829 -0.86944354 -0.46880624 0.0014289889
0.022535257 0.0041073463 -0.0074713714 0.18415999 -0.88222647 -0.43331462 0.0013959961
0.025530629 0.0047462271 -0.0074679833 0.2134293 -0.87232459 -0.43988389 0.0014716923
0.02834595 0.0054067373 -0.0072429008 0.24126078 -0.87446147 -0.42084485 0.0016124545
0.030839689 0.0057564969 -0.0065104882 0.28754702 -0.87713832 -0.38463634 0.0011007977
-0.027926356 0.0085819354 -0.0067380141 -0.33433545 -0.83044636 -0.44562152 0.0013948344
-0.025478929 0.0080338586 -0.0074291048 -0.29965955 -0.81794268 -0.49109465 0.0015110229
-0.022578614 0.0070849494 -0.0076445341 -0.30279532 -0.82510728 -0.47698319 0.0013592459
-0.019799514 0.0064809322 -0.0083151096 -0.25193268 -0.81042391 -0.5289073 0.0014727172
-0.017496791 0.0061555393 -0.0088232541 -0.22725525 -0.76817334 -0.59855229 0.0010579213
0.029211015 0.0062755826 -0.0084597655 0.23357925 -0.85254437 -0.46755609 0.0016381597
0.031617247 0.0066521247 -0.0078171957 0.27476564 -0.85422677 -0.44136205 0.0017210337
0.034521621 0.0075343824 -0.007532252 0.30459538 -0.8465755 -0.43649921 0.0017199423
0.03727179 0.0084012141 -0.0072168037 0.33348921 -0.85040468 -0.40693587 0.0015797146
0.039404254 0.0088217566 -0.0063541606 0.37711111 -0.83982295 -0.39049268 0.0012209304
-0.036249839 0.011825701 -0.0061412868 -0.42605045 -0.81504256 -0.3926661 0.0024308492
-0.034252007 0.011411965 -0.0070816521 -0.37009984 -0.8116585 -0.45192546 0.0015578051
-0.031485334 0.010518054 -0.007534307 -0.33057344 -0.81481111 -0.47623935 0.0020236378
-0.028730711 0.0096019674 -0.0079300739 -0.33305272 -0.81633013 -0.47189087 0.0017364118
-0.026528949 0.0092819305 -0.0088018449 -0.30076477 -0.75447339 -0.58336133 0.0010106462
0.038180493 0.0093449233 -0.0083618974 0.32340828 -0.82092166 -0.47063226 0.0011804672
0.040554125 0.010022906 -0.0076207737 0.36596277 -0.82765764 -0.42550448 0.0015179621
0.043347821 0.011174464 -0.0073193372 0.39356408 -0.81773293 -0.42002392 0.0014648871
0.045552623 0.011821255 -0.0064729485 0.43289897 -0.80924928 -0.39713231 0.0012105105
-0.042032264 0.014894038 -0.0061503514 -0.46865508 -0.77911609 -0.41634196 0.0012270542
-0.040114734 0.014357649 -0.0069981101 -0.43677112 -0.77926272 -0.44942269 0.0012881752
-0.037539858 0.013369128 -0.0075914259 -0.40413579 -0.79275668 -0.45630169 0.0013526483
-0.034990285 0.012460989 -0.0082624191 -0.36056358 -0.78633595 -0.50166684 0.0017558471
-0.032673661 0.012030858 -0.0089442534 -0.32124144 -0.73827052 -0.59309411 0.001031301
0.044253215 0.012283274 -0.0085717952 0.38922527 -0.77198774 -0.50253206 0.00063859887
0.046628311 0.013089944 -0.0076451041 0.44757301 -0.79490042 -0.40964845 0.0011233686
0.049200144 0.014311136 -0.0071603172 0.47142798 -0.777596 -0.41605309 0.0012814634
-0.045538191 0.01762449 -0.0066411719 -0.50468296 -0.74015027 -0.44437897 0.00095079397
-0.04341704 0.016670482 -0.0074752183 -0.48369381 -0.75226343 -0.44737005 0.00083754427
-0.040946659 0.015496548 -0.0081587965 -0.42764258 -0.76392043 -0.48326758 0.0017570951
0.050214589 0.015479247 -0.0081445994 0.48622826 -0.76332897 -0.42533633 0.0014478113
0.052491456 0.016628908 -0.0074713044 0.51744318 -0.7499994 -0.41201144 0.0010201667
0.054595847 0.017649382 -0.0066912794 0.53908926 -0.7310617 -0.41824812 0.0012623607
-0.048971485 0.020317758 -0.0070749391 -0.53712606 -0.71596128 -0.44597659 0.0015357562
-0.046710908 0.019104613 -0.0077268393 -0.51696211 -0.72623831 -0.4531315 0.0016800078
-0.044507686 0.018244034 -0.0086755753 -0.47778717 -0.68530071 -0.54962009 0.0012297323
0.053652797 0.018205015 -0.0086280592 0.52276462 -0.69802403 -0.48936647 0.0017056993
0.055650096 0.019090919 -0.0077442047 0.54375726 -0.70597547 -0.45379156 0.0018808077
0.057706539 0.020307265 -0.0070148017 0.58583379 -0.66948175 -0.45671976 0.00099324121
-0.054186009 0.023878628 -0.0064949831 -0.56356609 -0.70273852 -0.43422547 0.0010309743
-0.052308053 0.02297085 -0.0072854068 -0.55094117 -0.70885056 -0.44044834 0.0021806192
-0.050070941 0.021774469 -0.0080146128 -0.53521287 -0.7110948 -0.45595112 0.0015656487
0.058909718 0.02202291 -0.0078343265 0.59320349 -0.64319527 -0.48415852 0.0017193211
0.060852002 0.023244999 -0.0070443284 0.62131751 -0.62350702 -0.47455606 0.0012492166
-0.05742098 0.02667704 -0.0065047205 -0.59645861 -0.66156715 -0.45449531 0.0010150472
-0.055363949 0.025607558 -0.0074863774 -0.5747093 -0.68883169 -0.44183719 0.0011668778
-0.053238373 0.024499282 -0.0084262444 -0.53781354 -0.66914785 -0.51283312 0.0015579819
0.061983239 0.025059467 -0.0078306785 0.64082903 -0.57886142 -0.50423974 0.0025428871
0.063641615 0.026256703 -0.0069632791 0.6816088 -0.53939277 -0.49443397 0.0011464884
-0.060410768 0.029621288 -0.0064351545 -0.64957958 -0.59386241 -0.4747355 0.0010474488
-0.058501676 0.028460898 -0.0075385384 -0.623276 -0.6198504 -0.47677293 0.001283618
-0.056492325 0.027368819 -0.0085400213 -0.56589246 -0.62422591 -0.53861648 0.0018932937
0.06275931 0.027193401 -0.0089461356 0.63522977 -0.47812888 -0.60652769 0.0020665447
0.064687885 0.028367296 -0.0076458934 0.71457529 -0.47298968 -0.51542503 0.0028338262
0.06636066 0.029583797 -0.0064597782 0.73174721 -0.48016813 -0.4837195 0.0019055186
-0.063266687 0.032680318 -0.0062943161 -0.68588698 -0.56087822 -0.46365362 0.0019320818
-0.061383847 0.031619027 -0.0075177662 -0.66710991 -0.53856421 -0.51469696 0.0025178166
-0.059489146 0.030452961 -0.0085426541 -0.61155939 -0.5554319 -0.56346291 0.0013277313
0.065548748 0.030635437 -0.0084215617 0.69779664 -0.38087562 -0.60664129 0.001501672
0.066928163 0.031812303 -0.0073984601 0.74205947 -0.38551274 -0.54838634 0.0019301511
-0.064073123 0.034802426 -0.007200398 -0.69659311 -0.48843271 -0.52553922 0.0023618375
-0.062452447 0.033777356 -0.0083031068 -0.659527 -0.46780568 -0.58837235 0.0025010556
-0.016581085 0.033872083 -0.0081239277 0.24263607 0.74292272 -0.62385386 0.00049052999
0.023262756 0.033030435 -0.0089331763 -0.22382286 0.71241915 -0.66510332 0.00082779396
0.067812838 0.034419175 -0.0078144418 0.75593722 -0.30518436 -0.5791558 0.0023970886
0.069187552 0.035427909 -0.0064390921 0.80047095 -0.31572932 -0.50947142 0.0023003679
-0.066588484 0.038088474 -0.0067403386 -0.71535242 -0.43051928 -0.55038536 0.0019702227
-0.065025128 0.037133906 -0.0079597607 -0.6947301 -0.39307523 -0.60236365 0.002749528
-0.026495852 0.037532538 -0.0082548447 0.32634783 0.73957705 -0.58866203 0.00062319019
-0.022540627 0.036086962 -0.007997022 0.29214871 0.74442726 -0.60039753 0.00035325543
0.068394415 0.037243262 -0.0082776994 0.75560141 -0.18687572 -0.62780881 0.002253185
0.069690235 0.03785966 -0.0067898133 0.79300058 -0.21902765 -0.56848657 0.0021184478
-0.069150746 0.041926835 -0.0060529783 -0.73247468 -0.3495273 -0.58421874 0.0056169038
-0.067278512 0.040568337 -0.0074607502 -0.7183519 -0.30740088 -0.62407947 0.0025003266
-0.065685369 0.039861474 -0.0087615391 -0.66154593 -0.2691218 -0.69995034 0.0028115755
-0.035137251 0.041693088 -0.0081163598 0.34828258 0.72576308 -0.59326822 0.00039405766
-0.032455958 0.040533476 -0.0079001561 0.35315081 0.73151153 -0.58324569 0.00051800575
-0.029697249 0.039224952 -0.0078770062 0.33470497 0.73972422 -0.58376431 0.0005190986
0.038298436 0.03963168 -0.0075634918 -0.37716123 0.72044277 -0.58198947 0.0009268329
0.041043974 0.040797181 -0.0082390001 -0.39767313 0.70256966 -0.59012884 0.00095401815
0.068595789 0.040426742 -0.0087076239 0.70891529 -0.077038124 -0.70107365 0.0021887077
0.069782667 0.040426984 -0.007353731 0.77448004 -0.10765421 -0.62337089 0.0027888117
-0.069411956 0.043804348 -0.0065023853 -0.73729879 -0.24763145 -0.62854534 0.0028492606
-0.067966826 0.04345414 -0.007859488 -0.68941832 -0.20392069 -0.69506741 0.0038095424
-0.040118147 0.044477761 -0.0077478914 0.35698935 0.70958436 -0.60749376 0.00066815544
-0.037627287 0.042904444 -0.0081908582 0.36178526 0.718638 -0.59386098 0.00035667443
0.043242995 0.042512875 -0.0076168408 -0.40330261 0.70104384 -0.58811951 0.00057567586
0.04650829 0.044169959 -0.0080896402 -0.39427343 0.69382721 -0.60262114 0.00084354682
0.068646327 0.043374058 -0.0087906262 0.64242399 0.029980985 -0.76576275 0.0031608229
0.070063978 0.04359363 -0.0072830063 0.7429114 0.021272682 -0.66905165 0.0034905523
-0.069765963 0.046467483 -0.0068093012 -0.69910514 -0.13673411 -0.70182317 0.0042604054
-0.06804096 0.046431098 -0.0083075734 -0.6068967 -0.072280027 -0.79148722 0.0043919706
-0.046776179 0.047732253 -0.007960665 0.33593222 0.70794141 -0.62126368 0.00049502659
-0.04330029 0.046195682 -0.0076645561 0.34581247 0.70640975 -0.61757511 0.00086171034
0.047532342 0.045720194 -0.0066834241 -0.40414736 0.71340781 -0.57246339 0.00035253746
0.049444266 0.0459629 -0.0079533774 -0.38285631 0.68380129 -0.62115765 0.001026953
0.05182026 0.047346309 -0.0079362607 -0.37823761 0.68577868 -0.6218071 0.0020307535
0.068391949 0.046783213 -0.0085917357 0.6018216 0.12951936 -0.78805804 0.0033422243
0.069843672 0.046759784 -0.007343845 0.70032984 0.087660179 -0.70841634 0.002794408
-0.069974385 0.049568642 -0.006942803 -0.6407969 -0.034498546 -0.76693493 0.0068723522
-0.067924351 0.049261346 -0.0083548585 -0.49456716 0.070512801 -0.86627436 0.003236314
-0.065731868 0.050938483 -0.0089188199 -0.17173226 0.33028695 -0.92812639 0.0097121242
-0.055174988 0.050844476 -0.0087782461 0.16168316 0.61659205 -0.77050167 0.0016047873
-0.051260475 0.049083866 -0.0089096604 0.29663083 0.68015212 -0.67037541 0.0017163464
-0.050457366 0.04967799 -0.0077577233 0.31360728 0.68623179 -0.65630519 0.00089448935
-0.04750777 0.04894717 -0.0067928713 0.33471298 0.71537411 -0.61335725 0.00035418753
0.053170238 0.048512951 -0.0074900654 -0.36825892 0.69356793 -0.61915177 0.001455633
0.055610903 0.049563918 -0.0078042415 -0.36593664 0.67195457 -0.64386916 0.0022741051
0.058485299 0.050556161 -0.0081110941 -0.23209833 0.59705567 -0.76788992 0.0038644746
0.060854778 0.050830357 -0.0086256238 -0.15200333 0.57191873 -0.80610424 0.0058759032
0.06555073 0.050766822 -0.0088310149 0.23791195 0.36010721 -0.90206468 0.0069911676
0.067765407 0.049800418 -0.0083109867 0.46699053 0.21811102 -0.85694075 0.0054282071
0.069876976 0.049087774 -0.0069757681 0.6747421 0.11295378 -0.72935897 0.0039186389
-0.070152663 0.0526147 -0.0067421473 -0.53564119 0.04772665 -0.84309596 0.008072868
-0.067841478 0.052225243 -0.0078356033 -0.39669982 0.20447402 -0.8948853 0.0090977727
-0.064641893 0.052669547 -0.0082693622 -0.11643197 0.43663472 -0.89207268 0.0060883798
-0.061800633 0.052708685 -0.0082228994 -0.0017666462 0.54048461 -0.84135205 0.0039806454
-0.058604028 0.052062392 -0.0083201807 0.084703937 0.613482 -0.78515297 0.0022382396
-0.055366181 0.05120451 -0.008322347 0.20834222 0.64766723 -0.73288518 0.00236729
-0.053439636 0.051544119 -0.0071147382 0.2791169 0.68763638 -0.6702612 0.0022110811
0.056974504 0.051513139 -0.0064352225 -0.33671287 0.67974806 -0.6515882 0.0022449945
0.059221748 0.052202839 -0.0068713413 -0.26570365 0.62393475 -0.73491979 0.001606344
0.061741918 0.052303553 -0.0077768862 -0.17293781 0.54026049 -0.82353568 0.0053982548
0.064526454 0.052452043 -0.0081159882 0.047901511 0.41018119 -0.91074526 0.006694797
0.067565084 0.052570499 -0.0075728307 0.32167065 0.29842392 -0.89859402 0.013459071
0.069580249 0.052305859 -0.0066648684 0.60292894 0.14474626 -0.78455406 0.0043571498
-0.07038445 0.055166245 -0.0062514008 -0.38575378 0.14157005 -0.91167527 0.0080944318
-0.067540422 0.055378754 -0.0067250188 -0.063318618 0.42016277 -0.90523696 0.011315499
-0.064810209 0.055119473 -0.0067640366 0.035790116 0.53814089 -0.84209472 0.0059318105
0.062725864 0.054043796 -0.0067027067 -0.15926905 0.49723768 -0.85287052 0.0023265867
0.064894572 0.055085476 -0.0066908915 -0.13443182 0.48614258 -0.86347759 0.0097485157
0.067542367 0.055495128 -0.0066074543 0.085992426 0.3294816 -0.94023782 0.02233169
0.069379739 0.055169329 -0.00623362 0.44115824 0.19390599 -0.87623054 0.010670976
0.067488335 0.057063438 -0.0060904515 0.041345052 0.38126653 -0.92354012 0.021230571
-0.015230473 0.0028923738 -0.0032086053 -0.26247677 -0.93923819 -0.22121812 0.0014436248
-0.013182051 0.0026383682 -0.0041951924 -0.21506615 -0.93037897 -0.29688632 0.0023146451
-0.010466057 0.0021893329 -0.0045255669 -0.15886706 -0.93993646 -0.302127 0.0017882944
-0.0075029931 0.0017678952 -0.0045303903 -0.12815642 -0.93947816 -0.3177368 0.0021955329
-0.0045202589 0.0013539937 -0.0045472546 -0.096977413 -0.94038373 -0.32599676 0.0024041727
-0.0015132091 0.0011248267 -0.0045226715 -0.052095182 -0.94113088 -0.33400413 0.0025152608
0.001472861 0.00099333748 -0.0045018997 -0.03160144 -0.94124812 -0.33623409 0.0026311819
0.0045226221 0.00092374178 -0.0045265728 0.0044424208 -0.94314635 -0.33234817 0.0025440336
0.0075155594 0.0010371422 -0.0045207511 0.039018974 -0.94409299 -0.32736209 0.0025657222
0.010515261 0.0011585462 -0.0044636684 0.063171536 -0.94594711 -0.3181091 0.0023383258
0.013497587 0.0014616359 -0.0045223092 0.10136481 -0.94742459 -0.30349919 0.0021337275
0.016459944 0.0018559826 -0.0045586661 0.12426202 -0.95009512 -0.28614381 0.0018445342
0.019542171 0.0022973241 -0.004503387 0.16579869 -0.94711393 -0.27474716 0.0015783805
0.022207811 0.0027253774 -0.0040910481 0.19354568 -0.94546127 -0.26199806 0.0018959233
0.02441711 0.0029232434 -0.0032324325 0.23244624 -0.96120894 -0.14847958 0.001869984
-0.024354685 0.0058822753 -0.0034590727 -0.36284867 -0.90211278 -0.23352373 0.002234939
-0.022311388 0.0054270611 -0.0043318272 -0.32473636 -0.89694226 -0.30006817 0.0022486234
-0.019484984 0.0044821994 -0.0045142877 -0.2819767 -0.90442759 -0.32015604 0.0023683722
-0.016525999 0.003675079 -0.004561326 -0.26923478 -0.91242051 -0.3082231 0.0019828072
-0.013980187 0.003268841 -0.005367612 -0.21964534 -0.90601391 -0.36179364 0.0018412927
0.02296642 0.0032260206 -0.005220816 0.20469356 -0.93162608 -0.30028892 0.0015437099
0.025559874 0.0035978267 -0.0045701587 0.2414078 -0.93088144 -0.27419332 0.0016485598
0.02855278 0.0044232248 -0.0045474092 0.26488081 -0.92174447 -0.28324062 0.0018513039
0.0314666 0.0052683367 -0.0044968505 0.28086165 -0.9238143 -0.26016125 0.0017684549
0.033571322 0.0057757646 -0.003906318 0.31649461 -0.91227269 -0.25998005 0.001777382
-0.030713042 0.0086589037 -0.0041099321 -0.35821116 -0.88531351 -0.2964873 0.0020617666
-0.028484261 0.0078769317 -0.004547806 -0.34755576 -0.88699818 -0.30403817 0.0019830465
-0.025589379 0.0067582764 -0.0045853476 -0.3579087 -0.88736051 -0.29067644 0.0017782316
-0.023468455 0.0062639476 -0.0054588635 -0.34648731 -0.88557041 -0.30937299 0.0023162884
0.032643434 0.0060376963 -0.0056736907 0.27761462 -0.91471142 -0.2936548 0.0030071773
0.034802571 0.0065078042 -0.0047428212 0.34424067 -0.90037942 -0.26611158 0.0014165975
0.037520055 0.0074758097 -0.0045391493 0.34711769 -0.89983493 -0.26420894 0.0015099923
0.040111601 0.0084634619 -0.00428082 0.38679036 -0.89037079 -0.24006899 0.0018695443
-0.036938746 0.011500493 -0.0042801541 -0.42208543 -0.85948521 -0.28832117 0.0020883533
-0.034509733 0.010413616 -0.0045505031 -0.39285797 -0.86300123 -0.31763428 0.0018444132
-0.03196305 0.009432218 -0.0048289872 -0.38059771 -0.87477517 -0.29985633 0.0021565284
0.041340675 0.0093042841 -0.0050912616 0.42414752 -0.87172347 -0.24535096 0.0015833792
0.04350755 0.010160315 -0.0045786672 0.42058352 -0.87181789 -0.2510834 0.0014885082
0.046134416 0.011368933 -0.0042519127 0.45466888 -0.85614169 -0.24555571 0.0017881043
-0.042647779 0.014526584 -0.0041949525 -0.49647647 -0.81583703 -0.2965149 0.0020237879
-0.040496673 0.013456245 -0.0045242477 -0.46685147 -0.83400154 -0.29409379 0.001617861
-0.038248856 0.012418106 -0.0049346178 -0.44850317 -0.843678 -0.29504633 0.0016838968
0.047420312 0.012350154 -0.0049805329 0.48206431 -0.83886975 -0.25280738 0.0015943436
0.049605895 0.013468578 -0.0045572487 0.49840569 -0.82164812 -0.27656114 0.0017459445
0.05171435 0.014601099 -0.0042249491 0.510912 -0.81359971 -0.27753279 0.0017332142
-0.046277028 0.0171089 -0.0043754866 -0.5406093 -0.78985822 -0.28959551 0.001927515
-0.043948028 0.015659073 -0.0048256265 -0.52878714 -0.79697061 -0.29192805 0.0015306502
0.053071022 0.015732927 -0.0047210041 0.54386371 -0.79716349 -0.26218829 0.0014324751
0.05526315 0.017152159 -0.0044071483 0.5578143 -0.78489649 -0.26977885 0.0019801676
0.05702715 0.017877324 -0.0032651913 0.57840568 -0.79524904 -0.18173014 0.0027197946
-0.051464338 0.020704616 -0.0039073173 -0.56646466 -0.77149886 -0.28966749 0.0018354004
-0.049516354 0.019481106 -0.0045432933 -0.57433581 -0.77111089 -0.27482036 0.0017775007
-0.047611486 0.018369043 -0.0052861408 -0.5511083 -0.7828474 -0.28884181 0.0020928546
0.056450292 0.01829672 -0.0051965192 0.57764286 -0.76562822 -0.28309375 0.0022503666
0.058348339 0.019531904 -0.0044927034 0.61099964 -0.74164289 -0.27684894 0.0021685206
0.06019197 0.020664642 -0.003508379 0.64374483 -0.7169081 -0.26764774 0.0020222387
-0.054756746 0.023363387 -0.0042697755 -0.59912139 -0.74584675 -0.2911464 0.0017752373
-0.052806396 0.022005603 -0.0046842657 -0.58857507 -0.76041448 -0.27449808 0.0015889968
-0.050694216 0.021056229 -0.00583862 -0.59201074 -0.7256037 -0.35074583 0.0030599078
0.059649304 0.02120115 -0.0055243522 0.63958049 -0.69275701 -0.33320343 0.0015662163
0.061533194 0.022470683 -0.0045734593 0.6749934 -0.6740182 -0.30013904 0.0021714503
0.063371658 0.023736667 -0.0034366809 0.71093267 -0.64788783 -0.27352542 0.0017555207
-0.057968836 0.026075048 -0.0043682815 -0.62854666 -0.71431953 -0.30769581 0.0019734551
-0.056076091 0.024691217 -0.0048429789 -0.6180793 -0.73338866 -0.28305292 0.0015315615
0.062866136 0.024240142 -0.0055547887 0.6909436 -0.63861948 -0.33876553 0.0020845139
0.064333677 0.025460148 -0.0045591942 0.7268523 -0.61408621 -0.3075448 0.001881972
0.066011406 0.026920883 -0.0032644246 0.76384246 -0.57205939 -0.29881912 0.0019229675
-0.06096736 0.028986925 -0.0043258765 -0.6835587 -0.64713496 -0.33758533 0.0020490775
-0.059418008 0.027634092 -0.0049202121 -0.66659468 -0.68218863 -0.30044988 0.0019914473
0.065703124 0.027450353 -0.0049644359 0.76498479 -0.55582511 -0.32535625 0.0027032022
0.06687329 0.028783014 -0.0043991241 0.78763747 -0.51384407 -0.33998755 0.0027817998
-0.063747264 0.032056645 -0.00428084 -0.73213601 -0.58674139 -0.34599319 0.0020322038
-0.062365238 0.03075329 -0.0048521608 -0.71136385 -0.62113518 -0.32886535 0.0024540592
0.068184361 0.031319942 -0.0048730886 0.81818026 -0.41783747 -0.39495939 0.0026866614
0.069375597 0.032445725 -0.0034394301 0.834553 -0.42939803 -0.34516454 0.0030000836
-0.066403717 0.035430599 -0.0041949661 -0.76418865 -0.53229654 -0.3642472 0.0019679661
-0.06503091 0.034038927 -0.0048269606 -0.7435413 -0.56225276 -0.36196434 0.0024626171
0.068834655 0.033404861 -0.0056906291 0.83367854 -0.35193297 -0.42558563 0.0027392802
0.069803834 0.034566119 -0.0046320879 0.85242587 -0.33747327 -0.39935187 0.0031870243
-0.06910786 0.038805105 -0.0030842833 -0.84865803 -0.46556932 -0.25104731 0.0064206123
-0.067539513 0.037461549 -0.0045839837 -0.77817178 -0.49012589 -0.39271519 0.0038266813
0.070735149 0.037636876 -0.0048269029 0.8647486 -0.25338849 -0.43359438 0.003470124
-0.06960953 0.040692385 -0.0041657411 -0.81747538 -0.39333597 -0.42073828 0.0038923731
-0.068531096 0.039775368 -0.005315634 -0.79900068 -0.40713105 -0.44254071 0.0040440205
0.071325488 0.040309932 -0.004879443 0.87730896 -0.1698017 -0.44888344 0.0045522936
0.072039433 0.040997326 -0.0035223858 0.91644436 -0.16891643 -0.36276305 0.0054347478
-0.070423357 0.043506633 -0.0047550155 -0.81795079 -0.28700519 -0.49858251 0.0042493995
0.071554042 0.04317876 -0.0051599294 0.87359792 -0.025438631 -0.48598301 0.0055009881
0.07221581 0.042744711 -0.0036695008 0.91081506 -0.10925094 -0.39809567 0.0053221076
-0.07239902 0.046955042 -0.0034643752 -0.84803307 -0.29505101 -0.44020998 0.0050307736
-0.071295738 0.0464237 -0.004912294 -0.81389612 -0.22817861 -0.53432912 0.0060540349
0.071418934 0.047069009 -0.0053422321 0.77117836 0.061082836 -0.63368189 0.0024865312
0.072304234 0.046471454 -0.0037558719 0.89541835 -0.0089088883 -0.44513667 0.0035964493
-0.072665088 0.049719274 -0.0041283681 -0.76547611 -0.18708697 -0.61566615 0.0056108213
-0.071328469 0.049323704 -0.0057017766 -0.71971816 -0.12275342 -0.68332809 0.0053933603
0.052156083 0.049617797 -0.0050699078 -0.41497788 0.71365809 -0.56434524 0.0002712516
0.071067967 0.049558491 -0.0056674518 0.72968745 0.083382711 -0.6786778 0.0034064241
0.072338007 0.049731113 -0.0037615446 0.80792296 0.036118392 -0.5881803 0.0032952954
-0.073331535 0.052584264 -0.0043237018 -0.70365608 -0.15275155 -0.69392741 0.0081022056
-0.071561359 0.05249083 -0.0058192941 -0.58611834 -0.04534081 -0.80895579 0.0068343035
0.055949263 0.051861346 -0.0050973347 -0.37642291 0.69641811 -0.61098909 0.0018327653
0.058853976 0.053147361 -0.0057185376 -0.35160196 0.68216491 -0.641114 0.0017266554
0.071205229 0.052706584 -0.0051274644 0.64975905 0.11666375 -0.75113428 0.0061645661
0.072195604 0.052214339 -0.0039552436 0.77387124 0.057482101 -0.63072908 0.0036662458
-0.075166821 0.055433542 -0.0032790434 -0.76260704 -0.29287615 -0.57676172 0.038237076
-0.073403887 0.055320039 -0.00473066 -0.62268949 -0.021168446 -0.78218263 0.020310458
-0.071261108 0.056044184 -0.0057649426 -0.34680232 0.14794549 -0.92619669 0.020077659
-0.067404531 0.056891665 -0.0059151752 0.012884198 0.51517272 -0.85698956 0.0076420475
-0.063487962 0.055829525 -0.0058631985 0.052601513 0.53358495 -0.84410912 0.0058531836
-0.062161576 0.055852581 -0.0051513622 0.1207989 0.61423081 -0.77982575 0.0021032484
0.058780443 0.054148376 -0.0042639114 -0.39713854 0.66101128 -0.63666725 0.001303348
0.061455593 0.055544946 -0.0047043515 -0.40713739 0.64919925 -0.64247918 0.004450059
0.063809574 0.056216072 -0.0055357674 -0.26265585 0.54050463 -0.79929125 0.0086720753
0.066172332 0.05669402 -0.0059964978 -0.060338773 0.3615931 -0.93038148 0.009113756
0.070874207 0.055581257 -0.0051122303 0.53682381 0.14903852 -0.83042622 0.0086235097
0.072254315 0.055656068 -0.0036699516 0.70176482 0.071233541 -0.7088384 0.0067909854
-0.072512642 0.057322517 -0.005012135 -0.38253099 0.18084736 -0.90607077 0.033643268
-0.070418924 0.057917207 -0.0053826775 -0.14400645 0.40619728 -0.90236682 0.029179316
-0.067861326 0.058362022 -0.0049293879 -0.0024707634 0.53406668 -0.84543878 0.0084328521
-0.065010279 0.057518579 -0.0048770215 0.084444895 0.55973619 -0.82435703 0.0036222653
0.062917881 0.057433046 -0.003898378 -0.49310198 0.5205974 -0.69701427 0.011628668
0.06491144 0.058362581 -0.0046076612 -0.40559086 0.43441975 -0.80422354 0.013176281
0.067998119 0.058983985 -0.0054286942 0.12193915 0.26400796 -0.95678139 0.014416474
0.070634343 0.058618087 -0.0048317332 0.43150455 0.1682253 -0.88628674 0.010691819
0.072223432 0.05911693 -0.0036516089 0.50407344 0.084464699 -0.85952061 0.014016371
0.065597028 0.061150569 -0.0035897489 -0.51847452 0.33835617 -0.78530198 0.019661725
0.067572087 0.061583634 -0.00454767 -0.29574093 0.21715949 -0.93025756 0.025305621
0.070524096 0.061504275 -0.0046105147 0.31664592 0.096814096 -0.94359016 0.025690069
0.072500311 0.061461229 -0.0034967314 0.44858283 0.021151047 -0.89349097 0.019105496
0.065850995 0.063427396 -0.0030019376 -0.80223525 0.24812329 -0.5430041 0.020438518
0.067977838 0.064406961 -0.0040995092 -0.22371507 0.16632371 -0.9603582 0.015789164
0.070467465 0.064551286 -0.0044178157 0.17049141 0.05845451 -0.9836238 0.024804689
