# .PCD v0.7 - Point Cloud Data file format
VERSION 0.7
FIELDS x y z normal_x normal_y normal_z curvature
SIZE 4 4 4 4 4 4 4
TYPE F F F F F F F
COUNT 1 1 1 1 1 1 1
WIDTH 556
HEIGHT 1
VIEWPOINT 0 0 0 1 0 0 0
POINTS 556
DATA ascii
0.034586567 0.010035718 -0.010828759 0.27737388 -0.7439549 -0.60794312 0.001438878
0.037423123 0.010865083 -0.010534806 0.29893813 -0.74567896 -0.59548217 0.0018392807
0.040147889 0.011423454 -0.0096974866 0.34666145 -0.73436153 -0.58355719 0.0010817468
0.042025752 0.011867329 -0.009052569 0.37978566 -0.74822164 -0.54399192 0.0012479698
-0.036588211 0.014644912 -0.0097244047 -0.37344623 -0.70373213 -0.60439962 0.0012035157
-0.034228835 0.013897878 -0.010207881 -0.33004859 -0.7026543 -0.63035297 0.0013134513
-0.031352967 0.013459628 -0.011081737 -0.2825523 -0.66698587 -0.68941563 0.00087372999
-0.028449746 0.012843004 -0.011638403 -0.2256736 -0.59447408 -0.7717979 0.0013858748
-0.026153922 0.012129785 -0.011888896 -0.24422875 -0.66080916 -0.70970666 0.001420463
0.038403179 0.012215683 -0.0116919 0.28912526 -0.68535936 -0.66834807 0.0010883365
0.040814418 0.012818989 -0.011054697 0.329155 -0.71451753 -0.61735058 0.0015329072
0.04360171 0.013717152 -0.010517275 0.36217931 -0.7186873 -0.59356099 0.00099911075
0.046089534 0.014420545 -0.0096723419 0.41400856 -0.70625514 -0.57428265 0.0011606303
-0.042849116 0.017743407 -0.009146004 -0.45940766 -0.70332682 -0.54247218 0.0011073719
-0.040227618 0.017087894 -0.010291871 -0.39105922 -0.67152083 -0.62939048 0.0015292676
-0.037688926 0.016330119 -0.010917173 -0.35543618 -0.6768856 -0.64458585 0.0014399417
-0.034607939 0.015423363 -0.01159162 -0.3070471 -0.64626336 -0.69861704 0.0011459157
0.044544276 0.015351998 -0.01181012 0.35810417 -0.64227557 -0.67767513 0.001666226
0.046735186 0.015987216 -0.011061938 0.39596918 -0.6666351 -0.63151097 0.001427826
0.049348954 0.016813684 -0.010187809 0.43392959 -0.6729399 -0.59904671 0.0016286575
0.051485147 0.01764776 -0.0094715543 0.48065054 -0.65853256 -0.57905966 0.0014078126
-0.045366779 0.020643095 -0.010401696 -0.44526979 -0.61886805 -0.64709896 0.0010258675
-0.043346867 0.019630397 -0.010766149 -0.41454077 -0.60329401 -0.68131649 0.0010551562
-0.040881403 0.018556204 -0.01132674 -0.36761624 -0.61335385 -0.69903892 0.0010214893
0.050153531 0.018560048 -0.011482048 0.43247178 -0.61767709 -0.65684336 0.001079127
0.052492045 0.019508604 -0.010631759 0.46487516 -0.60686201 -0.64467794 0.0012319208
0.054756783 0.020343184 -0.0097286627 0.52054095 -0.61192304 -0.59547228 0.001358459
-0.049156893 0.023267953 -0.010225032 -0.46282899 -0.59408456 -0.65791559 0.00088790106
-0.04675566 0.022440083 -0.011148669 -0.43696457 -0.58951801 -0.67936021 0.001866981
-0.044466488 0.021495782 -0.011856 -0.39796174 -0.56262094 -0.7246269 0.0021731586
0.053562533 0.021521306 -0.01175444 0.47713211 -0.56392068 -0.67404628 0.0013168522
0.055594936 0.022351209 -0.010892637 0.49832815 -0.5197584 -0.69391662 0.0012196421
0.057809345 0.023143658 -0.0097063724 0.56257677 -0.56862384 -0.60014522 0.0013881859
-0.05430093 0.026596479 -0.0094769327 -0.53153044 -0.61527681 -0.5821597 0.0029637781
-0.052170042 0.025819549 -0.010386345 -0.46449777 -0.56879216 -0.67876166 0.0015047757
-0.04937128 0.024900829 -0.011575254 -0.42751601 -0.52496749 -0.73596138 0.0018619173
0.0020720151 0.026964312 -0.011936287 0.025121111 0.68105781 -0.73179859 0.0023751112
0.0039556003 0.026938612 -0.011976255 -0.01256393 0.68023568 -0.73288578 0.0026055574
0.0074650981 0.026964186 -0.011953632 -0.047925387 0.70171857 -0.71084052 0.0016899622
0.056623112 0.024505921 -0.011730856 0.51381326 -0.48192829 -0.70974714 0.00077384221
0.058704916 0.025455894 -0.010834243 0.52699924 -0.46249923 -0.71299815 0.0011370229
0.060716067 0.026141582 -0.0096861133 0.59065992 -0.50528324 -0.62913412 0.001465851
-0.057466067 0.029330982 -0.0093142632 -0.55820644 -0.55977595 -0.61241865 0.0012180264
-0.055181626 0.028592587 -0.010474223 -0.48233509 -0.48919544 -0.72666413 0.0014557667
-0.053078461 0.02794891 -0.011488671 -0.46324748 -0.50429249 -0.72875971 0.00070856855
-0.015295833 0.029916536 -0.011938768 0.21852191 0.64807034 -0.72955674 0.0043416428
-0.013019618 0.02964153 -0.011718557 0.18838441 0.68150574 -0.70715004 0.0015667985
-0.010403746 0.029349839 -0.011372107 0.16179247 0.70539284 -0.69010437 0.0016175212
-0.0074955709 0.028999252 -0.011074382 0.13573131 0.70907938 -0.69194174 0.0016128536
-0.004462495 0.028772295 -0.010805647 0.10964174 0.71863747 -0.68668693 0.0022298342
-0.0015164488 0.028599335 -0.010595008 0.082140513 0.72916526 -0.67939013 0.0022002014
0.0015191067 0.028400941 -0.010579073 0.034480747 0.72898048 -0.68366557 0.0024539824
0.0044643944 0.028312741 -0.010611203 0.0026648839 0.73002219 -0.68341821 0.0022255755
0.0074133617 0.028323753 -0.010674398 -0.047947969 0.72835177 -0.68352371 0.0024513525
0.010537671 0.028655102 -0.010623746 -0.085829563 0.74084496 -0.66616964 0.0022004074
0.013399134 0.028856352 -0.010794606 -0.12104265 0.7518394 -0.64814061 0.0013255563
0.016444316 0.029156905 -0.011127835 -0.15661101 0.7379415 -0.65644145 0.0014750927
0.01912117 0.029466622 -0.011452922 -0.18629031 0.70335513 -0.68599379 0.001388672
0.021348277 0.029773958 -0.011799998 -0.21294722 0.67894095 -0.70263273 0.0024883456
0.059568111 0.027740449 -0.011665986 0.55366647 -0.38083574 -0.74055219 0.0018880852
0.061509512 0.028593337 -0.010575149 0.58015859 -0.38640311 -0.71701366 0.0016283143
0.063401334 0.029367678 -0.0093760649 0.6452449 -0.42328769 -0.63599253 0.0020367617
-0.060142029 0.032079943 -0.0090453019 -0.61104262 -0.50324523 -0.61104107 0.0017310461
-0.058158845 0.031916142 -0.010548296 -0.5086804 -0.38256484 -0.77129006 0.0011046825
-0.056200385 0.031359795 -0.011642547 -0.45887592 -0.37621617 -0.80491883 0.00144895
-0.021938341 0.032666799 -0.011660513 0.25701913 0.68768591 -0.67899138 0.0017515273
-0.019329688 0.032230485 -0.011160498 0.2470246 0.70082736 -0.66919345 0.0012223051
-0.01644141 0.031739566 -0.010623443 0.23374334 0.74215561 -0.6281473 0.0012573508
-0.0135962 0.031139828 -0.010348369 0.20017841 0.74118179 -0.64076364 0.002371971
-0.010562502 0.030727416 -0.0099656675 0.17662166 0.74900103 -0.63859403 0.0014931946
-0.0077027851 0.030407107 -0.0096120005 0.14283088 0.75708079 -0.63751704 0.0015078095
-0.0048355213 0.030188315 -0.0092738951 0.10757954 0.76343703 -0.63685995 0.0011201883
-0.0023235721 0.030039886 -0.0091172596 0.082455404 0.76561451 -0.63799334 0.0010085858
0.011241972 0.030020216 -0.009078078 -0.090825438 0.78896034 -0.60769427 0.0015769184
0.01376747 0.030162133 -0.0093195606 -0.12233239 0.77950621 -0.61433274 0.001352848
0.016607055 0.030429158 -0.009703394 -0.16489384 0.77097219 -0.615152 0.001382
0.019589441 0.030776156 -0.010136098 -0.2032387 0.75495809 -0.62348402 0.001562209
0.022609564 0.031265661 -0.010562379 -0.2242479 0.74386704 -0.629583 0.0016247744
0.025495406 0.031960011 -0.010818521 -0.24270436 0.73591119 -0.6320833 0.0015960241
0.028312115 0.032397863 -0.011375002 -0.24485745 0.69685155 -0.67412364 0.00082650711
0.030468414 0.032707915 -0.011905477 -0.25649056 0.6788367 -0.68803585 0.0020476182
0.062115703 0.031323768 -0.011374805 0.55248702 -0.29179561 -0.78077739 0.0011715352
0.064103827 0.031691302 -0.0099684754 0.63849109 -0.33852646 -0.69117945 0.0018273141
-0.06074819 0.035246707 -0.010451257 -0.55380785 -0.33757216 -0.76114511 0.0014185462
-0.058736034 0.034180976 -0.011409363 -0.48911962 -0.32813501 -0.80813944 0.0017186994
-0.03031029 0.035890013 -0.011961772 0.30352017 0.64308959 -0.70307273 0.0036237303
-0.028059227 0.035424616 -0.011442638 0.29895276 0.66253591 -0.6867848 0.0013060076
-0.02533651 0.034883052 -0.010778842 0.29929847 0.72535515 -0.6199035 0.0012055278
-0.022621484 0.034169599 -0.01034144 0.27850848 0.73472589 -0.61855549 0.0021794674
-0.019680833 0.033598032 -0.0097557539 0.26484865 0.75197041 -0.603652 0.0011228836
-0.017523242 0.033197243 -0.0092662228 0.24999829 0.76073253 -0.59898823 0.0014138567
0.025957819 0.033279404 -0.0094136931 -0.24371754 0.76871568 -0.59133577 0.00087509997
0.0287614 0.033726647 -0.0099992761 -0.26033932 0.75746202 -0.59872746 0.0012503649
0.031386439 0.034178682 -0.010577827 -0.26864114 0.73091286 -0.62737429 0.0015768547
0.034273215 0.035014562 -0.010922918 -0.30671373 0.73118079 -0.60934502 0.0015785394
0.037063628 0.035650298 -0.011648131 -0.30639777 0.65568751 -0.6900683 0.0017140713
0.062720627 0.033874299 -0.011848467 0.55461729 -0.18905677 -0.8103438 0.0020373515
0.064504519 0.034512173 -0.010663218 0.59900033 -0.21592034 -0.77108818 0.0014652896
0.066377692 0.035177916 -0.0092859026 0.68925703 -0.25338393 -0.67876452 0.0020941412
-0.063253105 0.038036138 -0.0098082228 -0.56744057 -0.27403927 -0.77647519 0.001454237
-0.061075654 0.037508395 -0.011145294 -0.51152664 -0.23044758 -0.82778889 0.0021266364
-0.059724163 0.036800109 -0.011814375 -0.49516216 -0.22123721 -0.84015983 0.0019475453
-0.036272619 0.038885266 -0.011804109 0.31524611 0.67013645 -0.67196506 0.0012382101
-0.034155264 0.038327955 -0.011391483 0.31770605 0.66456199 -0.67632842 0.0011036471
-0.031413585 0.037694741 -0.010675046 0.32932329 0.71096742 -0.62134653 0.001460936
-0.028707147 0.036943 -0.010125182 0.32388556 0.73036557 -0.60138524 0.0018290601
-0.026176818 0.036311194 -0.0094912453 0.31951883 0.74496508 -0.5856064 0.001192186
0.034957163 0.036424682 -0.0096200574 -0.33179909 0.74565184 -0.57785183 0.0012396899
0.03768409 0.037154932 -0.010252435 -0.34312537 0.72343683 -0.59908611 0.0021102102
0.040371876 0.037903175 -0.010990857 -0.35590634 0.6729877 -0.64839661 0.0019232403
0.042921733 0.038615838 -0.011655869 -0.32239676 0.63655674 -0.70061105 0.0017586618
0.064742297 0.037471108 -0.011096963 0.5563845 -0.091570735 -0.82586378 0.0017731026
0.066690058 0.037669502 -0.0096109305 0.65573847 -0.14015257 -0.7418654 0.0025095174
-0.064025313 0.040645342 -0.01004812 -0.55696821 -0.18086039 -0.81060225 0.0024959119
-0.061737001 0.040369444 -0.011457112 -0.43583041 -0.071829773 -0.89715791 0.0033757475
-0.042337772 0.041749023 -0.011851867 0.28549939 0.64060509 -0.71282208 0.0017242142
-0.040196124 0.041321423 -0.011301636 0.30433807 0.65649217 -0.69021469 0.0012312882
-0.037419241 0.040637381 -0.010603651 0.32842878 0.69863105 -0.63564873 0.0015296182
-0.03469523 0.039854873 -0.010028241 0.34986389 0.71709102 -0.60280651 0.0014295053
-0.032473754 0.039322425 -0.0093487976 0.36276332 0.73715663 -0.57009017 0.0015731616
0.041062988 0.039544471 -0.0096004475 -0.39934418 0.70395279 -0.58734554 0.0014423354
0.043741498 0.040237118 -0.010475105 -0.35879612 0.65533394 -0.66468251 0.0016354942
0.046429761 0.040922366 -0.011220695 -0.3065396 0.61627758 -0.72542083 0.0016520327
0.048773397 0.041619543 -0.011637026 -0.26291248 0.60117465 -0.75462979 0.0020529302
0.062928647 0.041883912 -0.011946714 0.34861156 0.15675315 -0.92406631 0.010675805
0.064696521 0.040506229 -0.011253344 0.48252225 0.043421429 -0.87480676 0.0041877409
0.066946223 0.040525947 -0.0097234137 0.6249063 -0.029343206 -0.78014809 0.0030258812
-0.066329092 0.044513755 -0.0091614192 -0.57806295 -0.092602529 -0.81072062 0.0033765817
-0.064327829 0.043669209 -0.010329914 -0.46020305 -0.00075118378 -0.88781339 0.0041033155
-0.061710697 0.043871522 -0.011543164 -0.28506681 0.16372876 -0.9444204 0.0036154224
-0.051275786 0.04491654 -0.011984914 0.12202159 0.5725776 -0.81071919 0.0033462031
-0.048931386 0.044638351 -0.011760904 0.20903406 0.60139751 -0.77111983 0.0019503004
-0.046252247 0.044140551 -0.011279718 0.26717779 0.61642659 -0.74069852 0.0016707581
-0.043441113 0.043563846 -0.010592445 0.30316216 0.65431988 -0.69279015 0.001215547
-0.040751059 0.042873409 -0.0099593252 0.35328862 0.70418209 -0.61588532 0.0015939204
-0.038589586 0.042349976 -0.0093578631 0.36964884 0.7123726 -0.59656101 0.0014975829
0.046905536 0.042667381 -0.0097865779 -0.37334132 0.67373186 -0.63773167 0.0013467455
0.049820207 0.04339572 -0.010541463 -0.29622608 0.60937697 -0.73546576 0.0015190402
0.05250911 0.043771703 -0.011264956 -0.22701344 0.55503422 -0.80025113 0.0010957086
0.055470262 0.044411018 -0.011585098 -0.13613692 0.49945435 -0.85557711 0.0021313403
0.058339298 0.04463755 -0.011806802 -0.013607424 0.42556787 -0.90482426 0.003070178
0.061881244 0.044114158 -0.011725476 0.18664783 0.2839278 -0.9405039 0.0065221
0.06455072 0.043444537 -0.011007668 0.39642403 0.16414575 -0.90327418 0.0049564075
0.066962093 0.043430511 -0.0096513741 0.57035506 0.082522653 -0.81724244 0.003732021
-0.066285208 0.046016254 -0.0092084855 -0.45192108 0.074441582 -0.88894647 0.0045574382
-0.064077057 0.046974771 -0.010229847 -0.26766077 0.25895181 -0.92806333 0.003341438
-0.061429046 0.04657064 -0.011188437 -0.184268 0.33514211 -0.92397249 0.004329822
-0.05859381 0.046892818 -0.01150781 -0.044175882 0.42801049 -0.90269345 0.0041688308
-0.055440884 0.046992991 -0.011407629 0.087182797 0.51787722 -0.85100079 0.0026003835
-0.052406933 0.046773184 -0.011065681 0.17081763 0.57188481 -0.80235225 0.0014159469
-0.049508899 0.046467572 -0.01042259 0.26196173 0.63726711 -0.72475278 0.001756471
-0.046693847 0.045813356 -0.0098810056 0.31811568 0.68601811 -0.6543557 0.001616545
-0.044530194 0.045312721 -0.009327014 0.35076639 0.69287449 -0.62999046 0.0018639066
0.050700217 0.045213535 -0.0092854686 -0.35659206 0.66384834 -0.65737927 0.0028807356
0.052822322 0.045739222 -0.0097850822 -0.29254696 0.62214482 -0.72619009 0.0020010257
0.055673193 0.046367388 -0.010297014 -0.22019863 0.56537598 -0.79489779 0.0027328155
0.058627333 0.046464622 -0.01083181 -0.050567228 0.46972695 -0.88136232 0.0025097257
0.061541107 0.046441164 -0.010876841 0.10058972 0.38327721 -0.91813958 0.0051902053
0.064552873 0.046450853 -0.010257429 0.30933249 0.28072497 -0.9085741 0.0071372432
0.066679671 0.046299934 -0.009400202 0.49844134 0.18671769 -0.84657711 0.0044663604
-0.066169314 0.048550583 -0.0091148876 -0.39794189 0.17245595 -0.90105557 0.0072042029
-0.064217187 0.049519703 -0.009468643 -0.17881532 0.37387317 -0.91007906 0.0050592255
-0.061381932 0.049725179 -0.0098596895 -0.042934753 0.50204819 -0.86377323 0.0046286103
-0.058407653 0.049534902 -0.010035231 0.043942355 0.55903262 -0.82798046 0.004234415
-0.055519044 0.049165037 -0.0099190744 0.14806798 0.6169216 -0.77297062 0.0040124096
-0.052657053 0.048705842 -0.0095319832 0.24221544 0.66243231 -0.70888293 0.0025231328
-0.050575707 0.04819867 -0.0092518367 0.30150619 0.68264997 -0.66564482 0.0025027678
0.056675304 0.048133604 -0.0092881192 -0.25568739 0.61776149 -0.74363613 0.0031445697
0.058761127 0.04857238 -0.0095058633 -0.15804099 0.56278539 -0.81135422 0.0036450624
0.061611112 0.048979446 -0.0096151978 -0.0015625843 0.47017145 -0.88257372 0.0043974202
0.064395748 0.048972651 -0.009428896 0.19561094 0.36185971 -0.91147894 0.0063921483
0.066220418 0.048419919 -0.00912786 0.36043051 0.31670848 -0.87737429 0.0071186326
-0.063668281 0.051108524 -0.0090343561 -0.16563578 0.38747451 -0.90687829 0.0082168328
-0.061504044 0.051092014 -0.0091059506 -0.0011275464 0.57376719 -0.81901771 0.0047496329
-0.058753513 0.051021472 -0.0090978555 0.10007802 0.65000474 -0.75331151 0.0027441657
-0.0099057034 0.0029842984 -0.0061868592 -0.16309942 -0.89376938 -0.41782171 0.00081793941
-0.0072019789 0.0027232373 -0.0063917008 -0.12628061 -0.87339419 -0.47035712 0.0015556784
-0.0043158215 0.0025662112 -0.0068885344 -0.093110308 -0.87397587 -0.47696602 0.0013767802
-0.0014356053 0.0024156519 -0.0069867028 -0.052710127 -0.86496913 -0.49904916 0.0018064035
0.0016105943 0.0024110221 -0.0072280159 -0.027630396 -0.86784667 -0.49606317 0.0020008369
0.0045355768 0.0023485085 -0.0072484529 0.0051969662 -0.87333888 -0.48708534 0.0019160049
0.0074166097 0.0024038029 -0.0071918918 0.028053159 -0.8762514 -0.48103705 0.0020533823
0.010533426 0.0023789438 -0.0069266437 0.055076275 -0.88867497 -0.45521796 0.0015497863
0.013162456 0.002622246 -0.0068984507 0.088116199 -0.85706007 -0.5076254 0.0016764591
0.016381856 0.0027422649 -0.0063914545 0.11794169 -0.90328258 -0.41251695 0.0014023316
0.018892836 0.0029398827 -0.0060839136 0.15901859 -0.89779127 -0.4107115 0.001179368
-0.01895915 0.0056827478 -0.0070830029 -0.26426592 -0.82867038 -0.49342564 0.001489478
-0.016370146 0.0053790165 -0.0076642958 -0.21362175 -0.80913049 -0.54742444 0.0012392718
-0.013565412 0.0045489892 -0.0075536105 -0.19600314 -0.83017099 -0.52191854 0.0020941687
-0.010512878 0.003968298 -0.0076972153 -0.14242753 -0.8341257 -0.53286839 0.0012602414
-0.0074860994 0.0036666675 -0.007942575 -0.12644005 -0.82627827 -0.54888713 0.0019360753
-0.0044211503 0.0035224906 -0.0083752144 -0.092867248 -0.82424098 -0.55857182 0.001384913
-0.0015732405 0.0033161382 -0.008411793 -0.051398259 -0.83137286 -0.55333298 0.0020786312
0.0014292054 0.0033047902 -0.0086137559 -0.032788698 -0.82425314 -0.56527126 0.0015449602
0.0043064943 0.0033252668 -0.0087877661 -0.0045216219 -0.82987285 -0.55793417 0.0016466547
0.0076990044 0.0032897445 -0.008594404 0.029683171 -0.78960431 -0.61289787 0.001366144
0.010914272 0.0033758071 -0.0085599273 0.052594911 -0.80212492 -0.59483552 0.00076523534
0.01338762 0.0035734866 -0.0084997695 0.091097526 -0.83061165 -0.54935014 0.001983562
0.016432136 0.003709119 -0.0081682978 0.11005533 -0.84188807 -0.52831078 0.0013366274
0.019682903 0.0039765323 -0.0077738999 0.14816445 -0.85193384 -0.50225097 0.0012384054
0.02261745 0.0044295429 -0.0075324746 0.17838486 -0.85760665 -0.48237911 0.0013197077
0.025479458 0.0051310542 -0.0076971189 0.20452327 -0.85386407 -0.47862968 0.0013115052
0.028109634 0.0055681872 -0.0071564764 0.24318972 -0.85312515 -0.46155849 0.0013213254
0.030334713 0.0057209567 -0.0062705893 0.28811073 -0.86558574 -0.40957728 0.0016296977
-0.027710116 0.0085725412 -0.0064581251 -0.33433288 -0.82400233 -0.45742944 0.0011943817
-0.025259212 0.0082893595 -0.0075731738 -0.30442831 -0.80284417 -0.51260561 0.0013106373
-0.022514982 0.0074154623 -0.0077911168 -0.30456311 -0.7977373 -0.52043873 0.0017911684
-0.019473281 0.0067031835 -0.008362662 -0.24087811 -0.78695822 -0.56804436 0.0017751575
-0.017339602 0.0063319332 -0.0087276669 -0.21172687 -0.8030135 -0.55708259 0.0019586238
0.02656647 0.0060964576 -0.0088748755 0.20875317 -0.81961489 -0.53352922 0.0016560727
0.028977266 0.0063054184 -0.0081039378 0.24090277 -0.83992672 -0.48630136 0.0014674626
0.031620748 0.0067857285 -0.007535018 0.28795183 -0.84975654 -0.44158542 0.0011792073
0.034509964 0.007859041 -0.007620404 0.30653298 -0.83580488 -0.45548624 0.0014406886
0.037109341 0.0084485067 -0.0068954057 0.33429718 -0.83871078 -0.42989486 0.001412107
-0.034022287 0.011557329 -0.0070933518 -0.35816982 -0.78953314 -0.4983491 0.00079748809
-0.031590715 0.010960647 -0.0077660065 -0.32272956 -0.78440917 -0.52966768 0.0015472287
-0.028875643 0.0099904733 -0.0080292746 -0.32694566 -0.79008359 -0.51853096 0.0012591371
-0.026410557 0.0092720101 -0.0084364535 -0.3043617 -0.782318 -0.54345423 0.0018414892
0.037930019 0.0093744798 -0.0080519989 0.33937231 -0.81689155 -0.46638456 0.001703108
0.040506482 0.01023978 -0.0075197243 0.37494943 -0.81852084 -0.4352431 0.0014189491
0.04314084 0.011345644 -0.0072800163 0.39827678 -0.80819142 -0.43382284 0.0016823312
0.045382395 0.011883139 -0.0062787421 0.43977571 -0.80651522 -0.39513361 0.0018985712
-0.039353941 0.014203359 -0.0070068515 -0.39919287 -0.7476725 -0.53068912 0.00088636694
-0.037847113 0.014075859 -0.0080335187 -0.3886196 -0.74813199 -0.53784138 0.00081944541
-0.034768868 0.012644527 -0.0082775764 -0.36792773 -0.76933706 -0.52225441 0.00072018849
-0.032790765 0.012267119 -0.0089892764 -0.30751762 -0.73709542 -0.60176688 0.001163632
0.044345923 0.012350363 -0.0080585834 0.40837461 -0.79469478 -0.44909948 0.0016496253
0.046593234 0.013339721 -0.0075683701 0.44248447 -0.78364074 -0.43602148 0.0013183644
0.048993662 0.014483885 -0.0071347635 0.46535513 -0.76791531 -0.44017121 0.0013224166
-0.045075409 0.017671937 -0.0069078715 -0.49355465 -0.7281633 -0.47558591 0.00036397958
-0.043123897 0.01684032 -0.0076378752 -0.46297133 -0.72147423 -0.51491016 0.00094848673
-0.040798753 0.015515222 -0.007885321 -0.43017891 -0.74476457 -0.51016843 0.001094535
-0.038641628 0.01501437 -0.0087859677 -0.38081884 -0.75818467 -0.52927589 0.0017969403
0.050211709 0.015741516 -0.0080164047 0.48116007 -0.74304938 -0.46514782 0.0015815989
0.052219614 0.016704287 -0.0073483279 0.50582778 -0.73477948 -0.45192623 0.0013186014
0.054361068 0.017594229 -0.0063462425 0.53749406 -0.73599261 -0.4116005 0.00082834135
-0.048568144 0.020664474 -0.0076963687 -0.49392602 -0.66674638 -0.5581097 0.00094660081
-0.047066316 0.019641925 -0.0077831517 -0.48655719 -0.66052049 -0.5718171 0.00082423026
-0.044499837 0.018457282 -0.0085960068 -0.48358941 -0.71317559 -0.5074662 0.0011293916
0.053508241 0.018356571 -0.0084703332 0.51190096 -0.69228905 -0.50861889 0.001269078
0.055705588 0.019460484 -0.0076734005 0.55179805 -0.68957216 -0.46905139 0.0013253858
0.057704978 0.020443294 -0.0066626305 0.5834583 -0.65721041 -0.47712785 0.0010807023
-0.051825896 0.023120111 -0.0076822722 -0.51580948 -0.65408784 -0.55327183 0.00082141673
-0.050234757 0.022062058 -0.0078531606 -0.49846902 -0.65076405 -0.57274324 0.0011397523
0.056704037 0.021193674 -0.0088582411 0.54660773 -0.61559266 -0.56768453 0.0013591626
0.058712251 0.022172842 -0.0077223489 0.59405148 -0.63388348 -0.49527222 0.001814381
0.060760461 0.02340571 -0.006825936 0.61792815 -0.61924005 -0.48446539 0.0014372537
-0.055731494 0.026083084 -0.0073069506 -0.55613744 -0.65995777 -0.50514048 0.0011921983
-0.053387731 0.024598511 -0.0080322102 -0.54980367 -0.67591971 -0.49076325 0.00059771369
0.059754301 0.02423594 -0.0089464486 0.57561725 -0.55665499 -0.59899914 0.0015904302
0.061846517 0.025423499 -0.0078231292 0.64755338 -0.54331547 -0.53430599 0.0022887446
0.063517764 0.026374727 -0.0067190258 0.67850578 -0.52994502 -0.50871229 0.0012148675
-0.058068406 0.028295012 -0.007518237 -0.59549707 -0.58555287 -0.55001014 0.001296419
-0.05631417 0.027335294 -0.0083210431 -0.54882252 -0.62706763 -0.55279303 0.0014439302
-0.00084410363 0.029938031 -0.0089046797 0.0767349 0.78112215 -0.619645 0.001204311
0.001676071 0.029865682 -0.008771033 0.041973617 0.78029478 -0.6240018 0.0011778024
0.0042713345 0.029824443 -0.008741444 0.0029786031 0.79825097 -0.60231763 0.0012555578
0.0072883638 0.02987401 -0.0087297261 -0.038051963 0.81841373 -0.57336819 0.0017761022
0.0098663606 0.029926969 -0.0089335507 -0.081537813 0.78421569 -0.6151076 0.00088652136
0.062743716 0.027451247 -0.0087285191 0.63691342 -0.47148669 -0.60995209 0.0017545689
0.064451978 0.028542764 -0.0075487178 0.7108745 -0.45446071 -0.53677076 0.0017118865
0.066174783 0.029717134 -0.0062931618 0.73112726 -0.44391471 -0.51806635 0.0014020157
-0.061034035 0.031755548 -0.0077508599 -0.63803095 -0.54146248 -0.54748052 0.0017629121
-0.059258234 0.030248621 -0.0082494868 -0.59991688 -0.55711377 -0.57421607 0.0025149486
-0.015560981 0.03291285 -0.008783469 0.24637482 0.77925277 -0.57625043 0.00069065922
-0.013187498 0.032571077 -0.0083188983 0.21862033 0.81279248 -0.53997546 0.0013446318
-0.01036195 0.032223057 -0.0077829887 0.19578192 0.83901882 -0.5076583 0.0016254092
-0.0075602676 0.031741362 -0.0076030069 0.15533082 0.84618288 -0.5097518 0.0019547357
-0.0045110318 0.031246779 -0.0076305289 0.11940143 0.83579749 -0.53589725 0.0019312677
-0.0015448452 0.030853787 -0.0076718344 0.08380188 0.83886522 -0.53784978 0.0019572687
0.0013384413 0.030783705 -0.0074428394 0.046192139 0.84736949 -0.52899075 0.001956919
0.0044485042 0.030747121 -0.0073553459 0.0013050836 0.85565013 -0.51755309 0.0021876064
0.0074790493 0.030740201 -0.0074227685 -0.038908087 0.85795116 -0.51225585 0.00220178
0.010498098 0.030893646 -0.0075496999 -0.086320288 0.86556059 -0.49330893 0.0019803748
0.013441247 0.031177325 -0.0076358104 -0.12986733 0.85713679 -0.49844864 0.0022128022
0.016359488 0.031720683 -0.0076162196 -0.18519492 0.86066192 -0.47430351 0.001865582
0.019291854 0.032259218 -0.0078856861 -0.22209954 0.83673275 -0.50054967 0.0017895257
0.021926716 0.032599244 -0.0085672997 -0.24532555 0.80423629 -0.54131269 0.0017441032
0.024107289 0.03295524 -0.0089864014 -0.24872443 0.76742423 -0.59092826 0.0010309762
0.065427952 0.031130236 -0.0083258152 0.69434422 -0.3558743 -0.6254915 0.0016161955
0.066765197 0.031787537 -0.0070581138 0.73831981 -0.39539 -0.54639786 0.0017770089
-0.063862815 0.03511478 -0.0074163335 -0.66871554 -0.48391986 -0.56448305 0.0012137415
-0.062317889 0.034093767 -0.0083705029 -0.65119791 -0.4568685 -0.60598058 0.0025410396
-0.024359714 0.035897132 -0.0088857822 0.32192931 0.74682391 -0.5819068 0.0015185182
-0.022198595 0.035507802 -0.0083120959 0.30884957 0.80112886 -0.51264471 0.0016308337
-0.01945175 0.03495222 -0.0075963498 0.29528651 0.83117199 -0.47112522 0.0014166661
-0.016570484 0.034061763 -0.0074945167 0.2480047 0.82914227 -0.50101572 0.0017224367
-0.013770568 0.033572484 -0.0069973567 0.22867733 0.84304804 -0.48680246 0.0018010765
-0.011337743 0.03321353 -0.0064446726 0.20375279 0.85990417 -0.46802738 0.0011741159
0.019995274 0.03324464 -0.0065624756 -0.23419672 0.85811043 -0.45694473 0.0017940525
0.022625966 0.03361313 -0.0072919247 -0.24419437 0.84567064 -0.47456336 0.0019451154
0.025553005 0.034267318 -0.0076108351 -0.25394276 0.8379516 -0.48306343 0.0019281966
0.028359963 0.035066508 -0.007718673 -0.28488791 0.83920079 -0.46322873 0.0017528286
0.031092886 0.035644472 -0.00839167 -0.30437744 0.81395388 -0.49480653 0.0023522235
0.065877929 0.033199307 -0.0089294016 0.68697906 -0.30066064 -0.66156095 0.0028896942
0.067583196 0.034519278 -0.0076087932 0.76072264 -0.28363514 -0.58382547 0.001862012
0.06913159 0.035740718 -0.0061786352 0.7887156 -0.3021464 -0.53538334 0.0029916512
-0.066399284 0.03799532 -0.0066068196 -0.67126912 -0.40661025 -0.61973047 0.002679901
-0.064293683 0.037458491 -0.0085846465 -0.59110516 -0.27950713 -0.75661772 0.0012162206
-0.030552715 0.038839467 -0.0086567607 0.36456615 0.76378387 -0.53265917 0.00086735393
-0.028197939 0.038288977 -0.0078963488 0.36327666 0.80043125 -0.47680163 0.0016744457
-0.02553658 0.037341349 -0.0075142211 0.33890527 0.81008524 -0.47844037 0.001618744
-0.022778409 0.036573473 -0.0069513046 0.3241525 0.82377857 -0.46509567 0.0015462468
-0.020742442 0.036093008 -0.0062869079 0.3111082 0.83900058 -0.44641885 0.0012031936
0.029566454 0.03616811 -0.0065438827 -0.30604893 0.84709626 -0.43446738 0.0016027652
0.031605575 0.036550298 -0.0071313726 -0.32152075 0.83080578 -0.45429745 0.0018331152
0.034465842 0.037481416 -0.007629259 -0.35402256 0.809421 -0.46851432 0.0022141002
0.036970925 0.038400408 -0.0080465898 -0.40034038 0.77199334 -0.49371436 0.0023843832
0.06817551 0.037395265 -0.0080463765 0.75670362 -0.17417192 -0.63012999 0.0023408646
0.069415219 0.037717864 -0.0065967669 0.79546177 -0.20946191 -0.56865299 0.0021483444
-0.067012757 0.040825017 -0.007561326 -0.63113201 -0.21248959 -0.74600315 0.0014303549
-0.065791503 0.04085242 -0.0087456666 -0.59762615 -0.20151687 -0.77603734 0.0028416282
-0.036430981 0.041745372 -0.0086302804 0.38364568 0.74079591 -0.55139589 0.0014814329
-0.034262422 0.041167784 -0.0078745186 0.38658121 0.78752279 -0.47996122 0.0016395076
-0.031593021 0.040130217 -0.0074589034 0.37178862 0.79103893 -0.48582983 0.0015634145
-0.029224105 0.039378081 -0.0068294406 0.37768921 0.80908716 -0.45025426 0.0012085506
0.037945531 0.039555222 -0.0070175682 -0.42724428 0.77737266 -0.46168619 0.0017200579
0.0406509 0.040748693 -0.0076033049 -0.44009268 0.74722099 -0.49797508 0.0020206599
0.043198004 0.041559529 -0.008633784 -0.42115781 0.7100631 -0.56430179 0.0015681332
0.068396524 0.040397868 -0.0084028728 0.70914841 -0.073814914 -0.70118469 0.0022952163
0.069707274 0.040581338 -0.0069388552 0.78422606 -0.10798499 -0.61100638 0.0022499247
-0.069712006 0.0447772 -0.0061471937 -0.67805928 -0.15344058 -0.7188127 0.0019426367
-0.067378916 0.043861195 -0.0081773391 -0.56902564 -0.081463493 -0.81827474 0.0028022004
-0.042424228 0.04479247 -0.0087012202 0.37186119 0.72525489 -0.57941747 0.0018339239
-0.04024436 0.044209909 -0.0078669209 0.39873233 0.77252489 -0.49418399 0.0022177997
-0.037624341 0.043145478 -0.0074333386 0.3944191 0.78072208 -0.48467162 0.0016295622
-0.035243433 0.042363118 -0.0067379493 0.40910956 0.79659605 -0.44504389 0.0011724203
0.041728146 0.042244311 -0.0062386091 -0.45831954 0.76207024 -0.45737529 0.0014586113
0.043987188 0.042937629 -0.0073058666 -0.43897364 0.74339765 -0.50464064 0.0016815249
0.046519987 0.043967459 -0.0080025103 -0.42170909 0.72193307 -0.5486111 0.0024344188
0.048548121 0.044611786 -0.0086408826 -0.38347006 0.69273734 -0.61079109 0.0015360232
0.068441078 0.043562789 -0.008474987 0.66473955 0.030512188 -0.74645185 0.0027671196
0.069872111 0.043529678 -0.0069934549 0.75806171 -0.011841213 -0.65207523 0.0028371701
-0.069559693 0.046513267 -0.0067212591 -0.62639439 -0.060322855 -0.77716863 0.0020086453
-0.06761004 0.047067225 -0.0083515607 -0.48474005 0.072848678 -0.87161922 0.0035876622
-0.048607286 0.047779225 -0.0087119183 0.32898429 0.69858968 -0.63540673 0.0013952432
-0.046196166 0.047216412 -0.0079558212 0.37276947 0.75718528 -0.53638917 0.0022369535
-0.043566879 0.046233758 -0.0074342485 0.37975883 0.77816325 -0.50024509 0.0017684168
-0.041128624 0.045435995 -0.0067127827 0.42087907 0.78024429 -0.46268734 0.0016452087
0.047332324 0.045401189 -0.0066354568 -0.44386703 0.74589813 -0.49660653 0.0018838749
0.049772959 0.046163805 -0.0075742486 -0.39605054 0.71809715 -0.57225901 0.0013899449
0.052317627 0.047189232 -0.0080863647 -0.37507656 0.69622165 -0.61204004 0.0027650828
0.054526474 0.04771179 -0.0087857647 -0.30435169 0.64730448 -0.69883257 0.0024571382
0.068143375 0.046605147 -0.0083808973 0.56468183 0.12544496 -0.81571925 0.0038962411
0.069826931 0.046456024 -0.0069006681 0.70396757 0.073362298 -0.706433 0.0037192954
-0.069873683 0.049750764 -0.0067308503 -0.53086179 0.060928591 -0.84526527 0.0043997276
-0.06683632 0.050106015 -0.0084375404 -0.26308662 0.31287339 -0.91263115 0.0041886219
-0.065318644 0.050472882 -0.00886703 -0.14521317 0.39226738 -0.90831685 0.0061133048
-0.057413857 0.050853275 -0.0088756252 0.11143162 0.66810286 -0.7356776 0.0042853449
-0.055032775 0.050554868 -0.0086046578 0.20388086 0.6685738 -0.71515149 0.0024811677
-0.052275922 0.050130222 -0.0078579234 0.3011151 0.73932797 -0.60226566 0.002721986
-0.049572941 0.049267698 -0.0074115819 0.34185398 0.75484115 -0.55977732 0.0017429752
-0.047111828 0.048483986 -0.0068067522 0.39312175 0.76607025 -0.50851911 0.0019306411
0.052940238 0.048637234 -0.0068201926 -0.42251605 0.70655084 -0.56768483 0.0015841485
0.055630215 0.049302574 -0.0077242139 -0.31390223 0.66434282 -0.67831707 0.0016905153
0.058512479 0.050028931 -0.0082933884 -0.21929763 0.59858412 -0.77045804 0.0025787991
0.061474752 0.050508559 -0.008668053 -0.073388256 0.52687639 -0.8467676 0.0041632787
0.064817168 0.050381925 -0.0087591475 0.11618175 0.41477206 -0.90247762 0.0064347386
0.067630425 0.049513157 -0.0080570439 0.45366153 0.21364979 -0.8651849 0.0058064791
0.069705993 0.049449738 -0.0066089216 0.68970853 0.12464787 -0.7132777 0.005654511
-0.069728419 0.053108569 -0.0065542758 -0.25761464 0.28861079 -0.92213804 0.0054871775
-0.067270875 0.052552063 -0.0075977244 -0.15304151 0.39267278 -0.90685523 0.0059053991
-0.064403228 0.052677672 -0.0079473937 0.0051558595 0.5288251 -0.84871513 0.0061730989
-0.061477154 0.052725602 -0.0077912579 0.10151877 0.62127966 -0.77698487 0.0060934336
-0.058515076 0.052467942 -0.0074895308 0.17553207 0.72276366 -0.66843194 0.0030472677
-0.055514496 0.05194829 -0.0071875653 0.25768784 0.7535032 -0.60483879 0.0025399029
-0.052978441 0.051482189 -0.0065791481 0.33730432 0.76505661 -0.54855645 0.0019281636
0.056513406 0.051092263 -0.0062696221 -0.38807231 0.70717812 -0.59101528 0.0033951462
0.058931444 0.051691961 -0.0069363411 -0.31111246 0.64907932 -0.69419378 0.0031792335
0.061697967 0.052366257 -0.0074237497 -0.17895651 0.56405663 -0.80611086 0.0046925819
0.064621776 0.052428279 -0.0078122229 0.058012724 0.42189568 -0.90478647 0.0077528325
0.067549743 0.052465245 -0.0072450833 0.35961878 0.28488418 -0.88854676 0.012879744
0.069423087 0.052334283 -0.0063247685 0.61066997 0.16515753 -0.77447087 0.006937006
-0.069610871 0.054965243 -0.0062427288 -0.16873097 0.37956145 -0.90964991 0.0075550163
-0.067296036 0.055169087 -0.006512146 -0.01152364 0.50117123 -0.86527139 0.0064886785
-0.064576872 0.054774374 -0.0066111512 0.11783592 0.60204279 -0.78972095 0.0076762475
-0.061720852 0.054371309 -0.0063652545 0.19280531 0.6941117 -0.69356692 0.005100308
-0.059811331 0.054215819 -0.006059167 0.24723728 0.73582101 -0.63042927 0.0044663558
0.062507577 0.054305464 -0.0062335343 -0.29632834 0.60034537 -0.74281555 0.0069396221
0.064852268 0.054838635 -0.0065174969 -0.060659662 0.44344622 -0.89424604 0.0092395172
0.067512661 0.055068884 -0.006402628 0.21737391 0.30928254 -0.92579311 0.015691819
0.069241561 0.054398656 -0.00608165 0.50994605 0.24027815 -0.82596695 0.013731575
-0.012823112 0.0026882435 -0.0041351141 -0.21541411 -0.90646774 -0.36319831 0.0018049515
-0.010489151 0.0024587936 -0.0047469996 -0.1446218 -0.90170234 -0.40745223 0.0018387219
-0.0075886962 0.0020601545 -0.0047760848 -0.13405019 -0.91078413 -0.39051616 0.0013831495
-0.0044043278 0.00158125 -0.004695517 -0.09638527 -0.91974086 -0.38050836 0.0018416306
-0.0015333268 0.0013793595 -0.0046984432 -0.050022569 -0.93098605 -0.36161143 0.0024207057
0.0014021653 0.0012958364 -0.0048063239 -0.033282563 -0.92624533 -0.37544888 0.0023362995
0.0045621535 0.0010891373 -0.0044649588 0.0014123974 -0.92259598 -0.38576505 0.0016707631
0.0075120521 0.0011797356 -0.0043943198 0.046119012 -0.92926931 -0.36651278 0.0018756223
0.010458453 0.001329863 -0.0044541387 0.068045862 -0.93512189 -0.34773079 0.0022831345
0.013510169 0.0016816607 -0.0046146931 0.10586226 -0.9398073 -0.32489303 0.0018486835
0.016425246 0.0021876879 -0.0049876277 0.1227977 -0.90813768 -0.40025815 0.0012385155
0.019711848 0.0025407493 -0.0045608124 0.17037822 -0.93223751 -0.31922498 0.0015346732
0.021921085 0.0027371608 -0.0037439319 0.19555268 -0.94113374 -0.27572894 0.0015831825
0.024059655 0.0029568544 -0.0030155019 0.17366607 -0.97497338 -0.13880587 0.0027660474
-0.021778248 0.005547611 -0.004679611 -0.29707456 -0.86367595 -0.40719849 0.0010688818
-0.019272575 0.0048117056 -0.005049305 -0.25575536 -0.86386067 -0.43397459 0.0014887255
-0.016507618 0.0040285522 -0.0050069592 -0.24614462 -0.8790617 -0.40824425 0.0011144507
-0.013889098 0.0034293635 -0.0053318292 -0.22390769 -0.88098562 -0.41680884 0.0011879749
-0.011381481 0.0030664736 -0.0058711967 -0.16462553 -0.88465399 -0.43621761 0.0028096077
0.020695554 0.0031875526 -0.0058610095 0.16202943 -0.88903773 -0.42820352 0.0012462245
0.0228687 0.0033271234 -0.0049882871 0.20856661 -0.9185347 -0.33584815 0.0015541512
0.025880871 0.0040405854 -0.0050994828 0.23106687 -0.90395361 -0.3598277 0.0011331869
0.028556807 0.0047782678 -0.0050100954 0.25403973 -0.89171755 -0.37457135 0.0013478401
0.031231076 0.0055670156 -0.0050120088 0.28438002 -0.89465421 -0.34456041 0.0016550362
0.033313721 0.0057019047 -0.003355212 0.3182269 -0.92217183 -0.21984243 0.0022484311
-0.030054875 0.0089075845 -0.0051703309 -0.3342151 -0.82424241 -0.45708281 0.00026449957
-0.028836699 0.0084807714 -0.0052560666 -0.32688802 -0.83073974 -0.45057273 0.00083802122
-0.025802588 0.0071922708 -0.0050125201 -0.32152179 -0.83730334 -0.44220683 0.00079111027
-0.023144968 0.0063208891 -0.0053527616 -0.31532347 -0.83774614 -0.44581667 0.0010806688
0.03266184 0.0062194536 -0.0057054446 0.30747566 -0.87823266 -0.36628687 0.0019109052
0.034550417 0.0065541253 -0.0045154248 0.34003764 -0.88650954 -0.3138077 0.0011859352
0.03796858 0.0080169691 -0.0050348621 0.35879478 -0.87800014 -0.31683126 0.0019495566
0.039816447 0.0085205026 -0.0042066514 0.38457921 -0.88644671 -0.2575095 0.0022139498
-0.036328599 0.011591064 -0.0050229714 -0.39975625 -0.82388276 -0.40176135 0.0014488833
-0.034121171 0.010669264 -0.0051934505 -0.37800753 -0.83602512 -0.39770874 0.00099424797
-0.031689651 0.0096893944 -0.0053430242 -0.35968265 -0.83698344 -0.41241616 0.0016394695
0.041415665 0.0095670903 -0.0050892178 0.40970293 -0.86600226 -0.28667679 0.0015860506
0.043505378 0.010386396 -0.0045915428 0.42203748 -0.85747796 -0.29430562 0.0012638435
0.045808148 0.011342396 -0.0040557235 0.44690606 -0.85248548 -0.27118894 0.0021434505
-0.042068847 0.014678842 -0.0051889238 -0.4486036 -0.76241314 -0.46634862 0.00047874619
-0.040206943 0.013756402 -0.0052718353 -0.40995508 -0.77174342 -0.48615724 0.00089574116
-0.037835203 0.012705784 -0.00565742 -0.40574342 -0.78957117 -0.4603799 0.00040102273
0.047078241 0.012353023 -0.0048573636 0.47127154 -0.83163643 -0.29374135 0.0015238059
0.049454231 0.013608639 -0.0045282827 0.49027807 -0.82090425 -0.29282022 0.001565712
0.051695187 0.014732283 -0.0039353594 0.51225144 -0.81213558 -0.27934605 0.0020614346
-0.043458648 0.015921675 -0.0057277246 -0.48503494 -0.74769509 -0.45353416 0.00041703484
0.050898928 0.015022898 -0.0059483279 0.49165577 -0.77561754 -0.39584345 0.0010841173
0.052791536 0.015821684 -0.0047881627 0.53185308 -0.7914961 -0.30110833 0.0018145961
0.055009067 0.017168283 -0.0042418162 0.55700773 -0.77587765 -0.29623684 0.0020472454
-0.050329372 0.020586887 -0.0053191483 -0.5352785 -0.70168364 -0.47023085 0.00059314718
-0.047185954 0.018367425 -0.0054735877 -0.5151611 -0.72018838 -0.4646911 0.00040293427
0.056357216 0.018427873 -0.005012406 0.58109677 -0.75591731 -0.30152211 0.0021124966
0.058405619 0.019856267 -0.0044277948 0.61864579 -0.71221459 -0.33170444 0.0020671883
0.060158905 0.020833733 -0.0032750545 0.65390438 -0.7163673 -0.24336584 0.0032556041
-0.054281086 0.023567703 -0.0052620661 -0.55063158 -0.69089466 -0.46847573 0.00037296666
-0.053857986 0.023065183 -0.0049967426 -0.55030471 -0.69312572 -0.46555513 0.00039632391
-0.050605696 0.021093693 -0.0058665429 -0.53527296 -0.70168155 -0.47024035 0.00059967913
0.059563484 0.021295784 -0.0052102446 0.62759596 -0.6903221 -0.35997036 0.0019553329
0.061459795 0.022663273 -0.0044382564 0.67141366 -0.67584521 -0.30403435 0.0011790855
0.063159354 0.023789728 -0.0033701845 0.70042819 -0.64437073 -0.30689868 0.001934623
-0.055153366 0.024571516 -0.0057416684 -0.55331916 -0.67336661 -0.49032167 0.00060689502
0.06270545 0.024338147 -0.0053138379 0.68769509 -0.62970066 -0.36132044 0.0018568808
0.064307086 0.025755864 -0.004464454 0.72821319 -0.58464217 -0.35762978 0.0022633797
-0.059905626 0.028578263 -0.0052993414 -0.62961441 -0.60247123 -0.49052435 0.00049220264
0.065446705 0.027700961 -0.0051598395 0.75106591 -0.53900391 -0.38128051 0.0019901362
0.066677473 0.028961897 -0.0044260635 0.77968895 -0.50489014 -0.3703661 0.0024448363
-0.063004628 0.031606961 -0.004824419 -0.67205638 -0.54995793 -0.49586952 0.00043716145
-0.061804231 0.031095382 -0.0059854318 -0.66170108 -0.55786985 -0.50093216 0.00037961718
-0.0093372231 0.032963082 -0.0058931992 0.20300587 0.87948811 -0.43045241 0.0013748066
-0.0072994903 0.032779478 -0.0054859379 0.16785903 0.90857428 -0.38251305 0.0021437532
-0.0044024913 0.032592438 -0.0048990459 0.13451183 0.91711599 -0.37523967 0.002074149
-0.0015325309 0.032361574 -0.0045823837 0.10489071 0.93341643 -0.34312063 0.002471966
0.00148337 0.032144666 -0.0045572403 0.053961858 0.94437855 -0.32440317 0.0027308848
0.0044732857 0.032082502 -0.0044820867 0.013583027 0.94238001 -0.33426833 0.0027495911
0.0074522207 0.032089137 -0.0045204214 -0.036789339 0.94704533 -0.31898522 0.0027565807
0.010528351 0.032265328 -0.0046101855 -0.10533796 0.9385758 -0.32860208 0.0029451172
0.013344097 0.032506011 -0.0047910921 -0.14863886 0.9222917 -0.35676947 0.0021680472
0.016145017 0.032783713 -0.0053609293 -0.20419298 0.9102481 -0.36021343 0.002337419
0.068041861 0.03149699 -0.0046925233 0.81964797 -0.4239319 -0.38530365 0.0025263538
0.069153599 0.032600224 -0.003497052 0.83919019 -0.41280067 -0.35405555 0.0021157998
-0.0644008 0.033879533 -0.0054004584 -0.67543119 -0.48853341 -0.55238384 0.001130227
-0.018708922 0.035741847 -0.0054522846 0.30727601 0.88185519 -0.35764894 0.00250161
-0.016360952 0.035332721 -0.0047996258 0.27514833 0.89350533 -0.35488245 0.0020642241
-0.013475561 0.034541145 -0.0046569509 0.24966086 0.89662874 -0.36568612 0.0022489661
-0.010627572 0.033789966 -0.0046684635 0.20281453 0.91080546 -0.35958272 0.0021983266
-0.0077366643 0.033425212 -0.0041231373 0.16233948 0.93279916 -0.32176304 0.0026755701
-0.0049048313 0.033207625 -0.0034442446 0.13646606 0.94390571 -0.30069757 0.0026190607
0.014085409 0.033103842 -0.0034913574 -0.14555544 0.95745409 -0.2491892 0.0014918605
0.016600367 0.033351105 -0.0040877913 -0.19200136 0.92630738 -0.32417586 0.0022397477
0.019487055 0.033833757 -0.0046977941 -0.23320764 0.90984571 -0.34321278 0.0019240398
0.022532867 0.034730624 -0.0045868452 -0.26928049 0.90405542 -0.33192137 0.0015595326
0.025179988 0.035437733 -0.0047266963 -0.27446276 0.90243304 -0.33209169 0.0019361579
0.027256241 0.035808649 -0.0053647915 -0.28809804 0.90405637 -0.31572384 0.0023385368
0.06868159 0.033703253 -0.0055452152 0.82946384 -0.34207955 -0.44155547 0.0026193024
0.069669515 0.034695514 -0.0043600556 0.85762048 -0.32844466 -0.39574134 0.003082298
-0.066134974 0.036161754 -0.0053639999 -0.69154048 -0.45727971 -0.55916643 0.001923444
-0.027213031 0.038889192 -0.0056895446 0.38533202 0.84709185 -0.36599803 0.0032623289
-0.025162531 0.038467061 -0.0049098884 0.36990941 0.86860991 -0.32967237 0.0019905509
-0.022495598 0.037474468 -0.0046353154 0.35043186 0.87506175 -0.33386275 0.0022217077
-0.019835334 0.036551833 -0.0043814848 0.30376777 0.89640397 -0.32277721 0.0024934097
-0.017601285 0.036197089 -0.0035349976 0.27625188 0.91387969 -0.29750431 0.0024872313
0.026368381 0.036129497 -0.0037735358 -0.28758508 0.91110337 -0.29527181 0.0019515926
0.028482869 0.036597196 -0.004382235 -0.2976253 0.90049523 -0.31706092 0.0019016226
0.031553805 0.037591442 -0.0046355287 -0.35602853 0.86897665 -0.34369057 0.0023692816
0.033989105 0.038568735 -0.0048517729 -0.40185678 0.86072516 -0.31251124 0.0024054802
0.070501521 0.037499011 -0.0045787971 0.87308753 -0.24304031 -0.42266965 0.0029445901
-0.068658799 0.04122743 -0.0059774397 -0.70187873 -0.30396211 -0.64418429 0.0030756728
-0.033184629 0.041809056 -0.0057030278 0.41856641 0.83183229 -0.36449584 0.0030736378
-0.031281397 0.04128141 -0.0047199763 0.43007803 0.85320425 -0.29508537 0.002033419
-0.028549243 0.04003863 -0.0045565278 0.37900192 0.87391365 -0.30435601 0.0024182261
-0.026296603 0.039366145 -0.0038709855 0.36587667 0.88418263 -0.29043975 0.0023543488
0.035244048 0.039435655 -0.004085232 -0.4160094 0.85467869 -0.31058094 0.0024987445
0.037376173 0.040365756 -0.0045364699 -0.45469156 0.81304181 -0.36361891 0.0015618613
0.039535057 0.041501917 -0.0049016438 -0.47847483 0.79193246 -0.37934801 0.0015431901
0.071153782 0.040459938 -0.0046110447 0.88883251 -0.15651053 -0.43067512 0.0028726675
0.07208138 0.04154982 -0.003123587 0.94907504 -0.14710164 -0.27859941 0.0030965817
-0.069767013 0.043529928 -0.0055383849 -0.6721704 -0.17584275 -0.71921235 0.001964262
-0.039245125 0.044899087 -0.0057124137 0.43226415 0.81013817 -0.39601007 0.0023845017
-0.037231557 0.044274982 -0.0047205165 0.44571272 0.84144634 -0.30546394 0.0020976008
-0.034649488 0.043038342 -0.0045309188 0.42694205 0.84968764 -0.30943727 0.0022961041
-0.03244875 0.042256515 -0.0037447498 0.42038059 0.85804474 -0.29502428 0.0022597639
0.041010797 0.042633317 -0.0042950683 -0.47712567 0.79124433 -0.38247022 0.0015273048
0.043592162 0.044047747 -0.0048388904 -0.48269805 0.77781832 -0.40249372 0.0010359053
0.045451656 0.044849109 -0.0056509771 -0.47692806 0.7855382 -0.39429602 0.0042170756
0.071363807 0.043487553 -0.00487408 0.87279415 -0.056717634 -0.48478177 0.003112138
0.072148591 0.043700937 -0.0033568779 0.91416574 -0.075801358 -0.39818969 0.0028821921
-0.070934758 0.046859913 -0.0053046001 -0.63606924 -0.070752598 -0.76838142 0.0014537945
-0.045101486 0.047981955 -0.0058784978 0.4197571 0.78927952 -0.44815382 0.0029098429
-0.043034974 0.047360271 -0.0048697055 0.45143691 0.82312149 -0.34449342 0.0025065851
-0.040522929 0.04615077 -0.0044730683 0.45471483 0.82939601 -0.32455611 0.0024934483
-0.03844529 0.045286875 -0.0038033465 0.44336942 0.84309667 -0.30432144 0.0023286471
0.044736259 0.045201443 -0.0037757694 -0.50602794 0.79424959 -0.33630839 0.0014732601
0.04654336 0.046001207 -0.0046642423 -0.48278415 0.76528287 -0.42574823 0.0016660712
0.049089551 0.04735158 -0.0052472278 -0.47341746 0.75890142 -0.44715169 0.0019042406
0.071361333 0.046516132 -0.0049033547 0.84987187 0.021261096 -0.52656037 0.0034586573
0.072192617 0.046618506 -0.0034047097 0.90001231 -0.010233156 -0.43574426 0.0035357329
-0.072408199 0.050461967 -0.0044353358 -0.66565251 -0.1140925 -0.73748875 0.0019324567
-0.071257591 0.049639702 -0.0055121887 -0.60639167 -0.030715855 -0.79457265 0.0030323057
-0.051013965 0.050940279 -0.0059834016 0.34973302 0.76198101 -0.54504287 0.0020427029
-0.048969369 0.050450165 -0.0050706761 0.413638 0.81767416 -0.40039057 0.0030509036
-0.046504196 0.049407169 -0.0044963979 0.44171306 0.82236964 -0.35860533 0.002537284
-0.044216018 0.048387099 -0.0039462964 0.43761545 0.83172709 -0.34164724 0.0022385682
0.050392121 0.048715662 -0.00418483 -0.47944361 0.77043557 -0.42019379 0.0019655533
0.052240036 0.049517669 -0.0048679942 -0.4678961 0.75698727 -0.45611793 0.0015997698
0.054569315 0.05059078 -0.005463969 -0.44478363 0.74804354 -0.49254283 0.0031847549
0.071212269 0.04950498 -0.0049329218 0.8168267 0.056405134 -0.57411903 0.0044398597
0.072207242 0.049462713 -0.0033818863 0.87347084 0.010550889 -0.48676214 0.0043853987
-0.073022731 0.05286042 -0.0044372622 -0.51749766 0.064337902 -0.85326242 0.0055301189
-0.071254566 0.0530404 -0.005762022 -0.38773105 0.18154439 -0.90371805 0.005686305
-0.057612851 0.053706683 -0.0056887623 0.24904019 0.787085 -0.5643369 0.0035371436
-0.055147033 0.053360131 -0.0048538665 0.3156358 0.84567988 -0.43034828 0.0035815046
-0.052419398 0.052422974 -0.0045399335 0.36685649 0.82910925 -0.42189372 0.0027034145
-0.050046202 0.051464047 -0.004063102 0.42133468 0.82966083 -0.36625123 0.002869487
0.053688969 0.051157713 -0.0034121077 -0.50753587 0.78392237 -0.35759354 0.0039748973
0.05582086 0.05182464 -0.0046301326 -0.44774413 0.74574161 -0.49335042 0.0027070183
0.058375698 0.053051993 -0.0050596702 -0.41310668 0.71633357 -0.5623247 0.0050257463
0.060381301 0.053670261 -0.0057816803 -0.3811951 0.66667277 -0.6404981 0.0053283023
0.070978485 0.052496806 -0.0048962799 0.75166923 0.077156261 -0.65501171 0.0064571518
0.07223136 0.052522335 -0.0032986805 0.81928837 0.030446049 -0.57257277 0.0053915437
-0.072950922 0.055675574 -0.0047456343 -0.39124107 0.30063391 -0.86979866 0.019769927
-0.070440024 0.05613029 -0.0056403321 -0.10867555 0.43657464 -0.89308017 0.010382307
-0.067201667 0.056568239 -0.005745634 0.074882083 0.54235065 -0.8368085 0.0070068706
-0.064263865 0.056218084 -0.0053892978 0.21236147 0.63781428 -0.74033475 0.0048446874
-0.061506983 0.055783223 -0.0045963326 0.32901362 0.75887632 -0.5620113 0.0079211593
-0.05866405 0.054870192 -0.0043347846 0.29557341 0.82811904 -0.47629324 0.0042168018
-0.056219246 0.054281607 -0.0037918771 0.33956677 0.85795343 -0.3855001 0.002800161
0.059269696 0.054319382 -0.0041044154 -0.44270253 0.70487463 -0.5542258 0.0037715374
0.061536927 0.055297043 -0.0047121528 -0.39984769 0.64524013 -0.65098929 0.0055038896
0.06445013 0.056267686 -0.0055134529 -0.17492366 0.50230461 -0.84681273 0.0095833596
0.06791763 0.056533445 -0.0058548856 0.13879102 0.33984944 -0.93018252 0.016153125
0.070656769 0.055514798 -0.0047943657 0.59150517 0.11792932 -0.79763037 0.011287076
0.072170272 0.055119347 -0.0032614172 0.78642654 0.034583397 -0.61671478 0.0071858782
-0.072694108 0.057798423 -0.0043938961 -0.23854169 0.53029841 -0.81356096 0.020074399
-0.070151098 0.058377702 -0.0047460883 -0.029453829 0.62831604 -0.77740043 0.01419475
