# .PCD v0.7 - Point Cloud Data file format
VERSION 0.7
FIELDS x y z normal_x normal_y normal_z curvature
SIZE 4 4 4 4 4 4 4
TYPE F F F F F F F
COUNT 1 1 1 1 1 1 1
WIDTH 572
HEIGHT 1
VIEWPOINT 0 0 0 1 0 0 0
POINTS 572
DATA ascii
-0.072270945 0.04700698 0.0036127008 -0.8340742 -0.26630273 0.48311809 0.0032539926
-0.07126151 0.046344202 0.0049251942 -0.82470912 -0.2078685 0.52597106 0.0072940993
-0.045103513 0.047867112 0.0057009459 0.44784656 0.78683549 0.42464504 0.0022549587
-0.043011084 0.047407635 0.0047038654 0.4587785 0.83279067 0.30980945 0.0023763278
-0.040589243 0.046188548 0.0044499924 0.45534033 0.83840394 0.29957312 0.0020639612
-0.038411319 0.045267373 0.0037638694 0.43535376 0.85136765 0.2926437 0.001706532
0.044586718 0.045268189 0.0034703177 -0.50817692 0.80416304 0.30834728 0.0021570665
0.046540588 0.046148948 0.0044051716 -0.50792909 0.79059285 0.34201029 0.0032851931
0.048877437 0.047425635 0.0049013686 -0.50533772 0.78464681 0.35911444 0.0030680271
0.071252823 0.046346541 0.0050385953 0.83714986 0.029858299 0.54615796 0.0030302482
0.072139472 0.046397239 0.0034651598 0.93383884 -0.019364735 0.35716936 0.0021588528
-0.072768129 0.049630646 0.0040232213 -0.76733065 -0.23239079 0.59766066 0.0069588241
-0.071411401 0.049210224 0.005510814 -0.74673384 -0.13125388 0.65204376 0.0076529128
-0.051369939 0.050900981 0.0058734664 0.36051193 0.76295763 0.53658813 0.0021057862
-0.048925515 0.05049492 0.0049109254 0.43289387 0.83245695 0.34585878 0.0029412685
-0.046522193 0.049413364 0.0044574672 0.43841487 0.83091897 0.34258717 0.0026295895
-0.044216674 0.048430707 0.0038487986 0.44977248 0.84001231 0.30345351 0.0018643209
0.050094321 0.048569106 0.0041451869 -0.50593126 0.7838372 0.36004555 0.0027414586
0.052431751 0.049857348 0.0045674387 -0.48500073 0.78259683 0.39027733 0.0034043081
0.054546721 0.050656606 0.0054833759 -0.44139007 0.75449926 0.48570123 0.0051563736
0.071203887 0.049575496 0.0050969212 0.82769275 0.039736301 0.55977285 0.0027275423
0.072259173 0.049330845 0.0033606854 0.90917069 -0.015571673 0.41613236 0.0028433087
-0.072771877 0.053213354 0.0050156042 -0.56325376 -0.0024620921 0.8262803 0.0067517785
-0.071729526 0.052533329 0.0057749311 -0.50041634 0.077301413 0.86232704 0.0068607917
-0.057624023 0.053793758 0.0056858347 0.26002842 0.78552771 0.56154388 0.0027791061
-0.055129305 0.053449158 0.0047366112 0.34309545 0.86794233 0.35911217 0.0030560356
-0.052461669 0.052471537 0.0045146728 0.36649871 0.84107465 0.39783433 0.0025527447
-0.050067827 0.051487554 0.00400264 0.41807684 0.8352896 0.35707563 0.0029813768
0.053632967 0.051204897 0.0033729449 -0.48585957 0.79152477 0.37071413 0.0023453357
0.055685867 0.051998779 0.0043369192 -0.47411832 0.78146785 0.40561038 0.0037583257
0.058176495 0.053207085 0.004836448 -0.4654921 0.74832183 0.47257969 0.0045798421
0.060324304 0.053820334 0.0058344053 -0.40287212 0.67276382 0.62055051 0.0029051572
0.071007773 0.052435547 0.0050556432 0.68302667 0.15085326 0.71464527 0.0042689503
0.072137624 0.052764468 0.0036430503 0.93170267 -0.023457313 0.36246374 0.0056572533
-0.075220242 0.05584994 0.0032148631 -0.76396877 0.30931476 0.56628269 0.039082482
-0.073966309 0.056226779 0.0043052263 -0.55241466 0.66704285 0.49989188 0.014785167
-0.071033277 0.056323651 0.0057990314 -0.21986388 0.32613188 0.91940087 0.010397892
-0.06692367 0.05673565 0.0058203698 0.1429597 0.59731239 0.78916436 0.0055046491
-0.064116351 0.056373924 0.0054296665 0.30318019 0.7289452 0.61377573 0.0063247997
-0.061396971 0.055836476 0.0045924545 0.33867562 0.78905112 0.51253998 0.0078704655
-0.058621746 0.05493613 0.0042603924 0.29844704 0.85581207 0.42251033 0.0037061609
-0.056167092 0.054284953 0.0037438187 0.33318156 0.87022579 0.36290103 0.0026853634
0.059166167 0.054513611 0.0038471911 -0.48506883 0.7426312 0.46174356 0.0040015429
0.061469462 0.055550307 0.0045118933 -0.45686311 0.68631518 0.5659042 0.0066104117
0.063916318 0.056321688 0.0054513612 -0.39049616 0.59459358 0.70283085 0.0054456233
0.067715853 0.056768723 0.0058482238 0.081808507 0.41196749 0.90751868 0.014016317
0.070150517 0.055792134 0.005153636 0.43750003 0.2240804 0.8708511 0.010662177
0.072274677 0.055135705 0.0033207904 0.92946565 -0.001865209 0.36890396 0.0065351916
-0.073022857 0.058175139 0.0039145737 -0.47572514 0.80706042 0.34977001 0.010272834
-0.070487544 0.058987219 0.0043870062 -0.18672925 0.82151872 0.53873849 0.024014639
-0.067321584 0.058709428 0.0044200011 0.19648297 0.74867076 0.633156 0.014085957
-0.06460996 0.05793377 0.0040089069 0.37096724 0.74410087 0.55560529 0.007252736
-0.06250947 0.057212863 0.0034011323 0.3955504 0.76067221 0.51470155 0.0083397673
0.062607601 0.057379492 0.0034350189 -0.54695141 0.61447626 0.56856227 0.0073247943
0.064425483 0.058387861 0.0041959174 -0.54134351 0.50489467 0.67233074 0.014266456
0.066916749 0.058720406 0.0052091205 -0.36286232 0.44809535 0.81703216 0.010635485
0.070204914 0.058433503 0.0045629591 0.33587027 0.29171166 0.89559788 0.013480556
0.072065517 0.05810035 0.0031652707 0.87047786 0.019255647 0.49183083 0.018642262
-0.069450989 0.060083833 0.0033214584 -0.13451274 0.87091476 0.47266665 0.026671777
-0.068381816 0.060168546 0.0032686244 0.046180081 0.9081521 0.41608545 0.029641002
0.06554684 0.061045956 0.0035168827 -0.61658335 0.3687174 0.69560945 0.0079727862
0.066915758 0.061760206 0.0039410526 -0.62978107 0.34794554 0.69448525 0.023633106
0.070239939 0.061588276 0.0038539076 0.24483016 0.17190357 0.9542051 0.018539622
0.072144985 0.062233012 0.0030523427 0.79981208 -0.0036969108 0.6002391 0.02536189
0.065508917 0.06300687 0.0030071831 -0.50530088 0.2953335 0.81083244 0.0055096992
0.067729965 0.06437014 0.0034285155 -0.3432284 0.24791729 0.9059422 0.025649492
0.070404172 0.064477719 0.003378764 0.12660672 0.081605159 0.9885906 0.013041128
0.072140217 0.064720988 0.0031548152 0.68668431 -0.06831748 0.72373849 0.033192888
0.068275198 0.066771612 0.0031349622 -0.27166626 0.11188455 0.95586568 0.022525221
0.07061632 0.067287832 0.0032403965 -0.099025957 0.050978485 0.99377817 0.015030524
0.072325714 0.067635171 0.0032026249 0.16931126 -0.078121997 0.98246145 0.015289078
0.070667922 0.070564486 0.003440588 -0.26678443 -0.077829376 0.96060842 0.015468325
0.07262671 0.070674002 0.0036404105 -0.11449055 -0.16532412 0.97957122 0.014405544
0.06877628 0.074929357 0.0030018857 -0.44976363 0.13445015 0.88296992 0.056924943
0.070533231 0.073604919 0.0039262488 -0.37481689 -0.010651138 0.92703766 0.023866858
0.073361166 0.073874623 0.0043125688 0.31995627 0.2252982 0.92025471 0.10245544
0.075644009 0.074708574 0.0032782543 0.47232026 0.86202264 0.18393081 0.040536199
0.068944491 0.076275773 0.0031266517 -0.35720199 0.88368338 0.30250683 0.10606486
0.070640057 0.0761998 0.0037246039 -0.03794127 0.87346256 0.48541075 0.047474828
0.073178098 0.075698227 0.0039729602 0.18895175 0.88628507 0.4228428 0.027147103
0.075236864 0.075129174 0.0033144976 0.29603711 0.95414823 -0.044307709 0.035318777
0.038507923 0.010523734 0.0086083775 0.26003584 -0.62494969 0.73608381 0.00074117014
0.042151604 0.011980918 0.0084814308 0.28887117 -0.6401096 0.7119081 0.00038279904
0.043195017 0.01287968 0.0089690732 0.30154878 -0.63985491 0.70686215 0.00036627878
-0.048040375 0.017546816 0.0076146442 -0.49302635 -0.70662755 0.50754565 0.001345142
-0.046420366 0.016911788 0.0081552276 -0.47941861 -0.71811813 0.50444436 0.0012890563
-0.043632858 0.015616077 0.0087402668 -0.43570241 -0.70784879 0.55597979 0.00010090663
0.052440006 0.017823158 0.0081453901 0.44542986 -0.60985059 0.6554957 0.0014989086
-0.05150618 0.020374514 0.0079603409 -0.52511883 -0.70128149 0.48213533 0.0012238435
-0.050495911 0.020306151 0.0088541508 -0.50996804 -0.70179945 0.49740338 0.001142785
0.053715363 0.018014351 0.0071957326 0.51696354 -0.62338245 0.58663714 0.0031425196
0.055509984 0.019632198 0.007533974 0.52911878 -0.6402958 0.55682558 0.0022375898
0.057400476 0.020501802 0.006750722 0.55178946 -0.63868797 0.53628916 0.0020523656
-0.05705364 0.023665899 0.0060459962 -0.60717827 -0.65853047 0.44460332 0.00064795808
-0.054591846 0.022733508 0.0079042409 -0.56307197 -0.65876365 0.49897933 0.001116546
-0.053706922 0.022819599 0.0089361481 -0.53613871 -0.65722197 0.52973062 0.0012580791
0.058995113 0.02277258 0.0077110627 0.58894306 -0.6048581 0.53599697 0.0033868379
0.060614157 0.023637483 0.006910909 0.61174798 -0.59522945 0.52102441 0.0011728418
-0.058422357 0.025810737 0.0072665224 -0.63499779 -0.60487348 0.48052669 0.0013464857
-0.056477785 0.024573188 0.0081741847 -0.60216796 -0.6375342 0.4805662 0.0007652354
0.061612174 0.025542298 0.007731704 0.6244157 -0.54540348 0.55914229 0.0027507066
0.063644476 0.026437761 0.0062193936 0.67920274 -0.5255574 0.51232129 0.0011170617
-0.061127983 0.028958591 0.0074071703 -0.67001969 -0.54231715 0.50691801 0.0011869362
-0.059350956 0.027609462 0.0082612336 -0.64536238 -0.58296734 0.49361584 0.0010816652
-0.00043846981 0.029861292 0.0089261243 0.076759905 0.78628266 0.61308026 0.0012233832
0.0018406584 0.029877901 0.0087774722 0.043627508 0.80154622 0.59633911 0.00194631
0.0043925755 0.029809617 0.0087881982 0.0098832734 0.79461843 0.60702878 0.001606352
0.0076042935 0.029836928 0.0087931696 -0.02655647 0.80317783 0.59514707 0.0015070677
0.010428203 0.02987721 0.0088710478 -0.062559932 0.82756579 0.557872 0.0019136235
0.012595339 0.029947236 0.0089026 -0.10962195 0.79968089 0.59033334 0.0015333078
0.062638186 0.027626477 0.0085359458 0.64476049 -0.47808737 0.59641969 0.0021791381
0.064210087 0.028506972 0.0073724049 0.6683988 -0.45561785 0.58792472 0.0020019033
0.066134207 0.029757271 0.0060185269 0.72721916 -0.43920067 0.52749896 0.0016412101
-0.063757293 0.031936176 0.0068145706 -0.71800119 -0.49183705 0.49251458 0.0004181602
-0.062261041 0.0312238 0.0081641227 -0.70002604 -0.4936634 0.51600397 0.00082378124
-0.01532577 0.032899212 0.0088088987 0.25200427 0.7852689 0.56554985 0.0012932309
-0.013094595 0.032711674 0.0084114457 0.22946252 0.83748168 0.49595499 0.0012650103
-0.010416389 0.032387719 0.0077627599 0.2011392 0.86333227 0.46281788 0.0011781959
-0.0075308192 0.031887308 0.0075510154 0.15745606 0.86777973 0.47134492 0.0012128914
-0.0044131279 0.031436618 0.0074599842 0.12524116 0.86339265 0.48874095 0.0019979009
-0.0013827098 0.03101881 0.0075408593 0.090524606 0.86503619 0.49347517 0.001586401
0.0015545161 0.030807856 0.007494072 0.047847673 0.86277544 0.50331807 0.0019307028
0.0044442355 0.030786255 0.0073392135 0.0203334 0.86883807 0.49467865 0.0019909735
0.0074539119 0.030802134 0.0073447321 -0.033431236 0.86926758 0.49321008 0.0020795257
0.010520241 0.030993657 0.0073530921 -0.069847271 0.86350787 0.49947518 0.0022278451
0.013554838 0.031268708 0.0074145207 -0.12522407 0.85322237 0.50629103 0.0023456598
0.016485013 0.031768966 0.0074565378 -0.18225524 0.85665798 0.482618 0.0025822469
0.019316738 0.03227888 0.0076795965 -0.22278528 0.83653134 0.50058174 0.0017047031
0.022114784 0.032552626 0.0083937692 -0.22996971 0.79876292 0.55596018 0.0010564446
0.024273088 0.032869063 0.0088591892 -0.24854796 0.75996614 0.60056251 0.0013656396
0.065139227 0.03108705 0.0082341796 0.67013019 -0.36644438 0.64547974 0.001215313
0.066548996 0.031895969 0.0070318435 0.73639077 -0.38878292 0.55369347 0.0026667463
-0.06620232 0.035361469 0.0063421032 -0.78110826 -0.43085289 0.45192438 0.0082629751
-0.064607278 0.03450406 0.0077967634 -0.72319949 -0.38487113 0.57346034 0.0017909392
-0.062923506 0.033322029 0.0089836456 -0.68443429 -0.38484669 0.61922759 0.0015218793
-0.024307882 0.035951365 0.0087215574 0.32494098 0.76740617 0.55272162 0.0014410092
-0.021915099 0.035633408 0.0082107475 0.32146975 0.83222044 0.45173717 0.0011193058
-0.0193848 0.035046104 0.0075452751 0.28947234 0.85619533 0.42794311 0.0010073225
-0.016381947 0.034181133 0.0073389676 0.25614074 0.857059 0.44703662 0.0011573476
-0.013589989 0.033487726 0.0071105426 0.23367557 0.8687824 0.43659228 0.0012764748
-0.010975165 0.033163961 0.0063591371 0.20375374 0.8763079 0.43654174 0.00099073374
0.020162499 0.033220097 0.006467653 -0.22644415 0.8672089 0.443477 0.0011943979
0.022665719 0.033650532 0.0069740829 -0.24068204 0.85336703 0.46242502 0.0018238535
0.025501572 0.034283292 0.0073147439 -0.25469571 0.84174395 0.47602233 0.0017956761
0.028447725 0.035160165 0.0074444157 -0.29365739 0.8389411 0.45819557 0.0017332619
0.03117365 0.03555641 0.008309165 -0.30410087 0.77619052 0.55231416 0.0018756336
0.033074632 0.035892297 0.0087527977 -0.33526799 0.74596661 0.57543826 0.002120086
0.065872028 0.033413466 0.008723408 0.67809331 -0.32344246 0.65998071 0.004791168
0.067324542 0.034463786 0.0075677866 0.74546522 -0.28686371 0.60165679 0.0025051029
-0.066808537 0.037715938 0.0070861755 -0.73928684 -0.3504585 0.57500774 0.0019442312
-0.065516673 0.037246253 0.0083910888 -0.72153533 -0.31572619 0.61620116 0.0043419246
-0.030540785 0.038778644 0.0087546343 0.37037128 0.7677812 0.52281654 0.0011972073
-0.02824128 0.03844361 0.0078402627 0.37144905 0.81787413 0.43943992 0.00096528325
-0.025550708 0.037447937 0.0074698473 0.34302101 0.82531536 0.44854337 0.0012601875
-0.022812767 0.036513638 0.0071124178 0.33095434 0.84437978 0.42129791 0.0010148856
-0.020610027 0.03608596 0.0063074497 0.30605748 0.85646272 0.41569278 0.00078096992
0.029421858 0.036135219 0.0063429289 -0.30920646 0.84406096 0.43812364 0.0015610405
0.031846914 0.036734518 0.0068466249 -0.32755589 0.83110362 0.44941515 0.0021343094
0.034461208 0.037544582 0.0073933909 -0.36405042 0.81246263 0.45538086 0.0028251414
0.037123866 0.038365595 0.0080435658 -0.39599112 0.76816165 0.50310898 0.0027944657
0.039213762 0.038924012 0.0088522965 -0.38487077 0.67971438 0.62438989 0.0018739501
0.068077199 0.037418909 0.0079257777 0.76243442 -0.21874039 0.60897166 0.0024548364
0.069313496 0.037967663 0.0065507274 0.79593754 -0.23326127 0.55863464 0.0017255209
-0.069142699 0.041889012 0.0061815036 -0.73632461 -0.28232419 0.61491388 0.0064216773
-0.067508928 0.040455591 0.007525444 -0.72894305 -0.22081566 0.64798349 0.0024279433
-0.06581343 0.039382417 0.0089453291 -0.66880202 -0.20129599 0.71567023 0.0032065255
-0.036332808 0.041812114 0.0087629668 0.38556966 0.76044291 0.52255404 0.0017934126
-0.03416615 0.04132713 0.0077416301 0.40903199 0.81020182 0.41984028 0.00091260887
-0.031565111 0.040171344 0.0074866978 0.38423431 0.81071943 0.44169915 0.0010849799
-0.029294558 0.039435312 0.00673495 0.38133889 0.82619184 0.41471392 0.00084784132
0.035715207 0.039120004 0.0060099997 -0.46942684 0.79817289 0.37756917 0.0036578297
0.037965 0.039613545 0.0068587088 -0.42911729 0.77168524 0.46942544 0.0022568004
0.040433314 0.040591184 0.0075518847 -0.44421074 0.75370783 0.48435673 0.0022866349
0.042853154 0.041511174 0.0083079766 -0.41059792 0.70267361 0.58108443 0.0024780654
0.068278044 0.040993538 0.0084262546 0.6736787 -0.055042721 0.73697168 0.0022842954
0.069638133 0.040738862 0.0069282907 0.79627055 -0.12974213 0.590864 0.0024570797
-0.06939996 0.043666329 0.006480562 -0.73869938 -0.18887503 0.64703125 0.0029650391
-0.067572549 0.044022232 0.0083669452 -0.57912827 -0.026157299 0.81481665 0.0015504668
-0.042326652 0.044801135 0.0086400984 0.40692654 0.74970299 0.52187765 0.001706349
-0.040058833 0.044349704 0.0076252446 0.41906956 0.79253888 0.44301552 0.001668923
-0.037524585 0.043257944 0.0072930753 0.39756465 0.80953008 0.43197623 0.00128084
-0.0352658 0.042437281 0.0066754576 0.41227135 0.81378871 0.40961003 0.00096518983
0.04164448 0.04214555 0.0062954407 -0.46820161 0.75921315 0.45208701 0.0021608665
0.043737467 0.042855501 0.0071662534 -0.44541264 0.73896533 0.50550747 0.0025519154
0.046283007 0.044007245 0.0077190707 -0.43292576 0.71834964 0.54456329 0.0027166752
0.048644871 0.044623893 0.0086629335 -0.39362124 0.66543698 0.63423645 0.0021063338
0.068440624 0.043973599 0.0084676817 0.61479735 0.037722304 0.78778255 0.0047416277
0.069778197 0.043758664 0.0070141358 0.7325421 -0.0079747541 0.68067497 0.0021702349
-0.0693198 0.047391757 0.0073957033 -0.52306855 0.061500706 0.85006881 0.0033644277
-0.067938805 0.046669215 0.0082653128 -0.51833987 0.044946745 0.85399276 0.0026212034
-0.048451412 0.047718234 0.0088366214 0.32237372 0.70291597 0.63402236 0.001465066
-0.046139121 0.047278289 0.0079221418 0.37940428 0.76480776 0.52069324 0.0025226024
-0.043525413 0.046281226 0.0074424241 0.39255562 0.78083342 0.48600337 0.0015206158
-0.041251164 0.045471266 0.0068093808 0.4152711 0.78940374 0.45209691 0.0017037299
0.047375925 0.045465209 0.0066436697 -0.46555531 0.73014164 0.50015146 0.0025054205
0.049647722 0.046322476 0.0073385956 -0.41516763 0.72191864 0.55359674 0.0021009136
0.052192923 0.047170747 0.0080770999 -0.37256834 0.67490244 0.63694549 0.0023044161
0.054617088 0.047851522 0.0087543493 -0.31299457 0.64490426 0.69723225 0.0022438741
0.068269998 0.046743229 0.0084499139 0.61485976 0.091757089 0.78328037 0.0036297576
0.070010863 0.046629727 0.0069180182 0.78801399 0.045047127 0.61400712 0.0029241508
-0.069976859 0.049594589 0.0068540834 -0.50192159 0.056511246 0.863065 0.0052980259
-0.067732804 0.049765389 0.0082785683 -0.3760072 0.19002563 0.90692276 0.0073632267
-0.065456979 0.050700855 0.0088906996 -0.19491477 0.31261253 0.92966753 0.011308058
-0.057671785 0.050920364 0.008866908 0.1099195 0.68044579 0.72450757 0.0035837889
-0.054904576 0.050616685 0.0086647049 0.22137852 0.69506419 0.68401551 0.0019597292
-0.052188586 0.050196558 0.0079099815 0.31010115 0.74672675 0.58841866 0.0028860336
-0.049538415 0.04935988 0.0073745674 0.35549143 0.76837426 0.53219068 0.0015965828
-0.046953958 0.048516631 0.0067756902 0.40218842 0.7783761 0.48205295 0.0015961364
0.050553367 0.048020259 0.0062006731 -0.41379452 0.71684134 0.56117082 0.0020707822
0.052869577 0.048679717 0.0068080104 -0.42531145 0.71468508 0.55527955 0.002500542
0.055464264 0.049629156 0.0074158306 -0.37824187 0.68879229 0.61846441 0.0019912389
0.058099728 0.050187986 0.0081941159 -0.29358593 0.63385278 0.7155683 0.0020959585
0.060695942 0.050668936 0.0087096971 -0.20400919 0.59053999 0.78079629 0.0031201744
0.065155283 0.050606679 0.008871451 0.16771585 0.35142779 0.92106998 0.0083243046
0.067463242 0.049730916 0.0083471388 0.39174488 0.25294587 0.88462096 0.0048505529
0.069685794 0.04968264 0.0067698574 0.66232276 0.10498834 0.74182618 0.0048835105
-0.070132904 0.052746434 0.0067495923 -0.33333537 0.18443321 0.92459291 0.0075686425
-0.067407615 0.052523304 0.0077271201 -0.20927154 0.33459237 0.91883266 0.011069001
-0.064159848 0.052623063 0.0082546603 0.10114211 0.57415164 0.81247783 0.0050089797
-0.061231986 0.052907847 0.007822738 0.1438536 0.67537141 0.7233116 0.0043096989
-0.058444638 0.052630212 0.0074910829 0.21470135 0.74034339 0.63702035 0.0030748921
-0.055564981 0.052061707 0.0072173118 0.25612667 0.77013129 0.58420616 0.0020365759
-0.053020053 0.051488131 0.0066830232 0.34118214 0.77352273 0.53409487 0.0022299453
0.056637701 0.051227074 0.0063778334 -0.39748868 0.70002913 0.59326386 0.0026720094
0.058700062 0.051874246 0.0068563325 -0.37639281 0.68762386 0.62088794 0.0027932278
0.061386168 0.052675199 0.0073526562 -0.29272318 0.62142146 0.72673827 0.0029955374
0.064313509 0.052421711 0.008205465 -0.1564921 0.52619529 0.83584011 0.0041731847
0.06741441 0.052450847 0.0076010223 0.30410028 0.3334789 0.8923648 0.010448719
0.069481075 0.052604202 0.0064951535 0.46688741 0.23413922 0.85275728 0.0099551007
-0.070018061 0.055285115 0.0063284785 -0.23135155 0.32453689 0.91714352 0.0097168349
-0.067177415 0.055817921 0.0065081501 0.095573276 0.56884837 0.81687045 0.0051826858
-0.064482458 0.054958075 0.0066906638 0.19341663 0.64003599 0.74360204 0.0058848457
-0.061864097 0.05453223 0.0064404593 0.23159005 0.71644825 0.65807903 0.0053949263
-0.059711728 0.054086924 0.0062361676 0.25475001 0.75895596 0.59923983 0.0035771215
0.062212676 0.054282412 0.0063400948 -0.3640272 0.62795556 0.68786335 0.0059540812
0.064490937 0.055045884 0.0066434881 -0.26749817 0.55879229 0.78498143 0.0075329286
0.066639923 0.055979963 0.0063677616 -0.17640521 0.46665627 0.86666781 0.012439241
0.069362104 0.054820195 0.0062397528 0.58140939 0.19036542 0.79102725 0.010249612
-0.068043143 0.057136077 0.0060133883 0.19553946 0.67626005 0.71023697 0.0028757795
0.067495503 0.057092462 0.0061192182 0.085863441 0.4055874 0.91001445 0.03012396
0.0013322611 0.006241214 0.01181215 0.02536507 -0.52507651 0.85067695 0.00052780489
0.0049710842 0.0061599808 0.01194552 0.053542621 -0.51150906 0.85760808 0.00084796385
0.013817375 0.0070051635 0.011773365 0.10884391 -0.53982633 0.83470988 0.0010733726
0.015281161 0.0065721287 0.011183619 0.10836727 -0.56897056 0.8151865 0.00048162631
0.018430168 0.0076889014 0.011620034 0.12826121 -0.59750307 0.79154229 0.00059227331
0.022039155 0.0077655539 0.010837223 0.16433913 -0.63181049 0.7575013 0.00065982796
0.025800977 0.0078611225 0.0099101476 0.18527609 -0.64769864 0.73902583 0.00036832018
0.029086031 0.0083274767 0.0095542194 0.19530073 -0.64948058 0.73486918 0.0001812975
0.03119505 0.008320949 0.0090155825 0.19829708 -0.64713961 0.73613089 0.0001215133
0.023463503 0.0092358142 0.011971255 0.1723209 -0.57683849 0.79847533 0.002415481
0.025977705 0.0094862748 0.011488108 0.18406729 -0.60345066 0.77586508 0.0021614179
0.028602922 0.010222484 0.011374178 0.2001189 -0.61722678 0.76090974 0.00084140524
0.03134913 0.010404097 0.010796748 0.19167471 -0.61006045 0.7688219 0.00056343665
0.034187458 0.010942305 0.010528423 0.21302837 -0.61789417 0.75685257 0.00064586947
0.037078608 0.011356038 0.010079163 0.24936251 -0.61632764 0.74696624 0.0010715732
0.039670955 0.01155866 0.0092122033 0.26409292 -0.6293202 0.73089737 0.00081795821
-0.042100564 0.014902777 0.0090600811 -0.41965851 -0.69733578 0.58104187 0.00060543884
-0.041331403 0.014545165 0.0092213694 -0.41965851 -0.69733578 0.58104187 0.00060543884
-0.038064387 0.014531768 0.011448907 -0.35877305 -0.70063567 0.616759 0.0011521338
-0.034287035 0.013089823 0.011745033 -0.28085753 -0.65511286 0.70138878 0.00027232667
0.034868158 0.01258829 0.011636888 0.22097009 -0.5793559 0.78455025 0.0015875419
0.03799472 0.013190831 0.011231139 0.22912832 -0.59554499 0.76995218 0.0013018331
0.040713783 0.013674594 0.010756981 0.2604222 -0.60933703 0.74892503 0.0011545647
0.04363979 0.014054721 0.0099139987 0.30613691 -0.60667753 0.73363656 0.0009269283
0.045542791 0.014397083 0.0092062205 0.32471687 -0.61829472 0.71573079 0.00037663901
-0.042640015 0.01743445 0.011818048 -0.41143283 -0.66740453 0.6207208 0.0017456494
-0.040630657 0.016326578 0.011940132 -0.38220474 -0.66991824 0.63649756 0.0016693219
-0.038990602 0.015284598 0.011805156 -0.37699449 -0.6648522 0.64486176 0.0022227215
0.041647308 0.015443942 0.011828315 0.25306165 -0.57179302 0.78039259 0.0011866455
0.043706659 0.016043391 0.011477527 0.29528788 -0.5474444 0.78301328 0.0017016827
0.046549529 0.016434448 0.010574407 0.31901196 -0.5703615 0.75691426 0.00077881583
0.049287133 0.017164266 0.009797981 0.38289836 -0.59468341 0.70692331 0.0012827629
0.051098548 0.017548682 0.0090192761 0.41759568 -0.60170132 0.68085939 0.0021048249
-0.049021661 0.020051632 0.0098948283 -0.47776508 -0.66323602 0.57607162 0.00065146317
-0.046668787 0.019494504 0.011298619 -0.43525738 -0.65311623 0.61966944 0.0021590476
-0.044351935 0.018380407 0.011717587 -0.41572389 -0.6582852 0.62756217 0.0023576089
0.047773864 0.018231383 0.011492672 0.35793933 -0.52922559 0.7692852 0.0013864221
0.049787443 0.019366255 0.011267269 0.38604179 -0.54212695 0.74637139 0.0028797148
0.052329227 0.019862063 0.010274953 0.44150576 -0.57792348 0.68635064 0.002364482
0.054807078 0.020453379 0.0092614554 0.4744541 -0.58713537 0.65586996 0.0025580644
-0.052338265 0.022687506 0.010079289 -0.50260592 -0.64052302 0.58061832 0.00061580178
-0.04977889 0.022044793 0.011541401 -0.4650254 -0.62393165 0.62806112 0.00096911361
0.053016651 0.021883052 0.011401171 0.38466191 -0.471569 0.79350984 0.0012787683
0.055405736 0.022640157 0.010462898 0.45801005 -0.51704639 0.72311121 0.0029994089
0.057798881 0.023207182 0.0093202908 0.5261938 -0.5567891 0.64273334 0.0015336153
-0.057172511 0.026089612 0.0090920618 -0.57016957 -0.59439236 0.56710178 0.001360665
-0.055324752 0.025510779 0.010299988 -0.52867758 -0.58838409 0.61180401 0.00091706129
-0.053108197 0.02455036 0.011364213 -0.52798253 -0.58866847 0.61213064 0.0008809694
0.0023015423 0.026865996 0.011935365 0.04555675 0.68892831 0.72339648 0.0013805347
0.0046573682 0.026780088 0.011934821 0.007360009 0.66543537 0.74641925 0.0024954686
0.0073109278 0.026760206 0.011934495 -0.01173346 0.66266441 0.74882454 0.0027389652
0.0099566765 0.026984837 0.011907887 -0.056628723 0.67892885 0.73201692 0.0015042238
0.056037482 0.024835121 0.011470162 0.42789027 -0.40865225 0.80617201 0.0011820011
0.05850089 0.02571382 0.010521084 0.499989 -0.46665272 0.72955209 0.0024240771
0.060402561 0.026363892 0.0095808106 0.5575403 -0.4937695 0.66733837 0.0012662186
-0.06002767 0.029584516 0.0093068685 -0.63737893 -0.4681443 0.61203688 0.0034327812
-0.058214549 0.028684843 0.010371131 -0.59502286 -0.47497159 0.64834392 0.0013770694
-0.056058247 0.027612653 0.011512638 -0.52915025 -0.52013159 0.67042017 0.0025669266
-0.012638395 0.029775405 0.011826031 0.18472911 0.69685328 0.69301564 0.0015025142
-0.010467977 0.029564742 0.011593623 0.17615432 0.70120025 0.69086021 0.001037601
-0.0073465859 0.029212773 0.011241305 0.1455366 0.7287215 0.66916668 0.0015845346
-0.0044164895 0.028993521 0.010923769 0.11929469 0.75555521 0.64413124 0.0023473504
-0.0014438899 0.0289663 0.010474835 0.092129983 0.78067654 0.61810696 0.0015361469
0.0015562037 0.02875644 0.010388053 0.042378929 0.75980848 0.64876425 0.0021931164
0.0044781603 0.028651183 0.010372903 0.017277114 0.76095045 0.64857996 0.0022351774
0.0072429529 0.028706351 0.010276559 -0.019900899 0.77171552 0.63565654 0.0022689397
0.01056103 0.028706113 0.010490846 -0.068876661 0.76261508 0.64317507 0.0020921892
0.013507178 0.028949086 0.010483851 -0.10735521 0.74176812 0.66200823 0.0024706842
0.01647998 0.029064292 0.010973357 -0.14327927 0.71125823 0.68817347 0.0017186733
0.019331915 0.029397385 0.01126223 -0.16448744 0.67437696 0.71983308 0.0015776072
0.022283394 0.029646477 0.011699326 -0.18566082 0.65566891 0.73186636 0.0013614601
0.024488384 0.029846452 0.011878994 -0.21677177 0.66214412 0.71733892 0.0012030797
0.059125334 0.028278491 0.011520538 0.45554024 -0.34981203 0.81860536 0.0013738071
0.061404899 0.028638162 0.010159869 0.57173038 -0.41094899 0.71010238 0.0019241899
0.063064419 0.029226618 0.0091528427 0.59552008 -0.41831639 0.68583328 0.003195134
-0.060879309 0.031705659 0.0099994093 -0.61959636 -0.43846065 0.65103972 0.0012990498
-0.058947835 0.031146901 0.011394996 -0.5537377 -0.38652456 0.73754549 0.0014603947
-0.021642402 0.032707091 0.011707 0.26418549 0.6804111 0.68355447 0.0018062814
-0.019205939 0.032465585 0.011318842 0.25325522 0.7418136 0.62094635 0.0019073228
-0.016411403 0.032026231 0.010709937 0.23961295 0.76919329 0.59239125 0.0015426689
-0.013571723 0.031439837 0.010381461 0.21368009 0.76942241 0.60193849 0.0022179449
-0.010655445 0.030899061 0.01013283 0.18811491 0.77361703 0.60508639 0.0016065972
-0.0076268623 0.030549761 0.0097271418 0.15354846 0.79831767 0.58233297 0.0016826033
-0.0047057997 0.030266317 0.0094504366 0.11251331 0.79097837 0.60140997 0.0016985801
-0.0020278262 0.030104369 0.009208139 0.090687089 0.79075629 0.60537618 0.0014474692
0.00038891059 0.030077707 0.0090181157 0.071269013 0.80508775 0.5888586 0.0019713552
0.011573643 0.030038316 0.0090336008 -0.068332925 0.77521557 0.62799001 0.001485361
0.014663092 0.030109616 0.0093544004 -0.12272492 0.76245368 0.63529754 0.0015577424
0.016646162 0.03033438 0.009543499 -0.1624791 0.77773577 0.60722947 0.0015981661
0.019586883 0.030746607 0.0098573901 -0.1900674 0.74873507 0.63503557 0.0014352807
0.022500621 0.031298555 0.01014305 -0.20344429 0.72946477 0.65306318 0.0028859298
0.025391126 0.031829469 0.010510863 -0.23121496 0.71247792 0.66250646 0.0017264204
0.028261354 0.03221567 0.011065627 -0.2332404 0.66654474 0.7080375 0.0010923031
0.031089392 0.03263583 0.011618704 -0.2337012 0.64637798 0.72634655 0.0023689659
0.033445776 0.032982092 0.011900431 -0.27212495 0.63648558 0.72168845 0.0022205508
0.059989762 0.030068122 0.011717032 0.50539017 -0.33582857 0.79485852 0.0014580741
0.061685748 0.031423692 0.011209919 0.50880587 -0.29631793 0.80827737 0.0012859952
0.063886516 0.031701386 0.0097379703 0.6166485 -0.34189641 0.70912027 0.00193265
-0.063479431 0.035306316 0.0095262323 -0.6516875 -0.36170155 0.66668987 0.0026841969
-0.061571233 0.034394715 0.010832144 -0.61032963 -0.3193596 0.72491872 0.0030733845
-0.059691969 0.033125959 0.011873798 -0.60361481 -0.32210645 0.72931242 0.0028987292
-0.027888138 0.035659391 0.01153478 0.30721125 0.67766154 0.66812879 0.0010220046
-0.025335332 0.035157893 0.010887902 0.31057832 0.74552327 0.58969158 0.0020159881
-0.022571115 0.034393951 0.010437975 0.2866275 0.76743948 0.57348174 0.0022522549
-0.019676913 0.033758879 0.0099007711 0.2703355 0.78382158 0.55905503 0.002155354
-0.017106313 0.033304024 0.0093059158 0.25054321 0.78962952 0.56010121 0.00155273
-0.014996316 0.03303533 0.0090212338 0.24995245 0.80312866 0.54084021 0.0031820382
0.026380541 0.033255052 0.0092279427 -0.24294397 0.75463587 0.6095103 0.0014064414
0.028768711 0.033654321 0.0097321691 -0.25550756 0.73613375 0.62675601 0.0015030373
0.03160584 0.034266032 0.010169104 -0.28086147 0.7261523 0.62755054 0.0026287744
0.034333531 0.034884974 0.010652789 -0.28480855 0.68432021 0.67126 0.0025625478
0.037254527 0.035380468 0.011486429 -0.30698287 0.62151253 0.72075212 0.0020591365
0.0394773 0.035831425 0.011871303 -0.28770643 0.59601623 0.74965966 0.0026645225
0.062344562 0.034559965 0.011650781 0.40886331 -0.13398206 0.9027068 0.0017399623
0.06442938 0.034521181 0.010365605 0.58482379 -0.23666528 0.7758677 0.002100118
0.066152632 0.035244673 0.0092046652 0.6561442 -0.26640451 0.70604783 0.001803624
-0.063619509 0.038216807 0.010609861 -0.55214584 -0.12859493 0.82377082 0.002117767
-0.061991788 0.037438236 0.011627089 -0.50283021 -0.097781457 0.85883671 0.001556569
-0.036298838 0.038885295 0.011802672 0.31948483 0.66645026 0.67362714 0.0026180432
-0.033950508 0.038519692 0.011487429 0.33035976 0.68782604 0.64634186 0.00097534212
-0.031348571 0.037948642 0.010710749 0.33795998 0.74358815 0.57694006 0.0014174526
-0.028598955 0.037090823 0.010220877 0.32512051 0.7654494 0.55532318 0.0020678528
-0.025886217 0.036398068 0.0095522832 0.3264735 0.77107996 0.54667246 0.001349236
0.035096981 0.036435388 0.0094083166 -0.32599711 0.72303724 0.60905093 0.0017321076
0.037655905 0.037078734 0.010015753 -0.34211475 0.6926074 0.63502169 0.0023253614
0.040275168 0.037813921 0.010673773 -0.349738 0.64410102 0.68030667 0.0018766194
0.042935438 0.038412031 0.01145744 -0.32685804 0.59018505 0.73813647 0.0024095217
0.045074198 0.038840797 0.011815283 -0.30308646 0.56872386 0.76465142 0.0012648578
0.062601916 0.037214696 0.011888768 0.40576023 -0.041612927 0.91303176 0.0040108431
0.063986413 0.037558343 0.011169727 0.45717129 -0.048178658 0.88807279 0.002180909
0.066540837 0.037823193 0.009481838 0.58556324 -0.10397198 0.80393124 0.0018489924
-0.066224724 0.041773394 0.0092178751 -0.66357559 -0.18017317 0.72608888 0.0028136743
-0.064528964 0.041042097 0.010579002 -0.51643604 -0.022422625 0.85603213 0.0013746467
-0.062462859 0.04086823 0.011737306 -0.46241447 -0.0059298016 0.88664407 0.0032878579
-0.042288866 0.041781247 0.011838712 0.30640438 0.66312915 0.68291736 0.0025294845
-0.039982002 0.041500263 0.011366356 0.32133287 0.6788426 0.66024083 0.0010421985
-0.0374051 0.040817399 0.010719891 0.33047107 0.72062534 0.6094982 0.001124297
-0.034641203 0.04000352 0.010103251 0.35768655 0.73755103 0.57278162 0.0016219392
-0.032348786 0.039347894 0.009518439 0.36795723 0.75560528 0.5419116 0.0013823081
0.041200686 0.039543469 0.0094948905 -0.39607123 0.68864501 0.60736781 0.0020852042
0.043614682 0.040281069 0.010123587 -0.3671163 0.65259665 0.66282976 0.0023661237
0.046147369 0.040891469 0.01084332 -0.32860667 0.59535265 0.73319364 0.00132411
0.048837822 0.041335732 0.011614637 -0.26220036 0.55388093 0.79023218 0.0022851967
0.051445387 0.041884981 0.011851354 -0.18154941 0.52520341 0.83138514 0.0032509421
0.062722214 0.041189376 0.011922452 0.3385244 0.076049007 0.93787932 0.0050280201
0.06443347 0.040560741 0.011162471 0.42630318 0.021337654 0.90432864 0.0033320598
0.066703595 0.040661752 0.0096971486 0.50830829 -0.0035125043 0.86116803 0.0017765505
-0.06648729 0.044044841 0.0094250226 -0.51747638 0.044748805 0.85452664 0.002410118
-0.064184941 0.043675572 0.010900593 -0.46199673 0.079352319 0.88332456 0.0022694182
-0.062180385 0.044200521 0.011799912 -0.37417057 0.12131657 0.91939038 0.0047320351
-0.048898544 0.044677567 0.011797498 0.21851985 0.63620621 0.73992616 0.0020866238
-0.046215195 0.044392314 0.011373211 0.29219097 0.66520721 0.68711263 0.0015038353
-0.043358088 0.043752734 0.010613468 0.33000347 0.70649087 0.62607372 0.0011182774
-0.040638052 0.042869352 0.010058272 0.35259828 0.72713995 0.58901787 0.0013120304
-0.038309854 0.042309631 0.0093699954 0.3715924 0.74908447 0.54844469 0.0014016216
0.044639166 0.042104799 0.0092015462 -0.37782577 0.65864158 0.65072185 0.0034713005
0.046926361 0.042652309 0.0096880849 -0.3825683 0.65299708 0.65363318 0.0017107306
0.049581438 0.043432862 0.010267598 -0.33352858 0.612275 0.7168529 0.0018080659
0.052316766 0.043819275 0.011026883 -0.24192503 0.5409506 0.80550897 0.0013273002
0.055407438 0.044316385 0.01154952 -0.19111964 0.48845637 0.85140103 0.0022001292
0.058367521 0.044471346 0.011758574 -0.061632816 0.40358081 0.91286576 0.0030839168
0.061817005 0.043974217 0.011693113 0.19872788 0.21076904 0.9571225 0.0034836996
0.064508207 0.043613791 0.010934588 0.34955883 0.146441 0.92539918 0.002737737
0.066848621 0.04353857 0.0097415447 0.56227499 0.038930353 0.82603341 0.0039536683
-0.066343792 0.046610136 0.0094072083 -0.46495792 0.11775295 0.87746704 0.0033453312
-0.064281754 0.046663553 0.010426249 -0.39173028 0.19727094 0.89868319 0.0056718569
-0.061564986 0.046762764 0.011345875 -0.24316028 0.33077335 0.91184545 0.0065418165
-0.058297735 0.047230929 0.011643592 0.0067243879 0.49431774 0.8692553 0.0023393405
-0.055464927 0.047281951 0.011554234 0.14329638 0.58617628 0.79741055 0.0016568474
-0.052333008 0.047093965 0.011068393 0.21269996 0.63212889 0.74509853 0.0010304783
-0.04946246 0.04658879 0.010547098 0.25855657 0.65825427 0.70700061 0.00098606513
-0.046708822 0.045971412 0.0099574625 0.33863878 0.70296919 0.62542629 0.0013762009
-0.044345275 0.045269564 0.0093880398 0.36683914 0.71775007 0.59183097 0.0011579194
0.050472695 0.045148838 0.009252605 -0.36878651 0.65708172 0.65744972 0.0019742493
0.052579772 0.045810789 0.0096053286 -0.32519445 0.62816882 0.70686102 0.0023203196
0.055418715 0.046627194 0.010064249 -0.28319755 0.57150328 0.7701838 0.002483987
0.05824184 0.04669236 0.010758282 -0.16378675 0.50974554 0.84459072 0.0018872104
0.061339848 0.04678674 0.010758458 0.013430832 0.39357039 0.91919637 0.0046223467
0.064411029 0.046529382 0.010388844 0.26072714 0.26753739 0.92760181 0.0057389825
0.066629156 0.046655934 0.0095161879 0.41258863 0.17329051 0.89428246 0.0058683543
-0.06631273 0.048567176 0.0091766017 -0.39791963 0.18285744 0.89901227 0.0056321695
-0.064363301 0.049460586 0.0095642526 -0.22168536 0.3711299 0.90173072 0.0088643404
-0.06135248 0.049891707 0.010012268 0.017661899 0.57721376 0.81640208 0.0028657515
-0.05836305 0.04965464 0.01022676 0.11209319 0.63637066 0.76319563 0.0023234715
-0.055349499 0.049237717 0.01008738 0.20136754 0.66349477 0.72057331 0.0023398274
-0.052756689 0.048832957 0.0095937056 0.25673956 0.67921203 0.68757236 0.0024085608
-0.050353836 0.048303641 0.0092572561 0.30933458 0.70454675 0.63869083 0.0019249282
0.056287475 0.048280381 0.0091468282 -0.31780049 0.63528442 0.70385832 0.0021691297
0.058724228 0.048776865 0.0095380647 -0.23079082 0.5876348 0.77551329 0.0027047247
0.061452504 0.049478542 0.0096110404 -0.1495938 0.54194582 0.82699239 0.0028262329
0.064076871 0.049410895 0.0094946288 0.059506174 0.40298769 0.91326886 0.0054392163
0.066580087 0.048611116 0.0091111856 0.3575522 0.24999455 0.89981067 0.0051034796
-0.063502081 0.05120917 0.0091992104 -0.077556454 0.45276421 0.88825089 0.006598263
-0.061656751 0.051412184 0.0092041595 0.074789375 0.62343001 0.77829403 0.0031361822
-0.058019064 0.05115068 0.0090761613 0.12656635 0.68576568 0.71673322 0.0026178984
0.062858514 0.051003996 0.0090928702 -0.24492444 0.61387664 0.75044483 0.0011222974
0.064308718 0.05104541 0.009031903 0.083917484 0.4203468 0.90347469 0.011730925
-0.015955789 0.0084281014 0.012607514 -0.092950031 -0.55712736 0.82520878 0.00043694736
-0.013383532 0.0089515541 0.013411644 -0.069434129 -0.53625304 0.84119654 0.0014731227
-0.010968491 0.0089716837 0.013705244 -0.058721155 -0.55902773 0.82706702 0.00090434123
-0.0076291543 0.007966632 0.013100079 -0.022398042 -0.52578878 0.85032022 0.00052204949
-0.0046964269 0.007827037 0.013271155 0.010566191 -0.4912141 0.87097478 0.0009840657
-0.0018204829 0.0080989683 0.013487 0.019700546 -0.50518674 0.86278516 0.00064279925
0.0017629599 0.0080259852 0.013364361 0.038093094 -0.50878388 0.86005104 0.0010386081
0.0048962254 0.0081967507 0.013347153 0.039821465 -0.50797105 0.86045319 0.00090716733
0.0076807952 0.0078880377 0.012953529 0.052695718 -0.4874205 0.87157583 0.00052255485
0.010501741 0.0082313698 0.012978967 0.080066085 -0.48891634 0.86864853 0.00077387755
0.013377941 0.0084473323 0.012835132 0.084552951 -0.4761458 0.87529194 0.0010425451
0.016197754 0.0086247483 0.012789222 0.10364892 -0.54227895 0.83378083 0.0011933803
0.020430371 0.0089055775 0.012287238 0.1328589 -0.55005383 0.82449335 0.0014819157
-0.029532833 0.011918874 0.012433214 -0.22110152 -0.63148636 0.74319524 0.00069261418
-0.025939181 0.011405975 0.013065436 -0.1789179 -0.60060906 0.77926713 0.00059164694
-0.022260454 0.011072221 0.013652882 -0.13939261 -0.56743175 0.81153613 0.00054720399
-0.019076543 0.010792341 0.014233467 -0.077600889 -0.48090932 0.87332952 0.00094211532
-0.01673389 0.010839999 0.014433864 -0.078648046 -0.53185195 0.84317738 0.001222485
-0.014119428 0.010446263 0.014593903 -0.066681169 -0.48927546 0.86957645 0.000901205
-0.010544667 0.010102276 0.014633223 -0.020432239 -0.47117886 0.88180101 0.0012338114
-0.007518786 0.0096095968 0.014421245 0.0016767664 -0.45435548 0.89081883 0.0013498308
-0.0041760048 0.0097669782 0.014554407 0.0087529942 -0.44766003 0.89416099 0.0020597572
-0.0015375274 0.0098320618 0.01454783 0.01375263 -0.44968587 0.89308095 0.0018051785
0.0014965946 0.0099270176 0.01451194 0.032751612 -0.43351883 0.90054917 0.001548313
0.0044814022 0.010242887 0.01453654 0.049992193 -0.43623972 0.89844066 0.0014566265
0.0075101657 0.010395678 0.014439354 0.059029557 -0.43680692 0.89761639 0.0013409397
0.010547424 0.010546971 0.014292919 0.068809144 -0.44191584 0.89441365 0.0011596996
0.01347965 0.010601647 0.014042009 0.073599897 -0.43027493 0.89969248 0.00095890602
0.016411098 0.010858726 0.013894055 0.097341925 -0.43774149 0.89381593 0.0012764181
0.019584354 0.010578707 0.013374526 0.10091868 -0.42576328 0.89918905 0.00097383047
0.021941476 0.011270793 0.013414908 0.11405209 -0.43879607 0.89131933 0.0014222934
0.025287777 0.011072419 0.012890794 0.16080393 -0.56880033 0.8066029 0.0028631878
0.028258694 0.011559517 0.012629852 0.19217099 -0.55797571 0.80730009 0.0027344394
-0.036630645 0.014981741 0.012631358 -0.29506931 -0.62953174 0.71876556 0.00068589853
-0.034396864 0.01429271 0.012921466 -0.28765595 -0.62782687 0.72324789 0.00057341374
-0.031587567 0.013921891 0.013642074 -0.22540134 -0.60230714 0.76578093 0.0016392682
-0.028574673 0.013412762 0.014059347 -0.19434305 -0.58556247 0.78698629 0.00078027288
-0.025704658 0.013096738 0.014547315 -0.17762886 -0.56060266 0.8088094 0.0018440222
-0.022675106 0.012628527 0.01477902 -0.13693452 -0.51932424 0.84353507 0.0022254896
-0.019503437 0.012083237 0.014895289 -0.082010858 -0.50398558 0.8598097 0.0028768156
0.008563959 0.012049775 0.01494352 0.051916286 -0.40261796 0.91389471 0.0016389919
0.010395057 0.012266008 0.01489279 0.067256503 -0.38697132 0.91963571 0.0013541053
0.01377058 0.012355147 0.014846934 0.072440468 -0.35571346 0.93178338 0.0015772118
0.01681244 0.012764152 0.014738919 0.08816991 -0.33263221 0.93892592 0.0020987531
0.019467296 0.013561753 0.014724801 0.081810676 -0.26624456 0.96042746 0.0013268202
0.022573661 0.013333156 0.014340248 0.094570972 -0.3601141 0.92810249 0.0012722767
0.025295664 0.013806269 0.014221091 0.10200135 -0.35598871 0.92890674 0.00090180198
0.02816678 0.014111231 0.01395774 0.11989948 -0.3614454 0.92465198 0.0016054347
0.031427193 0.013600436 0.013227955 0.18062735 -0.49851936 0.84785157 0.0022242188
0.034331996 0.013957806 0.012754997 0.19497448 -0.54107326 0.81806153 0.0009026748
0.037078857 0.014425567 0.01233276 0.20941956 -0.54361379 0.81278998 0.000368735
-0.039762266 0.017387446 0.013404896 -0.3443394 -0.60299712 0.7196005 0.0010916332
-0.037453983 0.016812826 0.013921113 -0.30178699 -0.6012159 0.73990822 0.0014130626
-0.034608457 0.016088283 0.014361298 -0.26029599 -0.57332063 0.7768845 0.0022547385
-0.031877164 0.015451051 0.014778167 -0.22894952 -0.59605485 0.76961082 0.0016063652
0.022568703 0.015371903 0.01490719 0.084787108 -0.29604551 0.95140326 0.0007181805
0.025793545 0.015684919 0.014841042 0.088794567 -0.25224662 0.96358043 0.0016728939
0.028669005 0.01649715 0.014767215 0.078693479 -0.21741237 0.97290248 0.0013061656
0.031482853 0.016458381 0.014479848 0.11274514 -0.31564558 0.94215524 0.0013643383
0.034322567 0.016676279 0.014137636 0.1400701 -0.35659212 0.92370045 0.0010629467
0.037047885 0.016704341 0.013607938 0.16351186 -0.38575032 0.90799814 0.00088034524
0.040450867 0.01673766 0.012909445 0.22127147 -0.48794702 0.84436172 0.00067484839
0.043331072 0.017603643 0.012445552 0.22879365 -0.43491614 0.87091988 0.0016139271
0.045184769 0.017618261 0.012019157 0.29856095 -0.5453698 0.78321975 0.0016630094
-0.046066772 0.02055515 0.012710353 -0.41731197 -0.57513136 0.70361549 0.0021753765
-0.043304503 0.019974748 0.013731152 -0.36759153 -0.56999362 0.73483592 0.0011223255
-0.040693007 0.019051086 0.014236898 -0.34653282 -0.53914171 0.7676205 0.0021293066
-0.038278744 0.018438891 0.014867151 -0.28268725 -0.55153304 0.78479248 0.002197474
0.032147661 0.018640226 0.014920082 0.073238075 -0.16435505 0.98367858 0.0011091311
0.034341324 0.018544719 0.014803755 0.098560967 -0.21910149 0.97071117 0.0019444687
0.0375751 0.019154036 0.014573697 0.10589276 -0.2407565 0.96479172 0.0020206878
0.040403962 0.019787697 0.014307043 0.17049761 -0.35375389 0.91966778 0.0032821037
0.043397553 0.020071944 0.013698863 0.21763241 -0.38656971 0.89621425 0.0014477175
0.046263456 0.019818395 0.012788465 0.25131539 -0.40516129 0.87902498 0.0011354389
0.048487451 0.020188151 0.012368757 0.33513907 -0.48302194 0.80893242 0.0019900345
-0.051375993 0.023886193 0.012100557 -0.48400065 -0.5362649 0.69149363 0.0033588705
-0.049184281 0.0231025 0.012842003 -0.45254594 -0.5739724 0.68246454 0.0014792297
-0.046580881 0.022477522 0.013823679 -0.40579891 -0.51765752 0.75323164 0.0016811269
-0.044272941 0.021589195 0.014474903 -0.33745 -0.49678811 0.79958063 0.0030543015
-0.0065070596 0.023787562 0.014928401 0.11398749 0.39070725 0.91343021 0.0026155999
-0.0042614681 0.023655698 0.014810611 0.093849644 0.46321851 0.88126093 0.0026945071
-0.00092695962 0.023593372 0.014717097 0.077910915 0.49388075 0.86603212 0.0017557283
0.001337542 0.023439823 0.014647973 0.057497587 0.50493377 0.86124098 0.0022174167
0.0045362622 0.023205666 0.014524678 0.017337525 0.4493039 0.89321077 0.0018052657
0.0074344948 0.023022735 0.014564881 0.0001262341 0.43269578 0.90153992 0.0020907496
0.010429064 0.023017939 0.014627335 -0.018472619 0.4194352 0.9075973 0.0020884122
0.013483486 0.023044247 0.014627697 -0.050402876 0.38317594 0.92229921 0.0028570497
0.015931575 0.02346785 0.014768097 -0.076025955 0.44299605 0.89329427 0.0028791656
0.019072596 0.023656702 0.014776454 -0.07893648 0.33726627 0.93809408 0.0028053783
0.021780919 0.023553815 0.014950788 -0.073811412 0.24165717 0.9675504 0.0029395048
0.038928028 0.021548521 0.014978096 0.12399131 -0.14630499 0.98143828 0.0042104977
0.040856283 0.021788746 0.014874175 0.11124846 -0.19013084 0.97543532 0.0022454588
0.043246675 0.022633249 0.014706817 0.13303129 -0.19678256 0.97138011 0.0017173672
0.046294983 0.022677429 0.014046116 0.21619402 -0.31046742 0.92567277 0.0019788097
0.049234472 0.022653235 0.013149189 0.26266113 -0.3452698 0.90099823 0.00087057287
0.051575374 0.023460913 0.012721012 0.30018878 -0.34718576 0.88845301 0.0011973545
0.05408464 0.02397906 0.012038267 0.41885358 -0.46563917 0.77957797 0.0014994987
-0.054293633 0.02681661 0.012235595 -0.50044954 -0.48796418 0.71515125 0.0024470715
-0.052221909 0.025930433 0.012970328 -0.4721857 -0.48362049 0.73698843 0.00096941937
-0.049651977 0.025462676 0.014187666 -0.41034263 -0.43807882 0.79981607 0.0015107801
-0.047582414 0.024539324 0.014703057 -0.35373718 -0.40562564 0.84281546 0.0025007031
-0.015602626 0.026727373 0.014836331 0.1767063 0.53054577 0.8290332 0.0018026312
-0.012762249 0.026522359 0.014626116 0.17102352 0.55397218 0.81477958 0.0014829042
-0.010245663 0.02621609 0.014352952 0.15333232 0.55465621 0.81782991 0.0010711889
-0.007455654 0.025759593 0.014150264 0.13280188 0.56602889 0.81361836 0.0014551599
-0.0043914714 0.025723012 0.013759032 0.10351289 0.57048225 0.81476074 0.0013404879
-0.0015453656 0.02552188 0.013561719 0.0872159 0.56527185 0.82028109 0.0014687907
0.0016081282 0.025801005 0.01309929 0.061499484 0.5944438 0.80178201 0.0027726032
0.0044957432 0.025636539 0.013104354 0.021677544 0.59059846 0.80667436 0.0025870835
0.0073678335 0.025501095 0.013175141 -0.014374151 0.61692083 0.7868939 0.001557144
0.010377864 0.025746325 0.013081095 -0.033915982 0.59043711 0.80637074 0.0021277459
0.013431184 0.025724998 0.013303923 -0.069900237 0.54770523 0.83374631 0.0033654117
0.016331607 0.025588145 0.013698391 -0.099223785 0.5165652 0.8504793 0.0019743447
0.019180894 0.025943857 0.013820787 -0.12238684 0.50828266 0.85244954 0.0013573415
0.022255477 0.025843283 0.014313446 -0.1198057 0.48585179 0.86579132 0.001724637
0.025616108 0.026208347 0.014596177 -0.14363033 0.4570792 0.87775224 0.0016833704
0.028305426 0.026282579 0.014741909 -0.12322308 0.3311733 0.93548936 0.0032936267
0.031431802 0.026382335 0.014884858 -0.10249092 0.2846033 0.95315087 0.0031740703
0.033533681 0.026640132 0.01497014 -0.073667608 0.23496488 0.96920824 0.0022157768
0.044439219 0.024690595 0.014904232 0.095028415 -0.099079169 0.99053162 0.0017010975
0.046535637 0.025239825 0.014767591 0.16436331 -0.1772117 0.9703508 0.0019170162
0.049886536 0.025902083 0.014144189 0.22591983 -0.21902843 0.94920325 0.00091989804
0.052546628 0.025599305 0.013229919 0.29000428 -0.2888405 0.91239721 0.0010147734
0.055169739 0.026025655 0.012495085 0.38411891 -0.36859497 0.84651667 0.0018681638
-0.055198025 0.028911961 0.012922338 -0.51055193 -0.42466664 0.74765968 0.0017150657
-0.052601684 0.028444001 0.014156994 -0.42540237 -0.3657575 0.82780087 0.0014198564
-0.050577156 0.027553767 0.01475948 -0.36972514 -0.32482392 0.8705129 0.0033514334
-0.024248701 0.029803369 0.014852331 0.22416066 0.53519869 0.81444114 0.0012877671
-0.022094602 0.029598419 0.014807099 0.22109486 0.57454759 0.7880432 0.00090225547
-0.019308662 0.02918775 0.0143328 0.21450067 0.57701951 0.78805959 0.001300998
-0.016447145 0.02866761 0.01394978 0.20548746 0.578453 0.78940928 0.00073305285
-0.013572721 0.02855921 0.01328962 0.18890344 0.62687665 0.75587112 0.0018937598
-0.010579037 0.028161669 0.012941487 0.16774495 0.64541173 0.74518812 0.001654326
-0.0077564823 0.027935185 0.012581675 0.14440246 0.68431419 0.71474618 0.001385774
-0.004630419 0.027410757 0.012492145 0.1103086 0.67485303 0.72966111 0.0013415522
