# .PCD v0.7 - Point Cloud Data file format
VERSION 0.7
FIELDS x y z normal_x normal_y normal_z curvature
SIZE 4 4 4 4 4 4 4
TYPE F F F F F F F
COUNT 1 1 1 1 1 1 1
WIDTH 561
HEIGHT 1
VIEWPOINT 0 0 0 1 0 0 0
POINTS 561
DATA ascii
0.02867105 0.027628334 -0.015253451 -0.17505273 0.50169772 -0.84714574 0.0024041797
0.031632449 0.028099874 -0.015592338 -0.15900415 0.45615414 -0.87558037 0.0024577661
0.034426805 0.028656239 -0.015834145 -0.17468803 0.43664297 -0.88251179 0.0016360373
0.037260551 0.028376132 -0.016378963 -0.1309341 0.36326113 -0.92244112 0.0024087329
0.040251177 0.028901165 -0.016551023 -0.1034397 0.31995559 -0.94176894 0.0032600071
0.043523304 0.028578756 -0.016719505 -0.0072366041 0.18627639 -0.98247075 0.0057793716
0.046389185 0.028600326 -0.016591292 0.081717618 0.049190648 -0.99544084 0.0060889078
0.049420763 0.028557699 -0.016177563 0.17386834 -0.029163389 -0.98433697 0.0034568021
0.052024499 0.028810892 -0.015573421 0.24019232 -0.10485186 -0.96504593 0.0018796502
-0.048905198 0.031980176 -0.015114004 -0.13780166 -0.033868246 -0.98988062 0.0028577452
-0.046375465 0.032169573 -0.015678912 -0.079821765 0.071682684 -0.99422836 0.0018970717
-0.043313667 0.031719092 -0.016050339 -0.029877583 0.10894953 -0.99359816 0.0039489879
-0.040370651 0.031646729 -0.01615713 0.044549208 0.18638636 -0.981466 0.0042328597
-0.037253082 0.031828344 -0.016011892 0.099028751 0.29109114 -0.95155621 0.0027876359
-0.034454752 0.031687204 -0.015682513 0.15034473 0.34995991 -0.92462122 0.0023746633
-0.031663731 0.03103142 -0.015442833 0.17698272 0.40731376 -0.89597583 0.0021842222
-0.028750019 0.03043014 -0.015152064 0.18907024 0.46400756 -0.86541861 0.0020043601
0.035296671 0.030224705 -0.015175816 -0.19548954 0.51275927 -0.83597952 0.0022472015
0.037793521 0.030816546 -0.015434571 -0.18316048 0.47125071 -0.86277169 0.0023951335
0.040631894 0.031612229 -0.015602666 -0.16805238 0.41079736 -0.89610487 0.0030215464
0.043349832 0.031469319 -0.016046729 -0.13343801 0.35847777 -0.92395234 0.0019456629
0.046042245 0.031743485 -0.016176183 -0.049719788 0.28694892 -0.95665473 0.002685236
0.049388211 0.031489972 -0.016098928 0.065876663 0.15435301 -0.98581713 0.0052812868
0.052513316 0.031460982 -0.015621366 0.20594451 -0.035961717 -0.97790271 0.0041441983
0.054707088 0.032094143 -0.015167704 0.27158809 -0.043515105 -0.9614293 0.0023428306
-0.051153388 0.035249341 -0.015001955 -0.19911614 0.0060127978 -0.97995746 0.0023913381
-0.049452834 0.034802623 -0.015263855 -0.097816959 0.11066356 -0.98903257 0.002188486
-0.046301752 0.034669589 -0.015633034 -0.03616916 0.14807996 -0.98831373 0.0036124415
-0.043382484 0.034693155 -0.015695767 0.066233329 0.27702996 -0.95857579 0.0027377463
-0.040440906 0.034629513 -0.01548995 0.1064502 0.33272329 -0.93699706 0.0024912248
-0.037655879 0.033835031 -0.015388168 0.15967937 0.41321343 -0.89652503 0.0026121512
-0.035155136 0.033342984 -0.015136234 0.19741815 0.46530241 -0.86285561 0.0018942949
0.041547406 0.033229604 -0.015034008 -0.20331584 0.4791851 -0.85384089 0.0024671936
0.043650866 0.033561822 -0.015278559 -0.16837183 0.43458894 -0.88475049 0.0023118255
0.046621274 0.034109995 -0.015455551 -0.10418119 0.37306467 -0.92193764 0.0021365965
0.049149383 0.034787212 -0.015393018 -0.040202666 0.31141704 -0.9494226 0.0039472175
0.05276889 0.034935828 -0.015293342 0.032312367 0.25341433 -0.96681803 0.0026469871
0.054548569 0.034414079 -0.015111478 0.19936642 0.11177821 -0.97352892 0.004794877
-0.049007133 0.036915272 -0.015170908 -0.061363354 0.21286359 -0.97515315 0.0042677228
-0.046291273 0.036867011 -0.015243571 0.051280208 0.33087048 -0.94228178 0.0029653425
-0.043625966 0.036542017 -0.015187169 0.11668435 0.39851043 -0.90971106 0.0025058612
-0.04164191 0.036228184 -0.015086007 0.15674159 0.46525875 -0.87118679 0.0020041207
0.050688263 0.036249015 -0.01515804 -0.065621182 0.39892793 -0.91463137 0.001984057
0.05136355 0.036201619 -0.015045228 0.044773143 0.30149066 -0.95241731 0.0031758312
0.047466341 0.020687768 -0.014352417 0.27245408 -0.31074879 -0.91060638 0.0022201093
0.04921113 0.02092463 -0.013698018 0.34072542 -0.37338009 -0.86284035 0.0028854033
-0.0096959537 0.023708098 -0.01490894 0.10577741 0.34524351 -0.93253314 0.0025505871
-0.0072054467 0.023462147 -0.014853507 0.087646365 0.42848599 -0.8992874 0.0028441064
-0.0044508525 0.023386702 -0.014680597 0.067153387 0.42950413 -0.90056467 0.001754769
-0.0013689635 0.023175433 -0.014612707 0.042778615 0.44895235 -0.8925311 0.0017685596
0.0016757691 0.023118949 -0.0145563 0.010560337 0.46606261 -0.88468874 0.0015686277
0.0045189862 0.023126803 -0.01457426 -0.016013354 0.47008222 -0.88247734 0.0017002262
0.0074055847 0.023162462 -0.014645658 -0.051234301 0.46751222 -0.88250065 0.0018440193
0.01034381 0.023502382 -0.014681454 -0.074802399 0.47260115 -0.87809604 0.0020475739
0.013222138 0.023664743 -0.014830832 -0.10004114 0.46297857 -0.88070571 0.001954613
0.049682796 0.022831162 -0.014480832 0.35776055 -0.36802638 -0.85823309 0.0029324377
0.051450938 0.023128103 -0.013852605 0.38419053 -0.39084128 -0.83644527 0.0010940289
-0.018670861 0.02684379 -0.014906501 0.17313853 0.42985532 -0.88614184 0.0027342211
-0.016228465 0.026459819 -0.014670351 0.16007745 0.44953844 -0.87880057 0.0024021314
-0.013356897 0.025918752 -0.014415712 0.14897765 0.4658829 -0.87221491 0.0015360657
-0.010471392 0.025690608 -0.014080768 0.12198696 0.48231414 -0.86746305 0.0012300652
-0.0076370961 0.025547976 -0.013755101 0.10336936 0.51277065 -0.8522799 0.0017055325
-0.0045121312 0.025532002 -0.013430867 0.081211954 0.5455718 -0.83411992 0.0020210966
-0.001429216 0.02552776 -0.013176721 0.056958724 0.56355715 -0.82411104 0.0030163731
0.001503963 0.025574973 -0.01301505 0.029039154 0.57775134 -0.81569612 0.0029895091
0.0044447421 0.025578538 -0.012997448 -0.01102668 0.59721881 -0.80200255 0.0023303649
0.0073873973 0.025534466 -0.013119561 -0.062520444 0.5930298 -0.80274957 0.0025046079
0.010491346 0.025554128 -0.013365817 -0.0832626 0.59156615 -0.80194569 0.002581849
0.013511918 0.025588095 -0.013654289 -0.10362395 0.5561527 -0.82459456 0.001806029
0.016418433 0.025717467 -0.014020021 -0.13145126 0.53619212 -0.83379775 0.00091486209
0.019364117 0.0260955 -0.01428585 -0.15775979 0.52421582 -0.8368451 0.0012908098
0.022317087 0.02648118 -0.014660536 -0.17393453 0.51796067 -0.83753419 0.0019268921
0.024388783 0.02659679 -0.014902735 -0.17459421 0.48893234 -0.8546707 0.001750269
0.05242132 0.025443563 -0.014474723 0.33137196 -0.28366491 -0.89984822 0.0018964862
0.055138063 0.025841534 -0.013255358 0.44264385 -0.38348722 -0.81055784 0.00058145268
-0.024783874 0.029476993 -0.01479851 0.19676629 0.43659052 -0.87787908 0.0022559799
-0.022236452 0.029115746 -0.0143925 0.19845971 0.48454675 -0.85195547 0.0016416196
-0.019471576 0.028635981 -0.014013427 0.18661758 0.51541746 -0.83637238 0.0013611796
-0.016494729 0.028525019 -0.013393293 0.19806728 0.54570681 -0.81423181 0.0017875064
-0.013521574 0.028235706 -0.0129233 0.17384824 0.60964149 -0.77337837 0.0016826527
-0.010521427 0.027869634 -0.012628489 0.14557523 0.62776899 -0.7646659 0.0017117079
-0.0076956041 0.027482824 -0.01243805 0.11845988 0.64786243 -0.75249016 0.0017884836
-0.0046829204 0.027275955 -0.012204661 0.093403749 0.655994 -0.74896437 0.002143298
-0.0017760766 0.02704482 -0.012100238 0.080857873 0.64913744 -0.75636148 0.0031393697
0.010760049 0.027147686 -0.012160897 -0.091627367 0.67685652 -0.73039013 0.0022731752
0.0136821 0.027344123 -0.012347902 -0.11041547 0.68600053 -0.71917433 0.0016249946
0.0165824 0.027700363 -0.012554784 -0.1495088 0.66924387 -0.72784597 0.0014302606
0.019566957 0.028153697 -0.012782373 -0.17303839 0.6464684 -0.74305874 0.0018456349
0.022579135 0.028498584 -0.013235592 -0.19963267 0.61449003 -0.7632488 0.0021692028
0.025500452 0.028660154 -0.013853654 -0.19284815 0.57475293 -0.79527891 0.0014788583
0.028278485 0.029089794 -0.014263871 -0.20446257 0.56013846 -0.80277014 0.0019394342
0.030903399 0.029333061 -0.014748108 -0.19675678 0.49876183 -0.84411097 0.0023215387
0.033031907 0.029731521 -0.014920277 -0.19516791 0.51217908 -0.83641028 0.0031340655
0.053580791 0.027578156 -0.014797928 0.29367819 -0.143608 -0.94505548 0.0019102383
0.055161901 0.028984111 -0.014496824 0.31271234 -0.12730698 -0.9412778 0.0023736297
0.058209013 0.028946662 -0.012900731 0.47553781 -0.29879603 -0.82739639 0.0011960715
-0.031061618 0.032436389 -0.014676382 0.21871035 0.45424688 -0.86361194 0.0018970479
-0.028353402 0.031879302 -0.014245252 0.22196762 0.49233761 -0.84162581 0.0016784621
-0.025505172 0.031555176 -0.013634935 0.23337562 0.53807217 -0.80994707 0.0013137506
-0.022647524 0.031323034 -0.01296227 0.2409824 0.60478365 -0.75905484 0.0018745242
-0.019670973 0.030751387 -0.012560292 0.22358228 0.64474928 -0.73096466 0.0015480248
-0.017139651 0.030208921 -0.012266631 0.20364627 0.66557717 -0.71800786 0.0013786574
0.023701241 0.03018197 -0.012107944 -0.21326847 0.66079527 -0.71962917 0.0019328962
0.025796279 0.03051064 -0.012445233 -0.22443385 0.67789215 -0.70006549 0.0012970163
0.028662169 0.031007534 -0.012838696 -0.22218832 0.65804797 -0.71944785 0.0015727183
0.03158256 0.031484369 -0.013320245 -0.24271773 0.61225492 -0.75248396 0.0016364368
0.034336682 0.031740706 -0.01394061 -0.2328539 0.56371927 -0.79246432 0.0013225951
0.037192736 0.032194551 -0.014484771 -0.22523291 0.51931912 -0.82436514 0.002473233
0.039636083 0.032614298 -0.014764788 -0.20764241 0.46943414 -0.8582052 0.0020014541
0.05612506 0.031440333 -0.014625849 0.29773492 -0.08506389 -0.9508512 0.0022677244
0.058195997 0.031810038 -0.013778408 0.36954796 -0.11125417 -0.92252737 0.0021490306
0.060650654 0.031780146 -0.012347704 0.50475091 -0.24565472 -0.82757497 0.0025024731
-0.0549752 0.035377346 -0.013794238 -0.24343921 0.027571147 -0.96952426 0.0015798846
-0.052743863 0.034795888 -0.01444185 -0.20385177 0.0044125947 -0.97899181 0.0022719058
-0.050907861 0.033318236 -0.014826286 -0.21031986 -0.034459539 -0.97702515 0.0012133464
-0.039600316 0.035814367 -0.014860774 0.16646907 0.43015271 -0.88727486 0.0026774157
-0.037215266 0.035339613 -0.014604376 0.21026072 0.45569175 -0.86494821 0.0020682886
-0.034310412 0.034781191 -0.014138952 0.22291744 0.49876508 -0.83758062 0.0013759984
-0.031510398 0.034496501 -0.013444547 0.26167399 0.54200667 -0.79859596 0.0015371867
-0.028713116 0.034130793 -0.01276682 0.27258927 0.62228197 -0.7337985 0.0014721075
-0.026031425 0.033430967 -0.012388255 0.26284304 0.65852314 -0.70516723 0.0015130452
0.032614984 0.033225674 -0.012153588 -0.25463447 0.67804372 -0.68950558 0.0013285183
0.034741048 0.033627257 -0.012550495 -0.26950046 0.65244216 -0.70829988 0.0015668096
0.037617717 0.034260787 -0.013073212 -0.27821213 0.60844994 -0.74322718 0.0021094924
0.040400218 0.034584276 -0.013793628 -0.25353834 0.5515219 -0.79469615 0.001475757
0.043250691 0.035024025 -0.014381549 -0.21658079 0.480717 -0.84970808 0.002109084
0.045772728 0.035362486 -0.014822938 -0.16321923 0.43319017 -0.8864004 0.0024357603
0.048685141 0.035828877 -0.014928096 -0.072212495 0.3149699 -0.94635057 0.0033725265
0.05593558 0.034724195 -0.014753046 0.21033032 0.073335156 -0.97487593 0.0065621617
0.058441639 0.03469003 -0.013998493 0.31776646 -0.0013636827 -0.94816804 0.0026998091
0.061346285 0.034759432 -0.01275445 0.42799604 -0.071895957 -0.9009164 0.002100135
-0.057868652 0.038005583 -0.012978266 -0.33710858 -0.014642107 -0.94135189 0.0015574002
-0.055179045 0.03838829 -0.013975789 -0.18490243 0.13954118 -0.97279972 0.0018315985
-0.052571706 0.037737191 -0.014577474 -0.12628618 0.18520088 -0.97455245 0.0034957379
-0.049450923 0.038236219 -0.014861926 0.025902387 0.31318396 -0.94933915 0.0029017853
-0.046225801 0.03837138 -0.014749564 0.10362057 0.37837708 -0.91983342 0.002776593
-0.043291915 0.03797527 -0.014478948 0.16500697 0.43737072 -0.88401335 0.0021277051
-0.040370207 0.037737027 -0.013972151 0.20072109 0.49657324 -0.84446794 0.0010750074
-0.037509933 0.037554462 -0.013247429 0.26865709 0.57822001 -0.77037972 0.0017994335
-0.03473926 0.03701764 -0.012699296 0.27920088 0.61565149 -0.73689896 0.0019979605
-0.032414075 0.036346897 -0.01236483 0.2780838 0.64655513 -0.71037722 0.0021222394
0.041009504 0.036593158 -0.012504112 -0.30760461 0.62164164 -0.72037566 0.0018557609
0.043616641 0.037325297 -0.012965549 -0.29157016 0.57232869 -0.76643765 0.0016235536
0.046461239 0.037491843 -0.013731986 -0.22210297 0.51448721 -0.82823503 0.0019296726
0.049468726 0.037734266 -0.014238939 -0.12686116 0.43638396 -0.89077228 0.002829741
0.052452806 0.037768468 -0.014507829 -0.007327836 0.35213295 -0.93592125 0.0044060401
0.055382457 0.037457053 -0.014483486 0.067468829 0.2805084 -0.95747739 0.0038858142
0.058046833 0.037936773 -0.013962333 0.18751597 0.20088463 -0.96150041 0.0038123641
0.061551888 0.037638821 -0.012832318 0.39761475 0.0095970584 -0.91750228 0.0049639163
0.063291058 0.037746061 -0.012134476 0.47701752 -0.01731302 -0.87872326 0.0020293614
-0.060218375 0.040906567 -0.012279045 -0.37511608 0.0010453957 -0.92697728 0.0028451239
-0.058380395 0.041341379 -0.012941769 -0.20771037 0.15961611 -0.96507984 0.0030395514
-0.055496123 0.040703215 -0.013671348 -0.12584059 0.22837469 -0.96540624 0.003312726
-0.052435096 0.040708091 -0.014114733 0.011034271 0.35576889 -0.9345088 0.0032505577
-0.049319211 0.040777773 -0.014007683 0.074991465 0.40121797 -0.91290772 0.0036454946
-0.046428695 0.040606797 -0.013662129 0.1499231 0.46978045 -0.86995947 0.0021437854
-0.043520499 0.040462218 -0.013063278 0.23386371 0.5436064 -0.80610156 0.0023973947
-0.040672835 0.039826732 -0.012632314 0.26207924 0.6026637 -0.75373131 0.0024940735
-0.038492542 0.039363373 -0.012246209 0.2915616 0.61811471 -0.7300179 0.0025843394
0.044816434 0.039374106 -0.012019813 -0.31817609 0.61573994 -0.72085249 0.0017331342
0.046797972 0.039594721 -0.012460927 -0.27359709 0.57649082 -0.76993704 0.0021102387
0.049679082 0.040378664 -0.012790702 -0.20846465 0.52176058 -0.82722938 0.0026024804
0.052468609 0.040633399 -0.013199684 -0.12157363 0.44571483 -0.88688117 0.0038653633
0.055420101 0.040714573 -0.013438205 -0.0022230486 0.36989802 -0.92906976 0.0028651636
0.058436111 0.040587746 -0.013300953 0.12674564 0.28325686 -0.95063198 0.0038215041
0.061526317 0.040643398 -0.012572057 0.2415472 0.21807922 -0.94556671 0.0034519315
0.063183807 0.040403716 -0.012096685 0.42309499 0.11137231 -0.89921457 0.0042146207
-0.060254965 0.043584224 -0.012077514 -0.22727849 0.2234938 -0.94783705 0.0036202981
-0.058022309 0.044048954 -0.012547695 -0.078987092 0.34044597 -0.93694055 0.0018704636
-0.055399794 0.043636117 -0.013006366 -0.021306688 0.37400332 -0.92718261 0.0027218144
-0.052364931 0.043692272 -0.012890493 0.083180763 0.44170105 -0.89329791 0.0040781847
-0.049568128 0.043265343 -0.012739544 0.14642781 0.51093674 -0.84705526 0.0033431214
-0.046744902 0.042640019 -0.012496367 0.2241759 0.57529151 -0.78662872 0.0025926018
-0.044710297 0.042234976 -0.012149573 0.26435292 0.61824107 -0.74019963 0.0015902572
0.053015757 0.042541087 -0.012215381 -0.20008577 0.54509902 -0.81414533 0.002475552
0.055547971 0.042916279 -0.012421846 -0.084857844 0.46449992 -0.8814981 0.0034185469
0.058435231 0.043114599 -0.012436439 0.055664364 0.37045431 -0.92718124 0.0039402093
0.060841467 0.04280813 -0.012315318 0.17738001 0.30937728 -0.9342494 0.004996472
-0.057911605 0.04540943 -0.012170218 -0.052530881 0.38887089 -0.91979337 0.0031278285
-0.055332806 0.045453399 -0.01223483 0.03647653 0.47049773 -0.88164699 0.0027113585
-0.053165004 0.045191079 -0.012185478 0.11331777 0.52321714 -0.84463179 0.0020731057
0.054287858 0.022261031 -0.011713042 0.43404746 -0.39992395 -0.80725688 0.00060054625
0.0022646708 0.026936833 -0.011881502 0.0067871045 0.65509504 -0.75551599 0.0038967826
0.0046406421 0.026898984 -0.011941293 -0.010751796 0.699233 -0.71481299 0.0014826502
0.0074650981 0.026964186 -0.011953632 -0.047925387 0.70171857 -0.71084052 0.0016899622
0.056794539 0.024640726 -0.011544043 0.47248879 -0.40356219 -0.78351259 0.0013356261
0.059049685 0.026624337 -0.011255392 0.52329689 -0.39885285 -0.75304496 0.0024657615
0.060416572 0.025643021 -0.009409559 0.57995182 -0.41618112 -0.70032072 0.0013194218
-0.015324804 0.029926933 -0.011965978 0.21607885 0.65730751 -0.72198117 0.0040475926
-0.013098436 0.029603876 -0.011641 0.18896803 0.6864565 -0.70218837 0.00085440814
-0.010404006 0.0293089 -0.011279412 0.16257209 0.70590985 -0.68939215 0.0016193517
-0.0074529145 0.028977029 -0.01096006 0.1348998 0.69899148 -0.70229119 0.0016692145
-0.0044164252 0.02878876 -0.010646774 0.10966657 0.72891706 -0.6757611 0.0022048948
-0.0014295783 0.028588248 -0.0104695 0.078805275 0.7303282 -0.67853546 0.0024563617
0.0015066356 0.028386509 -0.010478179 0.03879587 0.73810107 -0.67357385 0.0023247227
0.0044790856 0.028344473 -0.010470518 -0.0055251042 0.72892612 -0.68457001 0.0018058865
0.007523308 0.028399959 -0.010499966 -0.053098261 0.74238026 -0.66787124 0.0025449423
0.01055406 0.028695198 -0.01047426 -0.087398432 0.74304086 -0.66351467 0.0024799441
0.013409648 0.028872611 -0.010685601 -0.12483376 0.75370342 -0.64525008 0.0020824214
0.016369469 0.029198145 -0.010987257 -0.16183995 0.75428772 -0.63628441 0.0014458941
0.0193121 0.029457264 -0.011464977 -0.19060965 0.68834174 -0.69989544 0.0010278317
0.021416783 0.029761989 -0.011724295 -0.21619661 0.70194674 -0.6786235 0.0018861338
0.059723258 0.02829556 -0.011657536 0.54722476 -0.37239441 -0.74957824 0.0029296202
0.061585836 0.028688252 -0.010383504 0.59966391 -0.38764846 -0.70009416 0.0014287812
0.063552454 0.029648641 -0.0091969334 0.64728093 -0.41842327 -0.63714159 0.0018786372
-0.022012256 0.032607365 -0.011593862 0.2558744 0.66439182 -0.70221919 0.0015355438
-0.019268272 0.032137517 -0.011070856 0.24898627 0.71465838 -0.65365833 0.00084120565
-0.016513953 0.031729054 -0.010487837 0.2346686 0.74390924 -0.62572336 0.0013159025
-0.013613305 0.031103028 -0.010236546 0.19644746 0.73941129 -0.64395607 0.0021072447
-0.010599333 0.030753158 -0.0097835716 0.17654981 0.76232326 -0.62265027 0.0013764873
-0.0077423644 0.030366031 -0.0094962269 0.14248344 0.7614668 -0.63235015 0.0015378018
-0.0049790679 0.030141391 -0.0091887936 0.10682228 0.77044451 -0.62849367 0.0011697282
0.014169226 0.030212024 -0.0092414618 -0.12257107 0.78218538 -0.61087012 0.0014786689
0.016583486 0.030469084 -0.0095553407 -0.16986273 0.77430987 -0.6095826 0.0013624416
0.01955924 0.030867532 -0.0099460725 -0.20506762 0.76311129 -0.61286902 0.0016964222
0.022578025 0.031292465 -0.010459036 -0.22421925 0.74193025 -0.63187432 0.0014462195
0.025381321 0.031949148 -0.01072799 -0.24166259 0.7433784 -0.62368876 0.0014877686
0.028330928 0.032414261 -0.011312152 -0.24376081 0.71411812 -0.6562134 0.0011273078
0.030444557 0.032838568 -0.011698298 -0.25908473 0.71380019 -0.65066451 0.0021583487
0.061858006 0.03126733 -0.011365174 0.54656368 -0.28733575 -0.78657883 0.0011163026
0.063954093 0.031756602 -0.0099412827 0.6320104 -0.33021724 -0.70108449 0.0018828461
-0.030366369 0.035790011 -0.011930723 0.30001512 0.63570678 -0.71124381 0.0027322129
-0.028182717 0.035373479 -0.011383803 0.30100113 0.65601021 -0.69213361 0.0013299057
-0.025356553 0.034820605 -0.01067083 0.30575418 0.72823232 -0.61334491 0.0010364564
-0.022632673 0.034096431 -0.01024462 0.27622798 0.73774976 -0.61597359 0.0019411288
-0.019774616 0.033535793 -0.0096767684 0.26447111 0.75070512 -0.60538983 0.0012813904
-0.017596409 0.033155441 -0.0091654425 0.250478 0.7563023 -0.60437369 0.0012001644
0.026065731 0.033307705 -0.0093522826 -0.24472715 0.77515244 -0.58244944 0.00093755149
0.028668126 0.033725288 -0.0098959059 -0.26265204 0.76095015 -0.59326953 0.0014333982
0.0315862 0.034328174 -0.010430512 -0.27371344 0.75214249 -0.59946871 0.0016479526
0.034359172 0.03502987 -0.010916471 -0.31722671 0.7190783 -0.61829889 0.0014662254
0.036867287 0.035640124 -0.011528696 -0.31847849 0.6690132 -0.67155999 0.0020363117
0.062704705 0.034070536 -0.011736942 0.52549309 -0.17113455 -0.83340865 0.0023798733
0.064186126 0.034647789 -0.010935279 0.5419445 -0.13573182 -0.82938111 0.0017196799
0.066277325 0.035322756 -0.0092138136 0.69628727 -0.25453308 -0.67111629 0.0023087952
-0.059943166 0.037854098 -0.011922791 -0.37139779 -0.051987398 -0.92701727 0.0012740175
-0.036356881 0.038845897 -0.011782536 0.3110463 0.65994108 -0.6839065 0.0022329309
-0.034152448 0.0383057 -0.011236106 0.32112429 0.67500079 -0.66426879 0.0016147267
-0.031406239 0.037626907 -0.010546375 0.33041921 0.72138518 -0.60862678 0.0014666105
-0.028645011 0.036826644 -0.010031664 0.32960445 0.72619271 -0.60332829 0.0013804814
-0.026305089 0.03628533 -0.0093583725 0.32385755 0.74464411 -0.58362782 0.0012158389
0.035043601 0.036494117 -0.0095521631 -0.33737504 0.74540806 -0.57493025 0.0012946673
0.037673373 0.03711753 -0.01026071 -0.34847334 0.71463948 -0.60651195 0.0022281243
0.040270805 0.037923627 -0.010898841 -0.355003 0.69896424 -0.6208235 0.0017207082
0.04290776 0.038626865 -0.011620779 -0.32479477 0.63560033 -0.70037174 0.001883428
0.064635545 0.037784718 -0.011141993 0.51693487 -0.043064833 -0.85494077 0.0028740512
0.066477828 0.038255971 -0.0098598991 0.62591064 -0.086529411 -0.77507979 0.0021319995
-0.063308939 0.041193817 -0.010639356 -0.43908665 -0.011929044 -0.89836556 0.0023824219
-0.061660048 0.040919445 -0.011536526 -0.37792307 0.0024467371 -0.92583376 0.0028710179
-0.042551074 0.041778702 -0.011778199 0.28645882 0.65551275 -0.69874483 0.0013322519
-0.04032677 0.041248892 -0.011258756 0.30538884 0.6360653 -0.70863152 0.0014046632
-0.037458777 0.040524576 -0.010555563 0.32942659 0.68255466 -0.65237814 0.0012277089
-0.034677941 0.039778937 -0.009894737 0.35495728 0.72170162 -0.59426606 0.0015190393
-0.032512039 0.039223719 -0.0092570847 0.36477864 0.72886646 -0.5793879 0.0014861716
0.040907983 0.039479833 -0.0095620863 -0.40067083 0.69800001 -0.59351408 0.0015322412
0.043648049 0.040353853 -0.010279725 -0.36959442 0.66391546 -0.65008944 0.0014252607
0.046229172 0.040971458 -0.011062409 -0.33096874 0.62369239 -0.70814365 0.0016362768
0.048719633 0.041543838 -0.011658053 -0.25623247 0.60806108 -0.75140303 0.0019504522
0.064558059 0.040712342 -0.011259176 0.44914213 0.079722516 -0.88989645 0.0036660053
0.066790342 0.040547691 -0.0097901113 0.59766114 0.0019645754 -0.80174643 0.0024147567
-0.064181648 0.04389143 -0.010390018 -0.42522722 0.043845277 -0.904024 0.0020224149
-0.061127089 0.044236112 -0.011683981 -0.25556445 0.2131156 -0.94301039 0.0029657297
-0.05994029 0.04479897 -0.011963272 -0.27615318 0.15608937 -0.94835413 0.0050694747
-0.051275786 0.04491654 -0.011984914 0.12202159 0.5725776 -0.81071919 0.0033462031
-0.049170125 0.044606432 -0.011736681 0.21367645 0.59207433 -0.77703941 0.0017434638
-0.046392396 0.044107858 -0.011217876 0.27121961 0.60602939 -0.74777555 0.0014201464
-0.043486778 0.043528404 -0.010471667 0.30196744 0.6607123 -0.6872226 0.00078802789
-0.040659547 0.042780381 -0.0098156007 0.35635352 0.70479685 -0.61341149 0.0013655483
-0.038554065 0.04218781 -0.009317237 0.37216526 0.7220695 -0.58318835 0.0019233887
0.044651344 0.042167053 -0.0091707967 -0.41803619 0.70016223 -0.57880789 0.0019785052
0.04691251 0.042671766 -0.0097725233 -0.38064966 0.6735751 -0.63356322 0.0015674426
0.049571607 0.043426927 -0.010372392 -0.31771106 0.62889677 -0.70961159 0.0015839068
0.052373599 0.043880682 -0.011103434 -0.24130592 0.56769466 -0.78707951 0.0010991576
0.055330407 0.044370104 -0.011550959 -0.15774544 0.51186013 -0.8444618 0.0023082353
0.058156569 0.044565544 -0.011793087 -0.024214024 0.43380028 -0.90068364 0.0034021989
0.061732411 0.043979406 -0.01173297 0.17308892 0.29544994 -0.9395476 0.0047026221
0.064048901 0.044027831 -0.010995266 0.29518145 0.24111475 -0.92451698 0.0047702878
0.066792831 0.043584362 -0.0096866991 0.56030554 0.089393131 -0.82344794 0.0033910219
-0.066249996 0.047147736 -0.0091275014 -0.45258436 0.099378042 -0.88616669 0.0031551372
-0.064475149 0.046913806 -0.010019326 -0.30385995 0.23665631 -0.92285585 0.0018123584
-0.061503217 0.046585668 -0.011112902 -0.2092125 0.30661565 -0.92855638 0.0022816441
-0.058417331 0.046949621 -0.011464941 -0.015365587 0.46529335 -0.88502312 0.0029324547
-0.055358723 0.04696561 -0.011336987 0.089365289 0.52493036 -0.84644085 0.00259739
-0.052396405 0.046681743 -0.011020712 0.1772925 0.58339703 -0.79260033 0.0011363482
-0.049604204 0.046503302 -0.010284181 0.27714291 0.65002 -0.70757735 0.0016692147
-0.046765298 0.045740813 -0.0098088672 0.32190478 0.68298978 -0.65566939 0.0017120276
-0.044524997 0.045212459 -0.009243452 0.36063287 0.70020306 -0.61616522 0.0018970409
0.05063786 0.045216069 -0.0092272507 -0.36288327 0.66314441 -0.65464127 0.0024507798
0.052801449 0.045812178 -0.0096951192 -0.31138575 0.63269496 -0.70903879 0.0024089522
0.055575684 0.046500031 -0.010139882 -0.24587582 0.57825536 -0.77792406 0.0030668706
0.058518831 0.046470683 -0.010772699 -0.096393079 0.50601363 -0.85712224 0.0017912453
0.061486781 0.046601534 -0.010750227 0.056919817 0.41320378 -0.90885794 0.0030928545
0.06420777 0.046958715 -0.010127959 0.18781129 0.33541328 -0.92316025 0.0045497711
0.066569977 0.046481363 -0.0093494505 0.48255673 0.20890601 -0.85058641 0.0045941067
-0.06600073 0.048848558 -0.0090280026 -0.37733334 0.24028678 -0.89436114 0.0069137905
-0.064057909 0.049692173 -0.0094724922 -0.12314187 0.44267911 -0.88818425 0.0036904979
-0.061345052 0.049619686 -0.009880675 -0.041159406 0.52324855 -0.85118556 0.0046899724
-0.058469083 0.049514774 -0.009977337 0.045340013 0.57468498 -0.81711781 0.0042109215
-0.05556871 0.049117118 -0.0098565314 0.15968981 0.62435085 -0.76464707 0.0035691916
-0.052717727 0.048603673 -0.0095041739 0.24738991 0.66180378 -0.70768213 0.0023211206
-0.050832763 0.048211124 -0.0091694156 0.31393966 0.68998712 -0.65219599 0.0019315541
0.056738943 0.048184093 -0.0092492206 -0.27573109 0.61339396 -0.74008119 0.0033934126
0.058694538 0.048552722 -0.0094679957 -0.174666 0.57307988 -0.80066919 0.004144846
0.061477184 0.049038488 -0.0095312465 -0.043406375 0.48755479 -0.87201279 0.0042810594
0.063959427 0.049013812 -0.0094241602 0.12870321 0.38902706 -0.91219157 0.0056353225
0.066013962 0.048153281 -0.0092588486 0.35180095 0.26193058 -0.89868152 0.016246527
-0.062490519 0.051027182 -0.0091543021 0.054547433 0.60032803 -0.79789156 0.00266751
0.062087756 0.026332373 -0.0082920957 0.63926911 -0.42315242 -0.64208806 0.001806351
-0.00094317255 0.029855063 -0.008914791 0.077894703 0.7968331 -0.59915733 0.0016967618
0.0017242463 0.029810602 -0.0087162638 0.03561008 0.82223809 -0.56802857 0.0021065578
0.0045679505 0.029758284 -0.0087168403 -0.0015483804 0.82396424 -0.56663978 0.0019149448
0.0074243038 0.029784843 -0.0087632993 -0.042244144 0.82756215 -0.55978239 0.0021099611
0.0097892676 0.029871782 -0.0089193657 -0.086128615 0.78757131 -0.61017483 0.0010828213
0.06405405 0.028394943 -0.0077038691 0.68194622 -0.44921643 -0.57719499 0.0010614851
-0.015540111 0.032845642 -0.0086875046 0.24963076 0.76764441 -0.59025979 0.00091422646
-0.013309874 0.032488454 -0.0082769776 0.21636784 0.81726682 -0.53409737 0.001722138
-0.010363602 0.032188721 -0.0076165521 0.20138113 0.84821892 -0.48986772 0.0013721216
-0.0075288131 0.031670239 -0.0074942093 0.15537189 0.85799956 -0.48958796 0.0019438934
-0.0044891536 0.031188503 -0.0075088884 0.1227911 0.85486114 -0.50411785 0.0023115801
-0.0014594329 0.030912304 -0.0073741465 0.083387107 0.86147451 -0.50090742 0.0021495258
0.0014429794 0.030826775 -0.0071812342 0.038214132 0.86509341 -0.50015301 0.0023656434
0.0044733915 0.030728145 -0.0072261258 0.0029963665 0.86771911 -0.49704593 0.0022986217
0.0075632948 0.030761288 -0.0072459518 -0.036700651 0.86858952 -0.49417135 0.0023780325
0.010603619 0.030901425 -0.0073999711 -0.087183096 0.87051445 -0.48435897 0.0018883632
0.013488644 0.031200036 -0.0074778162 -0.13388123 0.86063528 -0.49130726 0.0021543042
0.016448583 0.0317038 -0.0075571574 -0.18961024 0.86199927 -0.47011185 0.0021528553
0.01928751 0.032273997 -0.0077607259 -0.22986525 0.84551561 -0.48193917 0.0016608959
0.022203477 0.032654826 -0.0085393526 -0.24247259 0.7861827 -0.56843978 0.00074889831
0.065439537 0.031426825 -0.0082701677 0.71409321 -0.37211618 -0.59295905 0.0026222172
0.066602223 0.031722248 -0.0069902577 0.7345736 -0.3856594 -0.55827284 0.001277705
-0.024346575 0.035873972 -0.0088015469 0.32657784 0.76840007 -0.55037099 0.0011625601
-0.022149676 0.035439886 -0.0081286998 0.30878916 0.81593508 -0.48877314 0.0017054816
-0.019488199 0.034858357 -0.0074997456 0.29483715 0.82939184 -0.47453174 0.0017949963
-0.016618986 0.033961948 -0.0074323155 0.24786684 0.8358435 -0.48982409 0.0017310135
-0.013734785 0.033500981 -0.0068432647 0.22820088 0.84878552 -0.47695655 0.0018496094
-0.011311156 0.033118922 -0.0063122809 0.20216006 0.86219698 -0.46448651 0.0014729574
0.020207755 0.033242971 -0.0065693967 -0.23557056 0.86132699 -0.45013592 0.0016486034
0.022654915 0.033648565 -0.0071340934 -0.2458178 0.85308605 -0.46023676 0.0020485653
0.025461465 0.03426918 -0.0074562095 -0.25644997 0.84587479 -0.46768507 0.0019082421
0.028362304 0.035087403 -0.007604511 -0.29277235 0.84602213 -0.44556805 0.0014077076
0.031074656 0.035627421 -0.0083336337 -0.3037295 0.81680638 -0.49048525 0.0023546834
0.033091385 0.035983957 -0.0087261451 -0.34631735 0.78299958 -0.51669711 0.0035067205
0.06741032 0.034512203 -0.0075819152 0.766729 -0.28832403 -0.5735817 0.0017446486
-0.030565649 0.038795721 -0.0085004587 0.37181428 0.77500916 -0.51099408 0.00085522421
-0.028270835 0.038212474 -0.0077820853 0.36284569 0.80636334 -0.46703434 0.0016197031
-0.025513953 0.037197556 -0.0074530654 0.3264052 0.80921328 -0.48850134 0.0015379303
-0.022883944 0.036489278 -0.0068743634 0.32757369 0.82808119 -0.45494717 0.001459337
0.02953135 0.03617755 -0.006377507 -0.312987 0.84982628 -0.4240689 0.0013280356
0.031736936 0.036602195 -0.0070610815 -0.32693169 0.83252138 -0.44724017 0.0019588659
0.034498181 0.037546802 -0.0074919313 -0.35545394 0.82281381 -0.44342974 0.001972025
0.037068304 0.038385764 -0.0081181154 -0.4038488 0.76839924 -0.4964563 0.0025227007
0.039033387 0.038863033 -0.0087790629 -0.42614305 0.76663536 -0.48028359 0.0024079531
0.068046294 0.037378971 -0.0079460181 0.7613399 -0.18684477 -0.62084675 0.0022223778
0.069315828 0.037950851 -0.0065452359 0.79193443 -0.21067335 -0.5731113 0.0016025065
-0.036703765 0.04172051 -0.0086158058 0.38327369 0.73967171 -0.55316091 0.00098216895
-0.034325421 0.041103851 -0.0077404403 0.39943749 0.79355305 -0.45904607 0.0013151969
-0.031640973 0.040036701 -0.0073470357 0.36936799 0.79647613 -0.47874114 0.0015297133
-0.029293329 0.039342549 -0.0066078366 0.38268518 0.81827784 -0.42892113 0.00085803587
0.037880883 0.039595474 -0.0068649016 -0.42614925 0.78492922 -0.44975877 0.0017868545
0.040452015 0.040647205 -0.0075651272 -0.43789339 0.77156276 -0.46145457 0.0015621452
0.042715352 0.041457295 -0.0083723543 -0.43223462 0.71799034 -0.54558516 0.0026740448
0.068376891 0.040615842 -0.0083960239 0.69149083 -0.032488395 -0.72165424 0.0023086763
0.069504857 0.040943198 -0.0072347666 0.7282474 -0.038669441 -0.68422252 0.001544888
-0.066556253 0.043666687 -0.0088141039 -0.44796443 0.057703793 -0.8921873 0.0021732834
-0.042531814 0.044704486 -0.0086379535 0.38994926 0.72025663 -0.57373333 0.0014797574
-0.040308088 0.044155031 -0.007716821 0.4093968 0.77866262 -0.47547731 0.0014970684
-0.037657622 0.043031603 -0.0073442142 0.38640904 0.78054494 -0.49136314 0.0015591657
-0.035382278 0.042330068 -0.0065761767 0.41824433 0.79494387 -0.43947238 0.0011392832
0.041555718 0.04227189 -0.0061846627 -0.46853521 0.76194578 -0.44711679 0.0010298641
0.04373008 0.042865802 -0.007162645 -0.46218902 0.74697942 -0.47791529 0.0020473592
0.046356305 0.044014275 -0.0077918912 -0.43020961 0.72862422 -0.53294128 0.0024830319
0.048759762 0.044724777 -0.0086281514 -0.38636672 0.68557465 -0.61701548 0.0013090993
0.06826593 0.043802638 -0.0085417824 0.64221609 0.047651976 -0.76504099 0.0020125827
0.069694415 0.043486599 -0.0071445652 0.72201616 0.018674025 -0.69162416 0.0019853811
-0.067369193 0.046643596 -0.0084425462 -0.45257118 0.09938807 -0.88617224 0.0031593624
-0.048642848 0.047692399 -0.0086404746 0.33410388 0.70348847 -0.6272788 0.0011567544
-0.046239037 0.047136184 -0.0078434469 0.38232571 0.76270461 -0.52164042 0.0020545013
-0.043603685 0.046120584 -0.0073505566 0.3991327 0.76694161 -0.50248742 0.0023860421
-0.041279871 0.045394782 -0.0065977275 0.42764497 0.7805109 -0.4559851 0.001499626
0.047306869 0.045394138 -0.0066108257 -0.46078956 0.73841345 -0.49236023 0.0020885391
0.049639951 0.04627322 -0.007321971 -0.39607915 0.73936623 -0.54448038 0.001678089
0.052194063 0.047150712 -0.0080337012 -0.36074296 0.70053869 -0.61571926 0.0021760429
0.054390181 0.047712062 -0.0087108025 -0.29699501 0.6435461 -0.70543772 0.0026129161
0.068064392 0.046723023 -0.008339907 0.53885174 0.14615671 -0.82962465 0.0050521409
0.069735214 0.046363845 -0.0069357282 0.68293065 0.092106104 -0.72465318 0.0031164754
-0.069766574 0.049829543 -0.0067366823 -0.49985576 0.10374627 -0.85987264 0.00090161111
-0.066807173 0.050184526 -0.0083275679 -0.21374454 0.3408047 -0.91551375 0.0054419963
-0.065088324 0.050540637 -0.0088249566 -0.10843555 0.41778407 -0.90205222 0.0076951804
-0.057807911 0.050876182 -0.0088349208 0.10857219 0.64676255 -0.75492406 0.0044790669
-0.055150796 0.050562274 -0.0084707169 0.21149856 0.66729027 -0.71413726 0.0021267056
-0.052361879 0.050069582 -0.0077584628 0.30020118 0.74340564 -0.59768486 0.0023532382
-0.0496061 0.049141888 -0.0073590092 0.34219384 0.75509101 -0.55923253 0.001887431
-0.047147587 0.048418183 -0.006648622 0.39553994 0.77129614 -0.49864861 0.0019435253
0.053025793 0.048710655 -0.0067840945 -0.43645975 0.71561974 -0.54533589 0.0017695647
0.055541515 0.049447667 -0.0075001973 -0.32591173 0.66449207 -0.67248183 0.0014982795
0.058358669 0.050052878 -0.008184026 -0.25742903 0.60985351 -0.7495392 0.003088247
0.061365891 0.050470412 -0.0086386139 -0.12308171 0.53267717 -0.83732074 0.0051332307
0.064195909 0.050302133 -0.0088215098 0.049193151 0.44519037 -0.89408362 0.0053682621
0.067466006 0.049530607 -0.0080641229 0.43289527 0.22519727 -0.87286192 0.0070370021
0.069629923 0.049428925 -0.0066047497 0.68619698 0.12453026 -0.71667701 0.0065700561
-0.069754221 0.052606627 -0.0065834457 -0.43073657 0.15190962 -0.88960081 0.0062715295
-0.067125276 0.052825067 -0.0075302795 -0.059846744 0.46854082 -0.88141239 0.0058643469
-0.064331986 0.052637976 -0.0079292394 0.012210833 0.5156315 -0.85672349 0.0051182047
-0.061442722 0.052624356 -0.0077614817 0.093548343 0.60196954 -0.79302049 0.0072984914
-0.058617953 0.052441265 -0.0073926314 0.20743401 0.73996556 -0.63986099 0.0030546961
-0.05563407 0.051916156 -0.0070814188 0.26473704 0.75341392 -0.60189849 0.0023207131
-0.053064823 0.051420659 -0.00646791 0.34359428 0.76839745 -0.53991508 0.0017403184
0.056509662 0.051108379 -0.0063336417 -0.38995892 0.70304024 -0.59469861 0.0030145789
0.058614019 0.051784921 -0.0066754459 -0.33466572 0.671058 -0.66157395 0.0039607296
0.061433103 0.05241989 -0.0072785397 -0.24318667 0.58614653 -0.77284706 0.0046078893
0.06408149 0.052419532 -0.0077555142 -0.0349962 0.4641149 -0.88508344 0.0073806928
0.06747932 0.052482486 -0.0071806642 0.34882891 0.28880087 -0.89157861 0.012143001
0.069392711 0.052488044 -0.0062433793 0.57921624 0.19760974 -0.79085958 0.0062921653
-0.069576487 0.055038106 -0.0062734825 -0.14388341 0.43665597 -0.88804793 0.0061771167
-0.067291774 0.054961145 -0.006574702 0.012540378 0.52040124 -0.85382968 0.0048886533
-0.064492188 0.054729659 -0.0065386388 0.12205864 0.61013544 -0.78283864 0.0071042278
-0.061787244 0.054288417 -0.0063152951 0.20042869 0.70363885 -0.68170422 0.0043684631
0.062481631 0.054252494 -0.0062428839 -0.34982976 0.59827739 -0.72089058 0.0046674754
0.064244382 0.05469526 -0.0064462791 -0.18494284 0.52276909 -0.83217102 0.0080836257
0.067341432 0.054949865 -0.0063958857 0.24662313 0.29636383 -0.92268384 0.021951582
0.065218009 0.028025484 -0.0057405317 0.70783806 -0.42809844 -0.56186932 0.0016328031
0.066316262 0.028908841 -0.004861726 0.76314473 -0.46228427 -0.45155662 0.0030532305
-0.0093102772 0.032909222 -0.0057900315 0.20758741 0.91760874 -0.33897141 0.0026798863
-0.0072150286 0.032701131 -0.0053288476 0.16192509 0.91919822 -0.35896355 0.0026484344
-0.0043469458 0.032508798 -0.0047585033 0.14234883 0.92528224 -0.35155302 0.0021784722
-0.0014745193 0.032271285 -0.0045020399 0.11203514 0.94192755 -0.31657642 0.0026725761
0.001504274 0.032048691 -0.0045036362 0.0509931 0.93660045 -0.34666881 0.0028610404
0.0044395891 0.031950369 -0.0045422832 0.0086947083 0.93504924 -0.35441133 0.0029906314
0.0074426192 0.031985667 -0.0045338129 -0.041305453 0.93303806 -0.35739863 0.0030003507
0.010537236 0.032213617 -0.0045049507 -0.11123548 0.94648677 -0.30296767 0.0031102623
0.01342557 0.032484815 -0.0046793674 -0.16061826 0.93170357 -0.32577634 0.0025432969
0.016252527 0.032729041 -0.0053631067 -0.19755393 0.91795617 -0.34398979 0.0026457161
0.018049436 0.032922372 -0.0055623832 -0.19774812 0.92637652 -0.32050321 0.0031390944
0.068252601 0.032067139 -0.0045662932 0.82341993 -0.40913269 -0.39317948 0.0032156908
-0.018841194 0.035692606 -0.0053142817 0.29919752 0.89121681 -0.34090081 0.0028202098
-0.016441204 0.035296965 -0.0045603015 0.28630954 0.90694469 -0.30899554 0.002295767
-0.013484745 0.03445702 -0.0044806325 0.24715452 0.9103722 -0.33186913 0.0027504209
-0.010541685 0.033709321 -0.00445684 0.20593005 0.92740953 -0.31225681 0.0024395741
-0.0077452431 0.033344585 -0.0039643473 0.15820658 0.93827879 -0.30757689 0.0027944648
-0.0050780345 0.033126667 -0.0034000808 0.13694786 0.94972086 -0.28155923 0.0021731977
0.014218743 0.033106923 -0.0033279064 -0.14534461 0.96438283 -0.22099927 0.00080133526
0.016610309 0.033331349 -0.0039272527 -0.19626652 0.93502426 -0.2953119 0.0027178265
0.019532025 0.033867579 -0.0044733458 -0.23731112 0.92391634 -0.30010331 0.0022149773
0.022515915 0.034695547 -0.0045099161 -0.26891863 0.91801059 -0.29144353 0.0014761179
0.02532606 0.035444532 -0.0046634781 -0.2914964 0.91093272 -0.29194438 0.0019923602
0.027490228 0.035822731 -0.0054115257 -0.30248433 0.90202898 -0.3079724 0.0024692647
0.068678141 0.034314163 -0.0056617418 0.81703895 -0.30821276 -0.4872908 0.0036081779
0.069675028 0.034969706 -0.0042500151 0.85966998 -0.31398469 -0.4029654 0.0046029282
-0.027295062 0.038830575 -0.0056839064 0.38720113 0.84852058 -0.36067718 0.0032167465
-0.025229948 0.038392253 -0.0047342605 0.3862223 0.87508816 -0.29163861 0.0019700339
-0.022463435 0.037340455 -0.0044999737 0.341755 0.88633603 -0.31242922 0.0025520974
-0.019743284 0.036440395 -0.0041738404 0.2998479 0.90780628 -0.29322153 0.0024188149
-0.017609375 0.036099691 -0.003284869 0.27329591 0.92930984 -0.24837989 0.0022898165
0.026430851 0.036151167 -0.0035785434 -0.28125128 0.92429292 -0.25803134 0.0015034373
0.028657706 0.036627319 -0.0043295822 -0.30602151 0.90708685 -0.28904042 0.0023169045
0.031473745 0.037562918 -0.0045222999 -0.35326076 0.88558155 -0.30158287 0.0025507368
0.033964202 0.038514528 -0.0048929187 -0.41023302 0.86231422 -0.29685518 0.0024510024
0.070329383 0.037569955 -0.0046184645 0.87184888 -0.23920719 -0.42738682 0.0028390421
-0.033469189 0.041797359 -0.0056172707 0.41384524 0.8376177 -0.35655129 0.0023995352
-0.031378545 0.041167315 -0.0046297093 0.42900079 0.85576689 -0.28917328 0.0019963626
-0.028559828 0.039915875 -0.0044054375 0.38349199 0.87571841 -0.29334486 0.002566796
-0.02633585 0.039259955 -0.003682066 0.36617649 0.8853054 -0.28661665 0.0021085031
0.035190027 0.039379727 -0.0040862444 -0.40590382 0.86370653 -0.29875281 0.0022830542
0.037561413 0.04048435 -0.004472536 -0.45829809 0.83210117 -0.31236285 0.0026651274
0.039762843 0.041572332 -0.0050483239 -0.48507351 0.81354231 -0.32070652 0.0029659809
0.070937194 0.040354419 -0.0046415566 0.89206713 -0.15139472 -0.42578861 0.0027762023
-0.039293785 0.044842508 -0.0055368561 0.4204928 0.83632392 -0.35177839 0.0035224557
-0.037287232 0.044136714 -0.0046613966 0.45018405 0.84256583 -0.29566371 0.0020514138
-0.034621 0.042896956 -0.0043753241 0.42598084 0.85515922 -0.29536954 0.0023508472
-0.03260842 0.042221766 -0.0035204804 0.43688816 0.85733902 -0.27221027 0.0030411817
0.040932566 0.042601466 -0.004231879 -0.49087295 0.81491268 -0.30815756 0.002380278
0.043338042 0.043998141 -0.0045647114 -0.51854521 0.80345041 -0.29253769 0.0016485077
0.045324106 0.044850379 -0.005534891 -0.4943296 0.78530651 -0.37273568 0.0039860676
0.071094111 0.043958265 -0.0052652964 0.81849569 -0.0029800264 -0.57450491 0.002384814
0.072071694 0.043771956 -0.0031171765 0.90908843 -0.080069013 -0.40883645 0.0028111772
-0.045312535 0.047912985 -0.005775447 0.41587499 0.78421909 -0.46048725 0.0011459035
-0.043251425 0.047332127 -0.0047441754 0.45713547 0.82721514 -0.32671446 0.0023844077
-0.040626433 0.046039525 -0.0043987371 0.45352411 0.83690429 -0.30644262 0.0024221565
-0.038520094 0.045177002 -0.0036845312 0.45156464 0.83909452 -0.30333111 0.0022703705
0.044629838 0.045235682 -0.0035446982 -0.50415653 0.80563718 -0.3110866 0.0018082336
0.046613589 0.046139959 -0.004461139 -0.50545329 0.79085815 -0.34505135 0.0030772313
0.048961256 0.047448631 -0.0048692762 -0.50360429 0.78635323 -0.35781461 0.0029785307
0.071196422 0.04669613 -0.0050738337 0.7839343 0.071581744 -0.61670345 0.0034513944
0.072067842 0.046475425 -0.0032795854 0.88983279 -0.011746681 -0.45613554 0.0035014474
-0.070981085 0.050673384 -0.0057777404 -0.43068889 0.15192856 -0.8896206 0.0062812185
-0.051130023 0.05097308 -0.0058940682 0.40742308 0.75137383 -0.51907974 0.0039414722
-0.049055204 0.0503974 -0.0048534106 0.43214646 0.82340914 -0.36775932 0.0025630149
-0.046538711 0.049227219 -0.0044991728 0.43760583 0.8209728 -0.36674899 0.0024435723
-0.044385854 0.04834336 -0.0037954857 0.43899551 0.83278471 -0.33727226 0.0020636611
0.05010204 0.048555557 -0.0040862281 -0.50231308 0.78189719 -0.3692131 0.0024117115
0.052448586 0.049777586 -0.00461936 -0.48674846 0.78061795 -0.39206073 0.0032252697
0.054739472 0.050673533 -0.0054727779 -0.43921435 0.75186992 -0.49171364 0.0037816309
0.071101397 0.049663104 -0.0049743284 0.74688947 0.085993633 -0.65936422 0.0058145416
0.072217673 0.048880458 -0.0032983327 0.80946016 0.039664119 -0.58583355 0.0026284305
-0.072743393 0.053418875 -0.0047130501 -0.58598733 0.071338989 -0.80717385 0.0051223598
-0.071394891 0.05202334 -0.0054806503 -0.40109587 0.12038567 -0.90809113 0.005246385
-0.05794384 0.053735569 -0.0055592433 0.24405389 0.78562093 -0.56853974 0.0034396991
-0.05531304 0.053315461 -0.0047175274 0.30919516 0.84734654 -0.43174317 0.0032366272
-0.052477706 0.052289303 -0.0044946694 0.3725374 0.8305909 -0.41392589 0.0028215172
-0.050159287 0.051384196 -0.0039358842 0.4142921 0.83390731 -0.3646377 0.0027282769
0.053821955 0.051227544 -0.003482681 -0.50100738 0.77714944 -0.38082844 0.001999689
0.055757552 0.051949974 -0.0043372675 -0.46104261 0.76298803 -0.45308822 0.003915403
0.058232475 0.053144839 -0.0047970745 -0.45874515 0.73631883 -0.49738058 0.0053169238
0.060441181 0.053711895 -0.0057713725 -0.35689124 0.6260491 -0.69331884 0.0059430581
0.070889845 0.052615531 -0.004905655 0.65910345 0.13699125 -0.73947012 0.0081889452
0.072096407 0.052618839 -0.0034349109 0.78239661 0.042943984 -0.62129807 0.0033130271
-0.073546492 0.055864539 -0.0042459271 -0.58342195 0.25867712 -0.76987338 0.0187301
-0.070530035 0.05614889 -0.0056925328 -0.17284875 0.47536117 -0.8626442 0.014013293
-0.067364842 0.056484461 -0.0057402309 0.075685307 0.54065782 -0.83783102 0.0050820732
-0.064254507 0.056279231 -0.0051719979 0.24016543 0.68400085 -0.68881297 0.0081732003
-0.061458614 0.055622537 -0.0045431438 0.31902713 0.7784211 -0.54063141 0.0077449605
-0.058651313 0.054751385 -0.0042340499 0.30342799 0.83578718 -0.45759279 0.0044487375
-0.056273628 0.054247487 -0.0035296695 0.33822441 0.86110789 -0.37960166 0.002657634
0.059256304 0.054505158 -0.0038264319 -0.46149933 0.74012715 -0.48911169 0.0042120749
0.061500091 0.055411328 -0.0045568142 -0.41742033 0.67482263 -0.60858417 0.0062365443
0.063927241 0.056200106 -0.0053190137 -0.3419427 0.56628418 -0.74993169 0.0094403438
0.067738235 0.056339689 -0.0058385013 0.077432632 0.36892682 -0.92622745 0.017600849
0.070476115 0.055570841 -0.0048542405 0.59208262 0.12385424 -0.79630286 0.012225986
0.072124369 0.054600477 -0.0032915655 0.67986757 0.10464157 -0.72583073 0.0068911682
-0.072937489 0.058081824 -0.0038813164 -0.46829101 0.63064474 -0.61886251 0.036076076
-0.070329577 0.058806419 -0.0042963363 -0.1736782 0.70943993 -0.68303066 0.023346221
-0.067491017 0.058459017 -0.0042825663 0.17453559 0.7057209 -0.68665516 0.010008293
-0.064715661 0.057834525 -0.0037980715 0.33976373 0.73740554 -0.5837754 0.0078964094
-0.062706284 0.05716959 -0.0032413013 0.43912429 0.74893934 -0.49624559 0.0075395051
0.062709279 0.057333898 -0.0034808081 -0.57646096 0.55992007 -0.59513211 0.007559516
0.064275473 0.058349565 -0.0039402503 -0.5213418 0.49301761 -0.69651729 0.017306162
0.067435145 0.058475867 -0.0051093753 -0.019080328 0.29831204 -0.95427763 0.019751467
0.070425645 0.058429115 -0.0044396692 0.47086248 0.064258017 -0.87986332 0.024469975
0.072054021 0.05898669 -0.0030852065 0.87862188 -0.0029948503 -0.47750881 0.023184879
-0.069407627 0.060059771 -0.0030968543 -0.11729082 0.85481292 -0.50550741 0.025522338
-0.06827414 0.06002311 -0.0030565131 0.12270245 0.88713545 -0.44489866 0.026593503
0.06570296 0.061075032 -0.0034160158 -0.46009833 0.29606456 -0.83705151 0.013648961
0.067558035 0.061417498 -0.0042221965 -0.24766938 0.20707633 -0.94645613 0.024405982
0.070367619 0.061494209 -0.0042010574 0.20823023 0.12273551 -0.97034848 0.020086501
0.072178587 0.061804272 -0.0032693367 0.53544515 -0.023661347 -0.84423846 0.019186012
0.067908958 0.064428806 -0.0037329912 -0.22035864 0.088685416 -0.97137892 0.018626418
0.070523985 0.064379379 -0.0039435462 0.20349987 -0.033052057 -0.97851694 0.026543237
0.07231535 0.064790465 -0.003272593 0.25980517 -0.046057738 -0.96456206 0.019152688
0.068272486 0.06776274 -0.0035330555 -0.28786436 0.0080596441 -0.95763731 0.012928827
0.070448369 0.067553148 -0.0040509589 0.055190213 -0.031803932 -0.99796921 0.020797936
0.072675712 0.067680299 -0.0035130866 0.31430796 -0.090781964 -0.94497043 0.013925407
0.068600923 0.070550121 -0.0033418871 -0.43254143 0.055049162 -0.89993203 0.027441535
0.070498571 0.070429981 -0.004102272 0.0044647134 -0.096928805 -0.99528128 0.033960756
0.073042527 0.070383802 -0.0037516917 0.19465503 -0.11730167 -0.97383255 0.016522173
0.068714656 0.073502555 -0.0032510101 -0.65521699 0.19223396 -0.730573 0.036334049
0.070348009 0.07334964 -0.0042337459 -0.21784513 0.2617411 -0.94023144 0.059233695
0.074015819 0.074244469 -0.0042570527 0.42470959 0.53906929 -0.72734177 0.059876367
0.075358033 0.074496575 -0.0035019612 0.14579926 0.9477461 -0.28376031 0.057204515
0.068873987 0.076188534 -0.003189808 -0.27056539 0.94058967 -0.20514745 0.080068938
0.070714459 0.076222509 -0.0038344811 0.053164426 0.8464964 -0.52973324 0.047759388
0.073252909 0.075590216 -0.0039356085 0.24997698 0.88214618 -0.39916122 0.043215837
0.075199634 0.075091943 -0.0032823321 0.37817577 0.90915716 -0.17440274 0.020854525
-0.0031556862 0.032985874 -0.0024020721 0.095263086 0.98535997 -0.14138843 0.0023194531
-0.0011999436 0.032877356 -0.002127399 0.10351466 0.98056763 -0.16664881 0.0017752317
0.0015308649 0.032755524 -0.0015676733 0.072928429 0.98801857 -0.1360178 0.0020588075
0.004445598 0.032677084 -0.0015329752 0.021612341 0.98976392 -0.14106894 0.0019770998
0.0074844696 0.032696176 -0.0015674903 -0.051193886 0.98859954 -0.14159849 0.0019270807
0.010415982 0.032848585 -0.0018635406 -0.10064699 0.98273915 -0.15522234 0.0022289979
0.012451786 0.032939214 -0.0025008034 -0.14921786 0.97836667 -0.14329231 0.0025448855
0.068796188 0.031214595 -0.001555947 0.86323118 -0.44331679 -0.24145852 0.0062325401
0.069628909 0.032631293 -0.00084481155 0.91098732 -0.36875683 -0.18471742 0.0048914161
