# .PCD v0.7 - Point Cloud Data file format
VERSION 0.7
FIELDS x y z normal_x normal_y normal_z curvature
SIZE 4 4 4 4 4 4 4
TYPE F F F F F F F
COUNT 1 1 1 1 1 1 1
WIDTH 568
HEIGHT 1
VIEWPOINT 0 0 0 1 0 0 0
POINTS 568
DATA ascii
-0.050172325 0.051407263 -0.0039638137 0.41313538 0.83298528 -0.36804172 0.0025524332
0.053733528 0.051199973 -0.003424756 -0.50368309 0.78579658 -0.35892475 0.0022400103
0.055710435 0.051931288 -0.0043512215 -0.45739856 0.76625484 -0.45126498 0.00337688
0.058264412 0.053104591 -0.0048852526 -0.43321407 0.73451477 -0.52231556 0.0049889614
0.060430132 0.053759675 -0.005714139 -0.37782714 0.65522856 -0.65415764 0.0051485505
0.070868835 0.052481487 -0.0048291143 0.71165961 0.11365642 -0.69326973 0.010481962
0.072098464 0.052246101 -0.0032948602 0.84306252 0.043088909 -0.53608668 0.010382711
-0.073844373 0.056340016 -0.0040563704 -0.51845461 0.56711149 -0.6399917 0.032410264
-0.070511214 0.056021355 -0.0056849835 -0.21953768 0.41215277 -0.88426995 0.010585601
-0.067299679 0.056478664 -0.0057442258 0.071203113 0.53440017 -0.84222716 0.0069773067
-0.064240284 0.056268618 -0.0052229338 0.2345366 0.67105639 -0.70333195 0.0070428946
-0.061461303 0.055659678 -0.0045458786 0.32769603 0.77213866 -0.54444206 0.0077779461
-0.058668036 0.05477893 -0.0042483355 0.29641992 0.83558315 -0.46253237 0.0043406058
-0.056314304 0.054283455 -0.003543285 0.34564501 0.86300904 -0.36843571 0.0027315572
0.059276078 0.054495003 -0.0038657526 -0.46950546 0.72616619 -0.50224227 0.00480399
0.061535727 0.055392135 -0.0045998883 -0.40304261 0.6693598 -0.6241107 0.0063430946
0.064152136 0.056236554 -0.0054081958 -0.29523924 0.53761816 -0.78981036 0.0091882953
0.067755871 0.056407668 -0.0058058174 0.10034669 0.35987204 -0.92758971 0.017350037
0.070592493 0.055551395 -0.0046801595 0.63607311 0.13245507 -0.76017529 0.014603196
0.072175294 0.055032887 -0.0032486164 0.74920517 0.0745304 -0.6581313 0.0084236581
-0.07300847 0.058124043 -0.0038427531 -0.42308936 0.71777147 -0.55299139 0.024074167
-0.070366144 0.058849677 -0.0042751622 -0.18314081 0.73162842 -0.6566425 0.025416298
-0.067463458 0.058510017 -0.0042657075 0.17281234 0.70920515 -0.68349403 0.011724561
-0.064694531 0.057820186 -0.0038451364 0.34251529 0.73001951 -0.59140068 0.0078178244
-0.0626444 0.05719693 -0.003275265 0.41920382 0.75123173 -0.50982261 0.0099356752
0.06261149 0.057337355 -0.0033587876 -0.55057865 0.58151174 -0.59892178 0.0082935523
0.064604111 0.058322847 -0.0041923681 -0.47488579 0.45472884 -0.75346208 0.016116861
0.067328706 0.058640927 -0.0051039075 -0.062111918 0.32170141 -0.94480175 0.017555255
0.070364431 0.058335967 -0.0044743987 0.47500074 0.095814876 -0.87475353 0.019290276
0.072073951 0.058864821 -0.0031948965 0.83034182 -0.03310306 -0.55627024 0.020112513
-0.069421299 0.060083531 -0.0031365573 -0.12011129 0.89906025 -0.42102724 0.027781293
-0.068467394 0.060082939 -0.0031462475 0.082831666 0.90069813 -0.42647603 0.026817424
0.065497756 0.061061069 -0.0033731619 -0.57942742 0.3253828 -0.74725497 0.014454846
0.067575842 0.061477423 -0.0042299288 -0.21604587 0.20854771 -0.95385122 0.024796778
0.070411682 0.061458819 -0.0041836374 0.25606805 0.078753345 -0.96344543 0.020276135
0.072168283 0.061828192 -0.003213265 0.50888866 -0.037856515 -0.85999954 0.026112791
0.067767158 0.06424921 -0.0037155303 -0.32608154 0.12790778 -0.93664849 0.016934775
0.070429362 0.064367242 -0.0039812732 0.11606563 -0.024114288 -0.99294877 0.026191888
0.072352387 0.064620838 -0.0032414957 0.43777123 -0.067502804 -0.89654887 0.018142672
0.068171889 0.067465499 -0.0035289591 -0.44746217 0.068099827 -0.89170623 0.01870162
0.070547625 0.067559056 -0.0040568686 -0.028416568 -0.015132931 -0.99948162 0.02438724
0.072647721 0.067605123 -0.0034696432 0.3275755 -0.11589545 -0.93769002 0.011610506
0.068427004 0.069941603 -0.0033880493 -0.57906294 0.06047577 -0.81303686 0.019796908
0.070499666 0.070321672 -0.0040946305 -0.14105405 -0.043286514 -0.9890551 0.028838627
0.073133014 0.070499673 -0.0037421547 0.3699598 -0.18040274 -0.91136414 0.014251943
0.068610772 0.073134594 -0.0033041663 -0.63977468 0.19232056 -0.744111 0.031942211
0.070411362 0.073347479 -0.0042734868 -0.31756321 0.1925838 -0.92847461 0.038492318
0.073909633 0.074308254 -0.0043891598 0.34576684 0.6419996 -0.68431121 0.05974796
0.075426802 0.074522257 -0.0034117207 0.40004745 0.84992516 -0.34291291 0.05492017
0.068804443 0.076090865 -0.0032473591 -0.27837524 0.85141307 -0.44452548 0.081772789
0.070727691 0.076233037 -0.0038529525 -0.037607241 0.80945766 -0.58597279 0.060219351
0.073315598 0.075610429 -0.0039068796 0.24703196 0.85677266 -0.45267633 0.05031848
0.075218737 0.075112216 -0.0033316873 0.38879681 0.90415472 -0.17703502 0.022394059
0.065270066 0.026142137 -0.0023436577 0.77175689 -0.59100682 -0.23473862 0.0027897533
0.066161141 0.026997406 -0.0016868657 0.78212482 -0.55467701 -0.28392652 0.0019782423
0.067364544 0.028820753 -0.0015728506 0.82362926 -0.52856338 -0.20556186 0.0016646453
-0.0031499453 0.032971345 -0.0025851023 0.099032074 0.98424172 -0.14649555 0.0024641324
-0.0011779382 0.032886203 -0.0021715306 0.10493159 0.98130071 -0.16136409 0.0018432172
0.0015661378 0.032763977 -0.0016031185 0.067393705 0.987836 -0.14013614 0.0025319776
0.0044495356 0.032695051 -0.0015126453 0.021619212 0.99021679 -0.13785239 0.002045003
0.0074738804 0.032713536 -0.0015376974 -0.050403729 0.98924536 -0.1373066 0.0021918756
0.010363339 0.032849789 -0.0019312748 -0.097733483 0.98363304 -0.15137427 0.0022027912
0.012454205 0.032937218 -0.0025575187 -0.14287239 0.97903275 -0.14519773 0.0025114166
0.06860441 0.030949177 -0.0017909365 0.86036992 -0.45627981 -0.22709544 0.0036172792
0.069460027 0.032513238 -0.0013319105 0.90952158 -0.38557556 -0.15524843 0.0051493729
-0.015766753 0.035794925 -0.0018082713 0.30698055 0.94467479 -0.11555263 0.0017690625
-0.013509392 0.035172578 -0.0015189322 0.26960978 0.95492738 -0.12419425 0.0018081506
-0.010470861 0.034388229 -0.0015074075 0.21398714 0.96342045 -0.16133989 0.0027890059
-0.0075356588 0.033810426 -0.0015423124 0.15877536 0.97622585 -0.14755854 0.0022989686
-0.004514188 0.033365909 -0.0014787108 0.12802726 0.9826538 -0.13416612 0.0018529091
-0.0017673111 0.033121653 -0.00086087332 0.090082183 0.99216938 -0.086517356 0.0032351173
0.00043049463 0.0330359 -0.00028546754 0.052034076 0.99790162 -0.038533628 0.0017474305
0.0087111536 0.033007391 -0.00013677542 -0.047684025 0.99661189 -0.067013942 0.0029953679
0.011016879 0.03307892 -0.00058228633 -0.082352459 0.99570841 -0.042223427 0.0021235445
0.013612433 0.033300262 -0.0013972571 -0.1358937 0.9827289 -0.12560578 0.0022702652
0.016450658 0.033781398 -0.0015175013 -0.19079594 0.97231066 -0.13494019 0.0028701464
0.019480959 0.034508482 -0.0015117227 -0.24761325 0.95958626 -0.13372271 0.00217436
0.022504538 0.035339441 -0.0015043337 -0.2714037 0.95661628 -0.10594943 0.0017302389
0.024485117 0.035854965 -0.0019450384 -0.30761981 0.94535059 -0.10808494 0.0019970466
0.07039734 0.034654163 -0.0013342859 0.92813051 -0.34116763 -0.14892423 0.0052228644
-0.024472065 0.038828474 -0.0018865204 0.39810082 0.91004664 -0.11545977 0.0019391546
-0.022510862 0.038064905 -0.0015253872 0.36646831 0.92294317 -0.1178 0.001778419
-0.019484805 0.036928646 -0.0015140682 0.30703956 0.94077581 -0.14376199 0.0032528851
-0.017119953 0.036261376 -0.0012980149 0.27262273 0.95620358 -0.10654368 0.0018217677
0.025838535 0.036325458 -0.001340928 -0.28610206 0.95275867 -0.10196355 0.0020101757
0.028483368 0.037173774 -0.0015017997 -0.31076679 0.94159758 -0.12968421 0.0021616376
0.031479817 0.038250562 -0.0014835164 -0.37235755 0.92018247 -0.12088846 0.0022394052
0.033244696 0.038899142 -0.0021823002 -0.43563545 0.89221287 -0.1190708 0.002207241
0.071307778 0.037491884 -0.001624059 0.94950891 -0.26531795 -0.1674493 0.0039709574
0.072072081 0.03890723 -0.00040780497 0.96801406 -0.24167444 -0.067396112 0.014515485
-0.030787488 0.041635167 -0.001677587 0.46026447 0.88077557 -0.11131489 0.0015167323
-0.028527126 0.040575236 -0.0015007398 0.4081929 0.90604556 -0.11162442 0.0017540603
-0.025852764 0.039470013 -0.0013823551 0.37509575 0.92033374 -0.11085568 0.0019407963
0.032856602 0.039053716 -0.00066018396 -0.38252577 0.92037982 -0.081086338 0.0027347954
0.034657881 0.039684985 -0.0014588456 -0.42659646 0.89628553 -0.12119298 0.0022838865
0.037397888 0.04111813 -0.0015391343 -0.48981485 0.86299354 -0.12378842 0.0025230213
0.039137643 0.041900139 -0.0023435124 -0.52216321 0.84367049 -0.12476265 0.0029697593
0.071824588 0.040039912 -0.0021375529 0.95915133 -0.19378388 -0.20609848 0.0049780956
0.072189674 0.04098466 -0.0010751871 0.97688597 -0.1600118 -0.14173898 0.0058049317
-0.036677711 0.04463223 -0.0016852109 0.48092648 0.8690629 -0.11592834 0.0017874328
-0.034503859 0.04355441 -0.0014888133 0.44319534 0.89016289 -0.10577279 0.001406339
-0.032211404 0.042408358 -0.0013435456 0.43452856 0.89353943 -0.11301452 0.0017775247
0.038791806 0.042120364 -0.00082424143 -0.52584213 0.84283447 -0.11454298 0.0027083734
0.040491786 0.043019261 -0.0014959535 -0.51256955 0.84959221 -0.12436059 0.0025642372
0.042806439 0.044503838 -0.0015830103 -0.56059951 0.82093167 -0.10862558 0.0021066465
0.071920894 0.042830598 -0.0029384997 0.98745948 -0.087295324 -0.13154194 0.0054706731
0.07242275 0.043583352 -0.0017096051 0.97891539 -0.087278523 -0.18468131 0.0054247375
-0.042390972 0.047769591 -0.0018206461 0.49694076 0.85880929 -0.12448476 0.00229715
-0.040498547 0.046749268 -0.0015031124 0.48130748 0.86935586 -0.11208701 0.0020834024
-0.038152345 0.045447771 -0.0013891457 0.46042755 0.87909275 -0.12329767 0.0021706044
0.044273924 0.045489196 -0.0014256759 -0.54072833 0.83062321 -0.13295855 0.0032928945
0.046479128 0.046953596 -0.0014888962 -0.55478859 0.82106537 -0.1343919 0.0032471092
0.048153404 0.047860511 -0.0024255328 -0.54180717 0.82351238 -0.16814375 0.0033916135
0.072537579 0.046616666 -0.0015382224 0.98145843 -0.023807459 -0.19019069 0.0057363878
-0.048214365 0.050899286 -0.0024057545 0.46641588 0.87143683 -0.15183595 0.0037576519
-0.046469782 0.05010267 -0.0015277821 0.48498985 0.86421913 -0.13382937 0.0026725242
-0.043834403 0.048639506 -0.0014190227 0.47206327 0.8721779 -0.12830374 0.0025824525
0.047822457 0.04809596 -0.00086995563 -0.53270328 0.83944416 -0.10752084 0.0039441008
0.049592867 0.04903914 -0.0014784393 -0.53829193 0.83011883 -0.14541195 0.0041000103
0.051826142 0.050490569 -0.0016749885 -0.55871481 0.81778038 -0.13810532 0.0032431704
0.072642542 0.049368933 -0.0016967495 0.97158372 -0.030506786 -0.23472206 0.0059348019
-0.074748516 0.052421141 -0.0023633512 -0.79143631 -0.04971502 -0.60922652 0.010787015
-0.054305997 0.053876113 -0.0025342277 0.3606427 0.9111945 -0.19915161 0.0053681065
-0.052421372 0.05328263 -0.0015461069 0.40925938 0.89373022 -0.18371969 0.0034875127
-0.049573857 0.051812872 -0.0014647935 0.45184818 0.87824672 -0.15657596 0.0036593627
-0.04780665 0.051075704 -0.00075730291 0.45191765 0.88247448 -0.13041909 0.0042729704
0.053254489 0.051496424 -0.0013472483 -0.52909553 0.83163691 -0.16863607 0.0052461703
0.055456892 0.052879717 -0.0015612722 -0.55926782 0.81437981 -0.15493524 0.004509795
0.057272933 0.05378598 -0.0025794827 -0.55286402 0.78756493 -0.27218172 0.0064727445
0.072720081 0.052454624 -0.0016349773 0.95247775 0.015046764 -0.30423626 0.0096336771
-0.075598478 0.056547858 -0.0019616699 -0.64490515 0.70504814 -0.29496497 0.042671017
-0.074924931 0.056916609 -0.0028224816 -0.58121383 0.78902626 -0.19906817 0.024139224
-0.060649652 0.056663033 -0.001826635 0.49302456 0.84885329 -0.19072196 0.0089928089
-0.058513016 0.055762898 -0.0015155077 0.38910571 0.90366113 -0.17886648 0.0081495708
-0.055605855 0.054606229 -0.0014298572 0.3525815 0.92088491 -0.16630477 0.0052293069
-0.053843066 0.054070521 -0.00051647675 0.35140616 0.92638534 -0.13536611 0.0059483652
0.05691601 0.054158945 -0.00053092459 -0.57406288 0.81310993 -0.096457578 0.0093986206
0.058619406 0.055104557 -0.0014479168 -0.55337828 0.80752057 -0.20416404 0.0076242555
0.060560118 0.056469191 -0.0016843956 -0.65999371 0.72620171 -0.1924562 0.011640107
0.072745092 0.055550501 -0.0019044777 0.88410419 0.035091646 -0.46597031 0.011865539
-0.075423554 0.057309106 -0.0010622026 -0.55158764 0.82616174 -0.11492561 0.018724365
-0.073404476 0.058480445 -0.0014941077 -0.47462624 0.86715543 -0.15090182 0.013223519
-0.07116019 0.059582103 -0.0016174911 -0.33764356 0.92563725 -0.17085786 0.011780098
-0.066541679 0.059695553 -0.0025822516 0.26288322 0.87457997 -0.40743366 0.014368658
-0.06436532 0.059010196 -0.0015875832 0.50587475 0.82473993 -0.25277394 0.0097901551
-0.062032819 0.057613596 -0.0013453658 0.47338 0.8556174 -0.20935665 0.010661528
0.061851148 0.057898901 -0.001349252 -0.75033993 0.61504579 -0.24229866 0.016178824
0.06350363 0.059335649 -0.0022671153 -0.72256392 0.59136742 -0.35803083 0.020902729
0.072809719 0.058348104 -0.0018821334 0.82635295 -0.046996024 -0.56118822 0.014552866
-0.069614187 0.060288314 -0.0015430463 -0.1530962 0.96918601 -0.19297674 0.020064849
-0.067482524 0.060546156 -0.0013777913 0.14487405 0.95754135 -0.24925096 0.018889444
-0.06572286 0.060151894 -0.00061120727 0.33624369 0.93092066 -0.14257243 0.019738635
0.06428057 0.061260812 -0.0016706253 -0.80334479 0.39375427 -0.44676021 0.025104973
0.073170938 0.06170138 -0.0018230914 0.72312331 -0.069069646 -0.68725693 0.021548053
0.065246522 0.064228572 -0.0014821063 -0.87199593 0.24882358 -0.42155677 0.019269558
0.066364489 0.064876586 -0.0027495571 -0.67716342 0.18960118 -0.71098608 0.029128425
0.073253915 0.064197846 -0.0021381616 0.61900151 -0.15481418 -0.76998031 0.018021518
0.06556008 0.067210093 -0.00050909421 -0.94182676 0.20668429 -0.26503572 0.019469274
0.066570207 0.067581505 -0.0022023891 -0.79495388 0.20545202 -0.57082206 0.025101136
0.074321471 0.06743712 -0.0017291259 0.84335953 -0.24855585 -0.47640806 0.016992228
0.07510443 0.068397142 -0.0005933459 0.93615025 -0.27554837 -0.21839376 0.022664182
0.065847374 0.069329895 -0.00080004329 -0.98208767 0.12002654 0.14524963 0.033992551
0.067025632 0.070267968 -0.0018489209 -0.7989623 0.10586535 -0.5919897 0.019315677
0.074505925 0.069923632 -0.0025085434 0.70396483 -0.23220551 -0.67120349 0.020584008
0.075491875 0.070472494 -0.0012144151 0.89286435 -0.25061676 -0.37414503 0.020835621
0.067433059 0.073646449 -0.0016410361 -0.85290295 0.27558449 -0.44340703 0.032753419
0.076311789 0.074504867 -0.001354035 0.57324845 0.80599272 -0.14751947 0.033047188
0.068299659 0.076847903 -0.0013530604 -0.44623667 0.86030334 -0.24647729 0.070194013
0.07049159 0.076591618 -0.0014933244 -0.0098830629 0.95381224 -0.30024067 0.063282706
0.073508903 0.07566864 -0.0015118046 0.33486974 0.93562561 -0.11165528 0.013009269
0.075329371 0.075105153 -0.0014790728 0.35708717 0.92975271 -0.089714177 0.015023015
0.065264761 0.02605241 0.0019655447 0.77081126 -0.61270899 0.17446436 0.0067133117
0.06628032 0.026988251 0.00048067889 0.82453537 -0.5605374 -0.077066518 0.0025982615
0.067338087 0.028754489 0.0010600098 0.83973324 -0.52693111 0.13111752 0.0027854925
-0.00084606296 0.032933231 0.0025924423 0.10298479 0.98367941 0.14754285 0.0028560234
0.0017067977 0.032860808 0.0017175473 0.084147722 0.99084634 0.10555911 0.0036621566
0.0044918559 0.032809466 0.0014975485 0.025406046 0.99357975 0.11024372 0.0035184461
0.0074257669 0.032822959 0.0015243315 -0.056231581 0.99273533 0.10636993 0.0036144794
0.010020192 0.032904845 0.0022410951 -0.10385427 0.98732555 0.12001119 0.0035480475
0.012204183 0.032944366 0.0027641074 -0.13860063 0.98146307 0.13236336 0.0040020584
0.068556696 0.03096316 0.0015985831 0.87146562 -0.45364434 0.18642531 0.0061996337
0.069451965 0.032551918 0.0015597851 0.92322248 -0.37943196 0.0607595 0.0060776728
-0.015471344 0.035838213 0.0017531303 0.31061995 0.94747365 0.076216012 0.0032576809
-0.013494479 0.035287078 0.0014838638 0.27299771 0.95825303 0.084990315 0.0032791297
-0.010513778 0.034527246 0.0014747201 0.22953932 0.96825421 0.098971978 0.0041003362
-0.0075263046 0.034003101 0.0014797483 0.16184801 0.98092765 0.10763912 0.0049153487
-0.0045079528 0.033527792 0.0014771504 0.11971304 0.98905987 0.086193562 0.0042476752
-0.0015892504 0.033165984 0.0012439772 0.078841299 0.99509144 0.05980847 0.0055523585
0.0006578858 0.033044044 0.00060703885 0.050521147 0.99699992 0.058640022 0.0053205397
0.0038068185 0.033014573 0.00029193118 0.031802006 0.99810278 0.052720543 0.0038612722
0.0086776223 0.033040963 0.00047995514 -0.041073836 0.99656057 0.07197278 0.0053171366
0.010880881 0.033105142 0.0010207677 -0.075623162 0.99608636 0.045750916 0.0050080908
0.013558119 0.03339025 0.0014322427 -0.12678833 0.98762441 0.092318185 0.004474387
0.016457548 0.033886246 0.0015071024 -0.19381669 0.97468531 0.11146124 0.0044972645
0.019485826 0.03461273 0.0014453692 -0.25975749 0.96076405 0.097254634 0.0030781608
0.022392185 0.035391513 0.0015721023 -0.26788655 0.95941293 0.088111654 0.0035369315
0.024281884 0.035907596 0.0019592491 -0.31431648 0.94611561 0.077912278 0.0036869114
0.070475951 0.034675401 0.0012753138 0.93781459 -0.34347174 0.050307337 0.0053075724
-0.024287051 0.038880613 0.001921781 0.40484038 0.91134596 0.074516952 0.0033274048
-0.022472961 0.038167667 0.0015031047 0.37085798 0.92511064 0.081452906 0.0031857882
-0.01949971 0.037052218 0.0014772947 0.30406266 0.94799745 0.094057634 0.0037356252
-0.016920691 0.036299888 0.001389922 0.26266274 0.96245939 0.068412133 0.0032074961
0.023987427 0.036042511 0.00061437266 -0.28485167 0.95494354 0.083321072 0.0049126963
0.025709821 0.036375608 0.0014140792 -0.27964273 0.95719606 0.074669749 0.0037515515
0.028494693 0.037274331 0.0014769272 -0.30429599 0.94827586 0.090425305 0.0029818264
0.031440582 0.038323894 0.0015259809 -0.37479255 0.92251498 0.092177249 0.0035834624
0.033227962 0.038907666 0.0024388186 -0.42801994 0.89340651 0.13646924 0.0048786164
0.071383074 0.037463903 0.0015352882 0.9607082 -0.2586678 0.10065152 0.0040562688
-0.030606911 0.041676518 0.0015751715 0.46550924 0.88198912 0.073459722 0.0027607407
-0.028508475 0.040684391 0.0014611647 0.41340244 0.90757656 0.073506996 0.0030604296
-0.025730453 0.039525893 0.0013973875 0.3679806 0.92689216 0.073899075 0.0033639919
-0.023981174 0.039014015 0.00067344715 0.38107327 0.92218655 0.065993674 0.004615834
0.032887354 0.039060261 0.0010140924 -0.36797506 0.9258309 0.086205885 0.0042666742
0.034551419 0.039725993 0.0014539633 -0.42421126 0.90113187 0.089477055 0.0034204698
0.037387706 0.041185994 0.0015124116 -0.48834336 0.86656314 0.10290384 0.0035827905
0.039144564 0.041910984 0.0023436947 -0.502693 0.85794073 0.10600704 0.004234313
0.071867459 0.040084571 0.0022269755 0.96337533 -0.18876167 0.19046518 0.0058543156
0.072202466 0.040780194 0.0011279369 0.98376846 -0.15613578 0.088437699 0.0049353954
-0.036593035 0.044714879 0.0015737718 0.48676613 0.87003189 0.078122862 0.0030371726
-0.034506742 0.043670554 0.0014525728 0.45248687 0.88894457 0.070945054 0.00278181
-0.032092419 0.042453285 0.0013815402 0.43015295 0.89964539 0.074877374 0.0030543611
0.038811628 0.042109109 0.00099140988 -0.5296793 0.841824 0.10378966 0.0034088213
0.040486462 0.0430599 0.0014676136 -0.51649696 0.85019046 0.10201469 0.0032570732
0.042720269 0.044495072 0.0015470701 -0.56057853 0.82427436 0.079520158 0.0021079166
0.071955949 0.042593546 0.0028280506 0.94787025 -0.12931074 0.29124016 0.010575949
0.072529353 0.043826956 0.0014629969 0.99390179 -0.10574513 0.031261519 0.0049724742
-0.042283162 0.047814652 0.0018021428 0.49144781 0.86555129 0.096436508 0.0037316224
-0.040515576 0.046869773 0.0014729118 0.48339495 0.87132919 0.084348843 0.003588452
-0.038075488 0.045513734 0.0013976138 0.45442021 0.8869977 0.082081586 0.0033673237
0.044238713 0.045508254 0.0014353623 -0.54491383 0.83280802 0.097467035 0.0034065852
0.046442989 0.046971943 0.0015156403 -0.55309832 0.82712859 0.099702142 0.0032862646
0.048120949 0.047914177 0.0022946098 -0.54380059 0.82816285 0.1357473 0.0040677665
0.072683029 0.046654329 0.0012577054 0.997567 -0.045773216 0.052582558 0.0048083649
-0.048180752 0.050939437 0.0023851725 0.46435398 0.87834322 0.11352768 0.0057107145
-0.046389069 0.050160933 0.0014916762 0.48580611 0.86575723 0.12023686 0.0039840052
-0.043742612 0.048690002 0.0014040335 0.46941513 0.87781006 0.095387883 0.0038405561
0.047912981 0.048162188 0.00059551891 -0.55901098 0.82214522 0.10762844 0.0049728891
0.049568452 0.049083833 0.0014379333 -0.54443318 0.83373439 0.092084229 0.0042614569
0.051732983 0.05050987 0.0015879527 -0.56589746 0.81968182 0.088779971 0.0033829913
0.07275331 0.049236894 0.0014776553 0.99869794 -0.035747483 0.036393367 0.0049850596
-0.05425857 0.053925693 0.0025314181 0.36539668 0.91410738 0.17576405 0.0062914984
-0.052381787 0.05335854 0.0015246106 0.42177975 0.8957274 0.14062124 0.0043864208
-0.049549382 0.051900268 0.0014275671 0.45070189 0.88501263 0.11670709 0.0050835283
-0.047825746 0.05108805 0.00069799932 0.46333751 0.88218713 0.084049515 0.0062826881
0.053181756 0.051503778 0.0013728518 -0.53536266 0.83853388 0.10123125 0.0046915342
0.055432893 0.052952901 0.0014429673 -0.56740046 0.81722742 0.10097539 0.0043443055
0.057247002 0.053893641 0.0025045117 -0.57008183 0.79266828 0.21606433 0.0060893004
0.072903238 0.052286763 0.0012743043 0.99837959 -0.022591976 0.052228626 0.0057946928
-0.075821176 0.056606948 0.0014490836 -0.599518 0.79334712 0.10572887 0.040222771
-0.074790515 0.056923661 0.0029199689 -0.57523918 0.80837339 0.1250295 0.0088344486
-0.060562488 0.056732818 0.0017523087 0.50356841 0.85214072 0.1423905 0.0095268656
-0.058505613 0.055840716 0.0014685974 0.39518031 0.90811056 0.1384474 0.0086428616
-0.055555653 0.054662015 0.0014361973 0.35598207 0.92771912 0.11231261 0.007433936
-0.05380667 0.054092169 0.0008585091 0.36054343 0.9278664 0.095249444 0.0082726879
0.056813426 0.054092299 0.00065623864 -0.56766593 0.81810939 0.091937199 0.010555638
0.058591165 0.055181861 0.0013446074 -0.56464201 0.81888044 0.10302511 0.0077537014
0.060516477 0.056535672 0.0016726835 -0.67264462 0.72459167 0.15005361 0.012623059
0.072940484 0.055374637 0.0011657136 0.99831575 0.02195837 0.053697001 0.012528365
-0.075354375 0.057419002 0.0010538388 -0.5056513 0.86244094 0.022638531 0.0082608443
-0.073384166 0.058509886 0.0014655002 -0.45143008 0.88930506 0.073126204 0.0052460316
-0.071162492 0.059589684 0.0014520176 -0.37180549 0.92358381 0.093561247 0.0047937143
-0.066362649 0.059825923 0.0026555138 0.29219812 0.88182545 0.37014079 0.015426739
-0.064350791 0.059142705 0.0015349141 0.53031868 0.83091033 0.16837519 0.0083916942
-0.061982144 0.05768159 0.0012941753 0.47055978 0.86847341 0.15597248 0.011413622
0.061786085 0.057954419 0.0013620905 -0.75831681 0.62814921 0.17431076 0.018615786
0.063306019 0.059506759 0.0019417503 -0.81524378 0.53440118 0.22314331 0.022278262
0.072825953 0.058574576 0.0017955858 0.91822171 -0.029676106 0.39495325 0.016976701
-0.069646381 0.060309943 0.0015697288 -0.18880178 0.97592664 0.10918378 0.01561917
-0.067456268 0.060619604 0.0013939942 0.1664034 0.96905643 0.18231688 0.01560254
-0.06569954 0.06018747 0.00063957984 0.30749205 0.95012593 0.052051842 0.02007992
0.06296964 0.060119715 0.00071072706 -0.88625032 0.44692984 0.12171327 0.028150687
0.064018436 0.061246309 0.0014586614 -0.86041683 0.42675242 0.2785053 0.022343285
0.066096097 0.062985547 0.0028624495 -0.77162945 0.35247359 0.52948117 0.024537422
0.073206857 0.061364323 0.0015703532 0.90466452 -0.066138782 0.4209604 0.019537749
0.06494911 0.064215846 0.00094172545 -0.96485472 0.26263472 -0.0088590346 0.019319981
0.06638968 0.065171272 0.0026552526 -0.64895988 0.22422458 0.72703117 0.031935908
0.071905077 0.063225158 0.0029480546 0.22090848 0.0052702161 0.97528034 0.0083174165
0.073462531 0.064290158 0.0016844549 0.83574837 -0.15922795 0.52551997 0.02753265
0.065597802 0.067286409 0.00071851071 -0.9585427 0.22247483 -0.17804736 0.023858447
0.066610612 0.067959994 0.0018284582 -0.82174963 0.26866359 0.50254095 0.020671865
0.069339789 0.068344101 0.00287973 -0.22298445 0.035293616 0.9741829 0.011491657
0.074267775 0.067004882 0.0014906699 0.92524266 -0.29026166 0.24428293 0.014262771
0.075141653 0.068320602 0.00050306157 0.95632905 -0.28784081 -0.050817061 0.021529259
0.065753773 0.069127932 0.0005225559 -0.79881042 0.23369098 0.5543378 0.046808552
0.06712117 0.070280217 0.0015578992 -0.87925363 0.16842806 0.445584 0.022170739
0.069328003 0.070385456 0.0028477751 -0.36737382 0.0067703784 0.93004876 0.014024845
0.074624114 0.069920897 0.0024633235 0.80831969 -0.30358949 0.5044331 0.03605134
0.075728998 0.070624158 0.001011616 0.96882635 -0.23429686 0.080500938 0.018605277
0.067245528 0.073510416 0.0010648988 -0.93010294 0.31327903 0.19174159 0.04409105
0.069347553 0.072373241 0.0028351499 -0.49594337 0.091860831 0.86348236 0.03710486
0.076363772 0.074590676 0.0012536607 0.54607987 0.83616817 0.051182818 0.032115739
0.068298772 0.076948561 0.0011151613 -0.15509988 0.98789299 -0.0033801082 0.071456179
0.070513003 0.076582022 0.0014661979 0.1265199 0.9870981 0.098133296 0.041445911
0.073523007 0.075664453 0.0014977196 0.31851444 0.94629604 0.055430476 0.0045062373
0.075321861 0.075110778 0.0014442856 0.44058853 0.8965317 0.045963496 0.021331184
0.062638335 0.023568235 0.0037414688 0.74291486 -0.6099351 0.27578366 0.011237578
0.064451538 0.026526213 0.0051324079 0.71416491 -0.52333856 0.46484965 0.0026696774
0.065517999 0.027586788 0.0046384041 0.76944965 -0.55559331 0.31506094 0.0031690451
0.066748284 0.028999245 0.0041126469 0.81369632 -0.51005805 0.27881733 0.0021698496
-0.0094159227 0.032938372 0.0058606514 0.1951113 0.90424824 0.37982452 0.0011231881
-0.0071295127 0.032769281 0.0055097067 0.16042165 0.92474693 0.34512016 0.0017326842
-0.0042464524 0.03258634 0.0049377535 0.1350936 0.92782873 0.34768328 0.0016419188
-0.0014471216 0.032419715 0.0044881133 0.10699118 0.93996334 0.32407066 0.0023618098
0.0015166706 0.032204043 0.0044603813 0.055340067 0.9489702 0.31047234 0.0025100501
0.0044718161 0.032091293 0.0045146849 0.013550092 0.94178349 0.33594665 0.0021596837
0.007437997 0.032129209 0.0044692671 -0.041753914 0.94535893 0.32334676 0.0024000576
0.010519761 0.032342941 0.0044514602 -0.10278241 0.94418734 0.31296322 0.0029110685
0.013346179 0.032541431 0.0047726952 -0.14781106 0.92918736 0.33876646 0.0022721388
0.016278254 0.032771852 0.0054641701 -0.19092549 0.91789031 0.34788632 0.0022919367
0.018145191 0.03289111 0.0057365429 -0.20836231 0.89784753 0.38788533 0.0020373035
0.068021029 0.031590842 0.0045255586 0.82323092 -0.44374508 0.35409206 0.0030844668
0.069089733 0.032626819 0.0034280973 0.84430814 -0.40312481 0.35303563 0.0039365096
-0.018767349 0.035757173 0.0055297967 0.29436138 0.89537364 0.33415189 0.0021008726
-0.016353671 0.035419203 0.0046015563 0.28979132 0.90682399 0.3060903 0.0019952101
-0.013479189 0.034601338 0.0045032273 0.25423679 0.91446239 0.31483662 0.0019830952
-0.010523765 0.033864308 0.0044537368 0.19832529 0.9301483 0.30901659 0.001879462
-0.0076783686 0.033439059 0.0041253413 0.15446238 0.94033724 0.30316225 0.0018633646
-0.0048749843 0.03317548 0.0035858497 0.13300495 0.94426739 0.3011128 0.002007917
-0.002667347 0.033028785 0.0032794192 0.092959858 0.96749419 0.23518832 0.00309795
0.014142513 0.033146366 0.0035032053 -0.14330822 0.95014423 0.27692747 0.002195626
0.016577268 0.033401571 0.0040247403 -0.18828714 0.93492043 0.3007853 0.00246269
0.019480584 0.033958379 0.0044180732 -0.23213795 0.9226951 0.30780771 0.0021877682
0.022485321 0.03478292 0.0044700811 -0.26880509 0.9104538 0.31435287 0.0019664443
0.025240973 0.035457954 0.00473837 -0.28904018 0.90247625 0.3193627 0.0020478433
0.027503377 0.035791632 0.0056399088 -0.30377993 0.88102287 0.36265203 0.0021638253
0.068739027 0.03402479 0.0054593543 0.83906734 -0.33974364 0.42490041 0.0030713354
0.069651313 0.034895614 0.0042610955 0.87123471 -0.33675984 0.35713151 0.0031106104
-0.027444838 0.038908634 0.0057694116 0.372361 0.86172086 0.34465125 0.0014760602
-0.025108293 0.03850532 0.0047369492 0.37897006 0.87711453 0.29504532 0.002008022
-0.022482289 0.037512809 0.0044864076 0.34945506 0.88806319 0.29870528 0.002079265
-0.019670913 0.036543846 0.0042718458 0.29765815 0.90960115 0.28987139 0.0024310781
-0.017601196 0.036147866 0.0035809753 0.27175787 0.92338401 0.27112687 0.00269938
0.026367646 0.036231413 0.0035316432 -0.27930728 0.9209097 0.27186915 0.0016662658
0.028550008 0.036617152 0.004487447 -0.3071205 0.89791983 0.31530467 0.0020604234
0.031437866 0.037636831 0.004486714 -0.35396948 0.88893515 0.29068866 0.0022820027
0.033992391 0.03856751 0.0050019738 -0.40513939 0.85573781 0.32183054 0.002574479
0.036096793 0.038935564 0.0058388896 -0.41876701 0.79414451 0.4404189 0.00097224198
0.070774548 0.037969474 0.0042310352 0.92254531 -0.23519178 0.30593312 0.0048178909
-0.033368509 0.041861948 0.0056989705 0.41984427 0.83350807 0.35915872 0.0015084391
-0.031287853 0.041297648 0.0046305303 0.43186894 0.85550874 0.28564659 0.0020155224
-0.028519409 0.040050119 0.0044268654 0.38244793 0.87873209 0.28559339 0.002183177
-0.026258936 0.039320398 0.0038303777 0.3582761 0.88941419 0.28386724 0.001923888
0.035219114 0.039463669 0.0041403128 -0.41765049 0.85886157 0.2965214 0.0022588703
0.037461184 0.040522024 0.0044623632 -0.45593038 0.83879268 0.29758105 0.0028188319
0.039697986 0.041624907 0.0050746365 -0.49573737 0.81532276 0.29915413 0.0026248489
0.071233287 0.040649019 0.0044312105 0.9195146 -0.14894977 0.36374024 0.0031122449
0.07200101 0.041691937 0.003477477 0.95707738 -0.12508309 0.26145199 0.001943761
-0.039256938 0.044789515 0.0057954034 0.43183511 0.81623203 0.38377562 0.0025103339
-0.037248615 0.044294342 0.0046385168 0.44683146 0.84674674 0.28872421 0.0019636992
-0.034570474 0.043040935 0.0044006701 0.4252609 0.86009747 0.28175411 0.0019312934
-0.032532129 0.042275477 0.0036839538 0.428119 0.86006367 0.27749714 0.0023966788
0.038992606 0.042078905 0.0030039938 -0.51230425 0.83728307 0.19105381 0.0049435999
0.041006368 0.042747032 0.0042527169 -0.49994668 0.81722498 0.2866995 0.0025177794
0.043296266 0.044056084 0.0046350006 -0.51597589 0.79882777 0.3092621 0.0021488725
0.045258045 0.044839624 0.0056374776 -0.48536965 0.7813316 0.39234844 0.0041185529
0.071457133 0.043730073 0.0047753053 0.90752268 -0.065689869 0.41483411 0.0035631428
0.07215099 0.043831017 0.0033542227 0.98298585 -0.1078922 0.1486543 0.0040938654
-0.045209523 0.047849275 0.005719658 0.45202062 0.78132957 0.43035036 0.0026202286
-0.043092076 0.047392819 0.0047646747 0.45454016 0.8316831 0.31889868 0.0021729872
-0.04053659 0.046137959 0.0044275126 0.45150262 0.84025908 0.30018321 0.0020291721
-0.038471911 0.045282323 0.003742602 0.44353843 0.84646988 0.29455471 0.0019250029
0.044655465 0.045321532 0.0036720829 -0.5140022 0.8009361 0.30708835 0.0028439316
0.046552476 0.046200298 0.0045389156 -0.50826734 0.78904104 0.34507769 0.0030625022
0.048835717 0.047494147 0.0049402318 -0.50454211 0.7863 0.35660851 0.0027086732
0.071325667 0.046414942 0.0049978141 0.86453146 0.0083668642 0.50250906 0.0034183816
0.072120421 0.046580888 0.0034659058 0.92910874 -0.024225222 0.36901227 0.003439904
-0.05136979 0.050902009 0.0058738654 0.36047721 0.76300555 0.53654331 0.002107118
-0.048943061 0.050495986 0.0048938221 0.43114197 0.83110374 0.35125929 0.0029726445
-0.046496939 0.049384031 0.0044500628 0.44965139 0.82710397 0.33721319 0.002423099
-0.044221491 0.048393011 0.0038667812 0.44616455 0.83703661 0.31671274 0.001844908
0.050014947 0.048600223 0.0041888417 -0.50433117 0.78420234 0.36149248 0.0028700875
0.052406911 0.049920853 0.0046352562 -0.49624714 0.77759552 0.386114 0.0033346692
0.054523282 0.050645459 0.0056585516 -0.43998152 0.73929363 0.50976586 0.0034101647
0.071301788 0.049525261 0.0050093024 0.84866589 0.028100222 0.52818233 0.0037252344
0.072223321 0.049547426 0.0033756811 0.91823763 -0.0096690888 0.39591175 0.0034512039
-0.072301224 0.05392177 0.0055736653 -0.36583182 0.1961371 0.90977871 0.0058780997
-0.071805522 0.052661248 0.0058188746 -0.36724332 0.18014136 0.91251385 0.0055755177
-0.057609241 0.053812366 0.0056577194 0.26761749 0.79759914 0.5405705 0.0033347346
-0.055209696 0.053450797 0.0047809947 0.33268878 0.85850394 0.39024252 0.0030017802
-0.052451339 0.052467246 0.0044871718 0.37413305 0.84145218 0.38984945 0.0024805157
-0.05006732 0.051461935 0.0040206918 0.4225136 0.83756822 0.34635481 0.0030156253
0.053655278 0.051228482 0.0035354658 -0.50137562 0.79110873 0.35038483 0.0027782104
0.055587526 0.052039992 0.0043484089 -0.47911131 0.77766991 0.40704048 0.0033633544
0.058017168 0.053299058 0.0047380617 -0.50084853 0.75908947 0.41585335 0.0040556015
0.060291395 0.053793188 0.005834606 -0.38830552 0.67361975 0.62885225 0.0027571858
0.071289003 0.052344814 0.0048744394 0.81269139 0.07205072 0.57822263 0.0048318719
0.07213892 0.052665252 0.0035845942 0.90704834 -0.0016839996 0.4210231 0.0069290944
-0.075270377 0.056160245 0.0032667331 -0.67359006 0.47087508 0.56969571 0.044626758
-0.074173518 0.056362126 0.0040512215 -0.54649967 0.700625 0.45876205 0.02091839
-0.070563875 0.056317303 0.0058588143 -0.18644363 0.46209875 0.86700833 0.0083009517
-0.0668393 0.056697983 0.0058059567 0.11379745 0.60083264 0.79123342 0.004982247
-0.064131342 0.056383576 0.0054648076 0.29964665 0.69681334 0.65166175 0.0065176585
-0.061386336 0.055863976 0.0045561888 0.34922764 0.79356301 0.49829495 0.0079476377
-0.05862667 0.05490097 0.0043164776 0.29062122 0.84777653 0.44363743 0.0036957376
-0.056186944 0.054301515 0.0036858302 0.33314705 0.87399918 0.35374925 0.0025980109
0.059174251 0.054549884 0.0039851936 -0.49890709 0.72937411 0.46808666 0.0049946802
0.061407052 0.055523545 0.0046906364 -0.45919111 0.66808271 0.58549893 0.0067733116
0.06374532 0.056417152 0.0054429104 -0.39780715 0.59012419 0.7024976 0.0093039479
0.067722015 0.05676521 0.0058663185 0.055377498 0.39624831 0.91647184 0.017873181
0.070768841 0.055558741 0.0049576657 0.6281988 0.16547085 0.76025361 0.013459353
0.072223768 0.055413146 0.0033456902 0.87264282 0.018766209 0.48799822 0.0073002046
-0.073062114 0.05835091 0.0038197795 -0.4429431 0.79782444 0.40899587 0.026267571
-0.070503511 0.05906114 0.0044090599 -0.21188077 0.81015778 0.54658121 0.027478101
-0.067391284 0.05877915 0.0044171982 0.17750563 0.74382073 0.64437765 0.012386949
-0.064596318 0.057966162 0.0039760908 0.39365521 0.74071032 0.5444113 0.0062326728
-0.062526681 0.057230171 0.0033858018 0.42798671 0.76930112 0.47434497 0.011637998
0.062557511 0.057415191 0.0035321545 -0.55649936 0.61794585 0.55538398 0.0082586072
0.064213298 0.058309592 0.0042424933 -0.520262 0.54105651 0.66074592 0.013358334
0.067544922 0.058487374 0.0054238918 -0.01692082 0.37753704 0.92583984 0.014255052
0.070587315 0.058385573 0.0045339698 0.55204791 0.12436795 0.82448518 0.014540134
0.07211557 0.05829015 0.0032760373 0.7838636 0.03025783 0.62019539 0.016568134
-0.069519468 0.060133401 0.0032731129 -0.14140292 0.89034605 0.43276921 0.024885582
-0.068239577 0.060142793 0.0032800229 0.064593427 0.89509654 0.44116884 0.031077428
0.065423742 0.061084695 0.0035002932 -0.57708049 0.33801815 0.74345261 0.0089553054
0.067432016 0.061516788 0.0042780475 -0.29667181 0.31841758 0.90033108 0.020847885
0.070434466 0.06138948 0.0039750761 0.39168674 0.12826781 0.91111404 0.017306607
0.072133593 0.061128974 0.0032126824 0.63883448 -0.032797441 0.76864487 0.024859214
0.065574728 0.063002884 0.003095529 -0.34149522 0.23907535 0.90896863 0.017405512
0.067903914 0.064180121 0.0036646121 -0.16102168 0.18005687 0.97038734 0.013418916
0.07039997 0.064276598 0.0035788203 0.26530588 0.041261077 0.96328098 0.017029997
0.072342455 0.064863928 0.0031599763 0.49170488 -0.002861222 0.87075722 0.029395601
0.06834244 0.067151412 0.0031647673 -0.33787546 0.1742328 0.92492324 0.019639041
0.070516869 0.066821173 0.0034214552 0.11413292 0.014487077 0.99335992 0.024315184
0.072581999 0.067325078 0.0032183111 0.47470379 -0.17224841 0.86312622 0.019648874
0.07077118 0.070163243 0.0035834867 -0.06909439 -0.19256754 0.9788481 0.017201278
0.073233373 0.070360385 0.0035602741 0.45724726 -0.26081347 0.85023606 0.012982144
0.068776295 0.074929386 0.0030018964 -0.44970426 0.13447469 0.88299638 0.056900214
0.070961833 0.07330209 0.0042646714 -0.12486956 0.043867562 0.99120295 0.037812766
0.074245572 0.074519441 0.0044384203 0.40513363 0.76770407 0.49648482 0.046925019
0.075598359 0.07461454 0.0034128749 0.54430979 0.8062169 0.23182178 0.045151703
0.068834476 0.076274522 0.0032489374 -0.023744699 0.98719889 0.15771663 0.083998308
0.0708903 0.076296523 0.0037748597 0.17240201 0.95284539 0.24972606 0.029464185
0.073357955 0.075641423 0.003896415 0.2631923 0.94452381 0.19648063 0.032991182
0.075211741 0.075125501 0.0033092708 0.38436335 0.91646582 0.11115423 0.023955239
0.061164692 0.024410143 0.0072270883 0.56289226 -0.47115949 0.67908847 0.003528147
0.063357845 0.026559057 0.0069956142 0.66490436 -0.54083371 0.51517105 0.0048187673
-0.00015063354 0.029738607 0.0089994166 0.067063287 0.77475584 0.62869382 0.0018533892
0.0015010433 0.029879317 0.008851408 0.038157452 0.81355411 0.58023596 0.0022873515
0.0046064449 0.029891495 0.0088493209 0.010274617 0.79673886 0.60423648 0.0015824698
0.0072673806 0.029892804 0.0088710599 -0.024933895 0.8097775 0.58620703 0.0022304796
0.010099036 0.029856713 0.0088888258 -0.065783016 0.79834402 0.59859782 0.001692316
0.012805284 0.029947128 0.0088955006 -0.10384896 0.76783442 0.63217539 0.0014327178
0.062765844 0.027198594 0.0083071999 0.68066728 -0.47093329 0.56117189 0.0038030518
0.064245671 0.028680366 0.0076611033 0.68108839 -0.44355255 0.58256298 0.0025264234
0.066261724 0.029633094 0.0060581821 0.72906017 -0.48252299 0.48543066 0.0015635587
-0.015416667 0.032910578 0.008762233 0.25370643 0.79731119 0.54765666 0.00096146343
-0.0129825 0.032694768 0.0084061278 0.22831933 0.84432495 0.48475316 0.0014639487
-0.010361726 0.032394115 0.0077346428 0.20002089 0.86385494 0.46232703 0.0012128452
-0.0075010774 0.031900428 0.0075229108 0.15800697 0.87225896 0.46281537 0.0012753224
-0.0044694105 0.031449724 0.0074696853 0.12656409 0.87134206 0.47407228 0.0022562998
-0.0014515145 0.03107819 0.0074697509 0.10066681 0.87216693 0.47873896 0.0017553004
0.0014929707 0.030888023 0.0073942654 0.046310477 0.8749153 0.4820565 0.0018999926
0.0044783265 0.030833034 0.0073394217 0.0075828722 0.87317932 0.48734009 0.0020555723
0.0074984394 0.030840291 0.0073669157 -0.027865317 0.87415236 0.48485172 0.0021243982
0.010520767 0.031013578 0.0074138679 -0.071477652 0.8690502 0.4895331 0.0022315844
0.013477594 0.031336963 0.0074136169 -0.12902477 0.859622 0.49437082 0.0024280876
0.01647863 0.031841557 0.0074540372 -0.1828222 0.85839087 0.47931314 0.002488385
0.019299312 0.032346264 0.0077279676 -0.21911512 0.83781636 0.50005233 0.0016877927
0.022169396 0.032578442 0.0085446155 -0.23492771 0.78631079 0.57142305 0.0011612772
0.02441919 0.032908577 0.0087306546 -0.25094062 0.76799393 0.58924884 0.0016527529
0.065459438 0.03118822 0.0081227664 0.71233648 -0.35859984 0.60330993 0.0025443267
0.06674774 0.031711578 0.0068216948 0.74134928 -0.38854337 0.54720688 0.0020143194
-0.024307845 0.035951335 0.0087215472 0.32439908 0.76734459 0.55312532 0.0013880782
-0.021898596 0.035631198 0.0081984326 0.31598857 0.83456516 0.45127848 0.00099251291
-0.019455528 0.035062511 0.0075382595 0.29220682 0.85264051 0.4331505 0.0010497642
-0.016494872 0.034145888 0.0074749575 0.25568536 0.85509777 0.45103523 0.0012653569
-0.013688718 0.033507761 0.0071137422 0.23369956 0.86719286 0.43972823 0.0011164256
-0.01114284 0.033169154 0.0064208074 0.20024072 0.87992388 0.43085679 0.00096241274
0.020146986 0.03324116 0.0065430738 -0.22756587 0.86309874 0.45085949 0.0015636418
0.022573413 0.033682402 0.0069999616 -0.24116515 0.85339683 0.46211824 0.0018019951
0.025511814 0.034344587 0.0073544141 -0.25790578 0.83978498 0.47775072 0.0019069548
0.028407751 0.035176907 0.007545494 -0.29646853 0.83908951 0.4561089 0.001523028
0.031099753 0.035605967 0.0083690621 -0.30538005 0.79189545 0.52881426 0.0020382563
0.033162661 0.03591229 0.0086583998 -0.3431395 0.76336676 0.54729009 0.0038165045
0.065959148 0.033233777 0.0086320126 0.72817236 -0.30841187 0.61208427 0.0028450654
0.067531526 0.034551352 0.007539006 0.74792898 -0.30022269 0.59200388 0.0018130734
-0.030314099 0.038785901 0.0088233622 0.36068615 0.77351767 0.52112943 0.0015998653
-0.028171519 0.038422707 0.0078001325 0.37100124 0.82506025 0.42618486 0.0010079548
-0.025514157 0.037436452 0.0074514844 0.34480122 0.83146358 0.43563801 0.0012454421
-0.022860715 0.036527693 0.0070898836 0.32881993 0.842978 0.42575273 0.00092019228
-0.020774959 0.036119882 0.0063153571 0.31348863 0.85250539 0.4182815 0.00085600943
0.029419573 0.036157813 0.0064299782 -0.3035261 0.8493973 0.43173626 0.0016168668
0.031764969 0.036733408 0.0069457646 -0.32852101 0.82949686 0.45167345 0.0020324858
0.03448135 0.037657004 0.0073899888 -0.36500177 0.81601787 0.44820607 0.0022693244
0.036994055 0.038367283 0.0081333509 -0.40315822 0.75393653 0.51869369 0.0027125566
0.039187104 0.038831819 0.0088343723 -0.38707164 0.69965291 0.60055077 0.002415977
0.068130612 0.037719999 0.0080882041 0.73095399 -0.17552853 0.65946645 0.0040250854
0.069346637 0.037668806 0.0066784895 0.81729692 -0.24428986 0.52186996 0.0035152119
-0.036346473 0.041847847 0.0086878194 0.38677639 0.76879722 0.509269 0.001267996
-0.034197919 0.041334439 0.0077268346 0.40848351 0.80508137 0.43009913 0.0011269172
-0.031524252 0.040150117 0.0074520293 0.38316163 0.81032377 0.44335374 0.0012399532
-0.029249007 0.039381225 0.0067627984 0.38212454 0.82720178 0.41196856 0.00079624192
0.03570297 0.039057132 0.0061223013 -0.41693559 0.79311472 0.44399753 0.00088977936
0.037832346 0.03960919 0.0069408733 -0.43006262 0.77398133 0.46475697 0.0020882681
0.040423211 0.040695019 0.007592164 -0.44322839 0.74852872 0.49320722 0.0026381842
0.042681593 0.041508999 0.008384699 -0.43877891 0.71082175 0.54973215 0.0025583473
0.068395153 0.040643115 0.0083816312 0.70451957 -0.074387871 0.7057752 0.0034639363
0.069778778 0.040872093 0.0069537312 0.79650772 -0.10754386 0.59498721 0.0036478681
-0.067349955 0.044639423 0.0086880066 -0.49983037 0.054470271 0.86440885 0.00057484373
-0.042404801 0.044740755 0.0087733287 0.39030424 0.73768908 0.55088782 0.0016384756
-0.040155523 0.044302117 0.0077891364 0.41164893 0.78530121 0.46243608 0.0018622318
-0.037562538 0.043216035 0.0073841899 0.39476755 0.80150062 0.44917172 0.0015456993
-0.035250187 0.042377625 0.0067354743 0.41422516 0.80982941 0.41544408 0.0010214814
0.041594073 0.042264797 0.0063196928 -0.46737584 0.75768143 0.45549816 0.0016813589
0.043743394 0.04295896 0.0072255344 -0.45012829 0.73837554 0.50218123 0.0023073256
0.046264984 0.044095799 0.0077966745 -0.43728447 0.72603488 0.53071237 0.0025927769
0.048570372 0.044774644 0.0086272517 -0.39422539 0.67337334 0.62542355 0.0018278901
0.068586707 0.043581478 0.0085344184 0.69534802 -0.00094647054 0.71867263 0.0040434063
0.069970742 0.043615721 0.006982482 0.77046525 -0.023486845 0.63704914 0.002926881
-0.069014281 0.047801651 0.0076495935 -0.43638971 0.12421279 0.89114267 0.0020514766
-0.067923144 0.046798289 0.0083591677 -0.45478725 0.10982473 0.88380265 0.0023838093
-0.048484318 0.047817193 0.0087321131 0.33749181 0.71394461 0.61350006 0.0010725809
-0.046165701 0.047286 0.0079434263 0.38789862 0.76778656 0.50993967 0.002313247
-0.043520156 0.046323095 0.0073657222 0.39639285 0.78528047 0.47561246 0.0016407343
-0.041214291 0.045450132 0.0067885979 0.42390949 0.78681958 0.4485707 0.0017908406
0.047271624 0.045473777 0.0067371805 -0.46520248 0.73410314 0.4946506 0.0023008643
0.049591985 0.046429429 0.007350361 -0.4237577 0.73215902 0.53326601 0.0017774113
0.05212418 0.047260024 0.0081113921 -0.37934175 0.67369306 0.63422197 0.0017717074
0.054410435 0.047756098 0.0088073872 -0.30572742 0.64442754 0.70088798 0.0029384925
0.068344496 0.046757333 0.008522694 0.60156828 0.086300321 0.794146 0.004314662
0.069936626 0.046545979 0.0070759873 0.77224773 0.0437853 0.63381094 0.0034634741
-0.069950573 0.049667872 0.0069506103 -0.39992854 0.12741384 0.90764695 0.0013251224
-0.067065209 0.050153732 0.0085941236 -0.2076561 0.35015014 0.91338593 0.0042398805
-0.065471582 0.050755251 0.0088800574 -0.14517392 0.36727425 0.91871333 0.0066884286
-0.057788208 0.050897252 0.0088988608 0.13416602 0.68010932 0.72072929 0.0035950623
-0.054969002 0.050664749 0.0086632017 0.22257216 0.68991965 0.68881965 0.0017285814
-0.052207727 0.050216883 0.007907304 0.31360796 0.75572771 0.57491356 0.0025129321
-0.049551118 0.049344871 0.0074141673 0.35117248 0.77443671 0.52623725 0.0017728737
-0.046948295 0.048526883 0.0067447475 0.40591794 0.77924424 0.47750294 0.0016053435
0.05086264 0.048258156 0.006123648 -0.4890126 0.75297111 0.44034204 0.0012109801
0.052747462 0.048758328 0.0068116682 -0.44585285 0.72182286 0.52932686 0.0020396544
0.055424612 0.049682323 0.0074977963 -0.36752602 0.69523937 0.61771095 0.0021504813
0.058145612 0.050353389 0.0082180593 -0.30166364 0.64397907 0.70305765 0.002800771
0.060723141 0.050668646 0.0087812385 -0.18961114 0.5667972 0.801741 0.0040177754
0.065061763 0.050685115 0.0089224391 0.13290618 0.38807192 0.91199565 0.0081509622
0.067908131 0.049649369 0.0083426079 0.49008855 0.18286848 0.85227478 0.0087049324
0.069849767 0.049454555 0.0068293726 0.67985517 0.096075729 0.72702575 0.0063521401
-0.06977208 0.05295435 0.0069849351 -0.18571261 0.30297157 0.9347294 0.0037452737
-0.066896155 0.052871272 0.0079354485 0.021786524 0.50082093 0.86527669 0.0042898995
-0.064220928 0.052826263 0.0081961621 0.068995133 0.5586406 0.82653517 0.0044906819
-0.061242618 0.052945245 0.0078379773 0.13193558 0.65098262 0.7475391 0.003499859
-0.058441311 0.052681852 0.0074601262 0.21847664 0.74405992 0.63138169 0.0032150873
-0.055585992 0.052088112 0.0072118468 0.2641446 0.76939094 0.58160567 0.0022220924
-0.053004984 0.051507324 0.0066566211 0.35015419 0.77655065 0.52379483 0.0018395666
0.056550115 0.051289678 0.00638763 -0.41293815 0.70961916 0.57089633 0.0023529187
0.058723498 0.051965855 0.0069336877 -0.37145615 0.68642557 0.6251722 0.0026003476
0.061435748 0.05265189 0.0075472989 -0.2856316 0.61657822 0.73365247 0.0029704254
0.064301491 0.052625306 0.0082088336 -0.083191827 0.50268656 0.86045647 0.00516064
0.067386717 0.052734751 0.0076991543 0.2856622 0.3391006 0.89633024 0.010128533
0.069660738 0.052487999 0.0065900958 0.62575042 0.156417 0.76417935 0.0098498221
-0.069611236 0.056258973 0.0063115968 -0.070228465 0.52677417 0.84709913 0.0079644565
-0.067261517 0.055710841 0.0066389977 0.12825678 0.57887369 0.80526733 0.0042047757
-0.06448184 0.055008374 0.0067049279 0.17709519 0.63459855 0.75227785 0.007256384
-0.061801597 0.054520134 0.0064679179 0.24367307 0.7201966 0.64956927 0.0052751359
-0.059601367 0.054161172 0.0061662253 0.26789331 0.75792068 0.5948019 0.0040197065
0.062190037 0.054433137 0.0063511054 -0.34970599 0.61327577 0.70823616 0.0057985228
0.064201489 0.055059694 0.0066668289 -0.24627088 0.54463238 0.80170208 0.0074647046
0.067254178 0.055486597 0.006678822 0.097891562 0.38454896 0.91789943 0.013776481
0.069442391 0.055111978 0.0062329858 0.56054991 0.20871009 0.80138874 0.009114583
-0.069748133 0.057339132 0.0060379626 -0.11305684 0.70280319 0.70234317 0.02776281
-0.068053529 0.057052009 0.0060867975 0.17424938 0.64946431 0.74015766 0.0017311097
0.067568086 0.057205748 0.0061205998 0.13387653 0.3485902 0.92766476 0.02280522
0.05361037 0.023089657 0.011902338 0.36062565 -0.34614435 0.86610234 0.0020373201
0.0044212262 0.026678482 0.011997311 0.0023507595 0.64568585 0.76359957 0.0037978347
0.0070749484 0.026660496 0.011990992 -0.0055314512 0.64058834 0.76786464 0.0040594391
0.0092875464 0.026932146 0.011954965 -0.080905445 0.66744316 0.74025261 0.0020829332
0.055800695 0.024525272 0.011542263 0.43272969 -0.39477098 0.81049424 0.00084268127
0.058194231 0.024845406 0.010254316 0.48988879 -0.44080845 0.7521283 0.0032979322
