# .PCD v0.7 - Point Cloud Data file format
VERSION 0.7
FIELDS x y z normal_x normal_y normal_z curvature
SIZE 4 4 4 4 4 4 4
TYPE F F F F F F F
COUNT 1 1 1 1 1 1 1
WIDTH 555
HEIGHT 1
VIEWPOINT 0 0 0 1 0 0 0
POINTS 555
DATA ascii
0.066926844 0.04339876 -0.0096365148 0.57653588 0.077956133 -0.81334448 0.0034652271
-0.066392958 0.04546411 -0.0091417553 -0.41683254 0.086805172 -0.90482897 0.0031322045
-0.064034954 0.047049657 -0.010230653 -0.27029949 0.25360292 -0.92877543 0.0035158682
-0.061351363 0.046801731 -0.011137473 -0.12075772 0.40402022 -0.9067443 0.0035856979
-0.058536611 0.04694676 -0.011476396 -0.018207977 0.45273405 -0.89145976 0.0031064623
-0.055433642 0.046990089 -0.011396133 0.091654301 0.52157694 -0.84826708 0.0024273796
-0.052274909 0.046701334 -0.011068316 0.18108666 0.58062088 -0.79378015 0.0014807306
-0.049439028 0.046486139 -0.010352224 0.27634799 0.64690059 -0.71073997 0.001849342
-0.046689913 0.045791745 -0.009869555 0.31811541 0.6853931 -0.65501052 0.0016613628
-0.044528898 0.045289665 -0.0093172332 0.34980306 0.69309789 -0.6302802 0.0019032591
0.050726417 0.045204669 -0.0093125803 -0.35895199 0.66521043 -0.65471256 0.0020393142
0.052843627 0.045628257 -0.0099017909 -0.2580221 0.60395151 -0.75410026 0.0015189667
0.055764053 0.04632818 -0.010367195 -0.18849595 0.55027449 -0.81342936 0.0024832829
0.058699839 0.046392221 -0.010883601 -0.031607941 0.45523232 -0.88981146 0.0027854322
0.061566632 0.046437122 -0.010866363 0.10580601 0.37957639 -0.91909015 0.0049634986
0.064678788 0.046462379 -0.010191546 0.35368323 0.25428644 -0.90013701 0.0058858027
0.066647559 0.046196971 -0.0094020125 0.5185867 0.1722821 -0.83748841 0.0040832297
-0.06410604 0.049628936 -0.0094542373 -0.14622946 0.41359025 -0.89864343 0.0057804808
-0.061306376 0.049824387 -0.0098116975 -0.0069352277 0.53287452 -0.84616584 0.0034207858
-0.05837382 0.049566325 -0.01000342 0.051607143 0.57279503 -0.8180725 0.004498397
-0.055544361 0.049237922 -0.009849987 0.16445926 0.63003182 -0.75895518 0.003715416
-0.052671377 0.048651099 -0.0095613301 0.24703912 0.66080642 -0.70873588 0.0023337093
-0.050468378 0.04813483 -0.0092467228 0.30642968 0.68668741 -0.65921265 0.0019779159
0.056719258 0.048128407 -0.009314605 -0.25195384 0.6106028 -0.75078857 0.0026485706
0.058748715 0.048535377 -0.0095363008 -0.14618926 0.55179745 -0.82106531 0.0030811967
0.061649971 0.048970327 -0.0096198982 0.0019038351 0.46262521 -0.88655192 0.0043504331
0.064545885 0.048937328 -0.0093924496 0.23400368 0.34187949 -0.91014326 0.0061008786
0.066246495 0.04836683 -0.0091003142 0.39148906 0.28713661 -0.87423617 0.0057720435
-0.063521028 0.051085908 -0.009021854 -0.14661787 0.38976231 -0.9091692 0.006652541
-0.0614154 0.051111627 -0.009090866 0.013566914 0.58105814 -0.81374896 0.005078211
-0.058805969 0.051000968 -0.0090883514 0.097206987 0.63401717 -0.76718521 0.0017312388
-0.0071658352 0.0027305235 -0.0063950284 -0.12994683 -0.86984795 -0.47589746 0.0022986589
-0.0043057874 0.0025614516 -0.0068602497 -0.093911983 -0.86519867 -0.49255642 0.0015753115
-0.0014874921 0.0024110477 -0.006943224 -0.051919017 -0.86727893 -0.49510774 0.0017444765
0.0015344504 0.0023883793 -0.0071540223 -0.028347092 -0.86792386 -0.49588779 0.0019420839
0.0045012394 0.0023212554 -0.007174613 0.0035380819 -0.87399668 -0.48591912 0.0017981221
0.0074407989 0.0023899935 -0.007137334 0.031197742 -0.87545443 -0.48229277 0.0020799239
0.01055214 0.0024338099 -0.007001366 0.055744171 -0.87987399 -0.47192633 0.0018120055
0.013332004 0.0026045388 -0.0068163285 0.089381516 -0.87097877 -0.4831222 0.0016826813
0.016442277 0.0028147271 -0.0064894576 0.11847147 -0.89148027 -0.43729562 0.0012866629
0.018875433 0.0029429172 -0.0060680285 0.1546331 -0.88809949 -0.43286014 0.0010896242
-0.018700594 0.0057244576 -0.0072685159 -0.23556514 -0.84733474 -0.47595483 0.0016691517
-0.016654404 0.005298811 -0.007381286 -0.21589792 -0.82355726 -0.52453941 0.0014049435
-0.013423509 0.004567544 -0.007634311 -0.19186744 -0.83184886 -0.52078235 0.0022121435
-0.010444164 0.0039232834 -0.0076159267 -0.1411542 -0.8399002 -0.524064 0.0012590199
-0.0074609648 0.0036690661 -0.0079252198 -0.12456001 -0.81736362 -0.56249583 0.0022089267
-0.0043977234 0.0035088398 -0.0083332695 -0.094509959 -0.82501936 -0.55714536 0.0014114692
-0.0015124008 0.003310967 -0.00837781 -0.050838582 -0.83226746 -0.55203825 0.0020777402
0.0014318513 0.0032925038 -0.0085659511 -0.033517722 -0.81377149 -0.58021766 0.0012263061
0.0047048405 0.003292975 -0.0087124258 -0.0036176569 -0.82042706 -0.57173973 0.0014509074
0.0075778984 0.0033125121 -0.0086255269 0.026095362 -0.80195957 -0.59680796 0.0012199881
0.010667967 0.0033931825 -0.0085931476 0.052893933 -0.80643994 -0.58894569 0.00079855154
0.013327422 0.0035918322 -0.0085148979 0.088514537 -0.82237351 -0.56202048 0.0024136419
0.016207647 0.0036181104 -0.0080400631 0.11182144 -0.8388263 -0.5327912 0.0012285818
0.01977754 0.0038874524 -0.0075503015 0.15381238 -0.85561347 -0.49423411 0.0014255282
0.022643402 0.0044687949 -0.0075678448 0.17479832 -0.86558872 -0.46925658 0.0014709305
0.025616722 0.0050858478 -0.0075220745 0.20622879 -0.86209607 -0.46288222 0.0014866554
0.028297888 0.005517208 -0.0069163856 0.24871686 -0.85988861 -0.44579321 0.0015046876
0.030342696 0.0057554157 -0.0062772264 0.2888158 -0.86412871 -0.41214934 0.0015956676
-0.027353136 0.0084839305 -0.0065637529 -0.34219569 -0.8301723 -0.44013196 0.0016521106
-0.025373954 0.0083821714 -0.0076442026 -0.30460256 -0.7990464 -0.51840347 0.0013737744
-0.02258805 0.0074530561 -0.0077898037 -0.30265203 -0.79483682 -0.52596211 0.0015346997
-0.019130042 0.0067472663 -0.0085553499 -0.21147494 -0.77621847 -0.59393865 0.0035132377
-0.017266914 0.0063224207 -0.0087232385 -0.212677 -0.80163682 -0.55870104 0.0020956891
0.026725443 0.006049314 -0.0087375464 0.21523446 -0.83179438 -0.5116564 0.0016765875
0.028805755 0.0063572926 -0.0082674306 0.24038239 -0.83812946 -0.48964819 0.0020863963
0.031596586 0.0068451231 -0.0076209279 0.28001806 -0.84865731 -0.44874343 0.0012827794
0.034477025 0.0078367842 -0.0075659421 0.30840689 -0.83604717 -0.45377344 0.0015204491
0.037076272 0.008469671 -0.0069240527 0.33814338 -0.84004843 -0.42423773 0.0013509877
0.039346568 0.0089720394 -0.0061575663 0.39343947 -0.83981311 -0.37405792 0.0019231194
-0.034022722 0.011562528 -0.0070859343 -0.35242975 -0.78753084 -0.5055576 0.00077989238
-0.031691283 0.011091762 -0.0078912424 -0.31708446 -0.77790475 -0.54251426 0.0017925957
-0.029015139 0.010038407 -0.0079980772 -0.32300845 -0.78012985 -0.53578246 0.0016112854
-0.026433693 0.0092754792 -0.0084097078 -0.304234 -0.77845591 -0.54904288 0.0016287211
0.037887074 0.0094203986 -0.0081327669 0.33477095 -0.81688595 -0.4697082 0.001667595
0.040482845 0.010238942 -0.0074993256 0.37429675 -0.81983393 -0.43332931 0.0014863814
0.043114305 0.011259373 -0.0070776269 0.40482566 -0.81667548 -0.41128731 0.0016543628
0.045248587 0.01189555 -0.0063240496 0.4309569 -0.80588204 -0.40599304 0.0017315422
-0.039100982 0.014114027 -0.0070698131 -0.38383061 -0.7408815 -0.55115211 0.00099295774
-0.038050693 0.014293891 -0.0081939315 -0.38534594 -0.73215044 -0.56166202 0.00086969906
-0.034675881 0.012674399 -0.0083629955 -0.36304012 -0.76237524 -0.53571051 0.00073511503
-0.032790765 0.012267119 -0.0089892764 -0.30751762 -0.73709542 -0.60176688 0.001163632
0.044340674 0.012436813 -0.0081488006 0.40415221 -0.79103154 -0.45927113 0.0018414499
0.046628699 0.013344972 -0.0074754208 0.44391525 -0.78813136 -0.42636645 0.0012999061
0.049120892 0.014505678 -0.0069809514 0.47004318 -0.77113855 -0.42942384 0.0013367415
-0.041051183 0.015423049 -0.0075023277 -0.42564595 -0.73742062 -0.52443904 0.0016152628
-0.038641628 0.01501437 -0.0087859677 -0.38081884 -0.75818467 -0.52927589 0.0017969403
0.050150692 0.015772445 -0.0080672568 0.47432104 -0.74362636 -0.47121069 0.0015479489
0.052232426 0.016755577 -0.0073494948 0.50566494 -0.72866356 -0.46190089 0.0014689531
0.054325774 0.017617447 -0.0063532498 0.5347532 -0.7325145 -0.42126173 0.00084833411
-0.048826743 0.020937722 -0.0077671511 -0.47870004 -0.63267845 -0.60873991 0.00066715799
-0.047471687 0.019868962 -0.0076954355 -0.48023018 -0.62907952 -0.61125928 0.00060764718
0.053566001 0.018375136 -0.0083640423 0.51854491 -0.69004345 -0.50492692 0.0015938339
0.055618037 0.019375172 -0.0075786575 0.5523231 -0.69497204 -0.46038368 0.0014992127
0.057626825 0.020487282 -0.0067439899 0.58533168 -0.66175181 -0.46847776 0.0011227519
-0.052008905 0.023231767 -0.0076251323 -0.48853162 -0.62064296 -0.61330187 0.00073618494
-0.050414912 0.022081938 -0.0076952428 -0.48735344 -0.6245169 -0.61029941 0.00081131503
0.056758255 0.021259997 -0.0088335704 0.54822844 -0.61590284 -0.56578201 0.0013200477
0.05872152 0.022227304 -0.0077046216 0.59740418 -0.64277351 -0.47953159 0.0015571867
0.060764097 0.023479152 -0.0068430104 0.61891586 -0.61517715 -0.48836479 0.0013213969
0.059676208 0.024191055 -0.0089340294 0.57488167 -0.55309206 -0.60299265 0.0014098029
0.061829269 0.025399195 -0.0077407435 0.65182543 -0.54855239 -0.52365434 0.002428215
0.063440681 0.026315367 -0.0066518406 0.67961884 -0.53163403 -0.50545382 0.0017255511
-0.00085704075 0.02994488 -0.008903088 0.077308282 0.78262973 -0.61766827 0.0011843882
0.0016803724 0.029894739 -0.0087363534 0.039984889 0.80303091 -0.59459448 0.0019082238
0.0041780258 0.02983368 -0.0087398915 0.0034335502 0.81728137 -0.57622856 0.0017533128
0.0073591052 0.029892396 -0.0087205339 -0.040698782 0.83165276 -0.55380255 0.0019951919
0.0097014848 0.029932734 -0.008905434 -0.080000974 0.78446406 -0.61499262 0.00083352195
0.0627032 0.027532013 -0.0087489802 0.63575029 -0.46687239 -0.61469644 0.0018184591
0.064471871 0.028583383 -0.0074784998 0.71368223 -0.45885974 -0.52924985 0.0017621517
0.066144526 0.029707203 -0.0062773493 0.73183799 -0.44416851 -0.51684386 0.0013092925
-0.015694464 0.032915208 -0.0087976307 0.24136806 0.78512222 -0.5703724 0.0005776753
-0.013166892 0.032558475 -0.0083049815 0.21613252 0.82425809 -0.52334052 0.0015255983
-0.010298103 0.032252099 -0.0076970952 0.19313245 0.84253752 -0.50282234 0.0015309565
-0.0076089944 0.031797849 -0.0075053517 0.15455323 0.85453749 -0.49586189 0.0018927217
-0.0044958666 0.031239707 -0.0076284236 0.11767644 0.83384985 -0.53930211 0.0018367836
-0.0015734021 0.030822515 -0.0077193258 0.077417515 0.83286041 -0.54804212 0.0019510656
0.0012827695 0.030795673 -0.0074252551 0.045794088 0.84553778 -0.53194815 0.0018625719
0.0044425451 0.030740034 -0.0073688766 0.0024946872 0.85488582 -0.51881027 0.0021283599
0.007502866 0.030770784 -0.0073787346 -0.040036954 0.85777271 -0.51246756 0.0020803325
0.010531017 0.030948058 -0.0074630408 -0.086527124 0.86557961 -0.49323934 0.0019548566
0.013458542 0.031175246 -0.007659907 -0.1347962 0.85460693 -0.5014748 0.0022100625
0.016404776 0.031663362 -0.007742879 -0.18530419 0.85551351 -0.48348626 0.0022297306
0.019363014 0.032298777 -0.0078832181 -0.22256224 0.82951212 -0.51222616 0.0019020837
0.021926461 0.03252561 -0.0086901942 -0.25260115 0.80008698 -0.54410797 0.0017980987
0.065415286 0.031156885 -0.0082858857 0.69404233 -0.3554959 -0.62604141 0.0016529062
0.066766247 0.031815108 -0.0069984342 0.74275911 -0.39703056 -0.53914332 0.0018716522
-0.022209199 0.035507407 -0.0082855681 0.3084355 0.80381536 -0.50867307 0.0015553214
-0.01945176 0.034928225 -0.0076062065 0.29354939 0.82838845 -0.47707587 0.0015908125
-0.0165742 0.034057442 -0.007476869 0.24807879 0.82945514 -0.5004608 0.0016101768
-0.013734716 0.033551607 -0.0069901976 0.22649272 0.84411091 -0.48598135 0.0017075608
-0.011269868 0.033187926 -0.0064489678 0.20265788 0.86057436 -0.4672702 0.0011725192
0.020070441 0.033253089 -0.0066161035 -0.23573935 0.85748631 -0.45732284 0.0018084871
0.022487078 0.033596121 -0.0072826305 -0.24755973 0.83207065 -0.49635944 0.0015706252
0.025529359 0.034130994 -0.0078548808 -0.25692499 0.80810541 -0.53005207 0.0013142035
0.028329086 0.035076085 -0.0077102669 -0.2904264 0.83501196 -0.46734098 0.0015385139
0.031124203 0.035657119 -0.0084092459 -0.30469069 0.80754787 -0.50500488 0.0020640192
0.065875009 0.033144262 -0.0088827647 0.68291378 -0.32540667 -0.65401781 0.0025622321
0.06754709 0.034530919 -0.0075851725 0.75971663 -0.28131866 -0.58625114 0.0018649743
0.069137529 0.035744995 -0.0061042649 0.79235697 -0.3076084 -0.52682781 0.0023506726
-0.063786551 0.036946107 -0.0087773884 -0.55413657 -0.25218925 -0.79330534 0.00095971511
-0.030551152 0.038808227 -0.0086489674 0.3598749 0.76052123 -0.54046053 0.00092093111
-0.028197182 0.038290136 -0.0078496151 0.36473024 0.80064863 -0.47532481 0.0015851546
-0.025567519 0.037341531 -0.0074968119 0.34285083 0.80826283 -0.47871128 0.0016814363
-0.022820938 0.036567781 -0.0069532841 0.32281819 0.82399607 -0.46563819 0.0015214909
-0.02084218 0.036096081 -0.0063383076 0.31000552 0.83576101 -0.45321083 0.0014081185
0.029562106 0.036143113 -0.0066210791 -0.30126461 0.84083426 -0.44970798 0.0013563574
0.031613652 0.036570989 -0.0071252878 -0.32174268 0.82241178 -0.46917006 0.001527396
0.034536693 0.037527993 -0.0076387418 -0.35456258 0.79934108 -0.48511767 0.0018247783
0.036993377 0.038439605 -0.0080355462 -0.39590794 0.76624429 -0.50608951 0.0018848316
0.068158619 0.03738771 -0.0079909284 0.75822824 -0.17891654 -0.62695992 0.0024357559
0.069384582 0.037710171 -0.0065556406 0.80020791 -0.21402957 -0.56023073 0.0019735524
-0.065940209 0.041698277 -0.0089240605 -0.5401355 -0.13986209 -0.82987487 0.0040755011
-0.036412902 0.041697308 -0.0086379824 0.38051236 0.74009383 -0.55450106 0.0015478716
-0.034290675 0.041187201 -0.0078218738 0.38737187 0.78788882 -0.47872138 0.0016885641
-0.031580456 0.040118765 -0.0074196593 0.37505344 0.79206616 -0.4816286 0.0016625706
-0.029188419 0.039361287 -0.0067878137 0.37560627 0.81122404 -0.44814676 0.0012522929
0.037798639 0.039495453 -0.0070236758 -0.4171522 0.76926309 -0.48396116 0.0013339021
0.040576003 0.04071261 -0.0076303175 -0.4333382 0.73990577 -0.51454586 0.0014905856
0.04306297 0.041505259 -0.0086328322 -0.42722946 0.71328545 -0.55560672 0.0018311474
0.068383552 0.040369097 -0.0083523616 0.72248709 -0.075765938 -0.68722039 0.0024105259
0.069677323 0.040586632 -0.0069056302 0.78579956 -0.10836393 -0.60891396 0.0022804164
-0.067249037 0.044628296 -0.0084359534 -0.47777656 0.012320467 -0.87839502 0.0035974132
-0.042365197 0.044744469 -0.0086767562 0.37248507 0.73034191 -0.57258677 0.0021156673
-0.040259659 0.044209573 -0.0078340238 0.3991048 0.77399898 -0.49156991 0.002264776
-0.0376078 0.043129545 -0.0073985159 0.3986209 0.78879863 -0.46786556 0.0015146683
-0.035212401 0.042375106 -0.0066330289 0.40859729 0.79780185 -0.4433513 0.0011174529
0.041827567 0.042319641 -0.0062077092 -0.46056286 0.75864601 -0.46080151 0.0015633856
0.043911353 0.042873431 -0.007373176 -0.43415082 0.73402691 -0.52222365 0.0013350679
0.046483718 0.043966681 -0.0080123618 -0.4190838 0.72078347 -0.55212313 0.001774769
0.048647042 0.044720374 -0.0086031612 -0.39016581 0.69839859 -0.60000843 0.0019101219
0.068409055 0.043506596 -0.0084514702 0.65464169 0.029317755 -0.75537056 0.0026838093
0.069831066 0.043491352 -0.006972502 0.76086462 -0.011220514 -0.64881361 0.0028539656
-0.067472026 0.047496416 -0.0084579187 -0.37269914 0.17614026 -0.91108173 0.0047800979
-0.048561186 0.047743991 -0.0086893309 0.32965502 0.69449377 -0.63953578 0.0015266013
-0.046202969 0.047214437 -0.0079232091 0.36706093 0.75514311 -0.54316211 0.0023203273
-0.043553058 0.046196822 -0.0074333488 0.38064128 0.77283275 -0.50778127 0.0016457576
-0.041160461 0.04543728 -0.0066895429 0.4207651 0.77997744 -0.46324065 0.0016311015
0.047161169 0.045421436 -0.0064879772 -0.43773237 0.73722559 -0.51467347 0.0013428311
0.049686499 0.04613952 -0.0075728353 -0.39855713 0.71271914 -0.57722056 0.0012793462
0.052375115 0.047248602 -0.0080822743 -0.36807269 0.69148409 -0.62158853 0.0024107671
0.054835171 0.047804493 -0.0088395849 -0.30235437 0.64878833 -0.69832337 0.0025178951
0.068125762 0.046622515 -0.0083424607 0.57200706 0.12278742 -0.81100625 0.0035670379
0.069805175 0.046402276 -0.0068678157 0.71384352 0.070318259 -0.6967659 0.0036193433
-0.07002338 0.05003386 -0.0066163177 -0.428846 0.17318696 -0.88662136 0.002296001
-0.066866681 0.050019007 -0.0084638223 -0.26331258 0.31216466 -0.91280872 0.0034495764
-0.065362357 0.050337452 -0.0089111002 -0.10805515 0.43838829 -0.89226669 0.0044925618
-0.057492595 0.050905738 -0.0088420054 0.10985181 0.65445834 -0.74807537 0.0043887752
-0.054932047 0.050560579 -0.0085449265 0.21401423 0.67942744 -0.70183778 0.002411494
-0.052275408 0.050151512 -0.0077991891 0.31059274 0.74643052 -0.58853513 0.0030344799
-0.049559887 0.049257301 -0.0073780403 0.33735275 0.75986952 -0.55569005 0.0018667057
-0.047064316 0.048469819 -0.0067456453 0.39807099 0.76473367 -0.50667739 0.0018405934
0.052887734 0.048625503 -0.0068240813 -0.410584 0.70390332 -0.57960409 0.0013434903
0.055751227 0.049140275 -0.0079766195 -0.27663457 0.63340604 -0.7226826 0.0011998418
0.058551729 0.050002135 -0.0083399154 -0.18288057 0.57472157 -0.79765266 0.0023534915
0.061468117 0.050466314 -0.0086949104 -0.050624214 0.502823 -0.86290562 0.0035733804
0.064865217 0.050334286 -0.0087564075 0.1274744 0.40668911 -0.90462941 0.0060725599
0.067712769 0.049504731 -0.0079768961 0.48400977 0.20206256 -0.85141373 0.0053083729
0.069679908 0.049383972 -0.00659027 0.69427091 0.11765917 -0.71003115 0.0050332341
-0.069833346 0.053154767 -0.0064796288 -0.21848738 0.3204349 -0.92172921 0.0052244551
-0.066983461 0.052576799 -0.0076675126 -0.075234324 0.44654843 -0.89159089 0.0041617611
-0.06429033 0.052750312 -0.0079061594 0.044018615 0.56635582 -0.8229844 0.0065373094
-0.061394643 0.052757792 -0.0077391057 0.11275695 0.64588827 -0.75505906 0.0049337456
-0.05843439 0.052537572 -0.0073681311 0.19095731 0.73261118 -0.65331167 0.0029323047
-0.055500563 0.051953342 -0.0071526538 0.26167774 0.75648755 -0.59937584 0.0025769155
-0.053045321 0.051518623 -0.0065388051 0.33925501 0.7675491 -0.54385155 0.0020514906
0.056567624 0.051145915 -0.0062403181 -0.38312942 0.69920969 -0.60358733 0.0032143202
0.059277855 0.051500935 -0.0072836988 -0.24221306 0.60023892 -0.76226377 0.0024691953
0.061824985 0.052281361 -0.0075265281 -0.14762002 0.53096515 -0.83443654 0.003518251
0.064810678 0.052313216 -0.0078464402 0.1128381 0.39881718 -0.91006178 0.0064591072
0.067698374 0.0524101 -0.0071749273 0.41907334 0.25200644 -0.87227881 0.010831872
0.069389395 0.052228693 -0.0063261702 0.61747217 0.15669477 -0.77082747 0.0058075222
-0.069582075 0.054948334 -0.0062647033 -0.18500146 0.38288933 -0.9050802 0.010154876
-0.067248076 0.05518496 -0.0065042772 0.043474611 0.53588146 -0.84317315 0.0058532208
-0.06441541 0.054782823 -0.0065590558 0.1493503 0.63200402 -0.76043767 0.0065317051
-0.061730541 0.054352056 -0.0063703954 0.1975459 0.70126134 -0.68498772 0.0047819773
-0.059860043 0.054222956 -0.0060269278 0.25894341 0.75581193 -0.60141224 0.0033921171
0.062693253 0.054417808 -0.0062217549 -0.18125977 0.54413658 -0.81918269 0.0053262799
0.064934343 0.054827694 -0.0065409075 -0.0030621015 0.39232242 -0.91982263 0.0079807006
0.067721374 0.054924678 -0.0063901753 0.31565037 0.26753291 -0.91037959 0.01157572
0.069158874 0.054288831 -0.0061151995 0.47559309 0.23957835 -0.84641212 0.014590688
-0.012959769 0.0027223448 -0.0041124192 -0.21552922 -0.91317779 -0.34590977 0.0023985759
-0.010559546 0.0024136372 -0.0045881541 -0.15166822 -0.9048366 -0.39782843 0.0021972912
-0.0076699588 0.0020680262 -0.0047500208 -0.13628575 -0.91203821 -0.38679782 0.0016154659
-0.0044113249 0.0015605325 -0.0046159942 -0.090552546 -0.92618287 -0.36604032 0.0020650912
-0.001565052 0.0013695485 -0.0046499432 -0.051515024 -0.93131554 -0.36055177 0.0023068618
0.0013799279 0.001265473 -0.00469446 -0.029704677 -0.92847008 -0.37021735 0.0019307435
0.0045598205 0.0011039964 -0.0044776611 0.00457511 -0.92953837 -0.36869699 0.0020030588
0.0075449785 0.0012197969 -0.0044793524 0.03622387 -0.9320842 -0.36042601 0.0019185566
0.010539631 0.0013265063 -0.0043928465 0.068329938 -0.93751132 -0.34117964 0.0020900916
0.013483217 0.0016632512 -0.0045399731 0.10437611 -0.93944514 -0.32641751 0.0018323967
0.016398454 0.0021033895 -0.0047319862 0.1213791 -0.92956144 -0.34811303 0.0014283083
0.019951677 0.0026064992 -0.0045548119 0.17592913 -0.91884363 -0.35323542 0.0014953053
0.02200059 0.0027941125 -0.00383689 0.19009207 -0.94056433 -0.28143162 0.001637702
0.024059655 0.0029568544 -0.0030155019 0.17366607 -0.97497338 -0.13880587 0.0027660474
-0.021711498 0.005621573 -0.0049529625 -0.2925019 -0.8576864 -0.42286733 0.0010784788
-0.018975632 0.0048274798 -0.0052868272 -0.23052076 -0.87341982 -0.42894992 0.0018466598
-0.016481468 0.0038926799 -0.0046568005 -0.24343555 -0.88794738 -0.39024171 0.0010089948
-0.013787504 0.0033928193 -0.0052961167 -0.22174959 -0.87719303 -0.42586324 0.0012625158
-0.01139541 0.0030733498 -0.0058685392 -0.17329781 -0.88403195 -0.43411455 0.0030163964
0.020643808 0.0031606201 -0.0058163009 0.16344912 -0.90736789 -0.3872568 0.0014183252
0.022931699 0.0033508088 -0.0049539958 0.21017824 -0.91081065 -0.3553153 0.0014945017
0.025806667 0.0039826538 -0.0049406546 0.24005076 -0.911892 -0.33290917 0.0014903868
0.028564377 0.0046769879 -0.0046430547 0.25173488 -0.90733105 -0.3367193 0.0016338711
0.031385429 0.0055152765 -0.0046667415 0.28743118 -0.90288174 -0.31966826 0.0018647115
0.033274397 0.0057116291 -0.0033437326 0.31404406 -0.92709678 -0.20461622 0.0025550299
-0.029362399 0.0087419134 -0.0053282538 -0.32839534 -0.81813473 -0.47202983 0.00075729447
-0.025973536 0.0072851935 -0.0050713778 -0.32226524 -0.82598269 -0.46249068 0.00074479467
-0.023354493 0.0063824034 -0.0052690632 -0.30251196 -0.83374387 -0.46190658 0.00063216523
0.032604214 0.0061720284 -0.0055724992 0.30554381 -0.89267176 -0.33133072 0.0021844003
0.034615498 0.0066270833 -0.004618648 0.34531149 -0.89144528 -0.29340279 0.0015266323
0.037792236 0.0078158053 -0.0045434311 0.36457551 -0.88809824 -0.27993983 0.0018740951
0.039883319 0.008554114 -0.0041272463 0.38829529 -0.88707316 -0.24965568 0.001960255
-0.036031831 0.011413559 -0.0049592215 -0.39809698 -0.83125669 -0.38798338 0.00085134263
-0.033993229 0.010510231 -0.0048965365 -0.36661467 -0.83576441 -0.40876833 0.0011613887
-0.031756308 0.0097519103 -0.0053913761 -0.34925246 -0.84128916 -0.41262007 0.0017497764
0.041247815 0.0094688646 -0.004946874 0.4128336 -0.86872166 -0.27366239 0.001552904
0.043521814 0.010408765 -0.0045505282 0.42404008 -0.86047912 -0.28242815 0.0011956746
0.045852549 0.01137968 -0.0039898655 0.45206806 -0.84973109 -0.27127773 0.0018459713
-0.040368751 0.013797028 -0.0051588747 -0.39530069 -0.76677513 -0.50576019 0.0012495392
-0.037640028 0.012655201 -0.0057372302 -0.40286648 -0.79220796 -0.45837227 0.00049988058
0.047110651 0.012407947 -0.0048632864 0.47086537 -0.83226061 -0.29262275 0.0017147318
0.049469627 0.013634605 -0.0044805612 0.49157789 -0.82044208 -0.29193506 0.0018033063
0.051574912 0.014651352 -0.0038342795 0.51452166 -0.80990195 -0.28164941 0.0019075943
0.050898928 0.015022899 -0.0059483279 0.4916558 -0.7756176 -0.39584345 0.0010841173
0.052768398 0.015823735 -0.0047308225 0.53019583 -0.7948271 -0.29519835 0.0017267298
0.055050477 0.017250277 -0.0042748037 0.55324352 -0.77531254 -0.3046509 0.0020925689
0.056350734 0.018495429 -0.0050894138 0.57575375 -0.75451958 -0.31497264 0.0022782998
0.058375012 0.019870643 -0.0044206865 0.61819065 -0.71167362 -0.33370802 0.0019237794
0.060126044 0.020815309 -0.0032358808 0.6473242 -0.72618842 -0.23156361 0.0036455912
0.059581436 0.021365413 -0.0052264472 0.63206035 -0.69041294 -0.3518945 0.0017451331
0.061408527 0.022672871 -0.0044588391 0.67062098 -0.67337286 -0.31118557 0.0013949608
0.063159347 0.023789728 -0.0033701845 0.70042819 -0.64437068 -0.30689868 0.001934623
0.062685572 0.024353817 -0.0052687852 0.68741119 -0.63277918 -0.35644966 0.0018701523
0.064216688 0.025697412 -0.0044058734 0.72676241 -0.59500784 -0.34319389 0.0026917402
0.065487504 0.027705111 -0.0049792537 0.75957626 -0.54790545 -0.35049045 0.0021238157
0.066705599 0.029004585 -0.0042856638 0.78653425 -0.50679278 -0.35288101 0.0023029877
-0.0093485676 0.03294377 -0.0059190136 0.20296159 0.87850398 -0.4324781 0.0018291529
-0.0072311535 0.03275232 -0.0055008959 0.16574602 0.91396016 -0.37041205 0.0022190437
-0.0044220365 0.032591619 -0.0048912615 0.13109829 0.92129862 -0.36609006 0.0019383325
-0.0015520763 0.032403454 -0.0044649732 0.097480699 0.94315249 -0.31774354 0.0025082226
0.0014923991 0.032148737 -0.0045374255 0.04733577 0.94465065 -0.32464522 0.0027185262
0.0045066816 0.032079879 -0.0044869864 0.0094125969 0.93727505 -0.34846368 0.0028404158
0.0074363276 0.032082234 -0.0045385403 -0.034770504 0.94689173 -0.31966716 0.0026851273
0.010620907 0.032281596 -0.0045999247 -0.1059834 0.93565089 -0.33663771 0.0026707114
0.013420341 0.032518629 -0.0048168921 -0.15470611 0.9178502 -0.36553654 0.0019013786
0.01627137 0.032757666 -0.0055118664 -0.20170122 0.89215082 -0.40420729 0.0017865676
0.067985371 0.031429794 -0.0046027866 0.8209393 -0.43842387 -0.36584586 0.002380365
0.06913963 0.032640509 -0.0034494009 0.84043658 -0.41639793 -0.34681275 0.0025662999
-0.018729154 0.035717327 -0.0054841735 0.3054924 0.88190466 -0.35905215 0.0025088885
-0.016323747 0.03530141 -0.0048174267 0.27624625 0.89238608 -0.35684046 0.0019696581
-0.013460334 0.034513876 -0.0046811225 0.25289688 0.89446074 -0.36875895 0.002241106
-0.010600007 0.033779286 -0.0046572755 0.20239572 0.90875435 -0.36496779 0.0021453467
-0.0077047702 0.033407886 -0.0041249557 0.16216646 0.93145084 -0.32573193 0.0023915819
-0.004723643 0.033167575 -0.0034860501 0.13154902 0.94234377 -0.30770618 0.0025368608
0.014096663 0.033129696 -0.0035059873 -0.16169022 0.93859136 -0.30479929 0.0013137138
0.016330102 0.033318687 -0.0040717232 -0.18953063 0.91519898 -0.35565281 0.0018910224
0.019400802 0.033757247 -0.0048724343 -0.23517185 0.88670355 -0.39805889 0.0015014454
0.022510121 0.034729175 -0.0046037226 -0.26764446 0.89810622 -0.34895808 0.0014139001
0.025295269 0.035420977 -0.0048942659 -0.26804498 0.88980949 -0.36931151 0.0014998725
0.027245576 0.035751469 -0.0055329292 -0.28905225 0.88740051 -0.35912275 0.0018540382
0.068690687 0.03378015 -0.0054794215 0.83653831 -0.34192887 -0.42812181 0.0025949043
0.069648534 0.034691025 -0.0042787525 0.85913354 -0.33417785 -0.38757533 0.0030847564
-0.027229581 0.038875557 -0.0056455033 0.36759239 0.86092556 -0.35168606 0.0032050349
-0.025191702 0.038452681 -0.0049247374 0.36807328 0.86803341 -0.33322662 0.0019179874
-0.022490906 0.037446629 -0.0046501337 0.35013875 0.87248051 -0.34085274 0.0024259984
-0.019859089 0.036541849 -0.0043874825 0.29848877 0.89606434 -0.32859269 0.0023531253
-0.017479122 0.036120333 -0.0036138834 0.27695593 0.91275734 -0.30028236 0.0025577608
0.026415089 0.036118325 -0.0038465494 -0.28912058 0.90604037 -0.30903086 0.0019120121
0.028397638 0.036501896 -0.0046014208 -0.29189077 0.88512242 -0.36243346 0.0013611969
0.031655978 0.03747341 -0.0051096547 -0.35376599 0.85117817 -0.38774389 0.0017367732
0.034085583 0.038514026 -0.0051881555 -0.3952851 0.84844995 -0.35196939 0.0019249603
0.07045868 0.037508614 -0.0045540687 0.87187183 -0.24099191 -0.42633611 0.0027159841
-0.033230167 0.0417988 -0.0056912401 0.41607064 0.82496655 -0.38251203 0.0024903365
-0.031295456 0.041289974 -0.0046436507 0.42744353 0.85396749 -0.2967011 0.0020832794
-0.028576773 0.040033571 -0.0045365132 0.37894115 0.87377834 -0.30481955 0.002350457
-0.026263818 0.039367802 -0.003760529 0.36838481 0.88378137 -0.28848407 0.0022310887
0.035353094 0.039304286 -0.0046499581 -0.40938389 0.84066349 -0.35452729 0.0019917646
0.037236813 0.040194638 -0.0048677749 -0.44656485 0.80540943 -0.38973784 0.0012363931
0.039485145 0.041418824 -0.0051335301 -0.46493998 0.78147995 -0.41607675 0.0014193541
0.071132831 0.040514786 -0.0045533492 0.88929504 -0.15276083 -0.43106675 0.0032269366
0.072063833 0.041424349 -0.0031053694 0.93178463 -0.16854395 -0.32151267 0.0018806352
-0.039385352 0.04491106 -0.0057831272 0.43060824 0.80345309 -0.41114444 0.0017429637
-0.03720782 0.044246562 -0.0046918243 0.45058665 0.84178466 -0.29727134 0.0018776245
-0.034656212 0.043030575 -0.0044921394 0.4256089 0.85008544 -0.31018049 0.0022012696
-0.032510754 0.042261794 -0.0037303823 0.42102271 0.85439837 -0.30453756 0.0022096906
0.041119393 0.042572405 -0.0047160983 -0.46424016 0.77744496 -0.42433527 0.0012809397
0.043631643 0.043992266 -0.0051104729 -0.47298759 0.76059884 -0.4447158 0.00063763978
0.045257024 0.044768546 -0.0057344129 -0.45764217 0.77113652 -0.44261956 0.0017872994
0.071360469 0.043493304 -0.0047773947 0.87495476 -0.057840742 -0.48073748 0.0030778253
0.07213176 0.043770693 -0.0033183924 0.90880477 -0.072461478 -0.41088104 0.002957473
-0.045143701 0.047990087 -0.0059296614 0.41470686 0.78263479 -0.46422091 0.0019554119
-0.043014139 0.04732646 -0.0048559569 0.45419657 0.82371426 -0.33941165 0.0022007322
-0.040529277 0.046137251 -0.0044449363 0.45529079 0.82931584 -0.32395312 0.0025338768
-0.038467184 0.045264103 -0.0038203711 0.44380844 0.84089059 -0.30973715 0.0021466133
0.044747308 0.045181073 -0.0038401752 -0.52740139 0.78798836 -0.31768262 0.0017227342
0.046645671 0.045949053 -0.0050048502 -0.46289453 0.75410438 -0.4658919 0.0012046943
0.049172092 0.047436595 -0.0052551706 -0.45929295 0.7439521 -0.48537123 0.0012074149
0.071359649 0.046498418 -0.0048080194 0.85361695 0.017557271 -0.52060521 0.0035079801
0.072183117 0.046600811 -0.0033490143 0.89100415 -0.012050861 -0.45383531 0.0036594141
-0.051013969 0.050940279 -0.0059834016 0.34973305 0.76198101 -0.54504287 0.0020427029
-0.048947345 0.050463509 -0.0049603484 0.41244349 0.82136083 -0.39402637 0.0030658024
-0.046520676 0.049398206 -0.0044721956 0.44133991 0.81850541 -0.3677879 0.0023824209
-0.044261094 0.048370436 -0.0039778315 0.43839771 0.8308928 -0.34267271 0.0020360814
0.050572891 0.048695762 -0.0045254738 -0.46670139 0.75342101 -0.46319178 0.001182353
0.052391961 0.049529478 -0.0050734854 -0.44532546 0.73006219 -0.51835752 0.0014017457
0.054679122 0.050638419 -0.0055275541 -0.4123486 0.72551495 -0.55099612 0.0024215553
0.071204916 0.049480654 -0.0048593585 0.82022822 0.051340278 -0.5697279 0.0045917272
0.072165959 0.049467184 -0.0033529596 0.87031293 0.0066069122 -0.49245477 0.0054426277
-0.073342934 0.053408697 -0.0043102629 -0.37656233 0.16159512 -0.91218853 0.0064510526
-0.071049675 0.05340746 -0.0059048859 -0.23605008 0.31487897 -0.91931039 0.003753318
-0.057549153 0.053671591 -0.0056842468 0.25456756 0.81049854 -0.5275296 0.0050757658
-0.055157173 0.053382277 -0.0047847279 0.32276833 0.84509379 -0.42618892 0.0032841002
-0.052388802 0.052394316 -0.0045149457 0.37171417 0.82996523 -0.41591632 0.0028544397
-0.050110802 0.051463798 -0.0040775682 0.41596243 0.82773727 -0.37659833 0.0033475368
0.053437594 0.051143359 -0.0030596461 -0.52283722 0.80127072 -0.29087216 0.0074339653
0.055846311 0.051699586 -0.0048987898 -0.41148022 0.7212559 -0.55720192 0.0015564254
0.058408916 0.052998357 -0.0051923897 -0.38939616 0.6931529 -0.60655558 0.0032163113
0.060424358 0.053661283 -0.0058061304 -0.37216368 0.67237043 -0.63985324 0.0047603818
0.070983432 0.052485071 -0.0048250426 0.755638 0.073489204 -0.65085375 0.0074925269
0.072168596 0.052448057 -0.0033142408 0.82939923 0.029365679 -0.55788398 0.0066587399
-0.072600164 0.055724055 -0.0049910028 -0.25547877 0.38521609 -0.88675767 0.020623339
-0.070194475 0.05631486 -0.0056351628 -0.031446986 0.5120101 -0.85840356 0.0089592524
-0.06719809 0.056537528 -0.0057584611 0.10435992 0.55890441 -0.82263899 0.0050837845
-0.064235665 0.056233063 -0.0053341384 0.23157758 0.65040457 -0.72342634 0.0043452289
-0.061500289 0.055794392 -0.0045427019 0.33947802 0.76176226 -0.5517906 0.0076377643
-0.058670994 0.054861713 -0.004320425 0.29721507 0.83027428 -0.47149524 0.0041903374
-0.056250215 0.054298565 -0.0037386967 0.34195182 0.85984546 -0.37912348 0.0033014247
0.059471171 0.054296128 -0.0043722698 -0.39816341 0.68081135 -0.61478591 0.0023266501
0.061560612 0.055176158 -0.0048792232 -0.36238679 0.60823506 -0.70620525 0.0043369289
0.064795844 0.056343053 -0.0056254431 -0.038628366 0.42040181 -0.90651542 0.011491687
0.068065211 0.056483399 -0.0058473679 0.24166971 0.2905899 -0.92582572 0.012442479
0.070724994 0.055500008 -0.0046840687 0.635732 0.12123276 -0.76233023 0.011640251
0.072113596 0.055096813 -0.0032900483 0.77898711 0.030303134 -0.62630725 0.0075114528
-0.072847895 0.057757601 -0.0043357685 -0.17819324 0.49405882 -0.85097182 0.018284084
-0.069962591 0.058384739 -0.0047535379 0.035132982 0.64334476 -0.76477003 0.012799321
-0.067461357 0.058565762 -0.004288706 0.19846213 0.68483585 -0.70115095 0.010462052
-0.064647414 0.057850778 -0.0039140354 0.34145677 0.72501916 -0.59812576 0.0070482865
-0.062688611 0.057206333 -0.0033925287 0.39138055 0.74742287 -0.53682435 0.0083846105
0.062778153 0.057198547 -0.0036865033 -0.41483536 0.57153589 -0.70799601 0.0065317219
0.065085649 0.058314301 -0.0045188786 -0.2552509 0.39413789 -0.88289428 0.012849666
0.067894079 0.058358204 -0.0052727209 0.21275647 0.2193321 -0.95217025 0.011636386
0.07071314 0.058397636 -0.004287187 0.55550396 0.065787867 -0.82890725 0.015839703
0.072148196 0.058960821 -0.0031847758 0.78050762 0.019209109 -0.62485111 0.020161455
-0.069017604 0.06004972 -0.0033641765 0.15724558 0.76390743 -0.62587488 0.019324636
-0.068222582 0.060088843 -0.003117597 0.24933027 0.77837896 -0.57616019 0.01692095
0.06561327 0.061094284 -0.0034147769 -0.29171365 0.2791779 -0.91485667 0.010427876
0.068186432 0.061293874 -0.0045015658 0.20049745 0.13431311 -0.97044361 0.012828293
0.070726655 0.061430808 -0.0040966221 0.50062531 0.024100589 -0.86532855 0.016421467
0.072192781 0.061613023 -0.0032492841 0.70774239 -0.046878632 -0.7049135 0.02001618
0.068252698 0.063742697 -0.0040478869 0.11474943 0.058452856 -0.99167323 0.010213594
0.070873946 0.064447597 -0.0039112284 0.45898232 -0.058380608 -0.88652515 0.023317931
0.072367027 0.064693883 -0.0032617326 0.54143322 -0.076989517 -0.83721119 0.018675312
0.068612613 0.066794105 -0.003810005 0.12721841 -0.041483462 -0.99100685 0.014597704
0.07103993 0.06736929 -0.004047839 0.36201048 -0.11992266 -0.92442793 0.016196391
0.072754361 0.067644089 -0.0034615793 0.63206702 -0.15967043 -0.75828528 0.013317249
0.068498433 0.069656126 -0.0034850622 -0.10857465 -0.02722072 -0.99371552 0.013193298
0.071100712 0.070357971 -0.0042089624 0.34928128 -0.17678209 -0.92019063 0.014907995
0.073336847 0.070611961 -0.0036669823 0.53797388 -0.22995661 -0.8109895 0.013111292
0.06880866 0.07401523 -0.0034418816 -0.53088588 0.27217326 -0.80254716 0.042825408
0.071156226 0.073187009 -0.0045407433 0.15317179 -0.0055424902 -0.98818403 0.041419722
0.07382863 0.073466726 -0.0042174454 0.51143867 0.010219208 -0.85925907 0.061785851
0.075456053 0.073981017 -0.0034277814 0.6749565 -0.055667672 -0.73575461 0.068836838
0.068834558 0.076128773 -0.0032070433 -0.36151236 0.74823928 -0.55627942 0.11335047
0.071061298 0.076123282 -0.0040489482 0.2149864 0.69643235 -0.6846627 0.049891315
0.073549904 0.075509869 -0.0041321297 0.43337288 0.47708303 -0.7645781 0.067636438
0.075296737 0.075096138 -0.003307824 0.59590036 0.61862051 -0.51206583 0.068115398
-0.015654746 0.0028687275 -0.0019996059 -0.23865996 -0.95198774 -0.19173089 0.0020345415
-0.01349937 0.0022318116 -0.0014236782 -0.22556286 -0.96249956 -0.15071808 0.0028564343
-0.010415087 0.0016781794 -0.0020955892 -0.15641767 -0.94019169 -0.30261043 0.0019287728
-0.0074064676 0.0012613488 -0.0020473704 -0.13150133 -0.96896285 -0.20932838 0.0023904887
-0.0037910729 0.00071746437 -0.0015114076 -0.084347308 -0.97038329 -0.22636648 0.0034434092
-0.001493047 0.00064325077 -0.0020165301 -0.076667629 -0.98195183 -0.17289494 0.0046449075
0.0016334738 0.00049301406 -0.0018413162 -0.025755772 -0.97879785 -0.20320287 0.0015730716
0.0046245251 0.00041045796 -0.001678076 0.010178183 -0.99375141 -0.1111513 0.0059461682
0.0074511035 0.00052583375 -0.0016055624 0.05145897 -0.99284071 -0.10779301 0.0061250613
0.010501227 0.00067508081 -0.0015894579 0.073856197 -0.98494411 -0.15630206 0.0037496034
0.013590478 0.00097808347 -0.0015242777 0.11200382 -0.97629809 -0.185195 0.0027471487
0.016764417 0.0014491421 -0.0018899807 0.14564198 -0.9775179 -0.15247026 0.003262857
0.01932524 0.0017967742 -0.0016285226 0.16849673 -0.97354144 -0.15435658 0.0022425111
0.022344733 0.0024222545 -0.0015522533 0.19378167 -0.97262257 -0.12827322 0.0014914417
0.024586111 0.0028949692 -0.0014701167 0.22573562 -0.96586585 -0.12706922 0.0016474803
-0.018892301 0.0037982184 -0.0020703669 0.85566121 -0.38092238 0.35034555 0.0050293151
-0.017642079 0.0034886179 -0.0021147858 -0.27285501 -0.945692 -0.17668287 0.0010566812
0.025940435 0.0033244349 -0.0022388883 0.25403789 -0.94800293 -0.19171652 0.0020703643
0.028181661 0.0038658972 -0.0014814157 0.27862263 -0.94916499 -0.14647622 0.0017385611
0.031431872 0.0048155347 -0.0015017273 0.29401588 -0.94931954 -0.11111755 0.0013576471
0.033850733 0.0056563225 -0.0014956469 0.33399034 -0.93845081 -0.088093571 0.0021113749
-0.029014353 0.0077740233 -0.0029741735 -0.34423384 -0.89482081 -0.28425136 0.0020750854
0.035322197 0.0062177763 -0.001613918 0.36508054 -0.927136 -0.084469639 0.001529177
0.037416432 0.0070129237 -0.0014724047 0.36865816 -0.92422694 -0.09947753 0.0013631143
0.040368829 0.0082414141 -0.0014713804 0.39824077 -0.90723801 -0.13536449 0.0017709488
0.042131674 0.0089433361 -0.00044471837 0.41346085 -0.90742683 -0.075010955 0.0048135901
-0.033731118 0.009722597 -0.0028158058 -0.37516537 -0.8823632 -0.28405315 0.0014426522
0.041770611 0.0090364916 -0.0026040932 0.42201841 -0.89728314 -0.1295511 0.002485675
0.043600991 0.0097821243 -0.0016074404 0.43293199 -0.89145058 -0.13373755 0.0016048644
0.046472803 0.011222078 -0.0014805039 0.46920282 -0.8744278 -0.12338908 0.0016105799
0.048054092 0.011929446 -0.00028016404 0.45169762 -0.89164752 -0.030560642 0.0045189955
0.047939099 0.012120591 -0.0018857146 0.493498 -0.86192268 -0.11640034 0.0020371268
0.049533889 0.012981874 -0.0015277739 0.5028336 -0.8569994 -0.11274064 0.0013473053
0.051912151 0.01437346 -0.0013234862 0.53055865 -0.84076709 -0.10778809 0.0018412736
0.053364713 0.015425869 -0.0017573407 0.56460851 -0.81863022 -0.10517522 0.0017792316
0.055546172 0.016900836 -0.0014560012 0.56535387 -0.81576717 -0.12206153 0.0023419536
0.057170924 0.017912509 -0.00096359651 0.58981711 -0.79660028 -0.13245343 0.0023805765
0.056888781 0.018032108 -0.0024957091 0.59594452 -0.78059399 -0.18847582 0.0020081606
0.05866329 0.01924821 -0.0015652317 0.6246857 -0.76947314 -0.13296174 0.0020287535
0.060391109 0.020668337 -0.0013269047 0.66358948 -0.73743922 -0.12582658 0.0033043709
0.06190633 0.022142062 -0.0015438516 0.70059508 -0.70251042 -0.12508211 0.0027660229
0.063342296 0.023586666 -0.0014439892 0.73032176 -0.67053914 -0.13041241 0.0029147221
0.064949945 0.025512742 -0.0017273154 0.76811671 -0.62066126 -0.15740508 0.0027576166
0.066123396 0.026786016 -0.00094094843 0.79147822 -0.59183729 -0.15261331 0.002781586
0.067254372 0.028557401 -0.0015410705 0.82745779 -0.54020554 -0.15326945 0.0025441351
-0.0011046989 0.032940742 -0.0024578052 0.093651876 0.98076469 -0.17125987 0.0023224838
0.0016721638 0.032842349 -0.0017058101 0.058140736 0.98899966 -0.13601223 0.0024747136
0.0046442612 0.032819267 -0.0013185706 0.0055600666 0.99044406 -0.13780335 0.0024892322
0.0073497919 0.032809563 -0.0014692483 -0.03584943 0.98128253 -0.18920718 0.0020730526
0.010103839 0.032879736 -0.0022242849 -0.089893676 0.96468776 -0.24758171 0.0023904811
0.012273673 0.032934815 -0.0028244066 -0.14333093 0.97548813 -0.16697051 0.0023648096
0.068565503 0.030725377 -0.0017004632 0.85526776 -0.49699318 -0.14667936 0.0027119082
0.069405288 0.032182116 -0.0014562358 0.88879585 -0.43229792 -0.1521856 0.0039351331
-0.015570647 0.035805315 -0.0020978015 0.29481068 0.94466102 -0.14388265 0.0023147217
-0.013638409 0.035313684 -0.0016666069 0.26494569 0.95092642 -0.15982087 0.0017841448
-0.010589212 0.034521289 -0.0015446325 0.21667938 0.96260655 -0.1625997 0.0024472412
-0.0075879754 0.033931624 -0.0015291612 0.16179855 0.97359085 -0.16106577 0.0021193137
-0.0044857766 0.033465542 -0.0015036544 0.12872986 0.98048395 -0.14859323 0.0018076871
-0.0018399851 0.033201959 -0.0010898779 0.091465175 0.98668605 -0.13447978 0.0021833556
0.00085229421 0.033078715 -0.00043586243 0.053128656 0.9954862 -0.07864251 0.0025184366
0.0043915329 0.033006079 -4.7542449e-05 0.013590218 0.99920148 -0.037573181 0.001227077
0.0086311232 0.033038609 -0.00030105578 -0.056178678 0.99074584 -0.12355761 0.0015205268
0.011053741 0.033077661 -0.001252415 -0.10884006 0.97575039 -0.18990795 0.0030205671
0.013499916 0.033316597 -0.0016264465 -0.14010599 0.97938246 -0.14553498 0.0019797238
0.016373074 0.033826504 -0.00155114 -0.19713296 0.96964705 -0.14464839 0.0025676584
0.019457275 0.034557451 -0.0015757876 -0.2448809 0.9604848 -0.13229622 0.0019270731
0.022507109 0.035377309 -0.001706131 -0.27558735 0.95283359 -0.12712094 0.0015070301
0.024444731 0.035866763 -0.0021183072 -0.30894518 0.94413185 -0.11475155 0.0019322786
0.070423804 0.034499202 -0.001559524 0.92118323 -0.35291517 -0.16392775 0.003669797
-0.0243125 0.038832802 -0.002175035 0.39392242 0.90743494 -0.14624299 0.0020680947
-0.022604007 0.038239527 -0.0015885871 0.36878434 0.91618949 -0.15682775 0.0015013372
-0.019529929 0.037070971 -0.001597204 0.30970541 0.93482548 -0.17373477 0.0027291118
-0.0168273 0.036285724 -0.001373846 0.27682823 0.95449716 -0.11091121 0.0021903594
0.025765192 0.036383353 -0.0011517967 -0.29818454 0.9442907 -0.13928761 0.0015716312
0.028569777 0.037224401 -0.0017342558 -0.30495134 0.93326187 -0.18980776 0.001582184
0.031148449 0.038210221 -0.0011352152 -0.35657638 0.91811204 -0.17298424 0.0017873145
0.033177473 0.03886833 -0.0025879745 -0.43571588 0.8889147 -0.14135915 0.0019860098
0.071436204 0.037474897 -0.0016015033 0.94057876 -0.28207079 -0.18907036 0.003828085
0.072048143 0.038819462 -0.00052363653 0.96310461 -0.23583035 -0.12966706 0.0097665815
-0.030581601 0.041660916 -0.0017743558 0.45817956 0.8807804 -0.11957226 0.0016058936
-0.028619513 0.040774923 -0.0014489288 0.40538603 0.90509677 -0.12830435 0.0021430182
-0.025720417 0.039553344 -0.0014403583 0.3784315 0.91647291 -0.12987317 0.0019301006
-0.023989299 0.039014351 -0.00016337373 0.36398992 0.92972952 -0.055806533 0.0057936558
0.034629017 0.039684821 -0.0015461264 -0.4273164 0.89446557 -0.13165109 0.0019747606
0.037436653 0.041148167 -0.0015932593 -0.48334846 0.86429936 -0.13914347 0.0021777207
0.07186076 0.039850865 -0.0024745425 0.95639551 -0.18764579 -0.22382326 0.0039568637
0.072250202 0.04073859 -0.0012835193 0.9776352 -0.1486617 -0.14875892 0.0043418482
-0.036589317 0.044741116 -0.0015955882 0.48569793 0.86569411 -0.12112486 0.0020832405
-0.034613132 0.043745246 -0.0016004433 0.45802504 0.87921691 -0.13111305 0.0016468237
-0.032014254 0.042458102 -0.0013892811 0.43633798 0.89134902 -0.12290712 0.0018266421
0.038812306 0.042179666 -0.00012119302 -0.51368731 0.85616952 -0.055670351 0.0032439551
0.040341351 0.042925838 -0.0015541879 -0.51102585 0.84788746 -0.14120695 0.0022167836
0.042797066 0.044500358 -0.0016321053 -0.55694556 0.8214522 -0.12258857 0.0020065359
0.071929127 0.042271622 -0.0029488467 0.97043383 -0.093023084 -0.22272137 0.0047752713
0.072566316 0.04354256 -0.0015412603 0.98391372 -0.077548832 -0.16093506 0.0040792278
-0.042245816 0.047751978 -0.0022140369 0.47098222 0.8691963 -0.15057705 0.0024891489
-0.04049116 0.046902753 -0.001501418 0.47668165 0.8680166 -0.13900256 0.0020869456
-0.038046099 0.045540586 -0.0014248039 0.46098295 0.87824357 -0.12721264 0.0021564572
0.044239406 0.045437798 -0.0016171061 -0.54192686 0.82620585 -0.15394537 0.0036443716
0.047159888 0.047322705 -0.0020628993 -0.51822156 0.80493665 -0.28900409 0.0017127141
0.048190825 0.047815718 -0.0028564839 -0.5387302 0.80963272 -0.23294784 0.0045101931
0.072693489 0.046521172 -0.0015651732 0.98324078 -0.036608588 -0.17859852 0.005168038
-0.048174992 0.050944746 -0.0027230033 0.4536812 0.8731153 -0.1784461 0.0033987809
-0.046389103 0.050215695 -0.0015426975 0.48043784 0.86307979 -0.1557972 0.0022760844
-0.043638971 0.04868659 -0.001430554 0.47717518 0.86756867 -0.14010155 0.0023764439
0.049640458 0.04905 -0.001619424 -0.53777069 0.8221963 -0.18653665 0.003297434
0.05233983 0.050718252 -0.002224135 -0.52483332 0.7914046 -0.3134146 0.0022568575
0.072788946 0.04951451 -0.001597353 0.97759908 -0.028371118 -0.2085546 0.0070620896
-0.054232135 0.053867817 -0.0027785776 0.35984412 0.89392394 -0.26723078 0.0050173248
-0.052274585 0.053358458 -0.0016330462 0.41457647 0.88876778 -0.19549446 0.0030977679
-0.049485229 0.051907215 -0.0015651565 0.45153329 0.87498963 -0.1746738 0.0027920036
-0.047880627 0.051152971 -0.00065997866 0.44552648 0.88565314 -0.13086103 0.0067754793
0.053278346 0.051535904 -0.0012796981 -0.52365023 0.83147043 -0.18560039 0.0036084566
0.055628784 0.052880462 -0.0020798366 -0.50019485 0.786412 -0.36243805 0.0038280869
0.057275616 0.053725023 -0.0027080497 -0.58185107 0.75933492 -0.2913073 0.005810773
0.072876327 0.052496184 -0.0015905596 0.96773016 -0.012271428 -0.25168979 0.010213542
-0.060542945 0.056698784 -0.0020300832 0.47316858 0.84723824 -0.24145153 0.0088572986
-0.058500029 0.055892918 -0.0015887427 0.38732255 0.89731675 -0.21166943 0.0069530206
-0.05563562 0.054743767 -0.0015682005 0.349199 0.91268647 -0.21228141 0.0037481359
-0.053804636 0.05418729 -0.00054658507 0.352451 0.92442667 -0.145649 0.0068729268
0.058617134 0.055048823 -0.0015808811 -0.57832265 0.75621206 -0.30608201 0.0068455781
0.06034641 0.056029804 -0.0024716347 -0.54687381 0.68796253 -0.47711271 0.0059939418
0.072925515 0.055535708 -0.0016095581 0.95210159 -0.0056165317 -0.30573013 0.014235616
-0.073114082 0.058715545 -0.0015704483 0.24265231 0.42409074 0.87250614 0.027863059
-0.070948951 0.059712123 -0.0020659424 -0.26450515 0.91787642 -0.2958715 0.022575555
-0.066525571 0.059722695 -0.0026808842 0.31961092 0.83912659 -0.44013125 0.020838993
-0.06428086 0.059103254 -0.0016163847 0.50383496 0.82172179 -0.26631504 0.0082496069
-0.061971966 0.057720147 -0.0014061203 0.45779607 0.85563606 -0.24147393 0.0091400221
0.061884709 0.057760745 -0.0015640038 -0.64553577 0.53812742 -0.54194325 0.010499827
0.063838527 0.05946552 -0.0025527999 -0.4479748 0.44602856 -0.77484006 0.01090945
0.073035598 0.058539845 -0.0015984147 0.93593633 -0.053034969 -0.34815282 0.018458722
-0.069363184 0.060391102 -0.0019974578 -0.028161488 0.9263621 -0.37557986 0.027132874
-0.06712392 0.060492612 -0.0017231982 0.31717214 0.87645513 -0.36225423 0.021318661
-0.065745957 0.060239881 -0.00088630448 0.40187153 0.87249857 -0.27793071 0.015359161
0.064634837 0.061448932 -0.0021369467 -0.58797473 0.34552196 -0.73136884 0.0062405891
0.073352203 0.06151953 -0.0016102028 0.91298079 -0.096081115 -0.39652812 0.022652512
0.065678343 0.06385079 -0.0022575057 -0.34075609 0.12944546 -0.93119764 0.010934668
0.066555448 0.064911172 -0.0028585773 -0.25270042 0.1085118 -0.96144044 0.012276026
0.073737487 0.064479224 -0.0016114302 0.86148548 -0.17388868 -0.47708017 0.029227709
0.066951737 0.067280203 -0.0026875767 -0.35040385 0.037528381 -0.93584657 0.0054966211
0.074295782 0.067322999 -0.0018370914 0.84385741 -0.26425916 -0.46698156 0.027469438
0.075162098 0.068231262 -0.00063706964 0.92267448 -0.26132849 -0.2835122 0.033277575
0.067776203 0.070591852 -0.0027842734 -0.32778332 0.033042278 -0.94417495 0.0078959614
0.074561149 0.070074253 -0.0025441414 0.78828818 -0.25209117 -0.56129479 0.021452053
0.075646929 0.070663758 -0.0012411306 0.90243149 -0.27193898 -0.33416545 0.025789689
0.068043157 0.073304147 -0.0027370106 -0.69840407 0.22231592 -0.68029946 0.02862088
0.074989259 0.072120599 -0.0029958081 0.68863893 -0.40296525 -0.6028229 0.035994127
0.076506138 0.073526718 -0.0015814002 0.94468355 0.026002714 -0.32695085 0.063871853
