# .PCD v0.7 - Point Cloud Data file format
VERSION 0.7
FIELDS x y z normal_x normal_y normal_z curvature
SIZE 4 4 4 4 4 4 4
TYPE F F F F F F F
COUNT 1 1 1 1 1 1 1
WIDTH 559
HEIGHT 1
VIEWPOINT 0 0 0 1 0 0 0
POINTS 559
DATA ascii
0.031132882 0.047182683 0.0012724991 0.50703698 -0.73316842 0.45318595 0.0029737067
0.033128846 0.047811646 0.00040489668 0.48484486 -0.72615927 0.48746094 0.0035341512
-0.052683119 0.049448017 0.0014213799 -0.99210572 -0.0096451975 -0.12503266 0.0029728448
0.032300539 0.048741315 0.0022176725 0.54196084 -0.63409954 0.5515399 0.0025600644
0.034309298 0.04962169 0.0012852348 0.53756011 -0.61556268 0.57629144 0.0038976232
0.036549859 0.050576471 0.00037639675 0.53672892 -0.60496885 0.58816218 0.0019078751
-0.052591491 0.052504878 0.0015717978 -0.9833346 0.10336461 -0.14956166 0.0008040425
0.035330188 0.051848415 0.0023186689 0.56328481 -0.46541774 0.68271261 0.0032762445
0.037432071 0.052602921 0.0011094977 0.56690687 -0.47773981 0.67110443 0.003328237
0.039383594 0.053565551 0.00020969915 0.60299593 -0.43802613 0.66673011 0.0022430399
-0.052254189 0.055196475 0.0013886683 -0.98586529 0.13838275 -0.094445154 0.0029993434
0.037751596 0.055394068 0.0021253903 0.57481563 -0.24487254 0.78078449 0.0025944579
0.039761692 0.055455439 0.0006894673 0.6105985 -0.30628505 0.73031431 0.003125801
-0.051834024 0.057378057 0.0016759472 -0.97746205 0.20482379 -0.051138498 0.005995119
0.038112726 0.05852285 0.0023347402 0.56216609 -0.024044747 0.82667482 0.001487939
0.040329151 0.058491267 0.00078446948 0.61471784 -0.061611716 0.78633714 0.0024312083
0.037846148 0.061545655 0.0022631004 0.54528391 0.08714018 0.83370984 0.0002272039
0.040183306 0.061461993 0.00071942864 0.58814329 0.081591457 0.80463052 0.00053419743
0.035535932 0.065652512 0.0029016996 0.51614803 0.13163492 0.84632349 0.00010469099
0.037595853 0.064420149 0.0020335447 0.53938985 0.12863512 0.83217287 0.00012277276
0.0397081 0.064503007 0.00062377698 0.58544958 0.13257627 0.79979521 0.00044661009
-0.010537226 0.068232007 0.00060444901 -0.39073369 0.65459961 -0.6471681 0.0002423015
0.035465837 0.068018205 0.002659085 0.51076555 0.16334176 0.84406036 0.00010662578
0.037494145 0.067480549 0.0015687258 0.54114622 0.16263056 0.8250528 0.00019615082
0.039397456 0.067071989 0.00037892093 0.59049332 0.16808864 0.78934395 0.00042858778
-0.0094615109 0.069055609 0.00080711354 -0.39647317 0.64692467 -0.65138119 0.00023105589
-0.0072268145 0.07052613 0.00085491547 -0.4441314 0.65264517 -0.61384165 0.00057354313
-0.0052081593 0.071714073 0.00068016379 -0.45214629 0.64563483 -0.61540186 0.00066578598
0.035073951 0.070628032 0.0024166116 0.49713877 0.21839309 0.83973652 0.00046851544
0.037377819 0.070477553 0.0010080002 0.54551995 0.21432145 0.81023103 0.00044398435
0.039335664 0.069435678 9.6282201e-05 0.59697217 0.21876788 0.77185798 0.00046183876
-0.0036978237 0.072524838 0.00042825556 -0.49879971 0.641159 -0.58319288 0.00043163303
0.032473993 0.074419878 0.0025239065 0.43219575 0.36151639 0.82614321 0.0034150998
0.03463896 0.073555939 0.0017799902 0.47010946 0.34896746 0.81069028 0.002806718
0.036845073 0.073156424 0.00061579957 0.52590597 0.33672398 0.78105056 0.0022514998
0.020522861 0.077989846 0.0029916172 0.1152956 0.83605456 0.53639519 0.0023086846
0.023564003 0.077721685 0.0027662758 0.14306335 0.80440694 0.57659543 0.0034377039
0.025866583 0.077480465 0.0023733824 0.18868193 0.79005486 0.5832774 0.0030237022
0.028837357 0.076892607 0.0020081957 0.24539569 0.68991202 0.68103039 0.0033166972
0.031480335 0.076249607 0.0016483277 0.34731662 0.54692167 0.76174003 0.0028638199
0.034198619 0.075943254 0.00062979182 0.43806586 0.48230472 0.75860429 0.0023791797
0.036021721 0.075231329 8.2056074e-05 0.45254773 0.52580655 0.72022772 0.0031185572
0.01114799 0.0780579 0.0026987221 0.023487758 0.92814434 0.37147871 0.0018360527
0.014770331 0.078332007 0.0027830107 0.065507181 0.90535587 0.4195708 0.0014358541
0.017072879 0.078781515 0.0013493932 0.033120316 0.91161555 0.40970725 0.0012695737
0.01962021 0.078774944 0.0014995072 0.082343899 0.90109897 0.42572311 0.0023618967
0.022592414 0.078635573 0.0014328823 0.12698634 0.85031223 0.51072854 0.0038776277
0.0255605 0.078569755 0.00096149341 0.13775234 0.82263023 0.55163741 0.0031308809
0.028368328 0.078319795 0.00058865326 0.17665905 0.76533121 0.61891818 0.003802435
0.030273808 0.078366078 7.6841759e-05 0.18705367 0.76537973 0.61579609 0.0060213585
-0.00064262061 -0.075223789 0.0049871234 -0.42697743 -0.89031303 -0.15821809 0.0094308341
0.0014750876 -0.07577461 0.0045215976 -0.31209466 -0.94633102 -0.083990857 0.010216799
0.0044768169 -0.076434791 0.0045000101 -0.1941116 -0.98032159 0.035920292 0.0060721617
0.0074698087 -0.076896936 0.0045128157 -0.10978523 -0.97879082 0.17296141 0.0044145556
0.010565399 -0.07715141 0.0045213252 -0.038512859 -0.96198702 0.27036583 0.0034737245
0.013571215 -0.077243596 0.0045020278 -0.00053684151 -0.93972981 0.34191757 0.0031070777
0.01653184 -0.077150211 0.0044886144 0.048751868 -0.91129649 0.40885445 0.0025025813
0.019626331 -0.076847874 0.0044693626 0.098406523 -0.87246859 0.47865912 0.0026664513
0.022511743 -0.076324582 0.0044460967 0.17784892 -0.78176802 0.59766912 0.0025956624
0.025408385 -0.075872235 0.0039891368 0.24303104 -0.6856997 0.6861136 0.0034593691
0.028060727 -0.075460829 0.0033930314 0.30073595 -0.63911605 0.70787609 0.0029622281
-0.0061522052 -0.072203711 0.005937648 -0.39772117 -0.79444015 -0.45900187 0.0026410464
-0.0041692988 -0.072618425 0.0047655045 -0.43654996 -0.80890036 -0.39383289 0.0036442741
-0.0019089327 -0.073731318 0.0043793558 -0.50926358 -0.80779499 -0.2968466 0.0087866485
0.00052259123 -0.074167877 0.0040203296 -0.44577041 -0.87680668 -0.18027425 0.017074488
0.023699295 -0.074704804 0.0057849619 0.2776292 -0.65623575 0.70162433 0.0040202858
0.02583782 -0.074118629 0.0053805537 0.32058671 -0.5643512 0.76074427 0.0045586959
0.02854627 -0.07354033 0.004551691 0.3676511 -0.46599492 0.8047865 0.0035345904
0.031158024 -0.073076166 0.0035576581 0.40732718 -0.41263148 0.81475139 0.0031108318
0.033348102 -0.072114907 0.0030609011 0.47930413 -0.30376273 0.82340497 0.0027010802
-0.012695177 -0.069208011 0.0056113345 -0.3207128 -0.86238569 -0.39170685 0.0047447435
-0.010301083 -0.069815055 0.0048581245 -0.36679605 -0.8484959 -0.38146469 0.0079245446
-0.0074112588 -0.070929386 0.0045283358 -0.35741135 -0.85108489 -0.3845928 0.0035026425
-0.0051578954 -0.07165923 0.0037544747 -0.40434006 -0.82076514 -0.40355131 0.001337791
0.0268772 -0.071998671 0.0059057488 0.38464731 -0.47718152 0.79015458 0.0033920398
0.029072555 -0.070847727 0.0055338182 0.45457923 -0.28155324 0.84503579 0.0017840981
0.031432394 -0.070522122 0.0043569962 0.4617573 -0.26972502 0.84500217 0.0014229956
0.033536844 -0.070040643 0.0033051006 0.47471032 -0.24795915 0.84449184 0.0009791617
-0.022170747 -0.06629885 0.0046078977 -0.25180644 -0.89200819 -0.37538633 0.010740245
-0.01944601 -0.066646971 0.0044638296 -0.23564242 -0.87486607 -0.42318082 0.013336367
-0.016467696 -0.067460999 0.0045907623 -0.2941303 -0.86018902 -0.41660812 0.0059582018
-0.013762808 -0.06821382 0.0045562657 -0.30504414 -0.85767925 -0.41392559 0.0067138276
-0.010948145 -0.068592958 0.0037111018 -0.34127489 -0.8400268 -0.42176589 0.011494509
0.029658832 -0.068055965 0.0058635008 0.48286605 -0.18620962 0.85566723 0.00016306779
0.031570826 -0.067566827 0.0049537886 0.48782235 -0.1774276 0.85472149 0.00019197704
0.034036279 -0.067376219 0.0035589158 0.50034904 -0.16571173 0.84981793 0.00010126243
-0.0340042 -0.063320234 0.0045798016 -0.23733403 -0.93680644 -0.25703371 0.0095921028
-0.03130693 -0.063623749 0.0043534427 -0.19862159 -0.9360854 -0.29033366 0.016366698
-0.028412033 -0.06422957 0.0044244016 -0.22471546 -0.92296517 -0.31247118 0.0096425796
-0.025446426 -0.064910837 0.0044522914 -0.25285539 -0.90774179 -0.33476722 0.0072665648
-0.022611132 -0.065342948 0.0042671813 -0.2247932 -0.8899734 -0.39675602 0.012050028
-0.019829415 -0.065347478 0.0038172468 -0.23501632 -0.85589892 -0.46065637 0.018555226
-0.017102601 -0.065710828 0.0035437539 -0.28728002 -0.8319658 -0.47466099 0.013551068
0.031828202 -0.064642593 0.0053418023 0.5009082 -0.14146553 0.85386091 6.9548929e-05
0.034354609 -0.06443157 0.0038890638 0.50715852 -0.13557753 0.8511222 5.7103236e-05
0.036180142 -0.063339397 0.0032041515 0.51772624 -0.13542058 0.84476084 5.8467864e-05
-0.045760397 -0.060202029 0.0044809203 -0.25199011 -0.96385193 -0.086547211 0.011727233
-0.043356802 -0.060587946 0.0042078937 -0.23248601 -0.96633452 -0.11021741 0.013207202
-0.040425368 -0.061176211 0.0043349266 -0.24928077 -0.94712776 -0.20201015 0.0059707277
-0.037450373 -0.061890107 0.0043433085 -0.24578351 -0.94564193 -0.21295936 0.0055359704
-0.034559224 -0.062462669 0.0043661976 -0.25121874 -0.93943602 -0.23312911 0.0096501494
-0.0321678 -0.062718064 0.0044033448 -0.21608016 -0.93405706 -0.28433585 0.016120564
-0.029134458 -0.062875882 0.0040666289 -0.20912117 -0.90930551 -0.3597663 0.015355904
0.032356981 -0.061493214 0.0054931147 0.51030594 -0.10248758 0.85386425 9.4031122e-05
0.034550678 -0.061563991 0.0041693682 0.51186472 -0.10228848 0.85295463 6.4536092e-05
0.036375243 -0.061288312 0.0032063376 0.52353662 -0.099494644 0.84617382 0.00010503927
-0.051810823 -0.05784652 0.004639938 -0.68983597 -0.71746522 -0.09679874 0.023925062
-0.049427766 -0.058610972 0.0045593036 -0.3564826 -0.92016244 -0.16192979 0.011325282
-0.046725687 -0.059401568 0.0043402547 -0.27725405 -0.95813572 -0.071456097 0.010524128
-0.043897741 -0.05972749 0.004852531 -0.24975733 -0.96182108 -0.1118995 0.013055473
-0.041457158 -0.059773792 0.0035677815 -0.14731249 -0.96546346 -0.21489394 0.022846762
0.032465443 -0.058712486 0.0057067564 0.51990879 -0.047407445 0.85290527 0.00036953151
0.034506716 -0.058511257 0.004488132 0.52561599 -0.038868591 0.84983361 0.0005431117
0.036515925 -0.05854645 0.00338386 0.53270185 -0.014254038 0.84618294 0.001028943
-0.05254332 -0.0558003 0.0051373499 -0.9193666 -0.39336649 0.0052698655 0.033397216
0.032570042 -0.055533674 0.0057019694 0.53815484 0.058307715 0.84082675 0.0017128045
0.034439266 -0.055661812 0.0044988017 0.53919256 0.064441025 0.83971345 0.0016771762
0.036522858 -0.055802558 0.0032290781 0.5491547 0.093429126 0.83048195 0.0021016169
-0.05307636 -0.05249203 0.0046384991 -0.99279207 -0.11363197 0.038100626 0.0064084572
0.032120325 -0.05230768 0.0052840151 0.57103395 0.27818629 0.77235526 0.0024945033
0.034205355 -0.052784294 0.0039212024 0.56479621 0.3384726 0.75262308 0.0035309703
0.036022492 -0.053611625 0.0032200101 0.56849742 0.34176472 0.74833655 0.002518371
-0.05323121 -0.049548544 0.0046762815 -0.99946386 -0.012947176 0.030075058 0.0067986292
0.029332815 -0.048739955 0.0054095536 0.57017624 0.49909317 0.65253741 0.0030555059
0.031324547 -0.049729284 0.004430023 0.56986481 0.49320114 0.65727222 0.0038844016
0.033353135 -0.050647058 0.003418908 0.53653061 0.51924855 0.66521865 0.0029618796
-0.053129859 -0.04655898 0.0046205693 -0.99361461 0.097378165 0.056986663 0.0064929249
0.026068648 -0.045575522 0.0050989063 0.52199864 0.69828528 0.48981133 0.0021948959
0.028392138 -0.046895988 0.0043909885 0.54221135 0.63537914 0.5498184 0.003069012
0.030352183 -0.047660738 0.0035003684 0.55117851 0.61586988 0.56294453 0.0019149963
-0.052687131 -0.043502852 0.0046184068 -0.97016072 0.23130347 0.072711289 0.015696194
0.020337414 -0.042232551 0.0056279697 0.49455905 0.81503463 0.30187723 0.0024256126
0.022573281 -0.043129053 0.0048171761 0.49380192 0.78325176 0.3777253 0.0036021504
0.025257776 -0.044392817 0.0040361919 0.5012995 0.74950653 0.43236408 0.0023974543
0.027027268 -0.044817384 0.0030464414 0.48691836 0.75607771 0.43732941 0.0024638483
-0.052210644 -0.041570343 0.0047852537 -0.95113903 0.30509439 0.047455691 0.016509622
-0.048979867 -0.039827041 0.0044855159 -0.63672435 0.74407822 -0.20231116 0.038345154
0.014715455 -0.039373551 0.0044287383 0.40452838 0.90830791 0.10645901 0.0016959298
0.016820945 -0.040191345 0.004921197 0.43991283 0.87460822 0.2038065 0.00083696027
0.019435836 -0.041338887 0.004475717 0.47190088 0.83902627 0.27082172 0.0016971763
0.021000387 -0.041996345 0.0039770771 0.46882528 0.84068817 0.2710098 0.0040175896
-0.042894155 -0.036755286 0.0038872338 -0.59769881 -0.79275662 -0.11955379 0.0055830935
0.0052753547 -0.036085609 0.0050882283 0.72195208 0.33048472 -0.60791868 0.021762161
0.0062429826 -0.036380742 0.005894098 0.62189925 0.63100469 -0.46376112 0.0086118365
0.010923731 -0.038152799 0.0048321071 0.40320608 0.90743113 0.11829455 0.0036381229
0.013121217 -0.038821895 0.0049450491 0.39635855 0.90700543 0.14227134 0.0029034235
-0.042110007 -0.034450673 0.005519161 -0.89773303 0.23765707 -0.37093747 0.011733611
-0.041586101 -0.03418025 0.0043558311 -0.94397908 0.14876013 -0.29457417 0.0075668516
0.002425852 -0.034221776 0.0034780006 0.84957719 0.16113965 -0.50224763 0.032252088
0.0037034291 -0.03421152 0.00506764 0.81274796 0.22067085 -0.53920788 0.035822261
-0.042060636 -0.031227246 0.005588755 -0.93358302 -0.00020795909 -0.3583613 1.2188997e-07
-0.041574158 -0.031505611 0.0043234043 -0.93600947 0.0068961708 -0.35190731 7.6855671e-05
0.0023655258 -0.031425525 0.003409893 0.90067178 -0.0022013767 -0.43449455 0.034008451
0.0037059647 -0.03148032 0.0050713471 0.85893112 0.065881178 -0.50783557 0.021309478
-0.04216893 -0.028416412 0.005688922 -0.93366009 -0.00021640043 -0.35816038 1.2206415e-05
-0.041544177 -0.028359042 0.0040607974 -0.93365669 -0.0002246651 -0.35816923 4.9925111e-06
0.0025894928 -0.028105929 0.0034529134 0.8715477 -0.049971532 -0.48775753 0.029154595
0.0035317109 -0.028025758 0.0046293018 0.84409326 0.010101599 -0.5361011 0.01720896
-0.042148564 -0.025476219 0.0056344173 -0.92252803 -0.018133124 -0.38550386 0.00091852975
-0.041609008 -0.025536528 0.0042276587 -0.93366295 -0.00021093874 -0.35815281 5.9020163e-06
0.0025873331 -0.025573755 0.0034504735 0.9114396 -0.015097031 -0.41115686 0.030447546
0.0037299597 -0.02547989 0.0048804777 0.85922438 0.047891077 -0.50935251 0.020492719
-0.042155523 -0.022428125 0.0056507573 -0.89460242 -0.06095111 -0.44268665 0.0049749059
-0.041566487 -0.022526043 0.0041148108 -0.92180103 -0.0020456119 -0.38765803 0.00088135333
0.0025975383 -0.022472147 0.0034619847 0.9060266 -0.0083848163 -0.42313766 0.028257083
0.0037673232 -0.022509899 0.0049273735 0.85498714 0.012509682 -0.51849836 0.019354032
-0.042129636 -0.020143736 0.005581243 -0.85796005 -0.07296963 -0.50850755 0.0044930447
-0.041556437 -0.019509064 0.0040866863 -0.89473814 -0.056225322 -0.44303757 0.0055731572
0.002573475 -0.019447945 0.0034351305 0.84779662 -0.01646349 -0.53006589 0.038380127
0.0037506293 -0.019556079 0.0049056979 0.86121058 -0.014848933 -0.50803125 0.017130043
-0.043158323 -0.015934462 0.0057046995 -0.83182704 -0.065868512 -0.55111265 0.0044249739
-0.041513234 -0.016451202 0.0039722589 -0.86762673 -0.060249809 -0.49355221 0.006622368
0.0025829482 -0.016467471 0.0034460912 0.93805039 -0.0020358604 -0.34649298 0.024909599
0.0037346543 -0.016484782 0.004885254 0.84684575 0.0051473607 -0.53181368 0.0140099
-0.043288082 -0.013353835 0.0054717176 -0.84598643 -0.049323745 -0.53091818 0.0071805492
-0.041465092 -0.013824273 0.0038448714 -0.84939599 -0.044567402 -0.52587092 0.0069240513
0.0026792414 -0.013454387 0.0035624544 0.93622637 -0.0039116722 -0.35137576 0.024524905
0.0038300618 -0.013569578 0.005005857 0.84808064 0.000712151 -0.52986664 0.013706251
-0.043004435 -0.010202388 0.0049259597 -0.87715703 -0.022553055 -0.47967374 0.006885828
-0.041375138 -0.010570543 0.0037783231 -0.83346075 -0.033701397 -0.55155003 0.0080095045
0.0026947549 -0.010545122 0.0035813907 0.93364674 -0.013748803 -0.35793132 0.023209818
0.0038670008 -0.010506425 0.0050524585 0.85062468 0.010474959 -0.5256691 0.014959156
-0.042870469 -0.0076622483 0.0044548707 -0.8807683 -0.045815907 -0.47132584 0.0075903567
-0.041440215 -0.0076220022 0.0034821194 -0.85485923 -0.057672091 -0.51564491 0.0077051432
0.0026940783 -0.0075352313 0.0035803742 0.93324661 0.00082003354 -0.35923553 0.0236354
0.0038870212 -0.0075090826 0.0050774328 0.83533776 -0.00095043122 -0.5497362 0.011788579
-0.042924382 -0.0046536769 0.0045321272 -0.87527508 -0.054924142 -0.48049647 0.0076311501
-0.041431382 -0.0055824406 0.0031669922 -0.86226487 -0.047760747 -0.50420058 0.0067764302
0.0026914515 -0.0045047449 0.0035791949 0.93089944 0.00077252951 -0.36527473 0.023150781
0.0038514575 -0.0045066494 0.0050320094 0.85461652 0.025320133 -0.51864195 0.014454482
-0.042991593 -0.0014143146 0.0047076885 -0.91170818 -0.016838117 -0.41049322 0.0047861761
0.0026897173 -0.0015043374 0.0035783998 0.92701972 0.0023824689 -0.37500504 0.023052601
0.003900391 -0.0014730431 0.0050936518 0.8357147 -0.0036384983 -0.54915184 0.011497404
-0.042969853 0.0014486812 0.0046506338 -0.91361582 0.0059116594 -0.40653539 0.0040609739
0.0027517062 0.0014661762 0.0036476734 0.92428261 -0.002770863 -0.38169894 0.021923639
0.0038521003 0.0017507888 0.0048506376 0.85618573 0.015335056 -0.51644045 0.013411167
-0.042846642 0.0044758413 0.0043290588 -0.90229249 0.053980783 -0.42773157 0.0069050868
-0.041434214 0.0057941596 0.0031653782 -0.77860123 0.08488401 -0.62175149 0.0091924509
0.0028145812 0.0046036122 0.0037166018 0.91477168 0.0067934375 -0.40391409 0.022505088
0.0039387913 0.0046083005 0.0049593854 0.84973365 0.00086127 -0.52721143 0.011900134
-0.042946249 0.0075175134 0.0045898091 -0.883057 0.029368395 -0.46834582 0.0059171463
-0.041200534 0.007523214 0.0034278568 -0.85231787 0.0707293 -0.51821965 0.0087846247
0.0028141076 0.0074880044 0.0037155666 0.91403288 0.0081497319 -0.4055582 0.022084929
0.0040263212 0.0074876626 0.005069389 0.86011881 -0.0091060959 -0.51001233 0.010403465
-0.043168254 0.010574136 0.0051860465 -0.86984181 0.026734864 -0.49260575 0.0058084661
-0.041503333 0.01047708 0.0038196489 -0.84691405 0.021164523 -0.53130835 0.0073569659
0.0028132102 0.010389986 0.0037145359 0.91449487 0.0084434655 -0.4045094 0.022086684
0.004024066 0.010516108 0.0050651021 0.8588143 -0.0024893386 -0.51228088 0.010454301
-0.043185741 0.013454231 0.0053309873 -0.86744565 0.030494323 -0.49659663 0.0053017046
-0.041422568 0.013628658 0.0039129835 -0.84179932 0.041044842 -0.53822786 0.0071287975
0.0028129865 0.013486584 0.0037142783 0.92121351 0.00079133088 -0.38905665 0.02007773
0.0040337211 0.013436138 0.0050760717 0.86427653 -0.0094401315 -0.50292832 0.0091340868
-0.042966705 0.015985731 0.0056675542 -0.86958027 0.044985268 -0.4917382 0.0041827643
-0.041531865 0.016561175 0.0041968897 -0.85685557 0.057325404 -0.51235962 0.0062769512
0.0028125602 0.016603298 0.0037140439 0.91956282 0.0041721505 -0.39292097 0.020365771
0.0040910295 0.016439268 0.0051474688 0.8555761 0.0055980235 -0.51764673 0.0095294574
-0.042158075 0.019520959 0.0056169098 -0.85074449 0.069395743 -0.52097809 0.0053676139
-0.041530266 0.019523146 0.0041913283 -0.88236588 0.046677984 -0.46824318 0.005036403
0.0028118873 0.019560998 0.0037129638 0.90838808 0.015803324 -0.4178293 0.022605864
0.0040740692 0.019619329 0.0051239752 0.84947747 0.0084704123 -0.52755702 0.0094517041
-0.042078353 0.022968149 0.0056187212 -0.89684701 0.061752189 -0.43800923 0.0050922213
-0.0415533 0.02281311 0.0040519307 -0.89950114 0.037170507 -0.43533435 0.0029360119
0.0028240269 0.022462802 0.0037279534 0.91843766 0.0027077058 -0.39555633 0.02095129
0.0041648936 0.022464601 0.0052378834 0.8562035 -0.0031067762 -0.5166294 0.012179061
-0.042087808 0.025822297 0.0054441714 -0.9245615 0.022074386 -0.38039285 0.0012970383
-0.041521657 0.025466954 0.0039688777 -0.9336527 -0.00014971066 -0.35817969 1.3627886e-05
0.0028112386 0.025376283 0.0037114248 0.89880937 0.010993063 -0.4382019 0.019581284
0.0040617366 0.025519274 0.0051054955 0.85347569 0.0018761967 -0.52112931 0.0098965848
-0.042080376 0.028309723 0.0054238332 -0.93365878 -0.00014069764 -0.35816374 1.5182191e-05
-0.041511364 0.028538425 0.00419241 -0.93895549 0.0067365617 -0.34397271 0.00022442632
0.0027981293 0.02830771 0.0036948943 0.89790273 0.010545633 -0.44006753 0.015031653
0.0041244598 0.028343029 0.0051836171 0.84165758 -0.0030190793 -0.54000318 0.006571664
-0.042228814 0.031701576 0.0058090598 -0.93364316 -0.00013988839 -0.35820436 8.4593566e-06
-0.041579802 0.031721026 0.0043712198 -0.93410832 -0.020640709 -0.35639247 0.0020705035
0.0028089518 0.030892691 0.0037085181 0.8515467 -0.0027361983 -0.52427155 0.010363704
0.003979627 0.031396981 0.0049982648 0.86227494 -0.0050629904 -0.50641513 0.0070866491
-0.042210747 0.034364019 0.0057620197 -0.90571648 -0.1389256 -0.40047148 0.0098576387
-0.041472025 0.034327842 0.0040895417 -0.9378863 -0.14150816 -0.31677237 0.012540085
0.0026088429 0.034483243 0.0036945823 0.83450687 -0.069149137 -0.54664135 0.012106908
0.0039461344 0.034344256 0.0049539972 0.85108137 -0.1404852 -0.50588959 0.023056677
-0.045058843 0.038985841 0.0059608268 -0.41694784 -0.85871476 -0.29793179 0.0095575722
-0.0431839 0.038025968 0.004735339 -0.66115558 -0.66627318 -0.34489614 0.031778537
-0.041550994 0.037237294 0.0039922614 -0.853782 -0.42685926 -0.29807296 0.022384185
0.0026088874 0.036675971 0.0036852579 0.71319616 -0.41857082 -0.56227189 0.046041615
0.0049110739 0.037247464 0.0040709879 0.4466207 -0.74909216 -0.48927578 0.039010789
0.0076768249 0.037810177 0.0044190623 0.19625562 -0.93864411 -0.28360352 0.010463001
0.01065218 0.038545739 0.0046091774 0.2812193 -0.95292121 -0.11338799 0.0050116633
0.012293281 0.03889979 0.0050097378 0.2903311 -0.95212966 -0.095691733 0.0045040241
-0.051848494 0.041599136 0.005101704 -0.80918586 -0.58232844 -0.078179359 0.020802693
-0.049402107 0.040768005 0.0046536163 -0.49254906 -0.83319092 -0.2513729 0.011768427
-0.046461783 0.039856039 0.0043925559 -0.3555311 -0.88153189 -0.31064311 0.0071979128
-0.044158742 0.039340675 0.0040344312 -0.47813541 -0.84291971 -0.24672416 0.010970412
0.01161165 0.039043874 0.003229345 0.19632393 -0.96916991 -0.14888443 0.0015690565
0.013702825 0.039438393 0.0044867001 0.3210519 -0.94702536 -0.0082856733 0.0042103161
0.016665665 0.04055319 0.0044439062 0.38321358 -0.91526574 0.12424176 0.0030317344
0.018855557 0.04148725 0.0043991734 0.40953997 -0.89143956 0.19393961 0.0029272584
-0.052591592 0.043600157 0.0045500873 -0.89954364 -0.43342304 -0.054457922 0.027336428
-0.049782399 0.042053688 0.0031390444 -0.40401804 -0.81525779 -0.41487861 0.018487586
0.020266013 0.042323273 0.0049832249 0.44736379 -0.86239648 0.23693447 0.0025413795
0.022383079 0.043392155 0.0046338467 0.46667495 -0.83316302 0.29673862 0.0025325792
0.024810826 0.044497281 0.0039532692 0.48605734 -0.78670239 0.38058847 0.0034649288
-0.053179991 0.046716161 0.0050048386 -0.98813272 -0.14637414 0.046566591 0.0085599944
0.023796566 0.045148056 0.0059076771 0.51341903 -0.73794973 0.43798521 0.0031905849
0.026024198 0.045802426 0.0048250295 0.51602608 -0.72812724 0.4511627 0.0027221644
0.028198019 0.04697207 0.0041571283 0.5286209 -0.68151832 0.50605601 0.0038545411
0.03025136 0.047829285 0.0033010903 0.52832907 -0.6496101 0.54669476 0.0027133515
-0.053231169 0.049419153 0.0047128699 -0.99958622 -0.015181096 0.024431495 0.0066336868
0.029134789 0.048776109 0.0052475319 0.55843276 -0.53610116 0.63304698 0.0032880108
0.03125241 0.049696419 0.0041354084 0.56721985 -0.54179776 0.62025547 0.0032305412
0.033365648 0.050644059 0.0032458149 0.54574555 -0.5601244 0.62323552 0.0018336009
-0.053146571 0.052329965 0.0046490147 -0.99376065 0.097053349 0.05495837 0.006181024
0.032146011 0.052068736 0.0049771485 0.56563348 -0.39359894 0.72466451 0.0019117817
0.033990964 0.052615471 0.0038337838 0.56112581 -0.40543926 0.72163481 0.002523982
-0.052711982 0.055341378 0.0047150753 -0.98366821 0.17470561 0.04329877 0.007148399
0.03250917 0.055353932 0.0057190326 0.54951137 -0.12060435 0.82673568 0.0027549646
0.034504093 0.0554749 0.0043967944 0.5444504 -0.15819968 0.82373935 0.0028880965
0.036427867 0.055798586 0.0032848418 0.55700451 -0.21499547 0.80219877 0.0036664505
-0.052120499 0.057784531 0.0048724245 -0.95714015 0.28236833 0.064426757 0.0082470914
0.032567322 0.058548618 0.0057443054 0.5231666 0.028481927 0.85175437 0.00062636798
0.034577213 0.058516864 0.0045301458 0.52869719 0.012630805 0.84871656 0.00079387554
0.036738981 0.058351215 0.0033253012 0.53614509 -0.0058080326 0.8441059 0.0013734644
0.032288641 0.061448045 0.0056452267 0.50819761 0.099370204 0.8554886 8.1207363e-05
0.034508638 0.061529856 0.0043041827 0.51312375 0.096245885 0.85290134 7.2411938e-05
0.036490679 0.061315939 0.0032468569 0.525931 0.091858841 0.84555227 0.00011513176
0.031952567 0.064472876 0.0054213852 0.50045502 0.13506372 0.85516226 6.1707513e-05
0.034437906 0.064530827 0.0039478964 0.50696111 0.13094202 0.85196525 7.4588832e-05
0.036291521 0.064187527 0.0031239805 0.52161741 0.12905791 0.84336197 0.00010205313
0.029586382 0.068406247 0.0058173863 0.48017308 0.18068247 0.85836339 0.00026879425
0.031588506 0.067512006 0.0050870082 0.49142212 0.17014749 0.85413945 0.0001101509
0.034137435 0.067499734 0.0036144713 0.4987697 0.16523796 0.85083795 8.5378291e-05
0.029393731 0.070709124 0.0055936137 0.45375434 0.25814462 0.85291761 0.0014773828
0.031476956 0.070410401 0.0045090429 0.46696761 0.23662859 0.85202599 0.00087599974
0.033604328 0.070179559 0.0033700471 0.48026052 0.23067479 0.84625 0.00069469307
0.023696436 0.074820749 0.0058697569 0.30373368 0.65085447 0.69579762 0.0015194993
0.0262191 0.074211568 0.0055376296 0.38665417 0.43843892 0.81133831 0.0029477743
0.028718714 0.073288597 0.0049111769 0.39538142 0.41617128 0.81882536 0.0027017789
0.031489417 0.072982103 0.0036884306 0.42771608 0.35503298 0.8312704 0.002374179
0.033632062 0.072190121 0.003091773 0.46621597 0.28082886 0.83891469 0.0027699582
0.011540615 0.077793866 0.0041568382 0.039483115 0.91511136 0.40126354 0.0013878518
0.013743214 0.077288941 0.005611279 0.057591341 0.9015528 0.42881909 0.0022793107
0.016464334 0.077286936 0.0051666517 0.11342362 0.85671741 0.50316042 0.0037544323
0.019592129 0.077145927 0.0046457374 0.14222015 0.82901132 0.54084533 0.0030134213
0.022493538 0.076531395 0.0046045976 0.22848614 0.73771143 0.6352762 0.0032858059
0.025538055 0.075700343 0.0045148246 0.33136049 0.57947683 0.74458504 0.002403344
0.028249761 0.07558585 0.0035584066 0.33359337 0.55885518 0.75920779 0.0030123212
0.030001471 0.075109795 0.0031505942 0.33172378 0.59726036 0.73023242 0.002827453
0.013441865 0.078111574 0.0032327385 0.038757715 0.92210019 0.38500524 0.002556785
0.016743135 0.078102373 0.0034405217 0.089560404 0.88840097 0.45024744 0.0027440309
-0.00081825227 -0.075202338 0.0073365453 -0.2846114 -0.95828789 0.026090482 0.018730368
0.0014518334 -0.075682253 0.0076734079 -0.1535009 -0.9720816 0.17746778 0.0061542019
0.0045553022 -0.076110691 0.0074852277 -0.08862792 -0.97201675 0.21755104 0.0035680954
0.0076699178 -0.076213628 0.007529397 -0.003447352 -0.9496845 0.31318906 0.002942059
0.010578108 -0.076191366 0.007432559 0.031835854 -0.92738187 0.37275922 0.0029339904
0.013499436 -0.076011769 0.0073024887 0.07260485 -0.8986885 0.43253618 0.0035512461
0.016328068 -0.075715266 0.007188214 0.14990436 -0.82154822 0.55007929 0.0035973017
0.01920958 -0.075520515 0.0065891431 0.1859138 -0.77385503 0.60546207 0.0035253945
0.021414503 -0.075156108 0.0062952987 0.26419142 -0.68748647 0.67643577 0.0031297931
-0.012269459 -0.072111286 0.008979341 -0.26415843 -0.91122925 -0.31604055 0.046589643
-0.009944709 -0.07270889 0.008589901 -0.29162779 -0.93272901 -0.21206079 0.02322744
-0.0072005168 -0.073270567 0.007929395 -0.29827058 -0.92388606 -0.23972747 0.020675784
-0.0044354219 -0.074008547 0.0075166803 -0.32925701 -0.93277836 -0.14667773 0.015470055
-0.0022700701 -0.074755505 0.0075866985 -0.35702544 -0.93139118 -0.071016207 0.01658104
0.014341372 -0.074906968 0.0087716291 0.17366484 -0.76758945 0.61696589 0.0029145016
0.016846139 -0.074548572 0.008541883 0.22232985 -0.70075494 0.67787308 0.0030835753
0.019638943 -0.073962398 0.0080855675 0.27290681 -0.64222473 0.71628851 0.0039021689
0.022408009 -0.07352186 0.0073060999 0.30870238 -0.59279895 0.7438361 0.0028284548
0.025051828 -0.072873577 0.0065998374 0.37833172 -0.49205121 0.78406042 0.0029847284
0.027325422 -0.072147019 0.0061474638 0.39191481 -0.47548383 0.78760266 0.002713908
-0.015783651 -0.069285639 0.0081936931 -0.3226487 -0.83914804 -0.43786791 0.001359991
-0.013502484 -0.069806136 0.0074534831 -0.33655939 -0.82633132 -0.45155758 0.002715009
-0.010540808 -0.070798568 0.0070862691 -0.35953787 -0.80534142 -0.4713361 0.0090603167
-0.0081031956 -0.071640454 0.0068389475 -0.35444096 -0.84569001 -0.39897385 0.016451923
0.020712659 -0.07196527 0.0089339735 0.33826336 -0.57699251 0.7434094 0.0032344747
0.02307906 -0.071078017 0.0085240044 0.41451079 -0.36904836 0.83185583 0.0030093063
0.02546555 -0.070557669 0.0075364602 0.42309406 -0.34468901 0.83796233 0.002688932
0.027773026 -0.070112988 0.0064677745 0.43415496 -0.30813655 0.84649944 0.0021305582
-0.024910951 -0.066316292 0.008337697 -0.26125014 -0.89035475 -0.37284935 0.0012914266
-0.022406822 -0.066780344 0.0076707741 -0.28857869 -0.89497644 -0.34020516 0.0042832182
-0.01949355 -0.067656144 0.0074997232 -0.27564737 -0.88430309 -0.37686425 0.0072421031
-0.016807986 -0.068477467 0.0072471621 -0.3009252 -0.86227757 -0.40733466 0.0015434552
-0.014748959 -0.06885305 0.0064897304 -0.31728041 -0.84255093 -0.43524826 0.0031514708
0.02363956 -0.068727493 0.0089079123 0.45802584 -0.22862236 0.85903674 0.0007894329
0.025762012 -0.067591295 0.0082080942 0.46582258 -0.20962982 0.85968876 0.00050913525
0.02844508 -0.067324154 0.0067770137 0.47843727 -0.19098826 0.85710049 0.00020168359
0.030275807 -0.066482574 0.0061519789 0.48156241 -0.18690771 0.85624951 0.00014013077
-0.03669012 -0.063128136 0.0086939 -0.26254907 -0.90567607 -0.33289456 0.0029542607
-0.034309614 -0.063433081 0.0079132617 -0.26345786 -0.92736906 -0.26566231 0.0076837991
-0.031523183 -0.064029515 0.0075192 -0.24827813 -0.92224991 -0.2963326 0.0062373239
-0.028398901 -0.064909264 0.0075180158 -0.2663604 -0.90695292 -0.32632565 0.0034917186
-0.02569871 -0.065517843 0.0071373782 -0.25210127 -0.91655117 -0.31044972 0.0045456327
-0.023407342 -0.065802909 0.0063390657 -0.26226598 -0.90511054 -0.33465141 0.0077617159
0.026201246 -0.064620957 0.0085555557 0.48410735 -0.15401024 0.86134833 4.6740744e-05
0.028451694 -0.064497709 0.0073230071 0.48885623 -0.15017796 0.85934055 5.4606127e-05
0.030527756 -0.06424538 0.0062752017 0.49568725 -0.14564341 0.85620219 7.6491277e-05
-0.048812341 -0.060215741 0.0081763323 -0.37482604 -0.89868325 -0.22775854 0.032212421
-0.04566136 -0.060197644 0.0083964868 -0.19395244 -0.94044596 -0.27918407 0.015365256
-0.043404419 -0.060642302 0.0076035806 -0.28700241 -0.94062275 -0.18126895 0.014448001
-0.04044332 -0.061514217 0.0075166831 -0.27012891 -0.93122065 -0.24465996 0.00544916
-0.037540618 -0.062300675 0.0073870118 -0.25954151 -0.92547464 -0.27592564 0.0034706336
-0.035031635 -0.06271366 0.006723267 -0.23660319 -0.9394682 -0.24782756 0.0088111544
0.026550278 -0.061669506 0.0088142119 0.49034703 -0.12070105 0.8631286 7.8450728e-05
0.028504927 -0.061556969 0.0077563967 0.49579731 -0.11559455 0.86071074 9.5252421e-05
0.030789634 -0.061453935 0.0064313319 0.50319082 -0.10942771 0.85721916 7.5226017e-05
-0.05137242 -0.057890926 0.0070201056 -0.77421474 -0.632828 0.010965879 0.034302689
-0.049575042 -0.059061274 0.0073644402 -0.45092121 -0.88241988 -0.13418405 0.021504244
-0.046563055 -0.059563212 0.007276067 -0.1901803 -0.9677788 -0.1650321 0.017210223
-0.044533014 -0.059866853 0.0063322051 -0.24862464 -0.95938319 -0.13330296 0.015679339
0.026806077 -0.058234643 0.0088208178 0.49921271 -0.083966978 0.86240149 0.00011152613
0.028552337 -0.05851968 0.008062372 0.51101243 -0.070169158 0.85670453 0.0001900222
0.031033089 -0.058450606 0.0066363998 0.51267135 -0.059635308 0.85651135 0.00024277132
-0.051982976 -0.055428855 0.0072507784 -0.95086163 -0.3060998 0.046530787 0.023898378
0.028724231 -0.05558845 0.0081261024 0.52932096 0.005665449 0.84840274 0.00083981239
0.03111293 -0.055575747 0.0066700387 0.52929425 0.030675994 0.84788358 0.001268439
-0.052452143 -0.052717406 0.0071903863 -0.97021323 -0.2387609 0.040981952 0.019061273
0.026673554 -0.051841367 0.0088608079 0.55519658 0.17877284 0.81227893 0.0030728099
0.028282315 -0.053093653 0.008182684 0.54391843 0.10766489 0.83220255 0.0015149794
0.030455472 -0.053222239 0.0067328904 0.54504311 0.1330965 0.82777613 0.0020840708
-0.052724477 -0.050015084 0.0069583431 -0.98905939 -0.13426939 0.061100733 0.013993604
0.026175389 -0.049120978 0.0083022555 0.56153488 0.37528229 0.73745632 0.0026263855
0.028192168 -0.049751818 0.0070453878 0.56975555 0.41866988 0.70717341 0.0039675194
0.030208509 -0.050452776 0.0061071916 0.56218708 0.44417191 0.69760811 0.0029840991
-0.052392926 -0.04645545 0.0073053283 -0.98108339 0.12958263 0.14381845 0.0040144608
0.023218187 -0.045774739 0.0082060155 0.56563222 0.58335036 0.58289158 0.0029358014
0.025280109 -0.04675556 0.0072386102 0.55724502 0.57415974 0.59984869 0.0039209048
0.027378341 -0.047587905 0.0062726089 0.54408562 0.58441007 0.60202628 0.0021135316
-0.051915746 -0.043546408 0.0074444031 -0.96408409 0.22025853 0.14841868 0.0065111872
0.017923659 -0.042247437 0.0088880509 0.51136446 0.73609793 0.44347075 0.0024737269
0.019912109 -0.042979773 0.00793307 0.52189201 0.73758602 0.42848051 0.0019294267
0.022107836 -0.044114958 0.0072577512 0.53114998 0.68286431 0.5015735 0.0029615341
0.024045628 -0.044997953 0.0063571045 0.50225341 0.68808645 0.52371621 0.002051095
-0.051403519 -0.041266102 0.0073825447 -0.92675108 0.36465579 0.090324737 0.018205056
-0.050509606 -0.040235724 0.0079136034 -0.90505582 0.42506239 0.013996433 0.028609699
0.014131633 -0.039563511 0.0079088928 0.49952379 0.82350928 0.26890245 0.0041397684
0.016615016 -0.040802222 0.0076142922 0.47616813 0.81596756 0.32781219 0.0021441004
0.01862964 -0.041639894 0.0068666199 0.50427723 0.76635188 0.39800665 0.0023100551
-0.048905887 -0.03875903 0.0078323772 -0.53328615 0.83015126 -0.16264938 0.0083605582
-0.044112429 -0.036754042 0.0072260019 -0.72195876 0.60475266 -0.33622894 0.051189493
0.0079312325 -0.036481783 0.0072281058 0.60334831 0.54277754 -0.58426309 0.011270145
0.010468169 -0.037782975 0.0078866221 0.54085433 0.80362159 -0.24833217 0.011293646
0.01263287 -0.038809732 0.0078430641 0.47111008 0.85565335 0.21427254 0.0059200022
-0.042749263 -0.03418969 0.007384643 -0.92291516 0.11594236 -0.36713061 0.0056293039
0.0051460015 -0.034023792 0.0068976176 0.76449722 0.24187565 -0.59752852 0.011430263
0.0066536767 -0.034641415 0.0080652023 0.7198841 0.33259568 -0.6092183 0.014395125
-0.042930726 -0.03119891 0.0076771248 -0.93365949 -0.0002707674 -0.35816184 1.906899e-05
0.0052072029 -0.031502277 0.0069752261 0.77177632 0.028146582 -0.63527095 0.0015731202
0.0062175496 -0.031520452 0.0082551735 0.76379138 0.037697613 -0.64436138 0.0014607784
-0.042906743 -0.028502544 0.0076131658 -0.93367916 -0.00023467107 -0.35811025 1.1746542e-05
0.0051769861 -0.028513709 0.0069364123 0.7851451 8.6018204e-05 -0.61931187 0
0.0062342766 -0.028575305 0.00827742 0.52797806 -0.14688656 -0.83645898 0.030273201
0.0092942249 -0.027336771 0.0085477559 0.34267136 -0.11729292 -0.93210447 0.0080571398
-0.042833269 -0.025495982 0.0074199694 -0.92229772 -0.045708105 -0.38376787 0.0011998606
0.0051934137 -0.025368063 0.006735553 0.76321101 0.018767767 -0.64587665 0.0013785397
0.0063392464 -0.025302641 0.0081811678 0.52593499 0.10435177 -0.84409904 0.045923173
0.010116315 -0.025223583 0.0085795075 0.22956274 -0.042460706 -0.97236729 0.011129362
-0.04330327 -0.022450311 0.0075860131 -0.87270641 -0.11299665 -0.47498974 0.004241656
0.0052753356 -0.022530783 0.0068392926 0.77648336 0.00054145581 -0.63013756 0.0003669945
0.0063195946 -0.022593074 0.0081556216 0.50523317 0.063392438 -0.86065137 0.035655051
0.0099717584 -0.022517335 0.0085642021 0.24481277 0.0048363563 -0.96955836 0.011865364
-0.044013638 -0.019483909 0.0076103904 -0.86918813 -0.10842142 -0.48244861 0.0040689288
0.0052571381 -0.019432507 0.0068159271 0.77789336 -1.045606e-06 -0.62839639 0.00021175691
0.0063388152 -0.019384921 0.0081875464 0.63516825 0.036314834 -0.7715196 0.025314018
0.010212944 -0.019831128 0.0087497095 0.21119764 0.090523034 -0.97324258 0.022817735
-0.044139195 -0.016534632 0.007608484 -0.89455312 -0.065810479 -0.44209012 0.0060928906
0.0052648005 -0.01648723 0.0068251905 0.78468668 -7.9462858e-05 -0.61989266 1.5342563e-06
0.0064117024 -0.016544655 0.0082789455 0.72155702 0.025166579 -0.69189745 0.013957766
0.0096037034 -0.017470056 0.0089280885 0.26277956 0.22392672 -0.93851149 0.01956892
-0.044149116 -0.013521989 0.0074927197 -0.91409844 -0.011930765 -0.40531668 0.0026071316
0.0052589346 -0.013523517 0.0068176165 0.78512579 -7.9446312e-05 -0.61933643 1.7003447e-07
0.0063923849 -0.013377244 0.0082541592 0.78489411 0.00051161204 -0.61962968 1.0216207e-06
-0.044129197 -0.010519347 0.0074396073 -0.93129039 -0.0043928344 -0.36425123 0.00010976473
0.0052801799 -0.010539023 0.006844 0.78513134 -8.3821797e-05 -0.61932927 0
0.0064135836 -0.010368654 0.0082805678 0.78517693 -0.00011183243 -0.61927152 2.3761294e-07
-0.044126347 -0.0074458364 0.0074312538 -0.93293983 -0.0022690345 -0.3600252 2.9842357e-05
0.0053015258 -0.0075349454 0.0068705496 0.78511339 -9.0563764e-05 -0.61935216 2.7711462e-07
0.0064122807 -0.0074653104 0.0082786921 0.78517258 -0.00017098905 -0.61927706 0
-0.044161379 -0.0045490316 0.0075213783 -0.93365073 -0.00035219957 -0.35818464 5.6266167e-06
0.0052960371 -0.0045139026 0.0068630232 0.78512275 -6.9660637e-05 -0.61934018 0
0.0064494144 -0.0045073656 0.0083251623 0.75154489 0.001197205 -0.65968084 0.0038196396
-0.044077069 -0.0014626854 0.0075383876 -0.93208104 0.0017576481 -0.36224565 0.0007038092
0.0053291842 -0.0014381047 0.0069050374 0.78512615 -7.3073395e-05 -0.61933595 1.139191e-07
0.0064590042 -0.0016934548 0.0083371997 0.78512371 -5.749839e-05 -0.61933905 1.1452498e-07
-0.044001754 0.001399433 0.0073413067 -0.92881721 0.00181202 -0.37053388 0.00031157702
0.0053339694 0.0015598438 0.0069104861 0.78513169 -0.00010051696 -0.61932886 1.5553324e-07
0.0064943768 0.001368742 0.0083817113 0.78513372 -0.0001005037 -0.61932629 0
-0.044068567 0.0045291716 0.007515219 -0.92674381 0.0049836021 -0.37566084 0.0015903127
0.0053411317 0.0044185743 0.0069190562 0.78510565 -6.9495582e-05 -0.61936194 1.6972891e-07
0.0064924839 0.0045061843 0.0083786603 0.78511912 -0.00010152593 -0.61934489 0
-0.044034682 0.007427766 0.0074261408 -0.92415893 -0.0048289578 -0.38197765 0.0013207751
0.0052600433 0.0075072367 0.0066327252 0.84051573 -0.019248374 -0.54144514 0.00072805531
0.0064881602 0.0075777266 0.0083726738 0.78508109 -5.5085839e-05 -0.61939305 8.3964174e-08
-0.044041649 0.01033617 0.0074438476 -0.92937976 0.0004064565 -0.36912471 0.00054960418
0.0053890659 0.010530566 0.006795255 0.83052242 -0.014289034 -0.5568018 0.0014526931
0.0065288851 0.01063528 0.0084244348 0.78508973 1.3165874e-05 -0.61938214 1.0372592e-07
-0.044077151 0.013732224 0.0075363731 -0.92699981 0.018651897 -0.37459779 0.0012867663
0.0054194666 0.013398655 0.006832818 0.815054 -0.0080904318 -0.57932848 0.001756725
0.0065025394 0.01405666 0.0082050962 0.78311247 -0.0034682087 -0.62187046 3.831082e-05
-0.044164099 0.016717013 0.0078005535 -0.90680116 0.024772367 -0.42083007 0.0034272065
0.0054227798 0.016475398 0.0068353475 0.80823737 -0.0055188551 -0.58883101 0.0023700602
0.0065702223 0.01669337 0.0082896436 0.70627946 -0.036918964 -0.70696968 0.016213754
0.0095892744 0.017693784 0.0089743817 0.32978958 -0.19130993 -0.92446703 0.023724154
-0.043856934 0.019345857 0.0072855614 -0.89657229 0.044638734 -0.44064209 0.0022611052
0.0054738149 0.019283185 0.0068980735 0.76256347 -0.0062823077 -0.64688295 0.00094692898
0.0066069067 0.019530945 0.0083074681 0.5432477 -0.039497718 -0.83864284 0.038010526
0.010151057 0.020195089 0.0085183987 0.4037337 -0.081716202 -0.91121984 0.020637698
-0.043803006 0.02230439 0.0077099088 -0.87748498 0.097310461 -0.46962827 0.0031527521
0.0054353364 0.022559375 0.0068476163 0.70155168 -0.030909279 -0.71194792 0.011732263
0.0067739575 0.022236474 0.0083606513 0.47553134 -0.06645713 -0.87718487 0.038374908
0.01031868 0.022757618 0.0084593305 0.24310099 -0.054418411 -0.96847332 0.010483315
-0.042827044 0.025893139 0.0073727779 -0.91706181 0.063629724 -0.39363524 0.0031767285
0.0054540136 0.025543123 0.006870559 0.69827598 0.0038821502 -0.71581811 0.011256777
0.0071039395 0.02539964 0.0084302528 0.41801783 0.04806909 -0.90716618 0.035966687
0.010434295 0.025584951 0.0084537892 0.21765848 0.011451215 -0.97595781 0.010715505
0.012162277 0.026539955 0.0089055402 -0.02119536 0.11044967 -0.99365574 0.013567698
-0.042800996 0.02879243 0.0075544422 -0.93266779 -0.037079144 -0.35882562 0.00076189172
0.0054857717 0.028529629 0.0069090729 0.71911108 0.030589586 -0.6942215 0.0092713833
0.0066560204 0.028934376 0.0083191041 0.50810343 0.066503897 -0.85872477 0.035040256
0.010263619 0.02819893 0.0085604331 0.27016011 0.04528733 -0.96174973 0.011126778
0.01210605 0.027188148 0.0089452341 0.4647547 -0.049943123 -0.88402987 0.0013397473
-0.04273136 0.031369887 0.0073721344 -0.93043202 -0.018302308 -0.36600739 0.0013218642
0.0053824931 0.031641159 0.0067759291 0.77988708 0.0018170063 -0.62591761 6.4345346e-05
0.0065861647 0.031536788 0.0083018085 0.55157292 0.056820348 -0.83218908 0.028816208
0.010222516 0.030729121 0.0088394843 0.19755571 0.16193049 -0.96682483 0.019505868
-0.042896654 0.034486908 0.0078026066 -0.92758816 -0.11183893 -0.35647193 0.0061907955
0.0054480806 0.034578051 0.0068574231 0.75147855 -0.21858242 -0.62249637 0.03120999
0.0065567126 0.034634881 0.008262773 0.6790089 -0.13656028 -0.72131699 0.025400421
-0.048474386 0.038859136 0.0083204033 -0.45043388 -0.85572493 -0.25464517 0.01353254
-0.046157725 0.038687084 0.0080698319 -0.30403969 -0.90361822 -0.30171832 0.0074334135
-0.043748423 0.037652358 0.007402238 -0.71900123 -0.60784119 -0.33699605 0.04034023
-0.041929308 0.036461093 0.0060425727 -0.91870874 -0.26910067 -0.28906614 0.023597332
0.0053516417 0.036599886 0.0065844306 0.61679721 -0.60035181 -0.50905687 0.026381886
0.0080304993 0.037004229 0.0070812395 0.4450514 -0.82526714 -0.34765413 0.027484134
0.01053843 0.038237151 0.0074382056 0.41057014 -0.90942889 -0.066114038 0.013162429
0.012156277 0.038889736 0.0070341602 0.4729147 -0.88099623 0.014050722 0.014956929
-0.051334061 0.041475184 0.0071779294 -0.80812263 -0.58900297 -0.0036527512 0.0265062
-0.049737733 0.040297076 0.0073861531 -0.58205014 -0.78589594 -0.20877056 0.02156508
-0.046609528 0.039201979 0.0067129475 -0.32406491 -0.89327365 -0.31151903 0.0062465081
-0.043345574 0.039146725 0.0069693439 -0.38371912 -0.90024096 -0.20573266 0.036591269
0.01195595 0.039231244 0.0085154688 0.51116806 -0.84365213 0.16418998 0.010323539
0.013581117 0.03965101 0.0075590448 0.44229117 -0.88919979 0.11705635 0.0059727319
0.016381999 0.041031543 0.0074584424 0.44457641 -0.85241747 0.27520236 0.0042875772
0.018531663 0.04180979 0.0065177432 0.4774797 -0.81763875 0.32168308 0.003969756
-0.051869743 0.043145299 0.0071949679 -0.93661618 -0.33277327 0.10959961 0.014454716
-0.050956983 0.042484913 0.0081213051 -0.76668811 -0.64142966 -0.027519427 0.021679327
0.017620549 0.042178378 0.0085873576 0.50006801 -0.79034269 0.35396385 0.0036059662
0.019681819 0.043112624 0.0076610134 0.500983 -0.77933407 0.37637001 0.0018772688
0.021976346 0.044291139 0.0070453454 0.51933813 -0.71537644 0.46746603 0.002575859
-0.05241283 0.046111561 0.0073506879 -0.9818731 -0.15765443 0.10521536 0.0070733763
0.023022452 0.04585743 0.008031968 0.5439766 -0.63372874 0.54997933 0.0038339656
0.025140911 0.046883151 0.0070956331 0.55121267 -0.60171902 0.57801276 0.0032928695
0.027270101 0.047748294 0.00622924 0.54125577 -0.5995006 0.58961111 0.0025815382
-0.052614212 0.049018502 0.0073770648 -0.99187511 -0.065496743 0.10905979 0.0083369808
0.026191818 0.049129624 0.0080403602 0.55866021 -0.46618441 0.68598169 0.0024707173
0.028150178 0.049685448 0.0067943763 0.5696879 -0.48328853 0.66474646 0.0023506323
0.030351212 0.050984006 0.0060074325 0.5531075 -0.47381103 0.68525571 0.0024688081
-0.052377068 0.052523036 0.0074271392 -0.98511189 0.116924 0.126029 0.0048754318
0.026730167 0.051825166 0.0087943003 0.56383663 -0.21425486 0.79761082 0.0033493231
0.028648954 0.052127041 0.0075712167 0.56385213 -0.30696598 0.76670891 0.0023808954
0.030555356 0.052620064 0.0064301267 0.55962729 -0.34548154 0.75329924 0.0030211199
-0.051923484 0.055456571 0.0074512442 -0.97678584 0.18659215 0.10522727 0.0044708182
0.028697859 0.055474438 0.0081786271 0.53678089 -0.049721759 0.84225535 0.0015772268
0.031001735 0.055574197 0.0067228894 0.53519106 -0.087121591 0.84022635 0.0025939874
-0.05140999 0.057734229 0.0076669939 -0.94755417 0.31655502 0.043977115 0.011910264
-0.05075264 0.05884745 0.008078061 -0.93330544 0.35892975 -0.010510799 0.024078321
0.026794709 0.058606714 0.0088453079 0.50242794 0.074982494 0.86136162 0.00013973663
0.028650083 0.058532447 0.0080834264 0.51188409 0.061174273 0.85687369 0.0002441757
0.031015944 0.05846867 0.0066815107 0.51175743 0.046140589 0.85789007 0.00043989101
-0.048888236 0.060918212 0.0085357754 -0.81991035 0.56032968 -0.11737894 0.026528511
0.026562748 0.061794024 0.0086922264 0.49549124 0.11707467 0.8606869 4.46663e-05
0.028563417 0.061542287 0.0077998056 0.49963269 0.10958875 0.85927731 7.0045498e-05
0.030907052 0.061353967 0.0064704744 0.50091445 0.10480732 0.85912758 7.9038029e-05
0.026364084 0.064908251 0.0085449005 0.48660004 0.14804886 0.86098891 6.4386848e-05
0.028506078 0.064530805 0.0073891748 0.49085313 0.14255156 0.85950118 6.1850384e-05
0.030415246 0.064393044 0.0063197911 0.49495494 0.13910368 0.85771197 6.0069164e-05
0.02589502 0.067566089 0.0082903355 0.47403404 0.19322354 0.8590439 0.0002727767
0.028479915 0.067398012 0.0068854648 0.48112449 0.17988779 0.85799748 0.0001404151
0.030322324 0.066746861 0.0062030116 0.48637712 0.17541365 0.85595989 0.00010472185
0.023193026 0.071072109 0.0086466493 0.42381498 0.32975125 0.8435905 0.0023765417
0.025495116 0.07038638 0.0077833468 0.44661701 0.29320648 0.84531838 0.0018278459
0.027908981 0.070117116 0.0065650479 0.45012954 0.26993927 0.85118514 0.0011585731
0.017471282 0.074406847 0.0088008856 0.2631143 0.62336957 0.73632956 0.0049612434
0.019689515 0.074153341 0.0082845399 0.31979358 0.5713973 0.75580233 0.0033977553
0.022745915 0.073149145 0.0078118574 0.37162474 0.44794658 0.81316596 0.0021997998
0.025452724 0.072861582 0.0067216875 0.39697284 0.43065724 0.81052268 0.0023445431
0.027483217 0.072290085 0.0061563565 0.4328101 0.39054561 0.81249595 0.0030100159
-0.0020223714 0.075359046 0.0076249205 -0.18712422 0.91709721 0.3520188 0.0016341098
0.00097602903 0.075962298 0.0085462686 -0.16370222 0.90857387 0.38431123 0.003592293
0.0040611094 0.076495111 0.0078373402 0.035665117 0.90736085 0.41883695 0.0010949738
0.0077896775 0.076689675 0.0075054551 0.059206232 0.89375353 0.44463384 0.0011203886
0.010700641 0.076480016 0.0077603068 0.091230355 0.89024109 0.44625986 0.0023227287
0.013401963 0.076241359 0.0076731415 0.13221006 0.8507635 0.50864714 0.0039418605
0.016479315 0.075810604 0.0074925274 0.19040553 0.78669906 0.58723962 0.0028027087
0.019442616 0.075576924 0.0068203132 0.21942391 0.72697252 0.65066433 0.0033310873
0.021807628 0.075224556 0.0063500283 0.26904577 0.69648433 0.66522473 0.003790237
-0.00052207836 -0.075060755 0.0094061242 -0.22238934 -0.94677019 0.232743 0.0031634956
0.0018309567 -0.075282529 0.0098476773 -0.12684414 -0.93036258 0.34400007 0.0032178864
0.0045535578 -0.07540369 0.010014307 -0.023264211 -0.92512363 0.37895253 0.0034919893
0.0073102545 -0.075418547 0.0096858423 0.045046501 -0.9105376 0.41096485 0.0031764023
0.010343167 -0.075264439 0.009491696 0.11630275 -0.85205215 0.51037323 0.0032365462
0.012655589 -0.075175844 0.0091720819 0.15838107 -0.80352736 0.57381105 0.0032558737
