# .PCD v0.7 - Point Cloud Data file format
VERSION 0.7
FIELDS x y z normal_x normal_y normal_z curvature
SIZE 4 4 4 4 4 4 4
TYPE F F F F F F F
COUNT 1 1 1 1 1 1 1
WIDTH 562
HEIGHT 1
VIEWPOINT 0 0 0 1 0 0 0
POINTS 562
DATA ascii
-0.026246108 0.039298341 -0.004065013 0.37278724 0.88853908 -0.26744711 0.0020606327
0.035114262 0.039438725 -0.0041334615 -0.40892613 0.86930692 -0.27764162 0.0025117123
0.037515651 0.040653925 -0.00441333 -0.46757051 0.84151548 -0.2706095 0.002445214
0.039577108 0.04167372 -0.0050219246 -0.50724632 0.81575274 -0.27793619 0.0022313755
-0.072031483 0.044855881 -0.0031415103 -0.87562108 -0.31499806 -0.36614755 0.014990038
-0.070826061 0.043518972 -0.004440512 -0.86260486 -0.31246397 -0.39784312 0.0038073873
-0.037218388 0.044391923 -0.0048190486 0.45276049 0.84885895 -0.2728484 0.0021259051
-0.034540184 0.043078229 -0.0045714988 0.43083593 0.86005843 -0.27327606 0.0019170392
-0.032464813 0.042305201 -0.003721959 0.42210028 0.86351901 -0.27598235 0.0018176793
0.040856715 0.042725969 -0.0042294259 -0.49689156 0.82176024 -0.27894244 0.0021087225
0.043247849 0.044119705 -0.004581586 -0.51903492 0.80487156 -0.28772298 0.002147651
0.045254268 0.044867568 -0.0057361159 -0.48267108 0.77755785 -0.4030292 0.0023041172
-0.072318338 0.04696073 -0.0036489682 -0.84224445 -0.26720017 -0.46821836 0.0045842645
-0.071261257 0.046459116 -0.0050785453 -0.80941617 -0.19134186 -0.55518806 0.0058610719
-0.042930003 0.047542196 -0.0046328395 0.4608618 0.83843994 -0.29090357 0.0022474225
-0.040546529 0.046307459 -0.0044761528 0.45612577 0.84052318 -0.29235286 0.0020817304
-0.038407058 0.045369815 -0.0037950207 0.43805352 0.84954602 -0.29390579 0.0020652539
0.044546265 0.045275971 -0.0037195093 -0.50634164 0.80850548 -0.2998949 0.0022985879
0.046526913 0.046271861 -0.0044146804 -0.51113778 0.80016887 -0.31379598 0.0026058049
0.048766647 0.047502693 -0.0048306677 -0.51428658 0.79481429 -0.32214811 0.0026920789
-0.07279034 0.04964174 -0.0041218726 -0.78422379 -0.25556746 -0.56540096 0.0067816405
-0.071530782 0.049191661 -0.0055131922 -0.72718638 -0.12351144 -0.67523688 0.0075579318
-0.048845675 0.050617617 -0.004924532 0.44079748 0.83012527 -0.34145221 0.0031428135
-0.046394542 0.049567416 -0.0043023499 0.45731381 0.83673996 -0.30121475 0.0023336208
-0.044187013 0.048470512 -0.0040221503 0.44466844 0.84219599 -0.30491951 0.0022020107
0.050026774 0.048630744 -0.0041110646 -0.51276225 0.78813791 -0.34046063 0.0026225401
0.052330602 0.049933806 -0.0045820684 -0.51780552 0.78384185 -0.34273827 0.0026383989
0.054422796 0.050757337 -0.005516212 -0.46935594 0.75946867 -0.45045799 0.0044699493
-0.075116791 0.053307809 -0.003035743 -0.8739146 -0.20178139 -0.44221881 0.0137361
-0.073414154 0.052620973 -0.0044640074 -0.69526279 -0.15678835 -0.70144641 0.0071621942
-0.071771078 0.052111324 -0.0057456428 -0.57972127 -0.030486343 -0.81424433 0.0098480284
-0.057506952 0.053895079 -0.0058214585 0.24596164 0.7842887 -0.56955612 0.0023616157
-0.055338543 0.053579904 -0.0050707962 0.32734114 0.86122954 -0.38875628 0.0041747377
-0.052549772 0.052640244 -0.0045847036 0.38758743 0.84033245 -0.37896881 0.0032224741
-0.05009155 0.051533218 -0.0042978092 0.4219088 0.83506328 -0.35307536 0.0033589045
0.05356982 0.051233564 -0.0035361415 -0.49663052 0.79350817 -0.35171422 0.0021977238
0.055617228 0.05210818 -0.0043217195 -0.462037 0.79596388 -0.39110523 0.0039503635
0.058105215 0.053288344 -0.0048559322 -0.46079147 0.75775051 -0.46204478 0.0069405423
0.060306937 0.053800549 -0.0058127814 -0.38817149 0.66230619 -0.64083797 0.0047852402
-0.075217351 0.055797923 -0.0032607778 -0.82148474 0.24585751 -0.51450658 0.039705001
-0.073858991 0.05577448 -0.0045270668 -0.66478938 0.29194191 -0.68762273 0.032070894
-0.071418881 0.056349326 -0.0057757236 -0.37837043 0.29063866 -0.87884301 0.0211879
-0.066785306 0.056837685 -0.0058658994 0.060377862 0.57550061 -0.81556946 0.0073027215
-0.064280912 0.056509867 -0.005492968 0.23568702 0.66236508 -0.71114278 0.006717911
-0.061388023 0.055793941 -0.0047911895 0.30858523 0.77324879 -0.55395067 0.0076902551
-0.058622964 0.054923832 -0.0045361011 0.26671228 0.85075426 -0.45285949 0.0041033095
-0.056023017 0.054378968 -0.0039386423 0.33104795 0.87926292 -0.34249672 0.0031337468
0.059108391 0.054565553 -0.0038208943 -0.48187158 0.75267798 -0.44863752 0.0053752256
0.061360221 0.05563866 -0.0045267879 -0.46981335 0.69720232 -0.5414651 0.0076589682
0.063747585 0.056445133 -0.0054959655 -0.3898249 0.56810409 -0.72477192 0.0059990617
0.068905368 0.056656115 -0.0059871608 -0.0070597967 0.33507624 -0.94216454 0.0084142741
0.070254736 0.055644445 -0.005452075 0.15769371 0.28013149 -0.94692081 0.0080248378
-0.075082637 0.057136852 -0.0031159997 -0.76407897 0.56343788 -0.31419921 0.055948332
-0.073240571 0.058050729 -0.0039688675 -0.53041333 0.72117877 -0.44560391 0.016589984
-0.070722826 0.059036791 -0.0043376139 -0.3032757 0.75962037 -0.57532668 0.029459374
-0.06753996 0.058535591 -0.0047145635 0.13406143 0.71075946 -0.69054222 0.01455178
-0.064750649 0.058004711 -0.0041482393 0.35379538 0.73837519 -0.57413489 0.0051366552
-0.06245954 0.057317324 -0.0034326448 0.40131259 0.75489056 -0.51873738 0.0065399879
0.062549047 0.057508588 -0.0035060234 -0.5572179 0.61351645 -0.55955851 0.0090667997
0.064392351 0.058483496 -0.0043191887 -0.58139294 0.48768955 -0.65126121 0.01598906
0.066893987 0.058850899 -0.0053992141 -0.41633758 0.44013086 -0.79558021 0.011359321
0.069557056 0.058077406 -0.005438047 -0.11466961 0.31143686 -0.94332278 0.01464467
-0.069447458 0.060135175 -0.0032955552 -0.17274076 0.92765909 -0.33107269 0.025718534
-0.068266153 0.060186546 -0.0033205056 0.085475542 0.88599032 -0.45575777 0.03510876
0.065303423 0.06121093 -0.0034863411 -0.65947491 0.32753059 -0.67662132 0.015846731
0.067031816 0.061609928 -0.0044539082 -0.55840111 0.30284753 -0.77231574 0.015670577
0.069476448 0.061252646 -0.0049291626 -0.3588368 0.28789499 -0.88789225 0.0072632395
0.065828875 0.063532904 -0.0031548769 -0.81850636 0.29721746 -0.49163938 0.032141335
0.06710621 0.064615674 -0.0037245706 -0.68048775 0.23251578 -0.69489044 0.01280342
0.069608405 0.064467207 -0.0045467629 -0.48726362 0.18118049 -0.85425276 0.012838416
0.072099909 0.065330736 -0.0038971226 -0.21434583 0.044228926 -0.97575599 0.010726904
0.067679539 0.067557454 -0.003545613 -0.73623943 0.18264332 -0.65160799 0.013302685
0.069744542 0.067782454 -0.0043200837 -0.53907579 0.12612271 -0.83276069 0.010769261
0.072204471 0.068513781 -0.0041950741 -0.15420328 -0.036621045 -0.98736024 0.0071143443
0.068146013 0.070522659 -0.0035072623 -0.80962873 0.15971921 -0.56479299 0.022485131
0.069840997 0.070844561 -0.0043893615 -0.64578485 0.099767901 -0.75697321 0.0087988833
0.072553486 0.070951432 -0.0045017032 -0.12100848 0.024938868 -0.99233812 0.018164402
0.068338886 0.073554926 -0.0033612859 -0.79137069 0.23147526 -0.56581938 0.040309232
0.069791473 0.073524907 -0.0044364068 -0.57046723 0.20372824 -0.79565185 0.039658297
0.072960407 0.073905177 -0.005035846 -0.033729978 0.46320835 -0.88560724 0.064912222
0.075438827 0.074797221 -0.0039457493 0.27769911 0.95837533 -0.066332616 0.0035527835
0.068618864 0.075958431 -0.0033729628 -0.59479946 0.6285249 -0.50116861 0.07725247
0.070243642 0.076105393 -0.004169913 -0.40616059 0.6547032 -0.63749295 0.079760157
0.073158421 0.075816043 -0.004015083 0.1168166 0.90274841 -0.41400397 0.064917356
0.075295307 0.075227119 -0.0033145153 0.21715693 0.95469171 -0.2034862 0.05047835
-0.016470859 0.0028122643 -0.0013367385 -0.29046664 -0.93174207 -0.21791257 0.0020699098
-0.012958293 0.0020400258 -0.0021861689 -0.22149739 -0.93387055 -0.28075743 0.0037343379
-0.02502585 0.005714085 -0.0012785271 -0.31870577 -0.93413627 -0.1606736 0.0028780911
-0.022146706 0.004660124 -0.0016166277 -0.31564698 -0.93853736 -0.13969423 0.0026866684
-0.03328497 0.0089967782 -0.00056498026 -0.38411823 -0.88895077 -0.24943891 0.0011579603
-0.031274639 0.0082701044 -0.0015828223 -0.37206039 -0.89858681 -0.23262182 0.00077533093
-0.028209258 0.0070246323 -0.0016603321 -0.3677865 -0.90577608 -0.21048236 0.00034651463
-0.02573742 0.0061401608 -0.0026805364 -0.34219804 -0.92446512 -0.1681214 0.0027778724
-0.039171249 0.011801085 -0.00095302978 -0.4627924 -0.85050374 -0.24993332 0.0016335212
-0.037508667 0.011069225 -0.0017625 -0.42012113 -0.87487626 -0.24101821 0.0013613969
-0.034810498 0.0097662397 -0.0013657029 -0.39725444 -0.88297445 -0.25009 0.0012824403
-0.043329015 0.014236696 -0.0014420933 -0.49655572 -0.8321358 -0.24694648 0.0017745113
-0.040919207 0.012829585 -0.0015525274 -0.47029144 -0.84769773 -0.24542712 0.0014129106
-0.048214734 0.017574115 -0.0010859056 -0.59113592 -0.77334118 -0.22913265 0.0022553995
-0.046443708 0.016341358 -0.0014983909 -0.57105321 -0.77843088 -0.26065981 0.0016519044
-0.044761837 0.015344419 -0.0026103458 -0.55515701 -0.79958081 -0.22906616 0.0010350256
-0.051838875 0.020314874 -0.0014516992 -0.58893526 -0.78410172 -0.19580546 0.002166651
-0.04982014 0.018808551 -0.0014687483 -0.58351237 -0.77692431 -0.23643605 0.0023717408
-0.055402942 0.023016138 -0.0015059306 -0.59731203 -0.78145951 -0.18038692 0.0010313368
-0.053402409 0.021489363 -0.0013945771 -0.59262043 -0.76969451 -0.2374268 0.0035932364
-0.060193989 0.026921237 -0.0010568085 -0.67748892 -0.711514 -0.1864312 0.00095223589
-0.058512896 0.025546476 -0.0014851964 -0.64260864 -0.74315417 -0.1864834 0.00057310541
-0.056906447 0.024166023 -0.0014664845 -0.63119185 -0.74574536 -0.21321523 0.0017926407
-0.06210646 0.029057618 -0.0016312919 -0.72246081 -0.66413736 -0.19228081 0.002289952
-0.059915967 0.027115513 -0.0028760775 -0.66789085 -0.70506871 -0.23832768 0.0021767062
-0.064341195 0.03164934 -0.0015821322 -0.76513302 -0.62593478 -0.15092085 0.0014250227
-0.00071294483 0.032938294 -0.0027937228 0.10451635 0.98307264 -0.15048105 0.0017796061
0.0018054632 0.032882497 -0.0020182875 0.068402603 0.99134558 -0.11204905 0.0030793671
0.0046078996 0.032860186 -0.0016419999 0.016109539 0.99456125 -0.10290023 0.002463775
0.0074604093 0.032856036 -0.0017596845 -0.039486039 0.99484318 -0.09342353 0.0030745713
0.01004409 0.032914661 -0.0025349578 -0.084814832 0.98790848 -0.12978141 0.0023298943
0.01220212 0.032966629 -0.0027816074 -0.089323945 0.98945081 -0.11405401 0.0028398552
-0.06693422 0.03486035 -0.0014502996 -0.79844308 -0.5832082 -0.14952205 0.0029416995
-0.065674648 0.033400409 -0.0022096494 -0.76716727 -0.61490422 -0.18261206 0.0046164505
-0.015530914 0.035827383 -0.0016498526 0.30602047 0.94868535 -0.079672053 0.0026151231
-0.013481064 0.035305873 -0.0015283831 0.25631183 0.96269983 -0.086678952 0.0024258166
-0.010455893 0.034574091 -0.0015660679 0.21515526 0.96856958 -0.12482431 0.0037665037
-0.0073674098 0.033957563 -0.0017087397 0.16956216 0.97611552 -0.13581984 0.0029147619
-0.0044864407 0.033542212 -0.0015144624 0.12339327 0.98716342 -0.10140248 0.0028103557
-0.0015685695 0.033207823 -0.001460463 0.088498622 0.99142653 -0.096131921 0.0028463297
0.0010646707 0.033066709 -0.00084839505 0.050222263 0.99773937 -0.044652775 0.0034648895
0.0047561666 0.033015467 -0.00035569421 0.01437316 0.99976498 -0.016227411 0.001441879
0.0085814837 0.033035684 -0.00075461221 -0.044154089 0.99842501 -0.034610275 0.0031535726
0.010637275 0.033123199 -0.0012426483 -0.070286728 0.99609751 -0.053380206 0.004104746
0.013504066 0.033381235 -0.0015459759 -0.12521042 0.98725575 -0.098226085 0.0029899916
0.016523264 0.033913314 -0.0015568995 -0.20068534 0.97375149 -0.10739353 0.0030664082
0.019504011 0.034634944 -0.0015680981 -0.25764424 0.96171641 -0.093385652 0.0022716771
0.022516161 0.035440702 -0.0015807003 -0.27259606 0.95812178 -0.087716162 0.0024856778
0.02434776 0.035893586 -0.0022954934 -0.30300432 0.94878697 -0.089395657 0.0025470711
-0.069331884 0.038314279 -0.0014690063 -0.85381246 -0.50130939 -0.14033186 0.0038850296
-0.068437882 0.037154973 -0.0021119765 -0.8312037 -0.5185222 -0.20058699 0.0039705154
-0.024259837 0.038899872 -0.0015574819 0.40624696 0.90954947 -0.087654315 0.0023278194
-0.022528619 0.038231734 -0.0015803681 0.36033788 0.92853498 -0.089327432 0.0023373459
-0.019427747 0.03709393 -0.0015131119 0.31907183 0.94112051 -0.11173789 0.0028954616
-0.016963204 0.036295895 -0.0014268181 0.27787441 0.95749831 -0.077348441 0.0026883986
0.023885652 0.03601943 -0.00031473252 -0.27583048 0.96039963 -0.039372139 0.003710028
0.0256806 0.036392186 -0.0014670297 -0.28916004 0.95475501 -0.069492966 0.0030004492
0.028494505 0.037299965 -0.0015354442 -0.31454509 0.94525784 -0.086885475 0.001949788
0.031509709 0.038368531 -0.0015345616 -0.35972512 0.92965865 -0.079577491 0.0026952652
0.033245049 0.038882606 -0.0023755957 -0.42113245 0.90206075 -0.094518304 0.003171802
-0.070540875 0.040466834 -0.0016148178 -0.88802767 -0.44425941 -0.11849248 0.0040148944
-0.030598886 0.04175289 -0.0016347156 0.45516601 0.88686174 -0.079373486 0.0021657953
-0.028497342 0.040769219 -0.0015344106 0.42083159 0.90357953 -0.080279261 0.0020244159
-0.025792263 0.039574362 -0.0014834614 0.37897399 0.92152345 -0.084694102 0.0023587372
0.032812633 0.039038107 -0.00081207068 -0.38434938 0.92034072 -0.072446048 0.0036371495
0.034593251 0.03970167 -0.0014832215 -0.4371542 0.89606506 -0.077224247 0.0034407105
0.037360147 0.0411883 -0.0015524951 -0.50196213 0.85857421 -0.10432808 0.0025479305
0.039107636 0.041924641 -0.0026599788 -0.4918901 0.86039156 -0.13330597 0.0026570112
-0.072284296 0.044351563 -0.0011687339 -0.93850368 -0.32822618 -0.10713702 0.0065242294
-0.071662642 0.042897809 -0.0015337854 -0.91947299 -0.38001519 -0.10078666 0.005743436
-0.036493618 0.044746127 -0.0017535503 0.48915851 0.86771381 -0.088298835 0.0023615931
-0.034394812 0.043667637 -0.0015235287 0.45817482 0.88538849 -0.078505389 0.0023124653
-0.032035656 0.042474095 -0.0014444102 0.42492133 0.90181446 -0.078566127 0.0025906218
0.03882483 0.042151276 -0.0010730558 -0.52186173 0.84804624 -0.09207546 0.0031341107
0.040533591 0.043137286 -0.0014954214 -0.51373935 0.85209227 -0.10005353 0.0025983592
0.042732093 0.044543978 -0.0015885015 -0.55333263 0.82870674 -0.084072076 0.0021925562
-0.07293275 0.046520233 -0.0015820269 -0.94382656 -0.30252126 -0.13293751 0.0078200204
-0.042286057 0.047886934 -0.0021126037 0.49158606 0.86507374 -0.099952616 0.0024990079
-0.040483851 0.046967976 -0.001517171 0.48143175 0.87246293 -0.083856136 0.0026789596
-0.037946016 0.04556445 -0.0014382374 0.46446797 0.88088018 -0.091211379 0.0024737595
0.044189114 0.045518193 -0.0014261001 -0.53355396 0.83975828 -0.10062945 0.0030886615
0.046444651 0.04697378 -0.0015251533 -0.5402171 0.83665705 -0.090390608 0.0033927655
0.048224032 0.04789516 -0.00240841 -0.56286216 0.81571233 -0.13341485 0.0033767489
-0.075070061 0.050968759 -0.00051734818 -0.90635061 -0.40007821 -0.13588981 0.023385778
-0.073959433 0.049247205 -0.0014775099 -0.90566623 -0.38609508 -0.17521173 0.012588765
-0.048049062 0.050972488 -0.0026738525 0.47524628 0.86755419 -0.14659683 0.0052805594
-0.046375319 0.05026136 -0.0016077289 0.49453586 0.86219025 -0.10982829 0.0028341368
-0.043728545 0.048802488 -0.0013885379 0.47783002 0.87444484 -0.083813801 0.0031345561
0.047864825 0.048097976 -0.00071005913 -0.54702222 0.83046651 -0.10531928 0.0041924329
0.0495576 0.049037799 -0.0014819397 -0.54305536 0.8326354 -0.10867049 0.0041692574
0.051730841 0.050513338 -0.0016215028 -0.56581271 0.81794751 -0.10400906 0.003306929
-0.075654879 0.052890558 -0.0012864987 -0.95697016 -0.20602308 -0.20435931 0.018165972
-0.074677289 0.051577482 -0.0024278515 -0.87245518 -0.33016884 -0.36029226 0.015974367
-0.052358061 0.053446606 -0.0017806257 0.42452651 0.89293987 -0.14978577 0.0041547297
-0.04961421 0.052036766 -0.0016042392 0.45334259 0.88125896 -0.13365348 0.0029436564
-0.04777525 0.051133208 -0.0009952304 0.47290483 0.87679988 -0.087080367 0.0052657668
0.05320802 0.051547393 -0.001418295 -0.54129338 0.83005929 -0.13417536 0.0054278336
0.055443469 0.052972812 -0.0015431178 -0.54917008 0.82487696 -0.13412756 0.0057213861
0.057223879 0.053848643 -0.0025115339 -0.55609393 0.80510515 -0.20631345 0.007744289
-0.076047599 0.055884447 -0.001441278 -0.92117369 0.33502388 -0.19798471 0.037622806
-0.074982777 0.056932904 -0.0028312362 -0.61667919 0.75880975 -0.2095582 0.026877163
-0.06044801 0.056718655 -0.0019348119 0.50072157 0.85347664 -0.14441425 0.011421251
-0.058443878 0.055907588 -0.0015549834 0.38092884 0.91406584 -0.13920052 0.0096166842
-0.05550703 0.054831445 -0.0015556572 0.32103509 0.93510818 -0.15003082 0.004681604
-0.05357733 0.054130197 -0.0010540131 0.3800441 0.91492903 -0.13590923 0.006008598
0.056814026 0.054050494 -0.00065449934 -0.54897064 0.83013612 -0.097495064 0.0078297891
0.058589041 0.055111911 -0.0014514363 -0.5414297 0.82533294 -0.16024783 0.0093172668
0.06052513 0.056536909 -0.0017159377 -0.6831612 0.71435654 -0.15160978 0.012338504
-0.075391024 0.057327453 -0.0012949954 -0.80468512 0.56683117 -0.1765909 0.037415352
-0.073514603 0.058392216 -0.0015366971 -0.55884403 0.81555355 -0.15021881 0.015201987
-0.071150631 0.059561696 -0.0015391113 -0.40048867 0.91091275 -0.0992302 0.0036624612
-0.066250108 0.059803862 -0.0028030132 0.26673737 0.88961232 -0.37073049 0.019031804
-0.06428723 0.059238169 -0.001529768 0.49831912 0.85373932 -0.15102051 0.0088269357
-0.061802194 0.057694905 -0.0014286707 0.48185638 0.86450988 -0.14295851 0.011822712
0.062029261 0.058161661 -0.0013877819 -0.78016853 0.59842253 -0.18228443 0.021663696
0.063350894 0.059535366 -0.0020528857 -0.76125872 0.614806 -0.20615239 0.023080239
-0.069653004 0.060279716 -0.001476914 -0.25650826 0.96213168 -0.092228517 0.013806099
-0.067844406 0.060730159 -0.0014014511 -0.071164161 0.99433875 -0.078906216 0.017560778
-0.065682277 0.060203239 -0.0011845174 0.29464692 0.94405478 -0.14813489 0.020694742
0.064179726 0.061453145 -0.0014963442 -0.85265219 0.4386057 -0.28391755 0.034507856
0.065161787 0.064437591 -0.0014151684 -0.93305176 0.24995241 -0.25872436 0.025049308
0.066120759 0.065321021 -0.0026866212 -0.83084601 0.19015346 -0.52300721 0.035782725
0.065687001 0.067221455 -0.00094156526 -0.95645881 0.23979065 -0.1663942 0.03729707
0.066393428 0.067738049 -0.002199851 -0.91317624 0.23345466 -0.33407798 0.032486856
0.065917678 0.069236487 -0.00059211272 -0.95844203 0.26818562 -0.097289488 0.060465619
0.066718511 0.070520595 -0.001509468 -0.91801286 0.22721276 -0.32500279 0.025638871
0.067234822 0.073465131 -0.0014778239 -0.94658202 0.15974161 -0.28011599 0.025666371
0.07640487 0.074866444 -0.0011226431 0.25252512 0.96587229 -0.057634134 0.013442959
0.067794248 0.076310687 -0.0014732966 -0.84406841 0.49947378 -0.1951268 0.072912775
0.070409983 0.076731578 -0.0014498179 -0.060939066 0.97316843 -0.22187771 0.061919272
0.073394328 0.075817466 -0.0014887298 0.25284019 0.96662211 -0.041394737 0.0033648708
0.075386532 0.075205535 -0.0015414612 0.24953486 0.9671005 -0.049487237 0.0099500166
-0.018549824 0.0029314721 0.0027495022 -0.32887965 -0.92516822 0.18947825 0.013541002
-0.016709298 0.0025871345 0.0021229568 -0.25953063 -0.95843375 0.11852662 0.00066247745
-0.025921851 0.005331303 0.0019462547 -0.30521524 -0.95031714 -0.061163094 0.008796311
-0.02215554 0.0044888337 0.00072182616 -0.30807513 -0.93779504 -0.16009422 0.00042373926
-0.020220017 0.0034653258 0.0018644697 -0.3080751 -0.9377951 -0.16009402 0.00042368009
-0.036299445 0.0089896219 0.0023648632 -0.38980666 -0.9107548 -0.13629551 0.019130459
-0.033761907 0.0081737544 0.0021198788 -0.37217143 -0.92185736 -0.10801578 0.012019774
-0.030764624 0.0070936326 0.0018972964 -0.37582958 -0.92438096 -0.065360859 0.0092847971
-0.028547762 0.0066885077 0.00099163735 -0.35543132 -0.9112832 -0.2079221 0.00029384147
-0.040679988 0.011286 0.0021580448 -0.49051464 -0.86771089 -0.08045575 0.010317238
-0.037555397 0.009894697 0.0019434895 -0.43991756 -0.88937694 -0.12442338 0.0097806957
-0.034856539 0.0094265752 0.00073784468 -0.40253681 -0.90702832 -0.12354647 0.0076015657
-0.045878448 0.0142914 0.0022559832 -0.52507782 -0.84509194 -0.10056288 0.013245726
-0.043560341 0.013382468 0.0014431425 -0.50673777 -0.84329259 -0.17909347 0.0059214281
-0.041256584 0.012451086 0.00079645193 -0.50901145 -0.84776974 -0.14897616 0.0065223998
-0.051108379 0.017824085 0.0028554425 -0.55168194 -0.81607473 -0.17224719 0.018436445
-0.049300194 0.01696218 0.0019287167 -0.57977444 -0.79831523 -0.16295519 0.010892269
-0.046885602 0.015799632 0.0012174585 -0.5819717 -0.79047555 -0.19093825 0.0057396693
-0.05461067 0.020665266 0.0025179442 -0.59415531 -0.77852249 -0.20219348 0.0072300206
-0.052344486 0.019544806 0.0016877622 -0.57801586 -0.78010863 -0.23943312 0.0095039075
-0.050029218 0.018703453 0.00060949044 -0.59884876 -0.75834471 -0.25747523 0.0043773665
-0.057826627 0.023547804 0.0024556962 -0.68835634 -0.70804548 -0.15759838 0.0051818583
-0.055895012 0.022388255 0.0017727852 -0.62614149 -0.74445069 -0.23181894 0.0052161911
-0.053299531 0.021261286 0.00054348918 -0.56235409 -0.78690499 -0.25404418 0.0045681917
-0.060494747 0.026441386 0.002226732 -0.73674458 -0.66467994 -0.12412867 0.0031762521
-0.058973372 0.025242308 0.0016709659 -0.68930668 -0.70089269 -0.1833187 0.0023083759
-0.056918472 0.024117099 0.00048060276 -0.61486065 -0.76025027 -0.20968065 0.0040339492
-0.063230127 0.029624799 0.0024358181 -0.77696103 -0.62050986 -0.10629738 0.0013213091
-0.062255267 0.02864407 0.0019427518 -0.7622385 -0.64467669 -0.058175858 0.0044126683
-0.064594351 0.031604152 0.0016481848 -0.79798812 -0.60077834 -0.047754791 0.0013577599
-0.0031179106 0.032942891 0.0029408908 0.10272827 0.97867769 0.17786758 0.0021837335
-0.00093946833 0.032902554 0.0026213836 0.1030955 0.97901654 0.1757782 0.0020045268
0.0018409025 0.032852665 0.0017681826 0.066831157 0.98945433 0.1285058 0.0027974795
0.0046284678 0.032820601 0.0014798661 0.019225679 0.99325776 0.11432122 0.0028315412
0.0075841644 0.032805189 0.0017161951 -0.044990815 0.99078667 0.12773979 0.0036151481
0.010250815 0.032880742 0.0023572391 -0.092103392 0.98461741 0.14847746 0.0026876132
0.012442137 0.032944925 0.0027696053 -0.12070139 0.9743163 0.19010219 0.0020817535
-0.067155801 0.034989689 0.0015905366 -0.83440572 -0.54496711 0.08232785 0.0020252774
-0.0658582 0.033127639 0.0022471049 -0.80667871 -0.58957028 0.040941682 0.00546702
-0.015615838 0.035790712 0.0016854157 0.30751199 0.945714 0.10517371 0.0023604254
-0.013488363 0.035261311 0.0014579525 0.25909045 0.9595663 0.11002084 0.0023087291
-0.010489692 0.03453885 0.0014739566 0.20983922 0.9659946 0.15106899 0.0034792076
-0.0074747046 0.033939973 0.0015137811 0.16605534 0.97685122 0.13486029 0.0028766408
-0.0044715535 0.033476554 0.0015716937 0.12657379 0.98095375 0.14733915 0.0025511605
-0.0015720309 0.033186845 0.0012350872 0.083996624 0.98986882 0.11447327 0.0027613011
0.0010631273 0.033060733 0.00052582513 0.052522317 0.9968136 0.060034398 0.0036344908
0.0051593175 0.033007294 0.00020493385 0.00997 0.9999463 -0.0028225717 0.00083880825
0.0086488463 0.033030968 0.00045739594 -0.048763338 0.99787813 0.043144908 0.0025130403
0.010723107 0.033115845 0.00096459134 -0.075865932 0.99387753 0.080323458 0.0041367975
0.013566442 0.033349752 0.0014034045 -0.12542202 0.98450166 0.12257953 0.0030859828
0.016520603 0.033859473 0.0014902493 -0.19483785 0.97101843 0.13842502 0.0033268745
0.019508928 0.034589786 0.0014679929 -0.24988948 0.95780039 0.1420337 0.0029026372
0.022507122 0.035388589 0.0015040365 -0.27149883 0.95619309 0.10946695 0.0026617076
0.02447395 0.035862688 0.0022434869 -0.2983332 0.94470745 0.13610657 0.0029824714
-0.069359608 0.038361363 0.0016798595 -0.86853898 -0.46557146 0.16995043 0.0044193948
-0.068492763 0.03695748 0.0016009576 -0.85238671 -0.51111531 0.11044461 0.003924672
-0.024358578 0.038891662 0.0014824425 0.40177053 0.90932244 0.10822756 0.0022868947
-0.022493264 0.038171556 0.0015313745 0.36293182 0.92464072 0.11541263 0.0020574508
-0.019440444 0.037060741 0.0013985612 0.31595701 0.93989331 0.12950593 0.0028724503
-0.017084528 0.03629937 0.0013065434 0.27911466 0.95506281 0.099750541 0.0024132428
0.023980888 0.036037184 2.3096185e-07 -0.21051003 0.97748476 0.014462714 0.0030692352
0.02575969 0.036378659 0.0013320838 -0.28685179 0.9522953 0.10416178 0.0028905945
0.028494595 0.037251335 0.0014555493 -0.31029606 0.94219923 0.12640005 0.0023428923
0.031514231 0.038322616 0.0014430674 -0.36204618 0.92398006 0.12322075 0.0025375781
0.033237092 0.038858209 0.0024259412 -0.42482772 0.89611244 0.12846699 0.0031612469
-0.070532061 0.040489532 0.0015018089 -0.89859051 -0.41857356 0.13164823 0.0038511087
-0.030655758 0.04173176 0.0016115513 0.45535395 0.88406795 0.10524566 0.002107833
-0.02849767 0.040723536 0.0014774473 0.42017499 0.90160108 0.10280249 0.0019359136
-0.025822528 0.039556816 0.0013059549 0.38026071 0.91913909 0.10288403 0.0021756398
0.032826122 0.03904653 0.00061712856 -0.3844265 0.91448319 0.1262411 0.002855282
0.034634303 0.039677363 0.0013584063 -0.42619023 0.89590639 0.12535395 0.002822188
0.03740802 0.041163318 0.0014756508 -0.49815592 0.85695779 0.13215131 0.0026962543
0.039185412 0.041895691 0.0027122032 -0.52698004 0.83564019 0.15491164 0.0021821412
-0.072282128 0.044412177 0.0010136839 -0.93554831 -0.32453927 0.13936846 0.0063573886
-0.071633138 0.04309535 0.0016837614 -0.91740543 -0.36936808 0.1481034 0.0046782214
-0.036545917 0.044745188 0.0015651757 0.4904294 0.86461538 0.10917559 0.0021950786
-0.03446978 0.043659538 0.0014961782 0.45936969 0.88312888 0.095198907 0.0021285405
-0.032127228 0.042475373 0.0014178797 0.42646986 0.89817399 0.1068041 0.0023166991
0.038836811 0.04212847 0.00068792095 -0.51876044 0.84528548 0.12798449 0.0028590434
0.040530276 0.043084592 0.0013917875 -0.5175544 0.84539962 0.13204938 0.002775897
0.042759385 0.044496819 0.001543353 -0.55288529 0.82492584 0.1175376 0.0022935623
-0.072886094 0.046529658 0.0013945876 -0.9390583 -0.30709413 0.15447532 0.0078016794
-0.042299341 0.047793027 0.0022658308 0.4988994 0.85621154 0.13416857 0.0027838037
-0.040479496 0.046934139 0.0013662339 0.47936106 0.87141579 0.1041521 0.002802545
-0.037964422 0.045534093 0.0013387966 0.4621948 0.87977666 0.11121543 0.0024253502
0.04422747 0.04548436 0.0013835559 -0.5350337 0.83331978 0.13898569 0.0034087847
0.046447828 0.046919685 0.0014227377 -0.54052204 0.83031738 0.13567966 0.003292307
0.048148341 0.047832604 0.0023217392 -0.54334736 0.82623744 0.14867818 0.0034498279
-0.075075284 0.05097466 0.00023509844 -0.95934063 -0.28026426 0.033430614 0.015566302
-0.073895968 0.04928802 0.001364144 -0.9044503 -0.37353843 0.20600687 0.012001324
-0.048120562 0.050899159 0.0027790403 0.44622087 0.86746168 0.21999389 0.0046011475
-0.046342622 0.050187275 0.0016045088 0.4980672 0.85867172 0.12088002 0.0022777999
-0.043693975 0.048747346 0.0012998265 0.47494754 0.87286687 0.11193001 0.0030416185
0.047904886 0.048129763 0.00047413699 -0.55187082 0.82553291 0.11804223 0.0047045392
0.049575213 0.048989635 0.0013642792 -0.53510594 0.83087105 0.15269232 0.0040828865
0.051775109 0.050466165 0.0015439781 -0.5672344 0.81154436 0.14014623 0.0031970588
-0.075614989 0.052948277 0.0011994522 -0.95221508 -0.22197379 0.20979552 0.017246163
-0.074695483 0.051864482 0.0023910718 -0.85080796 -0.27580261 0.44727924 0.013022221
-0.054335013 0.053946715 0.0027392097 0.37671682 0.89664775 0.23260966 0.0065863482
-0.052365255 0.053410511 0.0016282753 0.41643199 0.89145869 0.1785661 0.0041102055
-0.04963626 0.052016843 0.0014643032 0.45102271 0.88047743 0.14607507 0.0037098874
-0.047751963 0.051130816 0.00057599065 0.47229007 0.873487 0.11816312 0.0039401767
0.053250168 0.051511109 0.0013151723 -0.53616053 0.82721031 0.16809213 0.0055842982
0.055462673 0.052913975 0.0014412953 -0.54922515 0.82106566 0.15557274 0.0048060738
0.057239816 0.053807799 0.0023632071 -0.54600722 0.80780637 0.22209209 0.0073737246
-0.075933769 0.055884246 0.0014101679 -0.90831447 0.31695476 0.27295512 0.034931112
-0.074918181 0.056955136 0.0028742529 -0.59158009 0.78506786 0.1835795 0.019427013
-0.060527757 0.056682426 0.0018624713 0.48918146 0.85618609 0.16627362 0.010383719
-0.05843224 0.055832677 0.0015064578 0.3779954 0.90982199 0.171299 0.0093949027
-0.055532984 0.054788206 0.0014856724 0.32895255 0.926377 0.18334663 0.0045242845
-0.053591952 0.054171283 0.00066179334 0.39989898 0.90291518 0.15755974 0.0053594951
0.056798566 0.05404146 0.00038106382 -0.49731258 0.85987437 0.11530974 0.0079481248
0.058644276 0.05506739 0.0013467917 -0.53570008 0.8183766 0.20805079 0.0081029302
0.060654595 0.056497544 0.001698326 -0.6786409 0.70696342 0.19912127 0.010759767
-0.07537058 0.057327259 0.0010679568 -0.8068459 0.54853994 0.21932535 0.037114784
-0.073523298 0.058372464 0.0015108865 -0.55673742 0.80352479 0.21069239 0.021759117
-0.071132638 0.059568111 0.0014994192 -0.40133613 0.90870792 0.11480045 0.0039038768
-0.066484861 0.059699975 0.0027551088 0.27132258 0.8574155 0.43729025 0.015763979
-0.064359464 0.059155896 0.001535799 0.47748059 0.85081851 0.21936323 0.0089054443
-0.061927821 0.057692401 0.0013415278 0.47712663 0.85973424 0.18222886 0.011442327
0.062077794 0.058099043 0.001235935 -0.76599866 0.60389429 0.22035846 0.018661818
0.063454784 0.059391905 0.0019723144 -0.74763519 0.61073947 0.26084283 0.019363873
-0.069662482 0.060259115 0.0013949319 -0.2455499 0.9599905 0.1346232 0.017489765
-0.067874171 0.060680497 0.0012586608 -0.061781183 0.98865235 0.13692902 0.017349614
-0.065639436 0.060169756 0.00088955194 0.31097162 0.93682742 0.16015933 0.017953388
0.062986441 0.060019329 0.00019674629 -0.84247911 0.5262475 0.1152935 0.021305058
0.064382814 0.061481163 0.0014320156 -0.83034217 0.41844392 0.36801711 0.029694682
0.066091135 0.062849388 0.0029220646 -0.79503441 0.34441963 0.49929494 0.021596832
0.072080106 0.062647663 0.0028262078 0.10616288 0.16186111 0.98108637 0.0071539292
0.065226525 0.064390868 0.0011166738 -0.89557755 0.2719439 0.35211819 0.029762028
0.066403173 0.06488689 0.0025078773 -0.76948655 0.2752654 0.576298 0.030114898
0.071780905 0.064566366 0.0029733456 -0.038084719 0.08332587 0.99579436 0.011054264
0.065698236 0.067121439 0.00060167169 -0.9486059 0.20793478 0.23855813 0.037578728
0.066849791 0.06768208 0.0019232724 -0.8181057 0.27250397 0.50640357 0.032676507
0.069872685 0.067862988 0.002904512 -0.26151001 0.10571953 0.95939344 0.012123052
0.072838977 0.067184202 0.0028011389 0.0018576424 -0.06272617 0.99802911 0.0039019962
0.065914407 0.069392286 0.00016366855 -0.94601107 0.3130725 -0.083956689 0.065041564
0.067017168 0.070433177 0.0012407404 -0.86850429 0.23165408 0.43821988 0.033468992
0.06941554 0.070956796 0.0026737638 -0.57883316 0.0092636487 0.81539339 0.024741091
0.067501836 0.073503196 0.0011755893 -0.8764717 0.20353104 0.436317 0.035285693
0.069204777 0.073056102 0.0026785319 -0.64418072 0.10276153 0.75793886 0.037135843
0.076396354 0.074867465 0.00082583149 0.25927767 0.96558577 0.020476056 0.0061335862
0.067969821 0.076271988 0.0012067741 -0.84613401 0.44366723 0.29532453 0.070300102
0.070110552 0.076725192 0.001775784 -0.39764845 0.78911644 0.46815702 0.090739921
0.073364206 0.075827122 0.001435454 0.2159135 0.97108394 0.10186965 0.024663456
0.075364023 0.075212538 0.0013739974 0.21687098 0.97304177 0.078464322 0.028611835
-0.015794573 0.002911275 0.004820623 -0.20344271 -0.87951237 0.43019658 0.0015593808
-0.01264403 0.0024230171 0.0050644726 -0.16327897 -0.86893487 0.4672175 0.001302212
-0.025285671 0.005359259 0.0042038402 -0.20539375 -0.96400172 0.1688614 0.015759796
-0.022853225 0.0048316494 0.0048709339 -0.27369323 -0.88397664 0.37904793 0.00098953047
-0.02010522 0.0040666955 0.0049639065 -0.22954197 -0.88617343 0.40250123 0.0008113918
-0.01721026 0.00324481 0.0047771023 -0.20344275 -0.87951225 0.43019676 0.0015596029
-0.036028162 0.0089888806 0.0032197898 -0.26095319 -0.96420157 0.047103647 0.035674389
-0.034265872 0.00858026 0.0041868128 -0.36629161 -0.87160188 0.3257924 0.0010252614
-0.031601582 0.007684961 0.0045400788 -0.32265669 -0.87905663 0.3509303 0.00081933616
-0.028757909 0.0066827904 0.0046154549 -0.30443904 -0.88684803 0.34758815 0.00071861874
-0.026952608 0.0063017178 0.0052278759 -0.30772468 -0.88502312 0.34934181 0.0007218722
-0.040105674 0.011274531 0.0042933496 -0.47248027 -0.86349797 0.17644723 0.013446057
-0.037726987 0.010024222 0.0039556082 -0.41928375 -0.88914722 0.18335307 0.005157127
-0.034906134 0.0094059091 0.0056563849 -0.3762463 -0.89340943 0.24547598 0.0036976226
-0.0456772 0.014429916 0.004233371 -0.5382899 -0.82518423 0.17121628 0.013288355
-0.043533146 0.013186783 0.0043863961 -0.48984301 -0.85172516 0.18605922 0.0099653509
-0.041441426 0.012302557 0.0052130055 -0.47375727 -0.84570312 0.24564269 0.012228442
-0.051115721 0.017857663 0.0033151617 -0.60366148 -0.79399228 0.071896382 0.03351137
-0.04945305 0.017042901 0.0042931149 -0.52498233 -0.83628875 0.15816033 0.013398783
-0.047057047 0.015564352 0.0047779931 -0.5618754 -0.80666429 0.18327236 0.010695945
-0.054573409 0.020692218 0.0039345706 -0.58868432 -0.80606693 0.060884189 0.024637327
-0.052560668 0.019416664 0.0045430632 -0.59728283 -0.76257598 0.24845742 0.0093891509
-0.050656423 0.018314525 0.0052870251 -0.61343437 -0.77109152 0.1706347 0.013938862
-0.057487968 0.02334781 0.0046058553 -0.66771609 -0.71232581 0.21621087 0.013294902
-0.055814784 0.021994572 0.0047250595 -0.63340241 -0.7395547 0.22772846 0.013900483
-0.060524255 0.026203448 0.0043681688 -0.72088259 -0.65187234 0.23535208 0.0098816203
-0.058950782 0.024757475 0.0047344309 -0.68160093 -0.68132031 0.2668758 0.008633987
-0.063235395 0.029541349 0.0045695915 -0.77240336 -0.57172447 0.27663001 0.0089121088
-0.061849851 0.027815489 0.0041670771 -0.76371926 -0.62502432 0.16148534 0.010938293
-0.064470686 0.031362612 0.0044799522 -0.77812171 -0.5552932 0.29355761 0.0067205746
-0.0070504076 0.032805271 0.0054392386 0.16639186 0.92093921 0.35239857 0.0023458779
-0.0043103062 0.032582648 0.0049521029 0.13753252 0.92160141 0.36295408 0.0020243959
-0.0014844678 0.032412291 0.0044590393 0.10760543 0.93368351 0.34154972 0.0021918311
0.0014641017 0.03214832 0.0045557613 0.054947145 0.94177771 0.33171621 0.0025866234
0.0045241322 0.032032628 0.0046049478 0.012321963 0.93221813 0.36168715 0.0029258928
0.007527451 0.032069981 0.0045461203 -0.030505011 0.94262141 0.33246708 0.0028851388
0.010518055 0.032298569 0.0044654845 -0.10130747 0.94465286 0.31203809 0.0025394498
0.013471019 0.032513995 0.0047031152 -0.14153056 0.92679197 0.34788769 0.0027923232
0.01615615 0.032719087 0.0053751469 -0.1909641 0.91286582 0.36084458 0.0028568255
0.018174024 0.032877769 0.0059019323 -0.2295603 0.8516705 0.4711256 0.0013919967
-0.066785969 0.035001662 0.0045789136 -0.82858592 -0.46916509 0.30549866 0.0058092088
-0.065736488 0.033482075 0.004910348 -0.81193602 -0.51655442 0.2719034 0.0081181899
-0.018672206 0.035813775 0.0053593339 0.32063732 0.89775234 0.30204713 0.0022006694
-0.01637136 0.035360664 0.0045074122 0.29724845 0.9101727 0.28849444 0.0019640143
-0.01337147 0.034498919 0.0045883367 0.23842482 0.91291201 0.33127823 0.0020855381
-0.010404551 0.033822823 0.004479812 0.19901432 0.92515594 0.32323349 0.0018904714
-0.0076490925 0.033366866 0.0042089061 0.16400033 0.9357577 0.31218815 0.0019786148
-0.0050228746 0.033153631 0.0036027487 0.13612257 0.94030684 0.3119193 0.0022225757
-0.0023583628 0.03300089 0.0030942566 0.10004689 0.96960747 0.22327547 0.00056122284
0.014238581 0.033087701 0.0033883739 -0.1289582 0.95830083 0.25500855 0.0014219888
0.01672929 0.033347916 0.0040125563 -0.1905022 0.92960972 0.31549117 0.0028135066
0.019552423 0.033845503 0.0045462823 -0.22800981 0.91875923 0.3223244 0.002356204
0.022584358 0.034677751 0.0045036962 -0.2623432 0.90343392 0.33909178 0.0022870211
0.025349071 0.035430372 0.0047154692 -0.28608605 0.89864504 0.33255357 0.0023994667
0.027587833 0.035822779 0.0055040512 -0.29564175 0.88904554 0.34956256 0.0023651135
-0.069198765 0.038712736 0.0036091253 -0.83837414 -0.42377236 0.34284964 0.0054623275
-0.068109311 0.037496548 0.0046575479 -0.82569891 -0.44303465 0.3492015 0.0059947642
-0.027047731 0.038942005 0.0056409808 0.39558801 0.85298747 0.34047401 0.002072169
-0.025069065 0.038485702 0.0045634997 0.37987262 0.88003397 0.28502125 0.0020067217
-0.022512617 0.037470724 0.0045758653 0.3337307 0.89389759 0.29928389 0.0024230862
-0.019693168 0.036530834 0.0042529888 0.31073242 0.90695572 0.28438827 0.0019650608
-0.017566344 0.036092866 0.0033996254 0.29119235 0.91964734 0.26354432 0.0020103897
0.026434064 0.036140274 0.0036273682 -0.27816617 0.91221476 0.30081183 0.0022691973
0.028657639 0.036651198 0.0042979908 -0.30216473 0.9009096 0.31154177 0.0024547139
0.031536981 0.037615661 0.0044396636 -0.34273282 0.88258535 0.32183427 0.0026940636
0.03405894 0.0385422 0.0047370051 -0.4047325 0.85745132 0.31775585 0.0030887381
0.036091726 0.038935665 0.0058360579 -0.42551368 0.7892471 0.44274953 0.0010278781
-0.069684245 0.040703475 0.0043804413 -0.84461206 -0.34374535 0.41045049 0.0048577162
-0.068631396 0.039614219 0.0055518174 -0.83124399 -0.33560967 0.44317013 0.0067495354
-0.033388007 0.041879028 0.00578599 0.41476494 0.83069897 0.37136137 0.0021283871
-0.031346012 0.041301169 0.0047230483 0.42060292 0.86145961 0.28457063 0.0018393315
-0.028526451 0.040059015 0.0044488497 0.39132366 0.87601262 0.28190002 0.0017546304
-0.026334342 0.03927527 0.0038842666 0.37761468 0.88220006 0.2813009 0.0019481722
0.035241175 0.039388243 0.0039721546 -0.40426445 0.85848635 0.31554937 0.002910692
0.037525766 0.040461034 0.0044187312 -0.463597 0.82069743 0.33396634 0.0034006538
0.039721914 0.041587811 0.004872012 -0.50693905 0.80454767 0.30937946 0.0026635288
-0.070652805 0.043499343 0.0044231843 -0.85356814 -0.31000733 0.41870856 0.0047185193
-0.039270967 0.044922341 0.0056994739 0.44412205 0.81590289 0.37021351 0.0037757941
-0.037184123 0.044271685 0.0046925703 0.45099348 0.84330589 0.29230121 0.0019663116
-0.034498915 0.042949732 0.0044857645 0.43150708 0.8561269 0.28433862 0.0020444833
-0.03250609 0.042216215 0.0036822048 0.42194834 0.86721331 0.2643874 0.0012920531
0.040999111 0.042640869 0.0041805767 -0.49315199 0.81020278 0.31681618 0.0026958752
0.043367255 0.043984368 0.004569449 -0.50114018 0.79791766 0.33494183 0.002825775
0.045365032 0.044792354 0.0055587334 -0.48524165 0.77960575 0.39592341 0.0034909996
-0.072255529 0.0469804 0.0035257791 -0.83476067 -0.27033785 0.47967917 0.0034241283
-0.071132898 0.046371147 0.0049594566 -0.80141079 -0.19043858 0.56698674 0.0061534918
-0.043088991 0.047468465 0.0046448829 0.45273679 0.8338654 0.31574988 0.0025157381
-0.040608201 0.046237215 0.00436308 0.459939 0.84106743 0.28471345 0.0017608433
-0.038533315 0.045313161 0.0037942359 0.45661446 0.84017831 0.29258108 0.0019599008
0.044580575 0.045215894 0.0034796058 -0.50645167 0.80654943 0.30493402 0.002429052
0.046578541 0.046116713 0.0043503339 -0.50383794 0.79043913 0.34835809 0.0030247811
0.04896741 0.047396854 0.0047939704 -0.50552851 0.78595555 0.35597029 0.0028243067
-0.07265348 0.049783546 0.0040915422 -0.747159 -0.2174603 0.62806404 0.0064106667
-0.071436591 0.049360715 0.0053909495 -0.72070897 -0.13204047 0.68054676 0.0066246632
-0.051100805 0.050942417 0.0058595836 0.41999707 0.76104975 0.49437416 0.004036495
-0.049014468 0.050470106 0.0049771927 0.42794186 0.82068205 0.37861162 0.0029684645
-0.046497781 0.049382679 0.0044615106 0.4499658 0.8166309 0.36144811 0.0025267557
-0.044193756 0.048417393 0.0038082046 0.44469294 0.83905661 0.31342018 0.0019882082
0.050165262 0.048554137 0.0040218034 -0.50467753 0.77833349 0.37349373 0.0029266004
0.052425057 0.049784604 0.0045130234 -0.4766573 0.77619547 0.41269642 0.0034830037
0.054641295 0.050641179 0.0054251649 -0.46031013 0.74201888 0.48736277 0.0039128666
-0.075084776 0.053740293 0.0030142954 -0.84235334 -0.10602796 0.52839267 0.021465875
-0.073462777 0.052793246 0.0042501902 -0.72862804 -0.094207399 0.67839968 0.010518281
-0.071640782 0.052426979 0.0056867572 -0.57858646 -0.044436224 0.81440973 0.0061890571
-0.057782352 0.053763822 0.0057382649 0.22213916 0.78774929 0.57454789 0.0035389985
-0.055350326 0.053461622 0.0049078087 0.31619748 0.84987229 0.42158785 0.0039242678
-0.052578691 0.052457295 0.0045552393 0.37290624 0.82581329 0.42305237 0.0026955763
-0.050153684 0.05144453 0.0041469228 0.41094133 0.82623726 0.38530406 0.0026448243
0.053694878 0.051169693 0.0034398728 -0.49141502 0.78273886 0.38187847 0.003193896
0.055689547 0.051959574 0.0042416211 -0.46532756 0.77717537 0.42363742 0.0036440929
0.058197405 0.053143796 0.0047385171 -0.43264812 0.74973238 0.50071639 0.005830578
0.060471985 0.053763349 0.0056837103 -0.3983559 0.66808432 0.62847114 0.0033143079
-0.07507804 0.05549562 0.0032054894 -0.81561464 0.11258395 0.56753641 0.036750827
-0.073820062 0.055749722 0.0042815665 -0.63878721 0.31167182 0.70342851 0.027122224
-0.070930511 0.055960909 0.0057368129 -0.28801331 0.29464263 0.91117179 0.012316249
-0.067123324 0.056676101 0.0057413862 0.040264085 0.55206776 0.83282655 0.006015684
-0.06425368 0.056218199 0.0053643314 0.22167535 0.62875974 0.74533296 0.0057046916
-0.061400883 0.055556715 0.0047189649 0.29075086 0.77056164 0.56718498 0.0075537097
-0.058595233 0.054806501 0.0043630665 0.27593851 0.84479266 0.45845744 0.0044267327
-0.056102529 0.054312192 0.0038024469 0.33770385 0.87039304 0.35829037 0.003183139
0.059268665 0.05449279 0.0037204453 -0.48204872 0.73220062 0.4811562 0.0038965039
0.061482146 0.055494595 0.0044125947 -0.44916821 0.68336856 0.57554781 0.0061086849
0.063910849 0.056297004 0.0053385049 -0.37494135 0.57612741 0.72628927 0.0054024179
0.066974081 0.056836028 0.0058860215 -0.17568855 0.44084498 0.88022113 0.0093185864
0.069429047 0.055902392 0.0057085636 -0.034581691 0.400556 0.91561943 0.011783526
-0.073161848 0.058014944 0.0038563861 -0.54304105 0.6762591 0.49777508 0.021455774
-0.070694752 0.058936086 0.0042179781 -0.3193033 0.75548452 0.5720914 0.026502991
-0.067636952 0.058454301 0.0044792383 0.16177548 0.68733734 0.70809329 0.013169626
-0.064810693 0.057843018 0.0040092175 0.36004159 0.70884776 0.60655165 0.0071177324
-0.062778227 0.057326455 0.0033188355 0.41058666 0.7377463 0.53586286 0.0087489411
0.062606394 0.057366591 0.0033184977 -0.58303618 0.60848647 0.53834283 0.0086181769
0.064513959 0.058378186 0.0040927287 -0.58000475 0.49922255 0.64371681 0.011299178
0.066911712 0.058658518 0.0050664004 -0.41979653 0.45534396 0.78513235 0.009813725
0.069695793 0.058459099 0.0048330394 -0.1035808 0.37069878 0.92295909 0.010606355
-0.069394529 0.060061503 0.0032185095 -0.10938215 0.90087146 0.42007869 0.027849305
-0.068502933 0.060118224 0.0031673694 0.056046035 0.91358924 0.40275735 0.029232016
0.065517016 0.060927406 0.0033369933 -0.6161741 0.37120062 0.69465071 0.010292187
0.067026801 0.061551332 0.0039235381 -0.57166207 0.34670696 0.7436375 0.012463915
0.069658086 0.061689004 0.0040058591 -0.13598068 0.27352598 0.95220417 0.01265389
0.067500897 0.064244814 0.003303292 -0.61397761 0.28505015 0.73605567 0.018636571
0.070239827 0.064667098 0.0033059847 -0.21501702 0.16962308 0.96176696 0.015916232
0.068327323 0.066378169 0.0030786563 -0.55239004 0.22248359 0.80334693 0.02873504
0.070916124 0.067667134 0.0031116987 -0.31810826 0.093895681 0.94339317 0.011443535
0.072323173 0.068077564 0.0031574096 -0.043735772 -0.029328566 0.99861258 0.0073564611
0.070736594 0.07076253 0.0032918917 -0.43743154 -0.018970162 0.89905161 0.010502856
0.072368212 0.070499539 0.0035866636 -0.29469639 -0.079639114 0.95226657 0.0065156179
0.070293337 0.073756769 0.0036101989 -0.49314833 0.16209872 0.85470974 0.051085532
0.07246089 0.073698983 0.0044109956 -0.13951778 -0.034108829 0.98963195 0.050530914
0.07547871 0.074910872 0.0031214778 0.074392535 0.99629408 0.043173056 0.034693118
0.068961211 0.075989634 0.0030769538 -0.63587254 0.30488789 0.70902008 0.083828956
0.070341818 0.076024264 0.0036584903 -0.4270952 0.48476583 0.76327705 0.079241492
0.073121309 0.075769521 0.0038685736 -0.05799726 0.87452275 0.48150414 0.08851169
0.075237647 0.075221717 0.0031014106 0.26684257 0.93294019 0.24169734 0.049898501
-0.0086613102 0.0028503849 0.0070609953 -0.10170835 -0.81080312 0.57641459 0.0017201354
-0.024236448 0.0059926175 0.0065243347 -0.29494891 -0.84981465 0.43682981 0.0031642746
-0.021955675 0.0056189112 0.0071329004 -0.2605049 -0.84772903 0.46205273 0.001293022
-0.019047728 0.0049693324 0.0073822285 -0.21746415 -0.84742463 0.48433551 0.0010770665
-0.016174791 0.0042936536 0.0073954887 -0.19097419 -0.84478301 0.4998706 0.00099819619
-0.013101271 0.0040851654 0.0080457265 -0.13799474 -0.83282644 0.53605753 0.0013648657
-0.0082092965 0.00329686 0.0079182414 -0.10170818 -0.81080341 0.57641423 0.0017201167
-0.0049306555 0.0030246086 0.0079270573 -0.057480127 -0.75388134 0.65449136 0.0014715591
-0.031570051 0.0085687479 0.0066791275 -0.32537287 -0.84964985 0.41500315 0.0020159453
-0.028547028 0.0080274539 0.0076598241 -0.2898885 -0.83968049 0.45923993 0.00091817888
-0.025417816 0.0068687703 0.0074423417 -0.28217053 -0.84956747 0.44566238 0.00058665214
-0.022749521 0.0064785555 0.0082279034 -0.23867431 -0.82907063 0.50564456 0.0010792973
-0.020221248 0.0061735972 0.0088928379 -0.20172802 -0.81556004 0.54237235 0.0017790884
-0.039718319 0.011906394 0.0063405726 -0.4254058 -0.82951063 0.36185926 0.00095138123
-0.037941672 0.011444554 0.0070647979 -0.41068172 -0.83860224 0.35789225 0.0042975722
-0.034517292 0.010205624 0.0075816703 -0.3462761 -0.81532156 0.46405137 0.0013679238
-0.031646706 0.0094418889 0.0082228323 -0.30372939 -0.82766825 0.47192553 0.0008678069
-0.045094438 0.014944173 0.006307289 -0.50031471 -0.79122907 0.35162726 0.0033658016
-0.043105215 0.014108882 0.0069637727 -0.45876271 -0.78347582 0.41916886 0.00074444985
-0.040470675 0.012897026 0.0074043069 -0.43098778 -0.80220389 0.41318092 0.00093525229
-0.038306367 0.012294563 0.008328883 -0.37869191 -0.8020463 0.46185955 0.00084420195
-0.048529379 0.017545946 0.0068240557 -0.53356493 -0.73862499 0.41199705 0.00081035064
-0.046588499 0.01674108 0.0077504292 -0.48873255 -0.71976656 0.49302799 0.00073522126
-0.044291444 0.015359812 0.0079277456 -0.46438208 -0.7474699 0.47501379 0.0010215454
-0.051831882 0.020188071 0.007234259 -0.53743994 -0.69897521 0.47179654 0.00082866364
-0.050153475 0.019497233 0.0080954274 -0.52376032 -0.70563865 0.47723088 0.00088561495
-0.047742765 0.018085061 0.0085408827 -0.5144555 -0.70526433 0.48778871 0.00094553392
-0.057123922 0.023767333 0.0062585869 -0.62366927 -0.65956551 0.41953543 0.0028372314
-0.055120766 0.02283334 0.0073745716 -0.57110971 -0.6746887 0.46757767 0.0013545802
-0.053128622 0.021650787 0.0079874191 -0.56005043 -0.70252252 0.43909642 0.0013528954
-0.060120806 0.026795149 0.0062984913 -0.66906804 -0.60806715 0.42731982 0.0038176717
-0.058407858 0.025815291 0.0073027187 -0.64389485 -0.61787701 0.45125103 0.0014539352
-0.056416769 0.024546469 0.0081858933 -0.59262753 -0.6490941 0.47693765 0.0014540235
-0.061149474 0.028933128 0.0072776317 -0.67264748 -0.54911375 0.49600348 0.0061009773
-0.059297204 0.027624547 0.0083342278 -0.63626146 -0.56837004 0.52165788 0.0012991139
-0.00091503357 0.029922359 0.008871262 0.086120166 0.77814186 0.62215638 0.0010463611
0.0016937548 0.029875524 0.008737199 0.052152116 0.81221384 0.58102399 0.0023164791
0.0044087609 0.029792693 0.0087373583 0.014279095 0.79962718 0.60032696 0.0016811055
0.0074598151 0.029799424 0.0087479893 -0.023409054 0.78395563 0.62037534 0.0013223928
0.010303435 0.029892715 0.0088293795 -0.064999878 0.80157214 0.59435427 0.0021240655
0.012257201 0.029935734 0.0089417603 -0.10015388 0.76165348 0.64019781 0.0014463043
-0.063559614 0.032112543 0.0071655894 -0.714634 -0.46267113 0.52462715 0.0019264583
-0.062221687 0.031076932 0.0080122696 -0.69520473 -0.46642458 0.54693544 0.0024494871
-0.01534602 0.032871712 0.0088456767 0.2513012 0.76855385 0.58836436 0.0012959499
-0.013056993 0.032559045 0.0083916578 0.22425553 0.81580406 0.53307897 0.0011663747
-0.010425111 0.032310877 0.0077403286 0.19758521 0.85338187 0.48238939 0.0012688305
