# .PCD v0.7 - Point Cloud Data file format
VERSION 0.7
FIELDS x y z normal_x normal_y normal_z curvature
SIZE 4 4 4 4 4 4 4
TYPE F F F F F F F
COUNT 1 1 1 1 1 1 1
WIDTH 552
HEIGHT 1
VIEWPOINT 0 0 0 1 0 0 0
POINTS 552
DATA ascii
0.064593211 -0.052576333 0.016074765 -0.063092753 0.086000144 0.99429542 0.0022702897
0.067594722 -0.05270385 0.016403342 0.0015450871 -0.055150989 0.99847686 0.02351515
0.070668444 -0.052472748 0.016380325 0.30484709 -0.24470402 0.92042828 0.02529297
0.07257086 -0.051321119 0.015893541 0.5109179 -0.27862978 0.81322098 0.014960887
-0.015295064 -0.048111554 0.015400132 -0.84382069 -0.42906749 0.32228521 0.023119017
-0.013661346 -0.04944222 0.016166894 -0.63027143 -0.46520248 0.62156624 0.039876532
-0.010473652 -0.049598143 0.016459715 -0.07285092 -0.12113586 0.989959 0.042409047
-0.0077611739 -0.049512088 0.016149325 0.064014539 0.021562573 0.99771601 0.016804107
-0.0051550129 -0.049876094 0.015596121 0.27420726 0.19091871 0.94252878 0.0047845454
0.0012780753 -0.048409093 0.015057095 -0.0088244108 0.0017956652 0.99995947 0.00051308237
0.0041352198 -0.04953862 0.015119883 -0.020235147 -0.0037658361 0.99978822 0.00049690192
0.0073887696 -0.048974805 0.01511757 -0.020796109 0.01338294 0.99969417 6.2102088e-05
0.010271995 -0.049083497 0.01521495 -0.025352346 0.017905021 0.99951822 0.00016195238
0.013264962 -0.04934217 0.015275498 -0.020664508 -0.0026806837 0.99978286 6.9642272e-05
0.016780831 -0.049024504 0.015159031 -0.018599322 -0.018697118 0.99965221 6.7443747e-05
0.019784331 -0.049026825 0.015229254 -0.011311039 -0.024296777 0.99964082 4.6617206e-05
0.022604773 -0.049228922 0.015262315 -0.0025584232 -0.014822068 0.99988687 9.7166863e-05
0.025623811 -0.049660116 0.015240534 0.0097905137 -0.002793106 0.9999482 7.5802905e-05
0.028585812 -0.04951492 0.015184043 0.0070387903 0.00064502039 0.99997503 2.8387369e-05
0.031515595 -0.049537446 0.01517851 -8.8575194e-05 4.6368555e-06 1 1.1962025e-05
0.034583196 -0.049578629 0.015180362 -0.00052617822 -0.0020033279 0.99999785 1.1128956e-05
0.037525423 -0.049631834 0.015188649 0.0012808405 -0.0060189757 0.99998105 3.3602995e-05
0.040489785 -0.049633063 0.015184242 0.0055729761 -0.001967357 0.99998254 3.1865904e-05
0.042965427 -0.049878869 0.015147079 0.014194009 0.0038693775 0.99989182 6.0363473e-05
0.046550129 -0.049115043 0.015222337 0.035082188 0.014794445 0.99927491 6.1641214e-05
0.049713943 -0.049507685 0.015112706 0.03946764 0.015181566 0.99910551 8.8194807e-05
0.051412228 -0.049673397 0.015016817 0.037780963 9.6936797e-05 0.99928606 0.00020606488
0.062778614 -0.050558038 0.015146431 -0.16432366 0.16872226 0.97186965 0.0028932008
0.064705335 -0.04974217 0.015612818 -0.18995668 0.17912374 0.96531403 0.0023361261
0.067363769 -0.049502328 0.016157508 -0.11101178 0.094534628 0.98931265 0.0057492084
0.070621774 -0.049760409 0.01654825 0.14301744 -0.073403575 0.98699439 0.043652628
0.073178492 -0.04923293 0.016273377 0.2463249 -0.10323068 0.96367395 0.03898776
-0.015716465 -0.046292823 0.016054794 -0.7974084 -0.34256265 0.49678037 0.040978182
-0.013966625 -0.047022101 0.016548857 -0.56889081 -0.27611724 0.77467573 0.045661848
-0.010271474 -0.046770744 0.016120546 0.057938065 0.025459295 0.9979955 0.0062243892
-0.0078887157 -0.047094867 0.016006727 0.21548551 0.13735417 0.96679872 0.002625108
-0.0058846413 -0.047913264 0.015090416 0.17867294 0.16773191 0.96950608 0.01133765
-0.00086190284 -0.046306662 0.015074068 -0.021948021 -0.009069222 0.99971801 0.00056814234
0.0016366903 -0.046266805 0.01506479 0.00086836464 -0.0018249931 0.99999803 0.00041429215
0.0044759898 -0.046074308 0.015019978 -0.00062991725 0.029818637 0.99955517 6.3256768e-05
0.0076421802 -0.046310261 0.015074906 -0.023949513 0.029337058 0.9992826 0.00018075897
0.010663506 -0.046724994 0.015171451 -0.037799697 0.024920233 0.99897462 0.0001627544
0.014142376 -0.047192961 0.015141468 -0.033178449 -0.0016160513 0.99944818 0.00012286815
0.016559098 -0.046564188 0.015229219 -0.023771333 -0.0015277108 0.99971628 0.00018192132
0.019371197 -0.046387963 0.015312238 -0.0053753168 0.0039614146 0.99997771 0.00027539552
0.022564661 -0.045974284 0.015271343 0.010699192 0.017246069 0.99979401 0.0001396295
0.025607916 -0.046502687 0.015204573 0.014661195 0.018823607 0.99971533 6.5255546e-05
0.028583309 -0.046525355 0.015167849 0.0043979296 0.011899685 0.99991953 3.9877861e-05
0.031483077 -0.046628237 0.015167822 -0.0025651581 0.0053029968 0.99998266 1.2405454e-05
0.034614064 -0.046468966 0.015171891 8.3100269e-05 0.0044218316 0.99999022 1.0190555e-05
0.037530508 -0.046572242 0.015167288 0.0046672141 0.0076668784 0.99995977 1.1685785e-05
0.040099353 -0.047046557 0.015161134 0.011400215 0.014965153 0.99982303 2.2910835e-05
0.043630827 -0.047134619 0.015266809 0.028339431 0.021982456 0.99935663 4.1679396e-05
0.046649545 -0.046579853 0.015137662 0.029785773 0.017506983 0.999403 0.00015550382
0.048672538 -0.046074305 0.015019976 0.01792793 0.00045753518 0.99983919 0.00047962376
0.0536814 -0.046013102 0.015005726 -0.0020461313 -0.046657551 0.99890888 0.0002228567
0.055680037 -0.046072066 0.015019455 0.0096847396 -0.068871617 0.99757856 0.00022599794
0.057683501 -0.046052627 0.01501493 0.019328833 -0.081916302 0.9964518 0.00021619676
0.065731674 -0.047303192 0.015094148 -0.205017 0.15262352 0.96678549 0.0027305239
0.067704111 -0.046283752 0.015996633 -0.19844609 0.11427932 0.97342658 0.0030272091
0.070240036 -0.046440195 0.016106695 -0.042428277 0.022700937 0.99884158 0.0043959133
0.073693022 -0.046543896 0.016533434 0.11397105 -0.070093714 0.99100828 0.035227779
0.07540942 -0.046257045 0.01557194 0.67815816 -0.35811177 0.6417613 0.12926041
-0.018051608 -0.04232496 0.015174124 -0.90457165 -0.33961526 0.25770447 0.0052068001
-0.016655451 -0.043458212 0.016147496 -0.67286128 -0.30850172 0.67237222 0.058162481
-0.013389532 -0.043300897 0.016311428 -0.12708683 -0.021080807 0.99166751 0.057192795
-0.010593425 -0.043708727 0.016029999 0.17971985 0.11438721 0.9770447 0.0068104207
-0.0083602434 -0.043758899 0.015366482 0.27452561 0.16038382 0.9481101 0.0061934884
-0.0017959449 -0.043803148 0.015003094 -0.041350219 0.0014384807 0.99914372 0.00056231866
0.010935814 -0.042947054 0.015125683 -0.047686808 -0.013812955 0.99876684 0.00060195784
0.013814203 -0.043125674 0.015145835 -0.036342796 -0.0081383698 0.99930626 0.00058454822
0.01647589 -0.043378379 0.015243426 -0.016560245 0.0084073907 0.9998275 0.00035054254
0.019406598 -0.043356866 0.015178831 0.0067293681 0.02279787 0.99971747 0.00015350868
0.022449948 -0.043518402 0.015148982 0.010983112 0.023664199 0.99965966 0.00014830823
0.024986032 -0.043713704 0.015126157 0.0073003112 0.013641727 0.99988031 0.00015095367
0.028641803 -0.04268552 0.015257142 -0.0025498699 0.00051602966 0.99999666 7.9193989e-05
0.031666894 -0.042878985 0.015301685 -0.0050155479 -0.0039738407 0.99997956 4.9373972e-05
0.034358382 -0.043257285 0.015166404 0.0013209424 -0.0010601376 0.99999857 4.1422871e-05
0.037717715 -0.04280233 0.015284036 0.014615376 -0.00038886603 0.99989313 0.0001729982
0.040807094 -0.043568954 0.015233891 0.022082794 0.01650331 0.99961996 2.938223e-05
0.043500368 -0.043332007 0.015150726 0.01677377 0.011656528 0.99979138 0.00010118543
0.046384472 -0.043009941 0.01507624 0.015427896 -0.0096440595 0.99983454 0.00046088471
0.049302135 -0.043129753 0.01510387 -0.0048992541 -0.03972536 0.99919868 0.00038541493
0.052310448 -0.043398175 0.015165816 -0.010432712 -0.055198401 0.99842089 6.9641646e-05
0.055322345 -0.043548703 0.01520057 -0.0035188862 -0.058786817 0.99826437 7.45547e-05
0.058729954 -0.042792942 0.015103603 0.040866021 -0.022855744 0.99890316 0.0018182704
0.0610944 -0.043802053 0.015131015 0.030584294 0.043118995 0.99860173 0.0027464239
0.063094847 -0.04399598 0.015047738 0.03619609 0.044107843 0.99837083 0.0027653051
0.067913912 -0.04350422 0.015551575 -0.24898723 0.11399845 0.96177429 0.0043031122
0.070466369 -0.043531787 0.016161632 -0.12738286 0.045939926 0.99078912 0.0097903693
0.073317602 -0.043217041 0.016247101 0.0097554559 -0.028150357 0.99955606 0.025532473
0.075933382 -0.043218985 0.016379094 0.27929828 -0.085303247 0.95640779 0.032794051
-0.018196994 -0.040035281 0.015754415 -0.81418985 -0.2514337 0.5233317 0.040759679
-0.017172584 -0.040782787 0.016500577 -0.60035831 -0.29043955 0.74512732 0.056836694
-0.013371503 -0.040500209 0.016165271 0.15690491 0.057559859 0.98593497 0.0072793039
-0.010897003 -0.04095114 0.016035389 0.26818773 0.10865859 0.95721918 0.0050879479
-0.0011985368 -0.041584391 0.01500362 -0.034011558 -0.0021807076 0.99941903 0.00044560982
0.00057300943 -0.041605562 0.015008494 0.0097074648 0.010415841 0.99989867 7.9308506e-05
0.0073621888 -0.04084884 0.015092224 -0.045082308 -0.038304217 0.9982487 0.00043808069
0.010633845 -0.040384471 0.015150758 -0.041399006 -0.035207663 0.99852222 0.00035377993
0.013400163 -0.040789865 0.015223399 -0.016141431 -0.016899707 0.99972695 0.00041685408
0.016254151 -0.040881943 0.015175596 0.0093040094 0.0017374409 0.99995524 0.00015454972
0.018842768 -0.041125838 0.015127804 0.0078993691 0.0076069273 0.99993986 0.00017496529
0.023197796 -0.039804261 0.015136885 -0.002602624 -0.0071701538 0.99997091 0.00012572178
0.025717672 -0.039899588 0.015151426 -0.00088306353 -0.01100181 0.99993908 0.00011376292
0.028677711 -0.040198021 0.015169099 -0.0054606711 -0.011715986 0.99991649 7.2330935e-05
0.031565867 -0.040216476 0.015173379 -0.0062357392 -0.011055813 0.99991947 5.1520932e-05
0.034526989 -0.040521417 0.015172621 0.0038982134 -0.011705158 0.99992388 8.3800565e-05
0.037128318 -0.04005586 0.015148723 0.018800441 -0.012393102 0.99974644 0.00015760859
0.040302422 -0.040141996 0.0151871 0.01727291 -0.022160612 0.99960524 0.00015931317
0.043352079 -0.039956704 0.015144673 0.0089111496 -0.028877504 0.99954325 0.00017057957
0.046413947 -0.04045558 0.01518558 -0.012724299 -0.037249774 0.99922502 0.00014161732
0.049416903 -0.040482376 0.015265033 -0.017681899 -0.044105422 0.99887043 7.3696123e-05
0.052642055 -0.040369235 0.015180914 0.0096643073 -0.0097480072 0.99990582 0.0013575177
0.054887202 -0.040411089 0.015144369 0.047794994 0.021014599 0.99863613 0.0018957156
0.068598382 -0.041248322 0.015258792 -0.26544964 0.14252198 0.9535324 0.0032291783
0.070976511 -0.040562809 0.016042957 -0.21141334 0.09153644 0.97310096 0.0057120123
0.073651813 -0.040599316 0.016310036 -0.094852462 0.030762818 0.99501592 0.0074071744
0.076360211 -0.040482163 0.01669322 0.26702359 -0.15991254 0.95032966 0.03014579
0.078069337 -0.040271807 0.015474662 0.44491491 -0.18899542 0.87540364 0.089793697
-0.018832594 -0.037586629 0.016014511 -0.85933667 -0.16293734 0.4847596 0.039171502
-0.016322928 -0.03761993 0.016446415 -0.11667059 0.042378034 0.99226612 0.035702087
-0.013482495 -0.037646778 0.01602276 0.19317411 0.079560965 0.97793347 0.004829308
-0.011622561 -0.037763551 0.015906492 0.26846439 0.1126755 0.95667714 0.006888899
0.0050865407 -0.037012231 0.015138109 -0.065243006 -0.043532819 0.99691939 0.00037903784
0.0076268394 -0.037231304 0.015234401 -0.04616788 -0.030859414 0.99845695 0.0003563432
0.010497173 -0.037425004 0.015190314 -0.024957491 -0.0087397704 0.99965036 0.00012200476
0.013381801 -0.037535876 0.015183522 -0.0054666866 -0.0036144422 0.99997854 6.0546674e-05
0.016322691 -0.037396312 0.015183704 0.0038449648 -0.0079435883 0.99996108 4.444275e-05
0.019426558 -0.037094839 0.015180647 0.00051106571 -0.01436389 0.99989676 3.1081552e-05
0.022570137 -0.037401166 0.01519583 -0.0028754023 -0.014080523 0.99989676 3.971329e-05
0.025600962 -0.037491716 0.015208151 0.0014816398 -0.004886514 0.99998695 8.7107794e-05
0.02856154 -0.037469536 0.01520274 -0.0048763636 -0.0044599464 0.99997818 0.00012478918
0.031544931 -0.03758695 0.015233096 -0.0072120996 -0.0088576088 0.99993479 9.5080271e-05
0.034509011 -0.037603028 0.015233336 0.0040390156 -0.016107161 0.99986213 4.6634133e-05
0.037343275 -0.037647553 0.015254039 0.014622426 -0.022352444 0.99964327 0.00010733102
0.040252559 -0.037137695 0.015194092 0.011182374 -0.031507667 0.99944097 0.00014793414
0.043589972 -0.037102111 0.015182439 0.0049839118 -0.026547994 0.99963516 0.00026240357
0.046652578 -0.037071422 0.015172783 -0.011715027 -0.0059116203 0.99991393 0.0012155301
0.049540222 -0.03740745 0.015195201 0.030350404 0.019201307 0.9993549 0.001541823
0.052044123 -0.037902847 0.015188893 0.039534803 0.05426535 0.99774367 0.0020111441
0.0623454 -0.03707644 0.01500421 -0.0084258262 -0.10616533 0.99431282 0.0020170985
0.063868411 -0.037193589 0.015030885 0.011604798 -0.10522898 0.99438035 0.0018712549
0.070762686 -0.037337713 0.015731892 -0.25589377 0.062479828 0.96468371 0.003000523
0.073435783 -0.037645087 0.01604424 -0.18618245 0.052018669 0.98113716 0.0024499234
0.07663092 -0.037560292 0.016735956 0.059001315 -0.00070650899 0.99825764 0.027199147
0.078475103 -0.037581325 0.015810084 0.21236978 -0.051127795 0.97585094 0.037857283
-0.019190527 -0.034431782 0.01622157 -0.71900707 -0.085303821 0.68974775 0.073646359
-0.01649439 -0.034552027 0.016258055 -0.14935763 -0.070975557 0.98623264 0.046319887
-0.013733147 -0.034538835 0.015961569 0.24940728 0.10603483 0.96257603 0.0054328861
-0.011794495 -0.035386648 0.015300255 0.36984161 0.099260837 0.92377734 0.0032867179
0.0024572809 -0.03382704 0.015135692 -0.062705316 -0.045322597 0.99700248 0.00050866476
0.0042640194 -0.034469631 0.015245939 -0.049075529 -0.04548905 0.99775869 0.00050335983
0.0074691996 -0.034503568 0.015288394 -0.024426317 -0.013451134 0.99961114 6.8974594e-05
0.010531514 -0.034215547 0.015193131 -0.010155676 -0.0027251176 0.99994475 3.4190987e-05
0.013513086 -0.03428942 0.015204545 -7.1617804e-05 0.0055623204 0.99998456 4.807509e-05
0.016452629 -0.034323543 0.015213552 3.1740132e-05 0.0076166852 0.99997103 0.00013786473
0.019401165 -0.034338184 0.015215559 0.00075979286 0.0035969899 0.99999326 7.7601137e-05
0.022487 -0.034359101 0.015219333 0.0026723172 0.0051456811 0.99998319 7.8257122e-05
0.025446765 -0.034372006 0.0151815 -0.0010767803 0.00040435555 0.99999934 0.00016201595
0.028784873 -0.033970643 0.015178563 -0.022069523 -0.024482027 0.99945658 0.00047567487
0.031626426 -0.034438595 0.015261662 -0.0071600564 -0.029191725 0.9995482 0.00028700635
0.034547068 -0.034421794 0.015259502 0.0032666395 -0.017157665 0.99984747 0.00016600669
0.037412804 -0.034377642 0.015248073 0.0078050178 -0.011002433 0.99990904 5.073769e-05
0.040409967 -0.034391016 0.015258931 0.018544747 0.015326593 0.99971062 0.0009129633
0.043500159 -0.034428041 0.015243387 0.027519183 0.045550618 0.99858296 0.0027329135
0.046431795 -0.034287028 0.015167041 0.027697001 0.081990898 0.99624813 0.0029144965
0.048557345 -0.035130471 0.015035735 0.05033971 0.086396538 0.99498826 0.0025772136
0.055660594 -0.033313155 0.01519355 -0.043186691 -0.11020043 0.99297071 0.002133732
0.058480386 -0.033515487 0.015239106 0.010028239 -0.076133847 0.99704719 0.0021284628
0.061290003 -0.034910999 0.015107172 -0.020553755 -0.038548093 0.99904537 0.0018794362
0.063778371 -0.035012096 0.015055354 0.019663846 -0.0037546426 0.99979961 0.0012369198
0.07091099 -0.033958033 0.015339209 -0.2585378 0.073090307 0.9632321 0.0031957598
0.07355807 -0.034736555 0.016165163 -0.21482432 0.048355907 0.97545487 0.0021359785
0.076438196 -0.034392919 0.016454453 0.024240546 -0.0098730521 0.99965739 0.023682561
0.078975298 -0.034236714 0.016275926 0.20160541 -0.060827285 0.97757626 0.030986868
-0.019650513 -0.031626325 0.016350506 -0.73485345 -0.094204478 0.6716516 0.048388314
-0.016565921 -0.031484403 0.01610768 0.1162543 0.026889728 0.99285543 0.0051983441
-0.013318555 -0.031451311 0.015654456 0.2652477 0.028873101 0.96374792 0.0052474504
-0.011501236 -0.030522592 0.015087114 0.27293715 -0.0011315718 0.96203119 0.0065015424
-0.003299271 -0.030238848 0.015027683 -0.052442387 -0.045178398 0.99760151 0.00071425887
-0.0011574938 -0.031200329 0.01506846 -0.039172098 -0.044338275 0.99824834 0.0007023497
0.0014579836 -0.031575933 0.015152646 -0.0526422 -0.033215422 0.99806088 0.00072277407
0.0045493916 -0.031332653 0.015272565 -0.041981176 -0.022283841 0.9988699 0.00042621914
0.0077721411 -0.031477772 0.015167065 -0.010625288 -0.00068012398 0.99994332 2.8067789e-05
0.010416232 -0.031575926 0.015184733 -0.0014325459 0.013131304 0.9999128 0.00011530359
0.013360031 -0.031734247 0.015187956 0.0040692263 0.024323905 0.99969584 8.4499909e-05
0.016414545 -0.031944923 0.015174644 0.0029187186 0.03474303 0.99939203 8.4813983e-05
0.019419912 -0.031909037 0.015183474 -0.00095076917 0.031807929 0.9994936 0.00010449129
0.022431452 -0.031933554 0.015159568 -0.0063538691 0.014747481 0.99987108 0.00022496065
0.02590128 -0.031077579 0.015205299 -0.021765012 -0.013293863 0.99967474 0.00038951516
0.028650168 -0.031400099 0.015370069 -0.02344452 -0.015258175 0.99960876 0.00037022098
0.031546794 -0.031602174 0.01541798 -0.0099708363 -0.016762456 0.9998098 0.00034527108
0.034362651 -0.031314574 0.0153386 0.013404503 -0.0082674865 0.99987596 0.00016745107
0.037406623 -0.031679377 0.015264419 0.03932875 0.0052855094 0.99921232 0.00082917494
0.040224984 -0.031689659 0.015235449 0.061734091 0.03067535 0.99762118 0.0017128461
0.042678576 -0.032396689 0.015035251 0.10391623 0.08790084 0.99069417 0.0033538858
0.050130654 -0.030330554 0.015048213 -0.11113035 -0.20036949 0.97339725 0.0010504172
0.052420322 -0.031137133 0.015228789 -0.055740245 -0.12325633 0.99080825 0.0022293043
0.055613656 -0.030939367 0.015157074 -0.018855061 -0.07222183 0.99721038 0.0018754578
0.05864257 -0.031008855 0.015200071 0.048423991 -0.012129883 0.99875325 0.00089562574
0.061115321 -0.032717761 0.015059498 0.030574022 0.0084377211 0.99949694 0.0011355798
0.071356103 -0.031130549 0.015268683 -0.26947007 0.037813697 0.96226609 0.0039988915
0.073536515 -0.031281088 0.01600495 -0.22989966 0.044687428 0.97218788 0.0030552216
0.076585963 -0.031579405 0.01650954 0.04725318 0.023673348 0.99860239 0.026745891
0.078670673 -0.03167396 0.016629761 0.080481902 -0.028389009 0.99635172 0.022742864
-0.02113718 -0.027975747 0.015276894 -0.83295262 -0.096437611 0.54487592 0.026627781
-0.019821668 -0.028515028 0.016477434 -0.66019583 -0.18861137 0.72702628 0.052190334
-0.016388442 -0.028646523 0.016080203 0.14634211 -0.002471748 0.98923093 0.007553312
-0.014043274 -0.028766509 0.015714876 0.23710048 0.057251036 0.96979666 0.0037007439
-0.011724538 -0.029887194 0.015092877 0.31538373 0.019761937 0.94875842 0.0050129774
-0.0016391537 -0.028002238 0.015055626 -0.045407984 0.0072401487 0.99894226 0.00015016436
0.0015258008 -0.028542487 0.015175891 -0.042766005 0.0015840237 0.99908388 5.8581449e-05
0.0046782531 -0.029009989 0.015279964 -0.024302907 -0.0062559694 0.99968505 5.7108293e-05
0.0075784242 -0.028940324 0.015172503 0.00053139956 0.0091935974 0.99995762 0.00015208058
0.0097841369 -0.029344415 0.015160775 0.013838436 0.026109599 0.99956334 0.00025729422
0.013512137 -0.028804163 0.015234145 0.016410587 0.054806586 0.99836218 8.5039377e-05
0.01662058 -0.02837901 0.015139502 -0.011099356 0.047218531 0.99882293 0.00029196905
0.019486716 -0.028448474 0.015154967 -0.030406341 0.023763327 0.99925512 0.00034529541
0.022957135 -0.02814047 0.015181927 -0.036060434 -0.0054792794 0.99933457 0.00014495626
0.025473911 -0.028470241 0.015308183 -0.023478521 -0.0086724572 0.99968672 0.00020389027
0.028391875 -0.027790554 0.015279708 -0.0063254917 0.015205939 0.9998644 0.00023968349
0.03152873 -0.027876608 0.015294308 -0.016737225 0.014854839 0.9997496 0.00021333448
0.034483403 -0.028340064 0.015394302 0.00015727569 0.0067370934 0.99997735 0.00033938285
0.037433535 -0.028512513 0.015278635 0.046449017 -0.002652029 0.99891716 0.00052667578
0.039986037 -0.028889723 0.015150806 0.077560209 -0.0092221033 0.99694502 0.00088156736
0.042941485 -0.027840644 0.015019652 0.042507604 -0.035341613 0.9984709 0.0029139628
0.047103051 -0.028097326 0.015076795 -0.034289159 -0.096570164 0.99473542 0.0016698663
0.049900413 -0.028728306 0.015154363 -0.074117422 -0.087648086 0.99339032 0.0020530527
0.052554749 -0.028704058 0.015181053 -0.025055461 -0.053253192 0.99826664 0.0017018946
0.055157416 -0.028941326 0.01516616 0.0062766536 -0.010237084 0.99992788 0.0011634489
0.058565337 -0.028175717 0.015094245 0.055042446 0.020298708 0.99827766 5.6739853e-05
0.071539506 -0.028195247 0.015221665 -0.2821196 0.032819334 0.95881778 0.0053860247
0.073372155 -0.028501622 0.015911128 -0.23834416 0.035886865 0.97051752 0.0036864565
0.076440245 -0.028379582 0.016172025 -0.065989956 0.029140431 0.99739468 0.010712037
0.079200044 -0.02850963 0.016379185 -0.85315907 -0.022943864 0.52114606 0.043504678
-0.021165229 -0.026188623 0.015105519 -0.8494705 -0.041508052 0.52600098 0.053073462
-0.019775806 -0.025632419 0.016505407 -0.65525037 -0.084225222 0.75070173 0.054750476
-0.016931459 -0.025637571 0.016039625 0.18905561 0.046696104 0.98085546 0.0045237551
-0.013718199 -0.025871776 0.01556702 0.24485376 0.041534055 0.96867001 0.0025605268
-0.00076362595 -0.025526937 0.015035937 -0.057585776 0.0019652375 0.99833864 5.3041629e-05
0.0015980918 -0.025498616 0.015207244 -0.04711638 0.0015671026 0.99888819 7.6580465e-05
0.0044810451 -0.025476135 0.015290954 -0.017919295 0.013031649 0.99975455 0.00019011546
0.0069797207 -0.026678937 0.015143327 0.01793447 0.029925955 0.9993912 0.00019584619
0.010525383 -0.025918037 0.015122508 0.028868992 0.047717016 0.99844366 0.00010257915
0.012338641 -0.025453705 0.015019733 0.022502823 0.046779219 0.9986518 0.00015898752
0.017062051 -0.025614981 0.01505543 -0.042995825 0.011521472 0.99900883 0.0001692442
0.019797666 -0.025628077 0.015210521 -0.046301913 0.0030030771 0.998923 0.00010967938
0.022607425 -0.025476336 0.015195436 -0.039723601 0.0035102477 0.99920452 9.2277238e-05
0.02552609 -0.025201267 0.015260628 -0.017124323 0.0061751427 0.9998343 6.4891108e-05
0.028628686 -0.025402894 0.015260316 0.0062563731 0.010699903 0.99992317 0.00011084837
0.031372011 -0.025296029 0.015218521 -0.016538883 0.0087407446 0.999825 0.00028677174
0.034408074 -0.025495727 0.015377935 -0.016081182 -0.0042327414 0.99986172 0.00033784349
0.037454758 -0.025351049 0.015310705 0.040499121 -0.005494304 0.99916452 8.585435e-05
0.040095225 -0.025395771 0.01516843 0.055132963 -0.023173612 0.99821007 0.0004044481
0.043538325 -0.025241155 0.015238905 -0.0016062785 -0.062101435 0.99806857 0.00066238875
0.046413366 -0.025480732 0.015291888 -0.033632483 -0.067226142 0.99717081 0.001062014
0.050226502 -0.025106829 0.015159449 -0.020174118 -0.015547507 0.99967557 0.00058255519
0.052495852 -0.025765024 0.015179841 0.0061424095 0.0088955499 0.99994159 0.00035804234
0.05485075 -0.026485875 0.015122866 0.035976131 0.02027571 0.99914694 0.00017365671
0.057943165 -0.025601702 0.015052486 0.052193213 0.02323558 0.99836665 4.4686665e-05
0.071611293 -0.025809454 0.01506592 -0.32563385 0.027523424 0.9450953 0.0043193535
0.073631883 -0.02558106 0.01596358 -0.25537691 0.02995223 0.9663775 0.0040433411
0.076427177 -0.025516037 0.016181551 -0.14214078 -0.010410547 0.98979169 0.0026979302
0.078830108 -0.025712835 0.016512312 -0.037891425 -0.0018820447 0.9992801 0.0069805393
-0.021073205 -0.022839362 0.015757402 -0.61791563 -0.039643418 0.78524429 0.053247374
-0.019756949 -0.022490298 0.016413562 -0.42799765 0.034266587 0.90312999 0.027894549
-0.016417973 -0.022464506 0.015748501 0.15641907 0.022471782 0.9874351 0.0074514654
-0.013902441 -0.022761956 0.015415389 0.24954444 0.019673364 0.96816349 0.0033145361
-0.0006515581 -0.023271715 0.015070482 -0.061300155 0.00048458786 0.99811929 2.5630092e-05
0.0013729389 -0.021890324 0.0151683 -0.035515293 0.012185021 0.99929488 0.00011594431
0.0045132414 -0.021357078 0.015184784 -0.011533622 0.016841795 0.99979168 0.00014765962
0.0072239968 -0.022728058 0.015129513 0.030203639 0.015814751 0.99941868 0.00018111228
0.00987639 -0.023099029 0.015032479 0.043357071 0.013888176 0.99896312 0.00017893185
0.017526032 -0.023376971 0.015093649 -0.044427946 0.02208909 0.99876839 0.00013400021
0.019657925 -0.022715745 0.015177742 -0.056352038 0.026392892 0.99806207 9.8167948e-05
0.022873864 -0.022336457 0.015182758 -0.041334979 0.021711104 0.99890947 0.00010606085
0.025525648 -0.022346018 0.015210938 -0.018577622 0.010265899 0.99977475 0.00010723427
0.028524645 -0.022515886 0.015285995 -0.001212457 -0.0038732514 0.99999177 0.00016326917
0.031469047 -0.022348411 0.015221395 -0.022492722 -0.0074312412 0.99971944 0.00029163403
0.034416035 -0.022747427 0.015390338 -0.01325433 -0.002559633 0.99990892 0.00035997259
0.037501201 -0.02271346 0.015369656 0.040534899 0.0081759179 0.99914473 0.00014839423
0.040097337 -0.022312194 0.015186174 0.032743175 -0.0014059283 0.99946284 0.00028604374
0.043975569 -0.022019725 0.015167595 -0.011452188 -0.01888933 0.99975604 8.055965e-05
0.046539389 -0.022214439 0.01520722 0.0058703902 -0.010563626 0.99992698 0.00014931592
0.048817247 -0.022027124 0.015152182 0.011282246 0.00032639853 0.99993634 0.00013618608
0.052379657 -0.021430338 0.015200812 0.031025236 0.0083785066 0.99948353 9.0598543e-05
0.05520479 -0.022946822 0.015132983 0.034850668 0.0091257533 0.99935091 0.00021593535
0.057572786 -0.023069179 0.01502591 0.040013582 -0.0016658737 0.99919772 0.00021475901
0.067327641 -0.023018179 0.015014686 0.025117831 -0.0464851 0.99860317 0.00033168111
0.071842499 -0.022570025 0.015183952 -0.25184599 -0.01729054 0.96761286 0.0082105994
0.073457971 -0.022411063 0.015824627 -0.25608042 -0.0078976788 0.96662325 0.0040691006
0.076494843 -0.022454014 0.016279187 -0.1401379 0.013153262 0.99004465 0.0030204435
0.079075679 -0.022921367 0.016492315 -0.09297578 0.0030713964 0.99566364 0.00058869761
-0.021182146 -0.020332538 0.015040521 -0.97303438 0.098999523 0.20833465 0.017362146
-0.019737631 -0.019446664 0.016334604 -0.59338754 0.12035696 0.79586768 0.033779286
-0.016546562 -0.019475946 0.015866928 0.22325131 -0.0069984845 0.9747358 0.0029305308
-0.013793303 -0.019641839 0.015496028 0.25398156 -0.012895123 0.96712309 0.0032583033
-0.00081571919 -0.020817697 0.015066759 -0.053656146 0.0074733244 0.99853158 8.4018764e-05
0.0014179512 -0.018392118 0.015074956 -0.027999619 0.035429765 0.99897993 5.5242057e-05
0.0046388027 -0.018832438 0.015170746 -0.011474923 0.022901054 0.99967188 0.00021874119
0.0078024059 -0.019657589 0.015149353 0.013898283 -0.0055213706 0.99988818 0.00020927249
0.010523488 -0.019668758 0.015084672 0.024620304 -0.016616568 0.99955881 9.1309768e-05
0.013394316 -0.018298604 0.015054611 0.028668949 -0.020427696 0.99938023 2.7398004e-05
0.019645119 -0.019907467 0.015047331 -0.047757871 0.027443165 0.99848187 0.00023285883
0.023059268 -0.019578679 0.015080969 -0.048244677 0.039619513 0.9980495 0.00013547087
0.025609981 -0.019647958 0.015205114 -0.0317849 0.027440771 0.99911803 0.00015258728
0.028528977 -0.019668534 0.015252393 -0.018770555 0.0060968334 0.99980521 0.0002654079
0.031411707 -0.019830458 0.015320214 -0.010963026 0.0020907023 0.99993777 0.00035479438
0.034433879 -0.020049769 0.01539473 0.0082480963 0.025791969 0.99963331 0.00030193728
0.03742186 -0.019771976 0.015257536 0.027818395 0.028756538 0.99919927 0.0004169099
0.040704623 -0.018990621 0.015159605 -0.0013805331 -0.0033075132 0.99999356 0.00046061457
0.043603249 -0.019586075 0.015237142 -0.004357887 -0.0065526948 0.99996907 0.00018220354
0.04653886 -0.019732151 0.015215799 0.011625388 0.0043868339 0.99992281 0.00012877454
0.04956042 -0.019300072 0.015272481 0.025586683 0.0036870448 0.99966586 2.1825497e-05
0.052500084 -0.018969495 0.015200563 0.020403851 -0.0068858378 0.99976814 3.8988986e-05
0.055738255 -0.019704275 0.015122311 0.013934353 -0.020292018 0.99969697 0.00011027611
0.058421407 -0.019765072 0.015130132 0.0053924201 -0.034337632 0.99939573 0.00020805362
0.061477128 -0.019893168 0.015133608 7.7369223e-05 -0.051624052 0.99866658 9.5431926e-05
0.064542562 -0.019874636 0.015105084 0.0083368355 -0.054626923 0.99847209 0.00024562786
0.067279235 -0.018937096 0.015116945 0.026280496 -0.033156998 0.99910462 0.0017742229
0.071730182 -0.019070733 0.015166769 -0.24267283 -0.034516305 0.96949393 0.007016358
0.073354855 -0.019632749 0.01592204 -0.24941342 -0.053110283 0.96693963 0.0033952428
0.076433875 -0.019382756 0.016137967 -0.1290013 -0.0070657525 0.99161929 0.0024444321
0.079036057 -0.019480523 0.016294209 -0.10440019 -0.022669455 0.994277 0.00085608696
-0.019324517 -0.016635017 0.01614167 -0.48376665 0.10032048 0.86942828 0.018478628
-0.016605083 -0.016630474 0.015932811 0.20381846 -0.028270898 0.97860044 0.0023544705
-0.013709154 -0.016727265 0.015558189 0.25711051 -0.052205544 0.96497089 0.0030882652
0.0050073052 -0.015829246 0.015059103 -0.035110019 0.0387384 0.99863243 5.0089846e-05
0.0074348198 -0.016176794 0.015134273 -0.012669112 0.010799076 0.99986142 0.00019836792
0.010382725 -0.016296614 0.015160189 0.011922122 -0.0057462039 0.99991244 0.00011405803
0.013579284 -0.015970234 0.015089597 0.024486676 -0.013554155 0.99960828 3.0521311e-05
0.015708121 -0.015616274 0.015013043 0.025624119 -0.017051673 0.9995262 1.1772288e-05
0.023208672 -0.01571835 0.015035121 -0.029127136 0.03990268 0.99877894 0.000310592
0.026067499 -0.016998719 0.015102329 -0.048893496 0.044247739 0.99782342 0.0001038972
0.028656477 -0.017052606 0.015230624 -0.029488666 0.032897417 0.99902368 0.00020435802
0.031395927 -0.017190598 0.015296746 0.00095205597 0.037926625 0.9992801 0.00038220733
0.034299094 -0.017282391 0.015237428 0.017620441 0.040000964 0.9990443 0.00028556166
0.037652675 -0.016499313 0.015204032 0.0043476755 0.018404145 0.99982119 0.0004977067
0.040515304 -0.016463764 0.015245808 -0.016298724 -0.0027424747 0.99986345 0.00027531479
0.043490045 -0.016969528 0.015229989 0.0078916745 0.0003548995 0.99996883 0.00014828023
0.046035051 -0.017131586 0.015165987 0.018143579 0.011377053 0.99977064 2.3999135e-05
0.049400467 -0.016790159 0.015266936 0.017232671 0.0013160829 0.99985069 6.161855e-05
0.052620601 -0.016506387 0.015205558 0.010812697 -0.014104273 0.99984211 7.4100528e-05
0.055561595 -0.016485065 0.015200948 0.0034706171 -0.019597769 0.99980193 7.5218581e-05
0.058493543 -0.016607171 0.015227359 0.0053971084 -0.01303755 0.99990046 0.00025670184
0.06224215 -0.016703662 0.01515089 0.025789306 0.022579616 0.99941242 0.0016800433
0.064216018 -0.016978931 0.015162209 0.046721086 0.032106485 0.99839187 0.0016130244
0.071497768 -0.016368564 0.015285257 -0.23325047 -0.016161216 0.97228235 0.0069889892
0.073372975 -0.016684851 0.016014321 -0.23106472 -0.043867894 0.97194886 0.0038457201
0.076622829 -0.016617307 0.016255531 -0.13278778 -0.050077632 0.98987865 0.0019974005
0.078691393 -0.016789321 0.016488779 -0.094440117 -0.025724901 0.99519813 0.0010015969
-0.018683188 -0.013404426 0.01624612 -0.65322357 0.099984109 0.75053453 0.032954078
-0.01650475 -0.013552938 0.016126286 0.11640201 -0.034318164 0.99260914 0.014717377
-0.013498684 -0.01341758 0.015614133 0.25658566 -0.051226631 0.96516299 0.0017350006
0.00566532 -0.013050857 0.015002902 -0.040473644 0.0086354828 0.9991433 9.5337382e-05
0.0075694849 -0.013423876 0.015083108 -0.024616638 0.01036856 0.99964327 8.4622436e-05
0.01054089 -0.013674984 0.015137103 -0.0022841969 0.011360223 0.99993289 0.00011997359
0.013490734 -0.013456601 0.015090145 0.024068359 0.0041018729 0.99970192 4.535494e-05
0.016442571 -0.013208215 0.015036735 0.027930876 0.007019782 0.99958521 0.00011508918
0.026135251 -0.013397448 0.015077423 -0.056464285 0.054118741 0.9969368 0.00015784688
0.028927453 -0.014504835 0.015157746 -0.028509868 0.04339743 0.99865103 0.00034280686
0.030925842 -0.014383634 0.015113431 -0.012637888 0.03922144 0.99915063 0.00035059676
0.035170581 -0.012925995 0.015157569 -0.0056360695 -0.0049619633 0.99997181 0.00041429803
0.037537433 -0.01309048 0.015208921 -0.011913515 -0.0092157852 0.99988657 0.00036250355
0.040134877 -0.013479281 0.015222966 -0.0099169575 -0.00067540043 0.99995059 0.00038355857
0.043098181 -0.014516009 0.015186815 0.012042161 0.01141901 0.99986231 3.1716372e-05
0.046546232 -0.014431697 0.015299814 0.011336488 0.0061306763 0.99991703 4.7251284e-05
0.049504269 -0.014318675 0.015275509 0.0066401218 -0.0076032649 0.99994904 4.5922217e-05
0.052724987 -0.013578722 0.01527227 0.000147375 -0.018365176 0.99983138 4.1103322e-05
0.056192182 -0.012690725 0.015159473 0.0071495157 -0.015209741 0.9998588 0.00018073857
0.058071904 -0.012888547 0.015158465 0.03585691 0.0040953048 0.99934858 0.00046864431
0.061360348 -0.01376037 0.015155463 0.070272692 0.027389374 0.99715179 0.00061017496
0.071043611 -0.013354472 0.015361015 -0.30582619 -0.054464258 0.95052832 0.0024066826
0.073445603 -0.013684889 0.016000725 -0.2129242 -0.071864597 0.97442222 0.0028829239
0.076514646 -0.013635429 0.016460231 -0.132833 -0.019447731 0.9909476 0.0019621118
0.078529119 -0.014128046 0.016759222 -0.088737234 -0.027476305 0.9956761 0.0010879252
-0.018748652 -0.010581297 0.015785865 -0.90662426 0.21826479 0.3610996 0.035412148
-0.016420536 -0.010424521 0.016257614 0.056837644 0.012483089 0.99830538 0.036316674
-0.013490962 -0.010226088 0.015629474 0.24435289 -0.052546505 0.9682616 0.0014639203
-0.011647176 -0.011065695 0.015160711 0.24177808 -0.049657427 0.96906012 0.002737836
0.0052667661 -0.010581262 0.015019228 -0.041083962 -0.0048854738 0.99914378 6.818476e-05
0.0074471217 -0.010867155 0.015080341 -0.019587643 0.0026619232 0.99980462 0.00013569852
0.010430281 -0.011017134 0.015112405 0.011916305 0.022454632 0.99967688 0.00013723261
0.013391738 -0.010660711 0.01503621 0.022379218 0.031831618 0.99924266 6.6426757e-05
0.029022217 -0.010083862 0.015118636 -0.045148794 -0.0043196753 0.99897093 0.0011426918
0.031765807 -0.010087391 0.01514248 -0.03015453 -0.011989401 0.99947339 0.00042231294
0.034299746 -0.010394087 0.015171228 -0.019733412 -0.0035484724 0.99979901 0.00023953393
0.037412938 -0.010115823 0.015198035 -0.0006405536 0.0016745075 0.99999839 0.00024322572
0.040072873 -0.010769002 0.015168204 0.0027887234 0.0038860557 0.99998862 0.0002475426
0.04343345 -0.010659851 0.015310218 0.0033500737 0.0030133536 0.99998987 1.9459476e-05
0.046409506 -0.010678808 0.015314252 0.0047571869 0.001460466 0.9999876 1.6872151e-05
0.050214782 -0.01002695 0.015154929 -0.00216242 0.0074344096 0.99997008 0.00042510941
0.052518696 -0.010232817 0.015187295 -0.005335059 0.010303591 0.99993271 0.00055517058
0.055404656 -0.010133574 0.015207602 0.028458431 0.042475007 0.99869215 0.0011155343
0.057890408 -0.010984929 0.015150862 0.061335422 0.05885746 0.99638033 0.0018386407
0.060443539 -0.011308147 0.015174607 0.071901254 0.069345221 0.99499822 0.00065332418
0.070871532 -0.01021808 0.015703525 -0.28977039 -0.058360822 0.95531523 0.0054726778
0.073399283 -0.010710901 0.016217969 -0.18179464 -0.051382881 0.98199314 0.0051894379
0.076456279 -0.010111859 0.016334619 -0.13639796 -0.034252867 0.99006182 0.0015317926
0.0782791 -0.010706733 0.016166365 -0.095701575 -0.020478532 0.99519944 0.0010072031
-0.01841487 -0.0081254188 0.015562579 -0.89986277 0.27007112 0.34250334 0.024640037
-0.016629877 -0.0073740245 0.016105542 -0.36714253 0.20856085 0.9064815 0.027271636
-0.013508838 -0.0073590372 0.015733663 0.22313511 -0.083057001 0.97124267 0.0018275565
-0.011108726 -0.0074348655 0.015382648 0.26737717 -0.093873195 0.95900851 0.0018394496
0.0054035336 -0.0080005331 0.015017674 -0.018685596 0.011651726 0.99975753 0.00015991023
0.007592042 -0.0082115065 0.015062509 -0.011960927 0.014467311 0.99982381 0.00011634358
0.010305651 -0.0080476105 0.015027681 0.013804944 0.036018085 0.99925584 9.7491691e-05
0.023617255 -0.0060929526 0.015164336 -0.049789984 -0.092829987 0.99443632 0.00045518804
0.025542472 -0.0074531911 0.015177131 -0.05917979 -0.080479331 0.99499792 0.00053200236
0.028268185 -0.0073628309 0.015249666 -0.038693771 -0.039249171 0.99848002 0.0007515786
0.031539828 -0.0067786188 0.015309175 -0.01261352 -0.0089770164 0.99988019 0.00012835827
0.034541711 -0.0067340634 0.015299766 -0.002834622 0.0062323567 0.99997658 4.8200407e-05
0.037543252 -0.0067386767 0.015300739 -0.0009003228 0.0032162336 0.99999446 7.9127221e-06
0.040543962 -0.0067781038 0.015309066 -0.0011960709 9.2706534e-05 0.99999934 1.0340136e-05
0.043544382 -0.0068090959 0.015315615 0.0051960642 0.0029183391 0.99998224 3.6528683e-05
0.046544384 -0.0068398691 0.015322116 0.0085628899 0.0095732817 0.99991751 0.00027708517
0.050021112 -0.0073568881 0.01513174 0.026978362 0.052044302 0.99828035 0.00085045293
0.051871046 -0.0074780537 0.015184859 0.023505915 0.067752481 0.9974252 0.0010458961
0.054987557 -0.0087552732 0.015016053 0.044141233 0.077937022 0.99598062 0.0021373164
0.068650335 -0.0062765642 0.01533711 -0.29377398 -0.18161145 0.93846369 0.0095435195
0.070269637 -0.0073948246 0.015976816 -0.26710862 -0.15532388 0.95106649 0.01042649
0.073752508 -0.0073647611 0.016179988 -0.14141054 -0.091635525 0.98570079 0.0060557942
0.076036751 -0.007639668 0.016592976 -0.089624137 -0.051558454 0.99464029 0.0014150824
-0.015847867 -0.0046523158 0.016248303 -0.42523116 0.18986949 0.88494521 0.021184862
-0.013616704 -0.0045858221 0.016084651 0.16742134 -0.033993185 0.98529923 0.021833446
-0.010438588 -0.0044110557 0.01553471 0.21102883 -0.13508925 0.96810007 0.0032805493
-0.0080602374 -0.003395489 0.01520789 0.18984063 -0.15248163 0.96990198 0.003077076
0.0052656187 -0.0053453804 0.015006406 -0.011261774 0.027088076 0.99956965 0.00018960076
0.017526755 -0.0031029186 0.015087996 -0.029386507 -0.069021218 0.99718231 0.00018259592
0.019681189 -0.0041960189 0.01511042 -0.031029284 -0.064915925 0.99740821 0.00026229874
0.022281021 -0.0045324182 0.015167437 -0.041089378 -0.045709673 0.9981094 0.00044207499
0.025510747 -0.0039576879 0.015267486 -0.027232436 -0.030136425 0.99917477 0.00033421998
0.028530693 -0.0041193296 0.015301432 -0.012508305 -0.013026932 0.99983692 4.7783938e-05
0.031548895 -0.0041705584 0.015312189 0.0026067579 0.0061303265 0.99997783 9.0716021e-05
0.034567781 -0.0040763146 0.015292398 0.0093142027 0.0173197 0.99980664 7.7053548e-05
0.037585758 -0.0041044685 0.01529831 0.0033476597 0.021778489 0.99975723 0.00011239461
0.04060173 -0.0042041694 0.015319248 0.0017306281 0.035074182 0.99938327 0.00014611789
0.043618225 -0.0042429459 0.015327388 0.013780784 0.044066425 0.99893355 0.00018510227
0.046103287 -0.0038152977 0.015237585 0.029062394 0.047246512 0.99846041 0.00017431928
0.04986709 -0.0057661324 0.015095295 0.034114759 0.055350006 0.99788409 0.00071868586
0.053424876 -0.0057180435 0.015085137 0.020444404 0.053683691 0.99834871 0.0012776587
0.058768701 -0.0032746491 0.015124056 -0.00013681814 -0.055412278 0.99846357 0.00058441184
0.068048015 -0.0043006442 0.0156583 -0.33642092 -0.17525241 0.92526078 0.0066944011
0.070551157 -0.0044814297 0.016458608 -0.2062729 -0.097099341 0.97366482 0.0080504557
0.073493451 -0.0041907514 0.016462555 -0.12770016 -0.074759871 0.98899126 0.003114173
0.075462624 -0.0039842976 0.016642353 -0.077382818 -0.054349188 0.99551898 0.0013054517
-0.015584157 -0.0019769697 0.015817681 -0.8662957 0.39713773 0.30300722 0.033431821
-0.013816123 -0.0010678037 0.016095361 -0.36417603 0.21569188 0.90600938 0.022800483
-0.010690652 -0.0011271001 0.015605053 0.17551972 -0.096864127 0.97969902 0.0020483211
-0.0077170851 -0.0014661055 0.015446655 0.17438321 -0.13865049 0.97486746 0.0034903176
-0.0052330317 -0.00027176918 0.015051843 0.2036311 -0.12474585 0.97106791 0.0031960167
0.010806869 -0.0001271958 0.01502167 -0.03376488 -0.04731039 0.99830943 4.9153885e-05
0.013586774 -0.00047204472 0.015093651 -0.024733348 -0.04715874 0.99858117 5.9147624e-05
0.016296228 -0.0017058051 0.015104449 -0.032024175 -0.048940875 0.99828815 0.00017172635
0.01940934 -0.0011094366 0.015226694 -0.023880638 -0.031002767 0.99923396 0.00011574307
0.022449896 -0.0012941366 0.015265248 -0.016233901 -0.019025547 0.99968719 4.2623858e-05
0.025488183 -0.0014828127 0.015304628 -0.012153967 -0.013125132 0.99984002 5.2503216e-05
0.028523305 -0.0015395512 0.015316474 0.0023488603 -4.9607068e-05 0.99999726 8.7958957e-05
0.031558082 -0.0015168318 0.015311731 0.013615104 0.012384066 0.99983066 6.0927741e-05
0.034598041 -0.0010568761 0.015215725 0.014043844 0.02010927 0.99969918 6.1885381e-05
0.037641212 -0.00073613261 0.015148772 0.0062306449 0.021895085 0.9997409 0.00015287603
0.040409587 -0.00053834112 0.015107487 0.0026683703 0.0245084 0.99969608 0.00029263587
0.043459851 -0.00025420243 0.015048179 0.0094103068 0.020963062 0.99973595 0.00045383268
0.046677385 -0.00053047802 0.015013321 0.024409566 0.018093901 0.9995383 0.00054598378
0.04828747 -0.0018222522 0.015005291 0.027190506 0.009001839 0.99958974 0.00037816833
0.053087484 -0.0014159236 0.015013042 -0.014833272 -0.034525752 0.99929374 7.8173907e-05
0.055563886 -0.0015337176 0.015037681 -0.015237852 -0.03145761 0.99938893 0.00028994487
0.058252562 -0.00074151106 0.015070612 0.014728215 -0.0051552546 0.99987829 0.00097185967
0.060329448 -0.00035796931 0.015069841 -0.056848217 0.014193923 0.99828196 0.00688477
0.065324016 -0.00073794997 0.015254727 -0.19423769 -0.16455261 0.96705437 0.0087232972
0.067267798 -0.0015947132 0.015837841 -0.21876243 -0.16540763 0.96165657 0.0061080093
0.070419192 -0.0010284517 0.01621131 -0.15687981 -0.066549025 0.98537302 0.0038671293
0.073112443 -0.0012213703 0.016672865 -0.10380226 -0.054546464 0.99310112 0.0017448829
0.07514371 -0.0023244254 0.016343363 -0.058020867 -0.029537162 0.99787831 0.00081559486
-0.012931277 0.0014144219 0.016209938 -0.42408103 0.25087598 0.87018192 0.021075787
-0.010590613 0.001652678 0.016029723 0.12192967 0.0042370358 0.99252969 0.014845436
-0.0073690182 0.0012652474 0.015608488 0.15962335 -0.12152036 0.97966993 0.0025581194
-0.0050582951 0.0015274121 0.015437841 0.19905807 -0.1186898 0.97277373 0.003098656
0.010438995 0.0021557452 0.015106052 -0.033453524 0.004552877 0.99942994 0.00016160839
0.013510339 0.0018150575 0.015176739 -0.020074189 -0.013403778 0.99970865 0.00021876683
0.016569251 0.0017237343 0.015195685 -0.015303058 -0.0096484041 0.99983639 0.00010068675
0.019353082 0.0014670265 0.015248947 -0.02172851 -0.0077818409 0.99973363 6.9529007e-05
0.022409849 0.0012921685 0.015285224 -0.012123611 -0.0056608445 0.99991053 5.7127381e-05
0.025463372 0.0012063379 0.015303033 -0.00093489792 0.0028436114 0.99999553 4.2514213e-05
0.028515527 0.0011965336 0.015305068 0.012777226 0.013805934 0.99982303 6.6729473e-05
0.031569414 0.0016742041 0.01520596 0.016161868 0.016335741 0.99973595 4.9674542e-05
0.034349397 0.0019327527 0.01515232 0.011820463 0.008319214 0.99989557 0.00013383258
0.03741017 0.0021632814 0.01510449 0.0083200857 -0.0041085193 0.99995697 6.9646267e-05
0.040468521 0.0021561233 0.015105973 0.0045153117 -0.014595244 0.99988329 6.5629582e-05
0.043526102 0.0021248593 0.015112463 0.0041862722 -0.025586192 0.99966389 4.0173065e-05
0.046586461 0.002178442 0.015101345 0.0047106096 -0.031190086 0.99950242 2.7530676e-05
0.049369972 0.0022451931 0.015087495 0.0056415144 -0.038061898 0.99925947 1.430412e-05
0.052430201 0.002267322 0.015082903 0.0055667106 -0.028005086 0.9995923 7.1801347e-05
0.055213992 0.0023119792 0.015073638 0.026120216 0.0038272236 0.99965149 0.0009538047
0.062739961 0.0025318547 0.015028025 -0.19179195 -0.15083629 0.96977538 0.014967983
0.064738803 0.0015125328 0.015689762 -0.28702125 -0.18906051 0.93908197 0.0047235135
0.067423314 0.0012432215 0.016200721 -0.17064847 -0.11346527 0.97877717 0.0047254022
0.070534132 0.0013561582 0.016467549 -0.13818632 -0.064898491 0.98827767 0.0014250072
0.072590753 0.00082644529 0.016751699 -0.10347186 -0.059997279 0.99282122 0.0012077475
-0.012520218 0.0033752604 0.015661774 -0.76401907 0.40177241 0.50483042 0.057091326
-0.010448351 0.0045621563 0.016165663 -0.33031985 0.29150668 0.89772642 0.02023074
-0.007452359 0.0045839516 0.015809694 0.13270852 -0.094629072 0.98662746 0.0010143719
-0.0045307819 0.0046595838 0.015543211 0.18282036 -0.13115464 0.97435892 0.0029692452
-0.0025314034 0.0053140521 0.015171999 0.19140609 -0.17876598 0.96509403 0.0022628549
0.011433919 0.0052176085 0.015035038 -0.042777538 0.039487556 0.99830401 0.00016087941
0.013690062 0.0047302693 0.01513554 -0.025296377 0.027322827 0.99930656 7.9281323e-05
0.016490255 0.0045691491 0.015168764 -0.014602036 0.021737255 0.99965709 3.450198e-05
0.019567838 0.0043913065 0.015205439 -0.012349486 0.01521318 0.99980807 5.4389315e-05
0.022646304 0.0040325546 0.015279424 -0.011970433 0.015877454 0.99980229 5.5417284e-05
0.025437558 0.0040020538 0.015285714 2.1588648e-05 0.016259864 0.9998678 4.3128977e-05
0.028506925 0.0042940713 0.015225493 0.015564477 0.012537979 0.99980026 4.0997016e-05
0.031580016 0.0047749183 0.015126333 0.011610883 0.0051848292 0.99991918 9.8044409e-05
0.034373455 0.0045735086 0.015167867 0.00097445294 -0.0051852204 0.99998611 6.6947876e-05
0.037446886 0.004548443 0.015173037 0.001351474 -0.009995779 0.99994916 3.9162453e-05
0.040520817 0.0045676879 0.015169066 -0.0040200893 -0.017724967 0.99983484 2.834055e-05
0.043592226 0.0044938852 0.015184286 -0.0060918001 -0.02849279 0.99957544 2.9114406e-05
0.046664461 0.0044682808 0.015189564 0.0011360212 -0.034081902 0.99941844 1.9684368e-05
0.049459659 0.0045041479 0.01518217 0.018000791 -0.011273566 0.99977446 0.0007599456
0.052536458 0.0045727124 0.015168031 0.014154697 -0.003438351 0.99989396 0.0006017189
0.055349618 0.004906659 0.015099161 0.033368938 -0.042075146 0.99855709 0.0077419071
0.059570652 0.0054104682 0.01527754 -0.14365752 -0.17136066 0.97467852 0.018367779
0.061734267 0.0046259938 0.015658623 -0.27407181 -0.2685838 0.9234432 0.0042808973
0.064387679 0.0040755486 0.016117472 -0.17978896 -0.19133444 0.96491814 0.0073495498
0.067665644 0.0046331389 0.016302006 -0.13526112 -0.092883483 0.98644674 0.0023766826
0.070057258 0.0042234045 0.01661158 -0.11578531 -0.091440998 0.98905623 0.00095151726
-0.0097211311 0.0073304535 0.016209913 -0.45046517 0.34462857 0.82359719 0.01763932
-0.0074791815 0.0075746551 0.016245537 -0.046518214 -0.046881907 0.99781668 0.032682758
-0.0043140561 0.0074704578 0.015852463 0.13950603 -0.1570489 0.97768795 0.0015727549
-0.0015417659 0.0076411357 0.015591579 0.1627769 -0.20400222 0.96534282 0.0026904917
0.0011508833 0.0079754908 0.01532511 0.17099217 -0.23947714 0.95572609 0.0018557268
0.014422919 0.0080254441 0.015023263 -0.026203383 0.047885578 0.99850905 8.0241851e-05
0.016405966 0.0075892583 0.015112671 -0.017829061 0.045510784 0.99880475 7.4925301e-05
0.019498972 0.0076011713 0.015110227 -0.01384651 0.041619278 0.99903756 5.3564592e-05
0.022595067 0.0073910668 0.015153293 -0.017293304 0.035542764 0.99921858 2.3752265e-05
0.025408294 0.007132703 0.015206248 -0.010052002 0.028296873 0.99954903 9.7659795e-05
0.028498111 0.0072249249 0.015187346 0.0042335042 0.0097029367 0.99994397 9.8540761e-05
0.031588923 0.0073728771 0.01515702 0.0020701683 -9.014595e-06 0.99999785 5.1931132e-05
0.034397792 0.0072114146 0.015190117 -0.0053867479 -0.0069088191 0.99996161 5.2930218e-06
0.037487734 0.0071852505 0.015195479 -0.0011267237 -0.0097438004 0.9999519 2.2391103e-05
0.040576462 0.0071248398 0.015207862 -0.0028074828 -0.008895277 0.99995655 4.7875972e-05
0.043379877 0.0069427327 0.01524519 -0.0057562296 -0.0069134403 0.99995959 0.00013485685
0.0464602 0.0067193243 0.01529098 0.016612761 0.0026488574 0.9998585 0.00056955591
0.048994374 0.0069062836 0.015252657 0.050869349 0.045050822 0.99768871 0.0010212571
0.056901097 0.0086142048 0.015166793 -0.16972771 -0.18288018 0.96837354 0.017091598
0.058666918 0.007724463 0.015672827 -0.22941294 -0.22009318 0.94811845 0.010489407
0.061480217 0.0071557676 0.016132951 -0.18408516 -0.16473819 0.96900666 0.0071255611
0.064767525 0.0075173685 0.016321607 -0.083565965 -0.049116515 0.99529111 0.011726327
0.067212895 0.0070621921 0.016743734 -0.070089273 -0.0076246439 0.99751157 0.0087146237
0.069449484 0.0061868853 0.016441951 -0.071715072 -0.041548263 0.99655944 0.00094654498
-0.0070565152 0.0099245394 0.016097711 -0.45740899 0.38879007 0.79976207 0.019116571
-0.0049413908 0.010995329 0.015986018 -0.33732182 0.29667738 0.89341843 0.020873154
