# .PCD v0.7 - Point Cloud Data file format
VERSION 0.7
FIELDS x y z normal_x normal_y normal_z curvature
SIZE 4 4 4 4 4 4 4
TYPE F F F F F F F
COUNT 1 1 1 1 1 1 1
WIDTH 556
HEIGHT 1
VIEWPOINT 0 0 0 1 0 0 0
POINTS 556
DATA ascii
-0.016550651 0.016360233 -0.016479582 -0.05222388 -0.28903872 -0.95589191 0.0026271034
-0.01342535 0.016480071 -0.016633498 -0.045703802 -0.25412983 -0.96608961 0.002365171
-0.010794158 0.016613318 -0.016707981 -0.033712529 -0.23324679 -0.97183299 0.0025665259
-0.0074494453 0.016358539 -0.016701283 -0.024305973 -0.17411415 -0.98442549 0.003331719
-0.0045208894 0.01623933 -0.016695805 -0.0065826373 -0.14219572 -0.98981667 0.0038204319
-0.0015537201 0.016266447 -0.016715119 -0.0064850412 -0.13776389 -0.99044389 0.0040753623
0.0015804176 0.016269229 -0.016755274 -0.021488223 -0.1274747 -0.99160904 0.0042418293
0.0046034446 0.016118597 -0.01681 -0.02401619 -0.095353089 -0.99515378 0.0044219857
0.0073854765 0.016225338 -0.016895052 -0.021434711 -0.058436055 -0.998061 0.0051194848
0.010526983 0.016353989 -0.01701989 -0.039767798 -0.11551616 -0.99250919 0.0047599543
0.013456267 0.016400972 -0.017134495 -0.047466971 -0.13655935 -0.98949403 0.0048334831
0.016918922 0.015982116 -0.017187679 -0.0042586336 -0.19374557 -0.9810425 0.0035461865
0.019545838 0.015934736 -0.017249776 0.00067620876 -0.25294989 -0.96747917 0.0030674667
0.02262635 0.016180877 -0.017309455 0.023494964 -0.27576694 -0.96093738 0.0030759405
0.025692767 0.016335685 -0.01726451 0.052917883 -0.28153935 -0.95808935 0.0033361625
0.028606525 0.016505206 -0.017166713 0.087019168 -0.32058188 -0.94321519 0.0036603792
0.031680334 0.016331084 -0.016794167 0.11709734 -0.3844012 -0.91570956 0.0028096747
0.034378741 0.016429603 -0.016459551 0.14746687 -0.42505926 -0.89307231 0.0023826375
0.037422836 0.016418366 -0.015833693 0.21564695 -0.48708811 -0.8463105 0.0024571666
0.040272925 0.017177096 -0.015514653 0.23901522 -0.48620099 -0.84052384 0.0027574971
0.042434171 0.01766506 -0.01516773 0.30295914 -0.52652937 -0.79434407 0.001535228
-0.036683697 0.020539051 -0.015172596 -0.27195749 -0.47963008 -0.83426261 0.0018176101
-0.03438336 0.019920031 -0.015462504 -0.20550811 -0.44002736 -0.87415242 0.0027210538
-0.031513989 0.019442834 -0.015844697 -0.17445643 -0.39612386 -0.90147156 0.0016390234
-0.028456753 0.019377984 -0.01629629 -0.11757369 -0.34395573 -0.93159586 0.0019938538
-0.025492651 0.019404104 -0.016626844 -0.093545467 -0.30772582 -0.94686544 0.0028812531
-0.02269814 0.019499471 -0.016847646 -0.072061725 -0.26293087 -0.96211976 0.0026675526
-0.019477863 0.019303136 -0.016928801 -0.048672233 -0.18653959 -0.98124105 0.0043486091
-0.016632918 0.019324422 -0.016944714 -0.0026156702 -0.13465621 -0.99088889 0.0041424376
-0.013566623 0.019403432 -0.016850466 0.02243055 -0.057220723 -0.99810952 0.0042039021
-0.010923337 0.01894189 -0.016799837 0.0091611547 -0.020859063 -0.99974042 0.0029956843
-0.0077653709 0.018935572 -0.016692109 0.0069290064 0.011586102 -0.99990886 0.002441712
-0.004435231 0.019494558 -0.016480254 0.043625306 0.19277087 -0.98027354 0.0032853135
-0.0014322437 0.019377152 -0.016438043 0.010488653 0.21292599 -0.9770121 0.0031362383
0.0010156534 0.018830612 -0.016545184 -0.014311438 0.065812886 -0.99772936 0.0018877799
0.0045411475 0.019453682 -0.016446304 -0.026922978 0.23682944 -0.97117811 0.0031220925
0.0075029796 0.01942802 -0.016553892 -0.040232074 0.23311359 -0.97161692 0.0028291212
0.010092678 0.019147579 -0.016769581 -0.054205846 0.073162906 -0.99584585 0.0019541397
0.013525795 0.019462865 -0.01688946 -0.068957545 0.22160463 -0.97269535 0.0040103667
0.015963703 0.018731827 -0.017185874 -0.055978496 0.043928854 -0.99746513 0.0034778386
0.019527471 0.019046381 -0.017386377 -0.034593355 0.014297 -0.99929923 0.0038019395
0.022650877 0.019049216 -0.017554769 -0.025374742 -0.057746597 -0.99800873 0.0028265938
0.025496721 0.01932917 -0.0176707 -0.016532173 -0.077777438 -0.99683368 0.0031330348
0.028314635 0.019220386 -0.017717022 0.0094087683 -0.094837368 -0.99544829 0.0024113031
0.031388503 0.019177828 -0.017624224 0.067995943 -0.25199765 -0.96533602 0.0031391711
0.034418087 0.019295719 -0.017463662 0.10713273 -0.3056623 -0.94609362 0.0039139003
0.037437413 0.019052846 -0.017009774 0.14652577 -0.34931636 -0.92547727 0.00399451
0.040479444 0.019408975 -0.016591325 0.1838126 -0.36434445 -0.9129436 0.0031057843
0.043380208 0.019484121 -0.015843458 0.26729223 -0.42345539 -0.8655867 0.002028612
0.046023604 0.020305425 -0.015374981 0.32374209 -0.46381316 -0.82466263 0.0021588202
-0.042112932 0.02383256 -0.015099302 -0.31465083 -0.43952826 -0.84131432 0.0029339734
-0.040152695 0.023134271 -0.015380015 -0.27719945 -0.42113706 -0.86359948 0.0023545048
-0.037577052 0.022407247 -0.015775032 -0.2294744 -0.37222019 -0.8993296 0.0023977607
-0.034574464 0.022332435 -0.016385533 -0.16146748 -0.32784897 -0.93082941 0.0022815343
-0.031490345 0.022241918 -0.016802981 -0.12875988 -0.29322574 -0.94733286 0.00300136
-0.028787484 0.021912063 -0.016952178 -0.098867513 -0.26727381 -0.95853537 0.0033793971
-0.025663547 0.022344917 -0.017123574 -0.02372266 -0.15459213 -0.98769349 0.0052716564
-0.022378767 0.022200409 -0.017058779 0.00079622754 -0.067196362 -0.99773943 0.002073497
-0.019659327 0.02202733 -0.016965043 0.020306939 4.0642017e-06 -0.99979377 0.0036711618
-0.01645514 0.022417422 -0.016652761 0.073716111 0.21365547 -0.97412384 0.0037084948
-0.013509927 0.0224804 -0.01636423 0.10316899 0.26020947 -0.9600246 0.0034762956
-0.010440649 0.022456193 -0.016077911 0.079679824 0.29463911 -0.95228094 0.0025982514
-0.0072912406 0.022464784 -0.015811693 0.059382748 0.34039518 -0.93840545 0.0020371263
-0.0044374145 0.02234285 -0.015663166 0.057394873 0.35009941 -0.93495256 0.0017763965
-0.0016207857 0.022050384 -0.01565587 0.018325791 0.36718822 -0.92996615 0.001468814
0.0014307619 0.022073686 -0.015576837 0.0076008062 0.3836118 -0.92346317 0.0022445293
0.004534177 0.022204615 -0.015539923 -0.018789662 0.38252243 -0.92375517 0.0017376902
0.0076199938 0.022046397 -0.015718279 -0.040074244 0.39220652 -0.9190039 0.001850719
0.010388434 0.022373732 -0.015729783 -0.064488217 0.38518345 -0.92058408 0.0017883339
0.013359762 0.022285108 -0.016020436 -0.089638114 0.37931091 -0.92091709 0.002223003
0.016532972 0.022378398 -0.016301923 -0.089904398 0.35494882 -0.93055284 0.0024500415
0.019543948 0.022249512 -0.016697615 -0.10059659 0.32750496 -0.93947905 0.0029509068
0.022454575 0.022508923 -0.016960772 -0.097353883 0.29409319 -0.95080566 0.0032172597
0.025181267 0.021743447 -0.017457629 -0.046298247 0.087466374 -0.99509102 0.0025628358
0.028461995 0.022006148 -0.017659014 -0.030113276 0.044245221 -0.99856675 0.0040275245
0.031393461 0.022401568 -0.017779067 -0.0043122084 -0.023490719 -0.99971479 0.0020967717
0.034368683 0.022273095 -0.01785497 0.022675449 -0.083351322 -0.99626219 0.0026271294
0.037427228 0.022379488 -0.017764375 0.067042932 -0.15136263 -0.98620212 0.0036788583
0.040522106 0.022461168 -0.017483709 0.14863548 -0.23565289 -0.96040368 0.00537069
0.043570392 0.022442268 -0.016946288 0.21679901 -0.28931639 -0.93235946 0.0042345542
0.046562884 0.022419736 -0.016145533 0.25898859 -0.32603264 -0.90919071 0.0031149536
0.049013585 0.022885751 -0.015488822 0.34208557 -0.39748558 -0.85145915 0.0027684614
-0.045459807 0.026661871 -0.01514612 -0.32917783 -0.41757706 -0.84691882 0.0025898207
-0.043281671 0.025749644 -0.015496547 -0.27644894 -0.35731849 -0.89213192 0.0028950057
-0.04051508 0.025402322 -0.016135676 -0.22452357 -0.30578551 -0.92524827 0.0020944655
-0.037554711 0.025154509 -0.01667285 -0.17515159 -0.26916766 -0.94703257 0.0028323887
-0.03453292 0.025330193 -0.017064001 -0.120362 -0.19599481 -0.97319013 0.005538912
-0.031678461 0.025259133 -0.017186441 -0.056764424 -0.1062511 -0.99271774 0.0036964091
-0.028606776 0.025094658 -0.017131485 -0.018778758 -0.030315749 -0.9993639 0.0036245808
-0.025532104 0.025509499 -0.016852265 0.074674092 0.17784676 -0.98122084 0.0028877496
-0.022437431 0.025447471 -0.016540384 0.11430552 0.24766302 -0.9620797 0.0027874026
-0.019557107 0.025218241 -0.016258588 0.10588489 0.23411861 -0.96642482 0.0043948432
-0.016430199 0.025445623 -0.01570742 0.11534436 0.31866479 -0.94082332 0.0006878078
-0.013686764 0.025148654 -0.015419756 0.14353463 0.33134553 -0.93252772 0.0038242196
-0.011317649 0.024602352 -0.015343997 0.12036418 0.43202829 -0.89379197 0.0013931553
-0.0077482658 0.024286199 -0.015076151 0.096899554 0.47409254 -0.87512672 0.0012694803
0.013369115 0.024203992 -0.015093972 -0.11544568 0.52463013 -0.8434664 0.0016485003
0.016371317 0.024579227 -0.015261475 -0.11803269 0.49515694 -0.86074847 0.0020591081
0.019619111 0.024946447 -0.015554266 -0.14147435 0.46798995 -0.87233621 0.0022594943
0.022689503 0.025362242 -0.015862273 -0.14302513 0.42615622 -0.89327198 0.0020267908
0.025484059 0.025397692 -0.016311483 -0.13333665 0.39635858 -0.90836185 0.0027507707
0.028430551 0.02547526 -0.016750004 -0.12271532 0.35941803 -0.92507279 0.0029025404
0.031481624 0.025449853 -0.017173583 -0.13499244 0.31802627 -0.93842226 0.0049830377
0.034501247 0.025568172 -0.017457381 -0.079292998 0.25368291 -0.96403199 0.0053186701
0.037500352 0.024946526 -0.017743491 0.027181612 -0.0085403984 -0.99959409 0.0024686623
0.040689819 0.025055021 -0.017696956 0.095575057 -0.085962251 -0.99170351 0.003194917
0.043545965 0.025537714 -0.017470948 0.13722701 -0.1387917 -0.98076785 0.0041538067
0.046587579 0.025444388 -0.016980411 0.21788883 -0.21109058 -0.95287204 0.0044919215
0.049610056 0.025473658 -0.016183544 0.30008751 -0.27650157 -0.91295916 0.0026616133
0.052205902 0.025692623 -0.015337043 0.3548649 -0.32094726 -0.87810236 0.0028996081
-0.048538506 0.029310152 -0.01514905 -0.33035424 -0.35196522 -0.87577772 0.0030028019
-0.046433453 0.028637411 -0.015567395 -0.25135821 -0.29782975 -0.92093241 0.0030872338
-0.043574613 0.028373724 -0.016226796 -0.21734105 -0.24153939 -0.94573861 0.0024748535
-0.04083547 0.028179126 -0.016718291 -0.20369756 -0.2057602 -0.95716774 0.0027339167
-0.037701607 0.028180147 -0.017051697 -0.11054656 -0.13471687 -0.98469836 0.0064259912
-0.034839414 0.028078396 -0.017079815 -0.050614577 -0.036713846 -0.99804324 0.0028496825
-0.031586766 0.028383506 -0.016828423 0.10959756 0.23710813 -0.96528137 0.0069502834
-0.028432239 0.028319446 -0.016451744 0.11188472 0.29074913 -0.95023513 0.0029468893
-0.025598047 0.028444685 -0.015961707 0.11927117 0.27500293 -0.95401669 0.0038845823
-0.022677077 0.028175866 -0.015565229 0.12827577 0.22905859 -0.96492356 0.002248358
-0.019242696 0.027751574 -0.015111434 0.13009217 0.31023639 -0.94171625 0.00058006251
-0.017633012 0.027160378 -0.015124138 0.12002242 0.31702724 -0.94079137 0.00070225878
0.02354636 0.027200567 -0.015009158 -0.17758141 0.56208295 -0.80779177 0.0013939937
0.026081989 0.027483242 -0.015352582 -0.17695692 0.53450489 -0.82643265 0.0021660391
0.028586719 0.027973209 -0.015586464 -0.15910423 0.50336528 -0.84929925 0.0019794109
0.03155604 0.028479965 -0.01590405 -0.15568702 0.45485029 -0.87685394 0.0020540282
0.034557104 0.028387737 -0.016515005 -0.1312467 0.40414578 -0.90522957 0.0029193929
0.037569609 0.028596476 -0.016881429 -0.10896093 0.34052315 -0.93390125 0.0050161188
0.040493287 0.028404528 -0.017251123 -0.069512762 0.26723576 -0.96112072 0.0051723798
0.043532211 0.028548364 -0.017323032 0.004091695 0.18110774 -0.98345482 0.0062028659
0.046263896 0.02861036 -0.017230656 0.14322911 -0.067953289 -0.98735392 0.0032108501
0.049441513 0.028339807 -0.016750436 0.23149766 -0.1249456 -0.96477848 0.0031534485
0.052443311 0.02823868 -0.015942717 0.30314744 -0.18885724 -0.93404204 0.0033718473
0.054617196 0.028870074 -0.015315571 0.37210658 -0.24068277 -0.89644217 0.0023095771
-0.051447228 0.032474998 -0.015098889 -0.32012996 -0.23531137 -0.91768479 0.0028642106
-0.049445271 0.031442117 -0.015471182 -0.26971245 -0.2178334 -0.93797857 0.0027967878
-0.04676934 0.031427938 -0.016154811 -0.22270197 -0.18948154 -0.95629519 0.0028400824
-0.043689847 0.031160057 -0.016621137 -0.17608552 -0.13575637 -0.97496873 0.0036114762
-0.040891729 0.030985817 -0.016838733 -0.10527943 -0.044283081 -0.99345618 0.0034184249
-0.037688851 0.031334378 -0.016709425 0.096056208 0.23824702 -0.96644276 0.0069266357
-0.034624491 0.031323485 -0.016385866 0.10713872 0.29150832 -0.95054942 0.0029683853
-0.031622436 0.031324126 -0.015887944 0.13405599 0.30299097 -0.94351763 0.0035510228
-0.029310072 0.030734511 -0.015676573 0.13253269 0.27525806 -0.95219123 0.0033742317
0.034610219 0.030451572 -0.015453212 -0.2073486 0.54662859 -0.81129766 0.0030061447
0.037646618 0.031339142 -0.015634116 -0.17568035 0.4630093 -0.86876857 0.0026580028
0.040493909 0.031375848 -0.016208017 -0.15384071 0.39271256 -0.90670276 0.0032350398
0.043447979 0.03158522 -0.016564211 -0.087568775 0.31329927 -0.94560844 0.0035804238
0.046549216 0.031310156 -0.016833309 -0.0091059282 0.23055579 -0.9730165 0.0038878978
0.050007001 0.031072361 -0.016674705 0.17539072 -0.0062213233 -0.98447925 0.003874707
0.052731525 0.031016916 -0.016184743 0.25641161 -0.096991599 -0.961689 0.0025528625
0.055317499 0.031708974 -0.015508229 0.32296783 -0.13048875 -0.93737102 0.0033182544
-0.052250449 0.034508303 -0.015210272 -0.30784437 -0.15155631 -0.93928832 0.0025354673
-0.049715042 0.034330893 -0.015804375 -0.23160298 -0.1206307 -0.96530223 0.002233769
-0.046510197 0.034133282 -0.016296051 -0.14202483 -0.0055390014 -0.98984766 0.0048115724
-0.043542989 0.034347314 -0.016329622 -0.016619621 0.18488397 -0.98261988 0.0042186743
-0.040498737 0.034327857 -0.016136253 0.054508314 0.26714849 -0.96211255 0.0029963171
-0.037601802 0.034107465 -0.015823171 0.1276705 0.28924781 -0.94870228 0.0032991383
-0.03533601 0.034493446 -0.015199104 0.12408109 0.32248354 -0.9384073 0.0016816772
0.040290661 0.033167385 -0.015247065 -0.21207057 0.50229877 -0.83828515 0.0017135275
0.043625414 0.033918463 -0.015627548 -0.16657798 0.43804103 -0.88338661 0.0033886964
0.046520382 0.034351941 -0.015895091 -0.09514913 0.34892851 -0.93230659 0.0031163807
0.049627889 0.034368437 -0.016110754 0.0042697378 0.26205814 -0.96504265 0.0032566569
0.052568529 0.034497529 -0.015962046 0.10019621 0.17192101 -0.98000199 0.0038762835
0.055368911 0.034797356 -0.015499992 0.17555836 0.10318187 -0.97904688 0.0015102701
0.057252124 0.034054123 -0.015052798 0.30561817 0.0090390807 -0.95211124 0.0033088436
-0.052754577 0.036993183 -0.015204965 -0.28073499 -0.072218865 -0.95706445 0.0022586326
-0.050285444 0.037078131 -0.015619224 -0.15681778 0.030545617 -0.98715502 0.0031301554
-0.046778858 0.03729124 -0.015675901 0.0010782535 0.23657668 -0.97161227 0.0026826167
-0.043850508 0.036846049 -0.015627306 0.064704224 0.26287907 -0.96265674 0.0035176675
-0.041722808 0.036086641 -0.015679408 0.057334747 0.26166141 -0.96345526 0.0030990001
0.047111157 0.036214501 -0.015178095 -0.17412423 0.47482949 -0.86268055 0.0025936831
0.049392074 0.036517534 -0.015353727 -0.089396164 0.39772409 -0.91313958 0.0032256567
0.052399721 0.036908746 -0.015372786 0.012072077 0.31422469 -0.94927192 0.0025418929
0.055146322 0.037115015 -0.015173536 0.1508496 0.18973441 -0.97017795 0.0034974306
-0.05166975 0.039323281 -0.015096658 -0.13369581 0.19947554 -0.97073942 0.0038705992
-0.049286041 0.039324351 -0.015128514 0.013421983 0.35572726 -0.93449348 0.0042225174
-0.0032605457 0.0059991661 -0.012117746 -0.075038031 -0.68269217 -0.726843 0.0033333173
-0.0012357762 0.0059434413 -0.012105216 -0.054814782 -0.69202745 -0.719787 0.0014560461
0.0014832091 0.0058623981 -0.012180763 -0.031282261 -0.67863172 -0.73381227 0.0013852767
0.0044134357 0.005797606 -0.012200902 -0.0099511929 -0.68303519 -0.73031759 0.0013736325
0.0073400773 0.0058582029 -0.012259565 0.015133923 -0.67995709 -0.73309565 0.0016422607
0.010444142 0.0058008591 -0.012126387 0.03353636 -0.72503167 -0.68789852 0.00096725055
0.013040971 0.0059066406 -0.012140442 0.056645107 -0.69137341 -0.72027373 0.0013046049
0.015046078 0.0059743347 -0.012046285 0.040519152 -0.71685928 -0.6960395 0.0023505923
-0.018394036 0.0089237336 -0.012131363 -0.18956776 -0.63386869 -0.74984968 0.0012704948
-0.016093217 0.008641582 -0.012334817 -0.18156156 -0.65827125 -0.73055762 0.0010025221
-0.013340779 0.0083063608 -0.012610535 -0.14784408 -0.65365618 -0.74221009 0.0011284435
-0.010455337 0.0079979608 -0.012833429 -0.11659715 -0.63879883 -0.76048744 0.0010798933
-0.0075095897 0.00780176 -0.013056119 -0.087296367 -0.62284178 -0.77746218 0.0013986696
-0.0045428406 0.0074881278 -0.013098046 -0.067280486 -0.6159687 -0.78489232 0.0013027947
-0.0015506339 0.0074240728 -0.013267133 -0.051961627 -0.5898428 -0.8058446 0.0016181612
0.0014454335 0.0074191499 -0.013436824 -0.033825904 -0.57351756 -0.81849462 0.00071358954
0.0044069407 0.0073924563 -0.013521728 -0.016576016 -0.57636219 -0.81702614 0.00084162521
0.0074513182 0.0073922263 -0.013550706 0.0044917241 -0.59704566 -0.80219471 0.0013630496
0.010497801 0.0073834751 -0.013496923 0.02309555 -0.61759025 -0.78616083 0.0017015511
0.013496086 0.0074381768 -0.013409742 0.037838444 -0.63440228 -0.77207637 0.0013992037
0.01644366 0.0075074695 -0.013253753 0.068701275 -0.66252434 -0.74588317 0.0015075575
0.019400077 0.0076729483 -0.013072372 0.10344641 -0.67187327 -0.73340648 0.0016805562
0.022442373 0.0080536669 -0.012955013 0.13736157 -0.69167972 -0.70902109 0.0012011071
0.025389023 0.0083264299 -0.012615954 0.16917783 -0.71976143 -0.67329222 0.0011831858
0.028014004 0.0086611798 -0.012277937 0.19999701 -0.72493249 -0.65914643 0.0011827892
-0.025095051 0.011623205 -0.012347911 -0.24050431 -0.66770113 -0.70450896 0.00099799677
-0.022375599 0.011123176 -0.012736375 -0.22188523 -0.64427561 -0.73189878 0.0011522615
-0.019475861 0.010617622 -0.013102799 -0.19901954 -0.61510807 -0.76291108 0.0012360764
-0.016474007 0.010426094 -0.013623119 -0.15986021 -0.57199037 -0.80453193 0.0010753681
-0.013516329 0.010307889 -0.014073168 -0.12385501 -0.54828084 -0.82707202 0.0011936557
-0.010548644 0.01004025 -0.014306928 -0.10057916 -0.52452987 -0.84543025 0.0018326854
-0.0075884811 0.0099028843 -0.014523145 -0.073976703 -0.50288767 -0.86118031 0.0017809913
-0.0045201993 0.0096960803 -0.014632791 -0.056783147 -0.48783973 -0.87108433 0.0021287007
-0.0015676644 0.0095231319 -0.014703845 -0.046851642 -0.47732392 -0.87747747 0.0023239031
0.0014649139 0.0093163252 -0.014720201 -0.035228673 -0.49160695 -0.87010431 0.0018418701
0.0045521422 0.0092194127 -0.014758642 -0.020546241 -0.54591262 -0.8375901 0.00089580752
0.0075073037 0.0092394985 -0.014819906 -0.0055723083 -0.52572888 -0.85063398 0.0013276484
0.010465608 0.0092647439 -0.014841159 0.01018144 -0.53865987 -0.84246182 0.0017942804
0.013579376 0.0093538472 -0.014839207 0.030917441 -0.55500603 -0.83127153 0.0017658666
0.016649513 0.0094470866 -0.014751897 0.052698769 -0.5939641 -0.80276364 0.0010283346
0.019639349 0.0095082633 -0.014551188 0.076607905 -0.55224276 -0.83015609 0.0018514277
0.022728076 0.009786495 -0.014384289 0.10839916 -0.57351065 -0.81199461 0.0016981862
0.025624424 0.010072619 -0.014125536 0.14774941 -0.60223895 -0.78452432 0.0018968866
0.028482676 0.010358199 -0.013735482 0.18556871 -0.64004129 -0.74559462 0.0015830084
0.031360839 0.010670188 -0.013238338 0.22329319 -0.66326135 -0.7143001 0.0016094809
0.034248333 0.011277408 -0.012860428 0.2489626 -0.67813331 -0.691486 0.0012685588
0.036706608 0.011613679 -0.01229798 0.28565136 -0.68626547 -0.66891181 0.0017498797
-0.0335069 0.01477231 -0.012166499 -0.29719812 -0.65307516 -0.69653869 0.0017441433
-0.03125374 0.0142727 -0.012556508 -0.26786059 -0.65222186 -0.70912439 0.0012501796
-0.02841273 0.013697594 -0.013014858 -0.24742149 -0.62327433 -0.74182993 0.0012721304
-0.025537685 0.013466134 -0.013669908 -0.218077 -0.57600653 -0.78781903 0.0012551547
-0.0226638 0.013141756 -0.014184326 -0.18545772 -0.53429806 -0.82470053 0.0010796478
-0.019645059 0.012638888 -0.014521264 -0.16431259 -0.5190466 -0.83880389 0.0016021017
-0.017041614 0.012246181 -0.014758579 -0.13196591 -0.50951755 -0.85028046 0.0013846187
-0.014195933 0.012005091 -0.014982037 -0.10496629 -0.47191781 -0.87537175 0.0009266503
0.031640112 0.012541123 -0.014725544 0.18974045 -0.59402412 -0.7817505 0.0021249617
0.034722626 0.012952943 -0.014199279 0.22276476 -0.59250408 -0.77415425 0.001784295
0.03765351 0.013350576 -0.013559292 0.26350656 -0.62287176 -0.73661053 0.0011294106
0.040365957 0.013882828 -0.012953998 0.31160155 -0.65590525 -0.68752652 0.001707653
0.042833354 0.014522817 -0.012459055 0.35394967 -0.67202556 -0.65046233 0.0014141672
-0.039330307 0.017809661 -0.012251078 -0.37420461 -0.62884814 -0.68155777 0.0015100766
-0.037273269 0.01721617 -0.012671289 -0.32764387 -0.62331885 -0.71001619 0.0011892935
-0.034519736 0.016539024 -0.013217479 -0.29368979 -0.59297282 -0.749753 0.0012261223
-0.031673465 0.016280554 -0.013992152 -0.23126803 -0.54777467 -0.80402613 0.0009346318
-0.028671229 0.015798373 -0.014505328 -0.2078875 -0.51204592 -0.83342165 0.0017926684
-0.026034616 0.015291467 -0.014813351 -0.18266886 -0.50953537 -0.84083635 0.001510088
0.038490981 0.015211544 -0.01483875 0.24520871 -0.57493848 -0.78058845 0.00097375538
0.040630002 0.015726814 -0.014416571 0.28240201 -0.58931017 -0.75694293 0.0022219724
0.04369412 0.016416259 -0.013653249 0.33661509 -0.61543018 -0.71269631 0.0017481571
0.046172481 0.016859518 -0.012863785 0.38692388 -0.62118888 -0.68147951 0.001491719
0.048216783 0.017529305 -0.012312109 0.40489984 -0.62765032 -0.66491437 0.00088820868
-0.042821314 0.020387748 -0.012518722 -0.40540645 -0.59471339 -0.69423455 0.0012651565
-0.040372998 0.01964098 -0.013150118 -0.36887151 -0.56526452 -0.73784143 0.0016199782
-0.037660483 0.019254131 -0.014035922 -0.29518813 -0.52723658 -0.7967971 0.001052372
-0.034811068 0.018590225 -0.014614478 -0.2507427 -0.49666673 -0.83093333 0.002332764
-0.032821517 0.018125918 -0.014918517 -0.24176371 -0.52012712 -0.81915694 0.0017727303
0.044686358 0.018411832 -0.014755854 0.33088496 -0.56767553 -0.75383002 0.00096239056
0.046734355 0.018996958 -0.0142667 0.36168954 -0.51999116 -0.77381516 0.0017045282
0.049337514 0.019486649 -0.013270059 0.407693 -0.56161463 -0.71998298 0.0018017531
0.051691562 0.020383244 -0.012609573 0.45702904 -0.57892853 -0.67525268 0.001178908
-0.048237044 0.023908479 -0.012279735 -0.44321394 -0.56044888 -0.69961315 0.0029818432
-0.046207532 0.023071058 -0.012683054 -0.41899467 -0.55626822 -0.71764129 0.0016389402
-0.043590456 0.022448381 -0.013589638 -0.37891334 -0.49768063 -0.78021705 0.0013582151
-0.040872972 0.021847038 -0.014447792 -0.31568763 -0.47290576 -0.8226186 0.0016969995
-0.038771965 0.021115821 -0.014740666 -0.29383889 -0.51587254 -0.80469519 0.00091422244
-0.0012293922 0.023665652 -0.014908144 0.025955331 0.40506864 -0.91391778 0.0020622131
0.001575435 0.023688301 -0.014812326 0.016297398 0.42014807 -0.90730923 0.0022248903
0.0040019141 0.023769371 -0.014774973 -0.019579059 0.42764676 -0.90373391 0.0020229216
0.0071973531 0.023517257 -0.014995156 -0.035846293 0.48039952 -0.87631696 0.0050228182
0.050107207 0.021949254 -0.014542855 0.37308425 -0.43497059 -0.81951743 0.0011126047
0.052574236 0.022507416 -0.013558568 0.43476987 -0.49290016 -0.75367409 0.0019547127
0.05490575 0.023327352 -0.012706001 0.48004347 -0.49427211 -0.72474366 0.0014380659
-0.051498652 0.026593683 -0.01226408 -0.44339484 -0.54798847 -0.70930219 0.0021815232
-0.049327027 0.02575591 -0.012896523 -0.42208296 -0.52723533 -0.73747462 0.0017510051
-0.046664461 0.025319232 -0.013943574 -0.35483983 -0.45257968 -0.81808335 0.0008803783
-0.044266883 0.024616847 -0.01463414 -0.323827 -0.42345515 -0.8460626 0.0029553622
-0.00969622 0.025944719 -0.014388648 0.11326726 0.47120988 -0.87471813 0.0014431033
-0.0074576242 0.025327493 -0.014468728 0.096895821 0.4741067 -0.87511951 0.0012616236
-0.0043202783 0.024987085 -0.014332979 0.073578507 0.47849819 -0.87500042 0.00097796298
-0.0012843341 0.02496516 -0.014124863 0.022258269 0.47765177 -0.87826729 0.0003691694
0.001745404 0.025445011 -0.013693394 0.027024202 0.51316136 -0.85786664 0.00091471511
0.0047135516 0.025149556 -0.013901967 -0.006824269 0.53303933 -0.84606296 0.0014179035
0.0079203155 0.024923703 -0.014155234 -0.016157495 0.5732041 -0.81925339 0.0017558482
0.010803845 0.025107017 -0.014246813 -0.069213621 0.56090653 -0.8249808 0.0019479167
0.013882061 0.025610484 -0.014248259 -0.11494081 0.57028323 -0.81336683 0.0023608832
0.016926153 0.026129691 -0.014363202 -0.14870176 0.60919452 -0.77895439 0.00087749137
0.01986637 0.026566835 -0.01462393 -0.17515057 0.58479851 -0.79204363 0.00099696987
0.053269669 0.024951965 -0.014562642 0.3911342 -0.35872588 -0.84754336 0.0011844058
0.055519547 0.025513634 -0.013601744 0.45139241 -0.39908513 -0.79810768 0.001612598
0.057723619 0.026184201 -0.012610616 0.51637465 -0.43565783 -0.73726493 0.0016529879
-0.054573361 0.029546624 -0.012365694 -0.47188196 -0.47894049 -0.74023193 0.0017729527
-0.05241638 0.028571235 -0.01302288 -0.44212243 -0.47467431 -0.76105982 0.0018774458
-0.049754828 0.028262382 -0.014184919 -0.37173238 -0.40765902 -0.83404386 0.0014688913
-0.047582764 0.027420238 -0.014713001 -0.34605268 -0.39734617 -0.84991968 0.0026473533
-0.010181633 0.02728576 -0.013556777 0.1132663 0.47121656 -0.87471467 0.0014418454
-0.0062422436 0.02732712 -0.012946314 0.090943456 0.48432216 -0.87015021 0.00097339746
0.0067632995 0.027333992 -0.012200783 -0.027561042 0.60434109 -0.79624891 0.00070885039
0.011415313 0.027502799 -0.012414054 -0.073923752 0.61857468 -0.78224081 0.00034164666
0.012874643 0.027049247 -0.01301031 -0.1098851 0.61056167 -0.78430843 0.00048013197
0.016294496 0.027813176 -0.012917207 -0.13340119 0.61787045 -0.77488077 0.00095835677
0.019526457 0.028197747 -0.013268332 -0.17623802 0.62211049 -0.76283604 0.0012601482
0.022449549 0.028314214 -0.013913884 -0.19926129 0.60785109 -0.76864296 0.0014950202
0.025374075 0.028934127 -0.014174727 -0.20162958 0.57078356 -0.79595965 0.0015747986
0.028484415 0.02946783 -0.014596361 -0.19911852 0.57532001 -0.79332137 0.0034926271
0.055914629 0.028215483 -0.014553498 0.40453357 -0.279511 -0.87076187 0.0019970329
0.058344096 0.028300181 -0.013251131 0.48565942 -0.33618978 -0.80691475 0.0015503659
0.060390487 0.028964905 -0.012202255 0.54758507 -0.3616899 -0.75454026 0.0016741946
-0.057352703 0.032512091 -0.01225542 -0.51971543 -0.41249985 -0.7481575 0.002578591
-0.055432562 0.03157562 -0.012931403 -0.45855913 -0.39288759 -0.79709655 0.0026162362
-0.052736517 0.031279806 -0.014185085 -0.39381731 -0.3234657 -0.860394 0.001399707
-0.050651524 0.03034986 -0.014750003 -0.33893979 -0.29903719 -0.89201826 0.0032442559
-0.028430318 0.032295473 -0.014611687 0.16286463 0.38325584 -0.90917003 0.00043349928
0.022581391 0.030110493 -0.012371087 -0.20076394 0.65617532 -0.72741169 0.00060423271
0.025246294 0.030708795 -0.012613359 -0.20974122 0.65130275 -0.72925532 0.0010066398
0.028346643 0.031175962 -0.0131411 -0.21892981 0.65962595 -0.71900159 0.0016085955
0.031444881 0.031436868 -0.01386993 -0.23381042 0.62156934 -0.74765259 0.0014897967
0.034193169 0.032021258 -0.014250822 -0.2477871 0.58438939 -0.7727164 0.0031903747
0.036479928 0.032547306 -0.01457642 -0.22869125 0.59898567 -0.76740903 0.0015409061
0.056465097 0.030655257 -0.014961791 0.39080435 -0.18561262 -0.90156525 0.0026172292
0.058332365 0.030937668 -0.014124464 0.44714823 -0.23993056 -0.86167961 0.0018403432
0.06094902 0.031080458 -0.012680547 0.55113822 -0.28648657 -0.78369135 0.0013354216
-0.05814879 0.03462771 -0.01265382 -0.47848013 -0.29702708 -0.82633632 0.0032914253
-0.055574059 0.03441662 -0.013912479 -0.39211607 -0.22222215 -0.89267141 0.0017529795
-0.0533535 0.033820719 -0.014721945 -0.34528643 -0.18562485 -0.91995686 0.0032606402
-0.033902094 0.034736056 -0.014664399 0.15941735 0.33129561 -0.92996198 0.0012597785
0.032741077 0.033652678 -0.01229764 -0.26650506 0.6837998 -0.67925906 0.00065107259
0.034629922 0.033882204 -0.012792076 -0.26798129 0.67619574 -0.68625462 0.00083215366
0.037628312 0.034254514 -0.013618027 -0.28154871 0.60561216 -0.74428779 0.0015573195
0.040491864 0.034789599 -0.014228389 -0.25338167 0.56299734 -0.78665859 0.0022304207
0.043246333 0.035286792 -0.014794992 -0.22252864 0.48436719 -0.84609073 0.0016415727
0.058231987 0.034688789 -0.014694106 0.30402508 0.021969171 -0.9524107 0.0029277408
0.061143693 0.034439046 -0.013373931 0.50121421 -0.17532711 -0.84737515 0.001885901
0.063115224 0.034642778 -0.012239623 0.59843409 -0.24290867 -0.76346058 0.0025576819
-0.060512736 0.037883483 -0.012306318 -0.50664759 -0.24132267 -0.82769054 0.0024319764
-0.058606032 0.037364855 -0.013180062 -0.4247036 -0.18301982 -0.88664007 0.0028409215
-0.055595864 0.03739934 -0.01442432 -0.34283659 -0.10686205 -0.9332971 0.0027455483
-0.05373241 0.037799437 -0.014928506 -0.24072886 -0.0051597878 -0.97057873 0.0041284142
-0.043604072 0.038332313 -0.014958623 0.076900356 0.31267568 -0.94674194 0.0015550847
-0.040558942 0.037628423 -0.014691433 0.12440004 0.36248997 -0.92364806 0.0004602331
0.040899288 0.036515038 -0.01307508 -0.29020941 0.60725898 -0.73960465 0.0024982546
0.043300681 0.037473239 -0.013268105 -0.31151372 0.57925534 -0.7532745 0.001892243
0.046150878 0.037510257 -0.014197701 -0.2245823 0.50934619 -0.83074021 0.0013333118
0.049555689 0.03810906 -0.014637798 -0.15480068 0.44721112 -0.88093072 0.0023301258
0.052812088 0.038546309 -0.014805183 -0.056771971 0.37373841 -0.92579508 0.0032675504
0.056282789 0.038030569 -0.014838697 0.13405801 0.17361493 -0.97564662 0.0032392431
0.058458891 0.037590958 -0.014502088 0.272863 0.13782494 -0.95212924 0.0057594515
0.061476968 0.037442237 -0.013440254 0.40514222 0.0065053515 -0.91423053 0.0029128406
-0.060939446 0.040475726 -0.012524149 -0.44375458 -0.10605025 -0.88985121 0.0026942829
-0.058696941 0.040197577 -0.013466899 -0.39180529 -0.081858203 -0.91639942 0.0024500838
-0.056214079 0.039868187 -0.014239825 -0.33843148 -0.057702143 -0.93922013 0.0027063673
-0.052609798 0.040444613 -0.014700497 -0.10507219 0.27346063 -0.95612717 0.0095410729
-0.049722597 0.040783256 -0.01461008 0.032076571 0.34015194 -0.93982327 0.0044594412
-0.046541966 0.039649017 -0.014763644 0.062109999 0.3816323 -0.92222512 0.0011425291
0.044298664 0.039428506 -0.012116732 -0.34081739 0.63689739 -0.69152391 0.0020343326
0.046766888 0.039967593 -0.012699121 -0.28058708 0.61553693 -0.73646808 0.002595254
0.049332801 0.040432822 -0.013207289 -0.21899989 0.53915173 -0.81323707 0.0023311409
0.052362416 0.040601272 -0.013765062 -0.14345472 0.47897577 -0.86602712 0.0015212944
0.055508364 0.040487751 -0.014089129 -0.0067262482 0.36225495 -0.93205476 0.0046775555
0.058623657 0.040324703 -0.01393309 0.15534842 0.2644825 -0.95179617 0.0053651072
0.061481461 0.040368989 -0.013218302 0.33994988 0.14397173 -0.92935801 0.0076969131
0.063295767 0.040635496 -0.012505429 0.39088359 0.09495458 -0.91552919 0.0032660041
-0.061280165 0.042941988 -0.012441698 -0.44623771 -0.042782269 -0.89389127 0.0022586796
-0.058466855 0.043463621 -0.013173407 -0.21068449 0.18520904 -0.95984882 0.0055484804
-0.055605017 0.043485019 -0.013577743 -0.050985701 0.33503598 -0.94082481 0.0083508892
-0.052993923 0.043012653 -0.013801361 0.011394934 0.39169729 -0.92002362 0.0027792952
-0.04992919 0.043532848 -0.013202841 0.058030967 0.42421708 -0.90369922 0.00080742047
-0.047594815 0.042475902 -0.013422985 0.066181011 0.40921453 -0.91003495 0.0008475628
0.050337959 0.042392675 -0.012131808 -0.27803364 0.56876564 -0.77408201 0.0018065736
0.052440245 0.04292034 -0.012393801 -0.19385684 0.54192734 -0.81776172 0.0031528277
0.05563486 0.043238126 -0.012821728 -0.098242387 0.46766022 -0.87843174 0.0044223564
0.058375437 0.04344159 -0.012884318 0.032237295 0.36454177 -0.9306289 0.0054690782
0.06132466 0.043283138 -0.012625671 0.18942314 0.2709842 -0.94376189 0.0030296198
-0.060689013 0.045608781 -0.012190958 -0.2248233 0.29643425 -0.92821401 0.0048705037
-0.058639426 0.045979384 -0.01240086 -0.12570564 0.34268314 -0.93100291 0.0036074207
-0.055879701 0.045885962 -0.012553897 0.01129414 0.41922519 -0.90781206 0.0018868933
-0.051938597 0.045565873 -0.012322824 0.067896612 0.43698618 -0.89690202 0.00052933407
0.058513179 0.045144726 -0.012128628 -0.062343482 0.48373184 -0.87299305 0.0040990091
0.060977478 0.045099113 -0.012085183 0.1214304 0.37922505 -0.91730201 0.0046013524
-0.015838819 0.0057286979 -0.0092835985 -0.21675439 -0.76718265 -0.60369557 0.0011198245
-0.01333911 0.0054185833 -0.009645707 -0.17470734 -0.76256734 -0.62287116 0.0012529687
-0.010399712 0.005125571 -0.0099967048 -0.14151791 -0.76063401 -0.63356817 0.0014215037
-0.0074675437 0.0048661572 -0.010235473 -0.10981765 -0.75667757 -0.64449918 0.0015959158
-0.0044937595 0.0046933214 -0.010446823 -0.077132709 -0.74663246 -0.66074991 0.00107111
-0.0015042509 0.0045013302 -0.01052168 -0.056591872 -0.7561745 -0.65191823 0.0019010346
0.0015131269 0.0043219477 -0.010505833 -0.02502331 -0.77386391 -0.63285732 0.0011286683
0.0044903611 0.0042694327 -0.010531023 -0.0058734375 -0.7773183 -0.62908 0.0011712519
0.0075053885 0.004341817 -0.010584866 0.022123767 -0.77366 -0.63321453 0.0015304611
0.010506264 0.0044018854 -0.010511406 0.046218608 -0.77050942 -0.63575083 0.0017043664
0.013408708 0.0046206512 -0.010514081 0.070268549 -0.78883141 -0.61057949 0.0015580017
0.016434038 0.0048621446 -0.010419245 0.096017264 -0.78473955 -0.61234355 0.0012977314
0.019410806 0.0051293848 -0.010207877 0.13697696 -0.79831219 -0.58645976 0.001224414
0.022357205 0.005390422 -0.0098140202 0.16628952 -0.80498296 -0.56951761 0.0011186636
0.025114441 0.0057141692 -0.0094198547 0.19920312 -0.81046671 -0.5508737 0.00076082163
-0.024599299 0.0087658688 -0.0094013577 -0.28472367 -0.7520287 -0.59446222 0.0012517098
-0.022294166 0.0082742237 -0.0098637668 -0.27608499 -0.74056011 -0.61265624 0.001285281
-0.019410379 0.0077383048 -0.010378745 -0.22921619 -0.73629081 -0.6366598 0.0016463908
-0.016597984 0.0071323644 -0.010652303 -0.2067776 -0.73297322 -0.64806896 0.0013316376
-0.013619159 0.0068305074 -0.011156227 -0.16023251 -0.71965104 -0.67559457 0.0012437989
-0.010662547 0.00653105 -0.01149404 -0.12797685 -0.69083709 -0.7115941 0.001161039
-0.0077045164 0.0062844655 -0.01174628 -0.096071057 -0.70833707 -0.69930601 0.0016408311
-0.0054128477 0.006081718 -0.011867674 -0.075840846 -0.69825864 -0.71181667 0.002246859
0.01479321 0.0060389331 -0.011968978 0.049289707 -0.7138468 -0.69856524 0.002567109
0.016893178 0.0061547197 -0.011936055 0.088227756 -0.69854587 -0.7101053 0.0014091432
0.019638395 0.0062704124 -0.011639028 0.11748865 -0.71890634 -0.68510586 0.0013029835
0.022543408 0.0065473015 -0.011332574 0.15274587 -0.73300517 -0.66285157 0.0011436625
0.025582956 0.0068556867 -0.010831181 0.18797238 -0.78787988 -0.58643991 0.00097963156
0.02850992 0.0073840246 -0.010505426 0.22182281 -0.7919299 -0.56889516 0.0011175596
0.031323101 0.0080635799 -0.010315279 0.2508246 -0.78442097 -0.56724834 0.0014928943
0.034008335 0.0085895546 -0.0097817658 0.29390857 -0.7862469 -0.54353803 0.0012500623
0.036096785 0.0089104138 -0.0092298361 0.32213014 -0.79153484 -0.51933104 0.0012934046
-0.031174973 0.011542025 -0.0096620088 -0.31851625 -0.74590856 -0.58495116 0.00092148344
-0.028375486 0.010918538 -0.010256165 -0.28967717 -0.7385363 -0.60881132 0.0016660453
-0.025588261 0.010215913 -0.010681587 -0.27152973 -0.73494995 -0.62138569 0.0012322917
-0.022711292 0.0096757254 -0.011266154 -0.24501653 -0.69590801 -0.67503989 0.0010769365
-0.020223452 0.0092509026 -0.011727079 -0.22015522 -0.68565607 -0.69383526 0.00091846363
0.032176573 0.0093444725 -0.011625328 0.23222236 -0.72333002 -0.65028179 0.0011633568
0.034735668 0.0098299719 -0.011099185 0.2738511 -0.75878608 -0.59097314 0.0020233423
0.037461322 0.010395565 -0.010430858 0.30956784 -0.76671147 -0.56242442 0.0012243494
0.040254381 0.011181711 -0.0098441141 0.35323447 -0.76430565 -0.53950191 0.0012746843
0.04238686 0.011763871 -0.0093143415 0.39313069 -0.76109797 -0.51592451 0.0010782208
-0.039273683 0.014948661 -0.009173709 -0.411746 -0.71921217 -0.55964184 0.0014123811
-0.037165221 0.014352246 -0.0098170592 -0.37479812 -0.71610796 -0.5888257 0.001218365
-0.034443181 0.013588204 -0.010410916 -0.32255641 -0.717511 -0.61736161 0.0011965152
-0.031682432 0.012864277 -0.010960306 -0.29824877 -0.72816223 -0.61711222 0.0013269974
-0.028968358 0.012347604 -0.011601723 -0.26409516 -0.68919593 -0.67473161 0.0013173278
0.040659789 0.012418923 -0.011248571 0.33637363 -0.71485132 -0.61305821 0.001410589
0.04346979 0.013241901 -0.010504432 0.38603541 -0.73935461 -0.55166233 0.0010449693
0.046198804 0.014319722 -0.0099846506 0.41938752 -0.73394722 -0.5342617 0.0016738147
0.04845617 0.014993879 -0.0092038717 0.44750726 -0.7162112 -0.53551733 0.00092623808
-0.042830497 0.017446591 -0.0096021025 -0.46143374 -0.6777373 -0.57249558 0.0012964135
-0.040400103 0.016643176 -0.010395938 -0.39339742 -0.6906876 -0.60678577 0.0014169142
-0.037788227 0.015864002 -0.011132605 -0.34308681 -0.68246454 -0.64539409 0.0013367053
-0.035585646 0.015281348 -0.011689462 -0.31778529 -0.67512405 -0.66574776 0.0020335168
0.044726115 0.015033001 -0.01188311 0.3612856 -0.65131575 -0.66727847 0.00095279427
0.046948988 0.015791571 -0.011253339 0.40730983 -0.70461702 -0.58104521 0.0014832393
0.049549617 0.016713627 -0.010470407 0.45122743 -0.67889339 -0.57922161 0.0018176241
0.051628787 0.017344365 -0.0094507607 0.49354652 -0.71096796 -0.50093544 0.0014648695
-0.048239607 0.020898452 -0.0091836946 -0.49570534 -0.67871296 -0.54187173 0.00070925138
-0.046185169 0.020102927 -0.0099523375 -0.48974881 -0.66221273 -0.56711578 0.0012002185
-0.043707747 0.019163443 -0.010808936 -0.42577592 -0.63691276 -0.64269513 0.00056057837
-0.041373264 0.018436078 -0.011634438 -0.4000724 -0.62155068 -0.67351073 0.0013928125
0.050493479 0.018415503 -0.011650821 0.44351327 -0.6491679 -0.61796194 0.001229476
0.052636072 0.019226018 -0.010836754 0.47624218 -0.63440913 -0.60886651 0.0013228656
0.055003464 0.020215355 -0.0099114534 0.51957071 -0.63741511 -0.56898874 0.0012226226
-0.051498141 0.023593046 -0.0094050812 -0.51553875 -0.64328623 -0.56604117 0.0013565426
-0.049293954 0.022738209 -0.010271616 -0.47636136 -0.63734663 -0.60569727 0.0017553903
-0.046905916 0.021862954 -0.011206016 -0.44532546 -0.59381366 -0.67012727 0.0012620183
-0.04487735 0.021075858 -0.011886004 -0.43844739 -0.59606093 -0.67266273 0.0021371061
0.053864654 0.021018151 -0.011634102 0.50400925 -0.60240251 -0.61893934 0.001770511
0.055829264 0.022079298 -0.011040463 0.50510782 -0.54164016 -0.67193151 0.0010828413
0.057934523 0.022793699 -0.0098794792 0.56640792 -0.56845838 -0.59668851 0.0017188505
-0.054736476 0.026344866 -0.0096083544 -0.52846104 -0.63702589 -0.56118357 0.0013474961
-0.052505862 0.02544306 -0.010505453 -0.4794687 -0.60687971 -0.63388228 0.0019675975
-0.050208103 0.024593191 -0.011421704 -0.46951741 -0.61182457 -0.63657212 0.00098233274
0.056920111 0.02413932 -0.01191742 0.49989489 -0.473371 -0.72527587 0.001166552
0.058710758 0.024941087 -0.011032016 0.54409927 -0.48774958 -0.68268317 0.0013787569
0.060868762 0.025799407 -0.0097492989 0.60952646 -0.51938546 -0.59892923 0.00097748311
-0.057761788 0.029203096 -0.009618666 -0.57508731 -0.57218981 -0.58469945 0.0012581506
-0.055623394 0.028344998 -0.010679436 -0.51536506 -0.5257808 -0.67672265 0.0012222097
-0.053544607 0.027466619 -0.011589435 -0.50361872 -0.56531852 -0.65328652 0.00088881486
0.0086915977 0.027970763 -0.011696837 -0.064149953 0.61307442 -0.78741646 0.00058992108
0.0098159788 0.0278189 -0.011949731 -0.083525106 0.61671388 -0.78274357 0.0003372347
0.01484701 0.028605338 -0.011863368 -0.11880345 0.61314458 -0.78098625 0.00076213613
0.017091636 0.029174808 -0.011772699 -0.15275182 0.64331388 -0.75020945 0.00047926264
0.059706941 0.027182732 -0.011778753 0.54530805 -0.40338725 -0.73479104 0.0014653853
0.061576705 0.028331859 -0.010886894 0.59139335 -0.4013339 -0.69941771 0.0010954525
0.063354909 0.028900072 -0.0096098781 0.62913358 -0.43888462 -0.6415382 0.0014432548
-0.060556814 0.032201305 -0.0094950693 -0.6195547 -0.50318342 -0.60246038 0.0013922299
-0.058551308 0.031376582 -0.010623182 -0.54825807 -0.45590729 -0.70111454 0.0011739808
-0.056549545 0.03053941 -0.011656632 -0.52994126 -0.47378922 -0.70333922 0.00095365633
0.020540731 0.030541258 -0.01127266 -0.18374433 0.6589846 -0.72936785 0.00049279188
0.023446888 0.031375017 -0.011288566 -0.21520102 0.67746472 -0.70337051 0.00025073168
0.025578551 0.032255366 -0.011035124 -0.20717579 0.68458045 -0.69887608 0.00039739514
0.028447047 0.032859936 -0.011456908 -0.23454028 0.68233335 -0.69239587 0.00064574223
0.062556744 0.031347409 -0.011616416 0.5967477 -0.29323211 -0.74693185 0.0018759487
0.064118147 0.031351894 -0.010266662 0.64216858 -0.35820821 -0.6777215 0.0012854128
-0.063285567 0.035613012 -0.009268716 -0.63313532 -0.42659488 -0.64587653 0.0024048949
-0.06139363 0.034560163 -0.010293415 -0.58677524 -0.39320061 -0.70787573 0.0023165217
-0.059379455 0.033834983 -0.011509515 -0.556023 -0.35430798 -0.75186718 0.0018274635
0.029163867 0.034144916 -0.010186982 -0.25204483 0.69875473 -0.66948885 0.00035980073
0.031356953 0.034109198 -0.011220912 -0.2538816 0.69179511 -0.67599088 0.00046546664
0.034667481 0.035285201 -0.011320222 -0.27207702 0.67221695 -0.68854815 0.00085784792
0.036567111 0.03584525 -0.011667601 -0.31050795 0.66485667 -0.67937505 0.0011458447
0.064798318 0.033975143 -0.010751885 0.62187099 -0.24023482 -0.74536145 0.0039336416
0.066563658 0.034136228 -0.0091422563 0.71260285 -0.2981714 -0.63505203 0.0074647698
-0.063993394 0.037745733 -0.0097686909 -0.62320298 -0.34070247 -0.70394593 0.00259903
-0.061892133 0.037296612 -0.011216446 -0.53940773 -0.27914879 -0.79442763 0.0011568299
0.035056621 0.036525741 -0.010020597 -0.29073018 0.66419196 -0.68871266 0.0011363828
0.037768729 0.037279524 -0.010669871 -0.31825534 0.65730345 -0.68312937 0.00081818399
0.040280372 0.038061429 -0.011295572 -0.35382465 0.67245108 -0.65009052 0.0023415666
0.064758241 0.037227713 -0.011559707 0.57817876 -0.15926424 -0.80021513 0.0023208032
0.066411652 0.037485983 -0.010317374 0.52517051 -0.055289131 -0.84919906 0.0020218906
-0.066237934 0.041197591 -0.0092433728 -0.63948029 -0.26980832 -0.71990865 0.0027563137
-0.064567633 0.040441312 -0.010302329 -0.58073932 -0.22495237 -0.78239262 0.0038909174
-0.062466834 0.040302083 -0.011684687 -0.50172997 -0.15366836 -0.85126549 0.0022499212
0.041093349 0.039251879 -0.010529575 -0.37637517 0.678339 -0.63102937 0.0016890734
0.043448269 0.04085033 -0.010186181 -0.38535637 0.68113607 -0.62253845 0.0017722553
0.04623422 0.041444447 -0.011224614 -0.34671369 0.64044529 -0.68528789 0.001539313
0.065273948 0.039564848 -0.011439176 0.46231261 0.047235064 -0.88545805 0.0045136493
0.066239282 0.041287303 -0.010769269 0.45111918 0.060887836 -0.89038426 0.0053271726
-0.066666834 0.04344305 -0.0094321622 -0.6048435 -0.13493513 -0.7848292 0.0033849422
-0.064623304 0.043386262 -0.010774526 -0.51592624 -0.068440206 -0.85389465 0.0019862
-0.062532477 0.043467373 -0.011890871 -0.47774813 -0.054394875 -0.87681121 0.0019544745
0.044670697 0.042114235 -0.0095716035 -0.39626011 0.69135922 -0.60415262 0.00218749
0.046257664 0.042726647 -0.009919636 -0.38212898 0.69437385 -0.60977244 0.0020531188
0.049274862 0.043496225 -0.010743587 -0.33547419 0.65129405 -0.68064177 0.0017087576
0.052553553 0.044436131 -0.01126418 -0.26532373 0.60150194 -0.75352424 0.0032459495
0.054928225 0.044837799 -0.01175273 -0.17574945 0.553958 -0.81378293 0.0020446859
0.062911972 0.044904262 -0.011804148 0.19895054 0.26862755 -0.94247442 0.002988979
0.064198323 0.043232545 -0.01172815 0.39866868 0.17076433 -0.90105653 0.0033328137
0.067183837 0.042693548 -0.010091213 0.49127567 0.08737044 -0.866611 0.0038865309
-0.066865101 0.046342608 -0.0095129879 -0.57367718 -0.028664775 -0.81857967 0.0028082114
-0.064723991 0.04617257 -0.0106845 -0.48583373 0.013835931 -0.87394172 0.0028738882
-0.061850641 0.046635538 -0.011590933 -0.20978408 0.28480497 -0.93534851 0.004615536
-0.059047792 0.047512904 -0.011731269 -0.11493369 0.33366027 -0.93566078 0.0035415215
-0.056584891 0.047604747 -0.011643888 -0.00034692351 0.40002581 -0.91650385 0.0023457273
-0.052789286 0.046524826 -0.011856458 0.020114046 0.40989536 -0.91191077 0.0017479497
0.052843165 0.046288874 -0.0098136384 -0.3511869 0.62768924 -0.69474751 0.00059958041
0.055122133 0.046650201 -0.01041905 -0.24755478 0.60893601 -0.75360042 0.0030621313
0.058254495 0.046480905 -0.011308274 -0.10715352 0.53575468 -0.83754706 0.0019707486
0.061442357 0.046556287 -0.01139341 0.084865019 0.42120066 -0.90298837 0.0084469803
0.064153306 0.046591122 -0.010889944 0.31244773 0.29469192 -0.90306872 0.010026214
0.066117883 0.04734325 -0.0099841943 0.31809971 0.31542104 -0.89404821 0.0084276032
-0.066818252 0.048857182 -0.0092653111 -0.49923536 0.097028919 -0.86101645 0.0043183621
-0.065269306 0.049072683 -0.0098494375 -0.44041815 0.14779028 -0.88554502 0.002599068
-0.061631873 0.0492795 -0.010628738 -0.18336117 0.35689858 -0.91597062 0.002130924
-0.058758795 0.049162507 -0.010818421 -0.10095221 0.41274089 -0.90523678 0.00090522494
0.056259505 0.048685662 -0.0091613857 -0.30334777 0.66239947 -0.68498695 0.0039372365
0.058355041 0.048773598 -0.0097840615 -0.17242073 0.58542717 -0.79217815 0.0027980257
0.061436296 0.049428888 -0.0098651778 -0.049559273 0.50167882 -0.86363316 0.0035438582
0.064195491 0.049544662 -0.009706283 0.033194195 0.46278834 -0.88584715 0.0048522339
-0.064894028 0.051257696 -0.0091471663 -0.25037241 0.33599275 -0.90797716 0.0025524606
-0.062878624 0.051428411 -0.0093130367 -0.16999036 0.38930953 -0.9052853 0.0015368618
-0.012347927 0.0029041935 -0.0061334204 -0.21631621 -0.86884344 -0.44532958 0.0015413163
-0.01017668 0.0027641493 -0.0064836107 -0.1609071 -0.87862468 -0.44958612 0.0011985166
-0.00747057 0.0025763877 -0.0069366433 -0.11701608 -0.8736729 -0.47223192 0.0018243395
-0.004456663 0.0023646827 -0.0071508815 -0.080940984 -0.8753379 -0.47668874 0.0018493434
-0.0014540817 0.0022225475 -0.0072940686 -0.046818297 -0.87535155 -0.48121479 0.0018096454
0.0015071868 0.0021366721 -0.0073798597 -0.024377566 -0.87600762 -0.48168084 0.0016659229
0.0044628195 0.0021266525 -0.0074354014 0.0026663826 -0.87382907 -0.48622599 0.0020146025
0.0074521448 0.0021724282 -0.0074198754 0.029218351 -0.8811205 -0.47198823 0.0016908749
0.010464395 0.002285437 -0.0073275254 0.053702179 -0.88668609 -0.45924273 0.001708182
0.013456344 0.0024380118 -0.00711346 0.0886188 -0.89063072 -0.44600868 0.0017655211
0.016356299 0.0026185547 -0.0068085403 0.12122475 -0.89160132 -0.43629315 0.0018548303
0.018961791 0.0028268143 -0.0064373114 0.16519268 -0.89279211 -0.41908675 0.001618628
-0.021582009 0.0058052293 -0.0064475723 -0.32128894 -0.83953595 -0.43812421 0.0015180685
-0.019348525 0.005372386 -0.0070745926 -0.27195403 -0.8414979 -0.46682146 0.0018424653
-0.01651386 0.0047658808 -0.0075014592 -0.23269185 -0.83680499 -0.49559245 0.0016205949
-0.013532051 0.0040290407 -0.0075161681 -0.19108732 -0.85278428 -0.48605007 0.0013222984
-0.010631311 0.0036620672 -0.0079018287 -0.1548464 -0.84503561 -0.51179826 0.0014589586
-0.007602274 0.0034419559 -0.0083333543 -0.11286715 -0.84335816 -0.52536464 0.0017658401
-0.0046309675 0.0032735032 -0.008608249 -0.082388632 -0.81585675 -0.57235467 0.0010921381
-0.0015595019 0.0031485381 -0.0087985611 -0.05325396 -0.7973308 -0.60118854 0.00079331425
0.0015575401 0.0030965074 -0.0088785356 -0.029124696 -0.80072945 -0.59831774 0.00082376064
0.0047372188 0.0030398979 -0.0088767409 -0.0035745949 -0.80361003 -0.59514552 0.00086230173
0.0075529944 0.0030946056 -0.0088934582 0.024459939 -0.80679727 -0.59032184 0.00095299166
0.010728112 0.0031741187 -0.0088577941 0.053306755 -0.82828069 -0.55777186 0.0012687527
0.013806358 0.0032180429 -0.0085416017 0.081855103 -0.84966189 -0.52093601 0.0016243804
0.016711636 0.0034070278 -0.0082627917 0.11232524 -0.86516118 -0.48875269 0.0018328545
0.019635497 0.0036037667 -0.0077677928 0.15494481 -0.86919439 -0.46956715 0.0015000602
