# .PCD v0.7 - Point Cloud Data file format
VERSION 0.7
FIELDS x y z normal_x normal_y normal_z curvature
SIZE 4 4 4 4 4 4 4
TYPE F F F F F F F
COUNT 1 1 1 1 1 1 1
WIDTH 570
HEIGHT 1
VIEWPOINT 0 0 0 1 0 0 0
POINTS 570
DATA ascii
-0.015693048 0.035776641 -0.0017253606 0.30439439 0.94830078 -0.089832202 0.0017237398
-0.013446012 0.035151098 -0.0014815483 0.26965833 0.95786721 -0.098867916 0.0017981734
-0.010489161 0.034397256 -0.0014924536 0.21133044 0.96684396 -0.14335985 0.003398062
-0.0075533059 0.033828959 -0.0014802237 0.1626064 0.9788239 -0.12435031 0.0024329647
-0.004539602 0.033379212 -0.0015083668 0.12593354 0.98516494 -0.11657926 0.0019014949
-0.0017826906 0.033134758 -0.00091741281 0.084125593 0.99361825 -0.07513772 0.0038662043
0.00060849974 0.033042308 -0.00045373812 0.054526135 0.99664491 -0.061039273 0.00399211
0.0087538753 0.033044722 -0.00039423219 -0.061277997 0.99445683 -0.085443951 0.0039387601
0.010887861 0.033096254 -0.00065699778 -0.080974936 0.99642283 -0.024178617 0.0023546955
0.013587843 0.033343706 -0.0014292175 -0.1419981 0.98331195 -0.11372831 0.0022667532
0.016491635 0.03384931 -0.0014692029 -0.19865349 0.97310734 -0.11661453 0.0029750634
0.01950202 0.034582406 -0.0014562057 -0.26226401 0.96072775 -0.090662882 0.0013351347
0.022489766 0.035399929 -0.0015320753 -0.27276143 0.95790493 -0.089551009 0.0018484864
0.024401709 0.035899423 -0.0019643465 -0.30851766 0.94683415 -0.091224544 0.0020401531
-0.024434628 0.038803101 -0.0017762497 0.40335035 0.91087067 -0.087311178 0.0017497492
-0.022508487 0.038046736 -0.0014719911 0.36501062 0.92659414 -0.09050151 0.0018299059
-0.019508224 0.036926087 -0.001489933 0.30746102 0.94358999 -0.1229049 0.0032573398
-0.017156331 0.036259849 -0.001311815 0.26983243 0.95936966 -0.08246395 0.0017547129
0.023820149 0.036003441 -0.00035404231 -0.25513208 0.96660125 -0.024284257 0.0036203791
0.02575431 0.036369689 -0.0013811765 -0.28523403 0.95485437 -0.083033793 0.0025033175
0.028532391 0.037273657 -0.0014926968 -0.30635458 0.94820946 -0.083938263 0.0013189017
0.03145631 0.038324013 -0.0015251039 -0.37459499 0.92142469 -0.10322382 0.0025709311
0.033078607 0.038822208 -0.002368534 -0.40353176 0.91151571 -0.07938011 0.0028589447
-0.030737123 0.041585311 -0.0015843278 0.46121448 0.88306391 -0.086482644 0.0016368745
-0.028491093 0.040531769 -0.0014735333 0.40174839 0.91146362 -0.088499792 0.0017429224
-0.025894001 0.039459262 -0.0013892072 0.37166223 0.92432493 -0.086547799 0.0019072645
0.032902975 0.039050642 -0.00077664922 -0.39311624 0.91471285 -0.09359581 0.003082202
0.034561839 0.039737128 -0.0014714912 -0.42863721 0.897066 -0.10743687 0.0025982065
0.037310794 0.041181017 -0.0015625494 -0.49602783 0.86126363 -0.11036982 0.0027094332
-0.036718696 0.044625472 -0.0016073752 0.48178783 0.87152177 -0.09127073 0.0019203142
-0.034492634 0.04351173 -0.0014817425 0.44157356 0.89278495 -0.089150153 0.0017240947
-0.032272253 0.042403985 -0.0013225038 0.4337275 0.89675808 -0.087780252 0.001897616
0.03878022 0.042136472 -0.0010947675 -0.51651353 0.85178441 -0.0876185 0.003633054
0.040516634 0.043163378 -0.0014647691 -0.5109328 0.8529461 -0.10691412 0.0026920233
0.042662188 0.04454549 -0.0015324081 -0.56251442 0.82228827 -0.086136885 0.0021699166
0.071935579 0.043479361 -0.0029581871 0.99228305 -0.09760236 0.076473288 0.0060287444
0.072293758 0.043799397 -0.0016297385 0.99228448 -0.097592898 0.076467037 0.0059839832
-0.042437959 0.047750801 -0.0018371121 0.50721473 0.85593331 -0.1005554 0.0022380508
-0.040536597 0.046732679 -0.0014591293 0.48369038 0.87062484 -0.089755878 0.0021494373
-0.038212378 0.045442671 -0.0013522963 0.46424407 0.87993199 -0.1009801 0.0024401925
0.044166666 0.04554813 -0.0014366055 -0.53671914 0.83774823 -0.10055059 0.0029392783
0.046425465 0.047049984 -0.0014987811 -0.5524103 0.82631707 -0.10974073 0.0036273503
0.048080415 0.047874562 -0.002544743 -0.53220612 0.83977371 -0.10740986 0.002903749
0.072595879 0.046742387 -0.00034967455 0.9976123 -0.058295984 0.037030596 0.0033219447
-0.048307806 0.050935965 -0.0025378128 0.48953003 0.86141098 -0.13539371 0.0043154811
-0.046463773 0.050061677 -0.0015001096 0.48469615 0.86908555 -0.098792881 0.0029809016
-0.043904677 0.048633177 -0.0014302857 0.47251841 0.87507176 -0.10476528 0.0025911552
0.0478172 0.048127502 -0.0010449716 -0.5412522 0.83218527 -0.120473 0.0043628775
0.049522702 0.04913938 -0.0014449991 -0.54247808 0.83328193 -0.10657661 0.0038620627
0.051707733 0.050562292 -0.0016716825 -0.56650466 0.81669325 -0.10992984 0.0033715479
0.072493814 0.048546419 -0.0015545414 0.99516058 -0.078482643 0.059126969 0.0022136141
-0.054257788 0.053883683 -0.0022774586 0.38160583 0.91108739 -0.15587388 0.005298249
-0.052445125 0.053279862 -0.0015003062 0.41335315 0.90089434 -0.13239488 0.0042190668
-0.049598366 0.051800266 -0.001396487 0.46397069 0.87950194 -0.10586563 0.0042439066
-0.047913697 0.051080365 -0.00085510052 0.48528305 0.87101513 -0.076374732 0.0042260285
0.053135235 0.051557705 -0.0013524935 -0.52597475 0.84047037 -0.13023075 0.0049383403
0.055389214 0.052987859 -0.0015345636 -0.5681268 0.81175637 -0.13521647 0.0052495035
0.057215735 0.053932987 -0.0024401797 -0.56760222 0.78753012 -0.24004991 0.0081722457
0.072818615 0.052081909 -0.00046612488 0.9723348 -0.052257728 0.22767125 0.0056064911
-0.07617791 0.056598756 -0.00087275857 -0.71399432 0.69854397 0.047417656 0.040204234
-0.060680825 0.056705326 -0.001726429 0.50559151 0.85164505 -0.13812265 0.0090718307
-0.058479469 0.055753682 -0.0014455267 0.39431328 0.90873194 -0.13683309 0.0079886196
-0.055570889 0.054587413 -0.0013861558 0.3609567 0.92580771 -0.11220636 0.007015835
-0.05381 0.054065838 -0.00045800247 0.38238674 0.91952646 -0.090837851 0.0068779727
0.056814913 0.054111421 -0.00068175554 -0.53358763 0.84128702 -0.086720653 0.010130669
0.058550153 0.055222988 -0.0014362428 -0.54809624 0.82246619 -0.15211798 0.0092144972
0.060481519 0.056547359 -0.0018861284 -0.62867242 0.75359476 -0.19200541 0.014437751
-0.075448759 0.057419661 -0.0012375917 -0.54204768 0.84019917 0.015802341 0.014311746
-0.073473535 0.058510948 -0.001428435 -0.47069106 0.87693375 -0.097144999 0.0044327057
-0.071214266 0.059618037 -0.0014899425 -0.36333895 0.92674947 -0.095500261 0.0042784964
-0.066448681 0.059661224 -0.002747129 0.27434611 0.88254374 -0.38190416 0.013620384
-0.064392366 0.059078038 -0.0014765881 0.510526 0.83831912 -0.19127052 0.0085904533
-0.06202504 0.057611164 -0.0012642496 0.46885592 0.86963034 -0.15465228 0.010934278
0.061787397 0.058131848 -0.0013019538 -0.79244095 0.57585114 -0.20107859 0.017025329
0.063439794 0.059534658 -0.0024866203 -0.77038842 0.59311837 -0.23390679 0.021919092
-0.069737606 0.060298745 -0.0015061783 -0.13680632 0.98339492 -0.11924148 0.016652361
-0.067612164 0.060615171 -0.0013241967 0.14609309 0.98219031 -0.11814832 0.014285711
-0.065795459 0.060172033 -0.00053084019 0.35002846 0.93544042 -0.049308669 0.018711975
0.062951729 0.060147081 -0.00051393418 -0.83014172 0.55731517 -0.016267098 0.023043577
0.063749462 0.061259042 -0.0011399504 -0.91465503 0.39927712 -0.063117914 0.020700706
0.064700164 0.064327843 -0.00082654326 -0.94894546 0.25136852 0.19056848 0.021724453
0.065440707 0.067497522 -0.00059549644 -0.91501373 0.23202318 0.33002281 0.0233889
0.06632071 0.06779021 -0.0022157903 -0.90308475 0.2627345 -0.33971834 0.068058975
0.065935105 0.07012222 -0.0003612366 -0.78881782 0.20240825 0.58034253 0.01981915
0.066415399 0.070579745 -0.0011896433 -0.94697219 0.24884325 0.20327483 0.020184208
0.06689015 0.073623911 -0.00096882257 -0.95763302 0.27728501 -0.07779476 0.03354463
0.076175831 0.074734837 -0.0011336309 0.32414863 0.9458164 0.01894892 0.0023610375
0.068074457 0.076825313 -0.0012850568 -0.43208152 0.90174985 -0.01236036 0.094359368
0.070565462 0.076531433 -0.0014624428 0.085329816 0.99509251 -0.050096683 0.043969646
0.073550336 0.075613901 -0.0015246203 0.30420125 0.95244682 -0.01751231 0.00035544264
0.075265862 0.075086512 -0.001502906 0.31607437 0.94848102 0.021926507 0.0023747457
-0.0030911912 0.032939773 0.002939506 0.08858227 0.98451936 0.15124434 0.0045981142
-0.0011186117 0.032897081 0.0024407366 0.10066479 0.97874331 0.17868462 0.0030036143
0.0016390999 0.032818388 0.0016084 0.092909597 0.98797852 0.12355647 0.0036328656
0.0044683041 0.032750674 0.0015418561 0.026360031 0.99139911 0.12819096 0.0037416157
0.0074634422 0.03278153 0.0015147155 -0.058637742 0.99092442 0.12095658 0.0038739869
0.010282456 0.032879796 0.002185249 -0.10162337 0.983702 0.14833447 0.00438429
0.012335416 0.032952111 0.0027297691 -0.13641176 0.97825372 0.15624201 0.0035412281
-0.015729992 0.035813008 0.0018107613 0.31327587 0.94413835 0.10227936 0.0031580573
-0.013508414 0.035199445 0.0015167826 0.27192557 0.95576984 0.1120735 0.003214445
-0.010447323 0.034433383 0.0015175474 0.21502951 0.9662196 0.14206317 0.004574955
-0.0075444826 0.033933576 0.0015609184 0.15875812 0.97899634 0.12791412 0.0047531179
-0.0045097042 0.03344889 0.0015330202 0.12261496 0.98689777 0.10487296 0.0043928949
-0.0015974259 0.033131797 0.0010944164 0.07853175 0.99350524 0.082341142 0.006278397
0.00045468952 0.033032574 0.00041807475 0.047170993 0.99734151 0.055540748 0.0041062632
0.0088267447 0.033032853 0.00044730157 -0.10858726 0.98993754 0.090732917 0.0047336165
0.010916803 0.033093158 0.00092409569 -0.085838161 0.993393 0.076171994 0.0061516301
0.013589427 0.033368442 0.0014562643 -0.13498282 0.98267651 0.12699005 0.0038612846
0.016501781 0.033871099 0.0015400178 -0.19428726 0.97187197 0.13310653 0.0043785539
0.019523175 0.034607094 0.0015053804 -0.25533363 0.95900637 0.12292919 0.0029520292
0.022539601 0.03543948 0.0015010117 -0.27201739 0.95754302 0.095487379 0.003433753
0.0243579 0.035903037 0.0021383383 -0.31912175 0.94144237 0.10884675 0.003725427
-0.024502933 0.038843896 0.0019361526 0.40972701 0.90673202 0.09980385 0.0030648604
-0.022501679 0.038071319 0.0015456009 0.36569032 0.92492294 0.1038665 0.0030760055
-0.01948656 0.036952853 0.0015195623 0.30246797 0.94360983 0.13458648 0.004903981
-0.017076774 0.03626471 0.001345187 0.26553386 0.95993024 0.089585923 0.0031630557
0.02569584 0.036374219 0.0014440403 -0.28119773 0.95453948 0.098905131 0.0040129903
0.028493563 0.037274808 0.0015462966 -0.30582011 0.94330043 0.12906748 0.0037863608
0.031442504 0.038334619 0.0015656877 -0.37446296 0.91913921 0.12231376 0.004113385
0.03316167 0.038920473 0.0024496359 -0.41300279 0.9029538 0.11875707 0.0040887385
-0.030763855 0.041620966 0.0017066543 0.46472475 0.88026249 0.095754273 0.0026314713
-0.028508179 0.040567234 0.0015489785 0.41151837 0.90615153 0.0976834 0.0030378622
-0.025837159 0.039472092 0.0013801177 0.36762699 0.92486256 0.097363114 0.0032565985
0.032767266 0.039071623 0.00086969225 -0.38940364 0.91364104 0.11672571 0.0038322178
0.034558162 0.039752398 0.0015007593 -0.42503712 0.89683837 0.12257413 0.0039320821
0.037346762 0.041195884 0.0015614531 -0.49008963 0.86178273 0.13093016 0.003587004
0.039170444 0.041893627 0.0029123642 -0.53791088 0.81285387 0.22342916 0.0029688999
-0.036737159 0.044645797 0.0017548645 0.48454416 0.86891103 0.1010483 0.0029049071
-0.034508191 0.043547485 0.0014979135 0.45234039 0.8880834 0.081828982 0.0024288495
-0.032175064 0.042379465 0.0013873858 0.42883015 0.89817905 0.096845597 0.0030023959
0.038729537 0.042103156 0.00083733024 -0.51771754 0.84763086 0.11614873 0.0037713877
0.040509608 0.043116104 0.0014992347 -0.51854998 0.84601831 0.12393132 0.0032164641
0.042739172 0.04454191 0.0016351012 -0.56215131 0.81910086 0.11427876 0.0023087615
0.071955949 0.042593546 0.0028280506 0.94787025 -0.12931074 0.29124016 0.010575949
0.072364315 0.044479884 0.0015806577 0.94350529 -0.069012508 0.32409117 0.0051967353
-0.042432114 0.047769353 0.0017716986 0.50936007 0.85316068 0.1125575 0.0033638347
-0.040468369 0.046707656 0.0015277631 0.48201522 0.87148058 0.090458907 0.0031686656
-0.038160458 0.045439254 0.0014018966 0.45169115 0.88582611 0.10624124 0.0032617403
0.044210359 0.045540716 0.0014080073 -0.54527861 0.82803601 0.13048968 0.0032166708
0.046434548 0.047007192 0.0015438885 -0.54608828 0.82449895 0.14828686 0.003714131
0.048124325 0.04789627 0.0025544018 -0.55186051 0.81574142 0.17325117 0.0029421351
0.072385445 0.046851523 0.0018994194 0.9762243 -0.018312216 0.21598808 0.0067958124
-0.048205573 0.050903291 0.0022719249 0.47621334 0.86784035 0.14168289 0.0042013288
-0.04653272 0.050100107 0.0015481502 0.47489831 0.8690123 0.13888556 0.0041765268
-0.043915141 0.048659828 0.0014040568 0.46896374 0.87537014 0.11747386 0.0038567439
0.047798105 0.048123762 0.00088992331 -0.52651 0.83867127 0.13934775 0.0035895752
0.049527217 0.049090907 0.0014681563 -0.52795732 0.83738238 0.14160489 0.0042611728
0.051716913 0.050510775 0.0016877204 -0.55513972 0.82073218 0.13497606 0.0034643281
0.072555006 0.049249012 0.0014431941 0.98293263 -0.033507735 0.18088858 0.0052692895
-0.05433324 0.053870928 0.0024398495 0.37885714 0.9067145 0.1852998 0.0064594499
-0.052426144 0.053245667 0.0015694866 0.41150841 0.89395159 0.17751455 0.0041886568
-0.049570542 0.051773708 0.0014763841 0.44892639 0.88246715 0.14041644 0.0049197669
-0.04788319 0.051038995 0.00096858561 0.43560967 0.89343745 0.10960723 0.0075673983
0.053214382 0.051559746 0.0013823272 -0.54487944 0.8214941 0.16808857 0.0057806815
0.055440281 0.052960247 0.0015666466 -0.56201231 0.81378365 0.14798076 0.0053601023
0.057243124 0.053840268 0.0025879813 -0.55889994 0.78352588 0.27151075 0.0051284195
0.072410256 0.052393809 0.0023434288 0.86815983 0.040701747 0.49461287 0.0050986931
-0.075779922 0.056422129 0.0021687832 -0.62661815 0.70692825 0.32802755 0.043432605
-0.074929893 0.056952391 0.0028368358 -0.58576393 0.77807766 0.2268829 0.02348201
-0.060711209 0.056636881 0.0017732169 0.49622703 0.84861296 0.18334359 0.0090154409
-0.058526833 0.055701334 0.0015427145 0.38788292 0.90459865 0.1767717 0.0080694826
-0.055667549 0.054579493 0.001478887 0.34380621 0.92275602 0.17412229 0.0048842872
-0.053860784 0.054067172 0.0004535467 0.33308882 0.93682563 0.10681526 0.0060209455
0.056801066 0.054149602 0.00083339668 -0.58163202 0.79899246 0.15269344 0.0077671772
0.058598388 0.055179466 0.0015113535 -0.53969258 0.81543642 0.20927328 0.008721455
0.06052712 0.056529701 0.0018011905 -0.65417933 0.730003 0.19785106 0.012684532
0.072537817 0.055718463 0.002015858 0.79850519 0.04668035 0.6001752 0.011851717
-0.075457148 0.057404056 0.0010823191 -0.63708234 0.74197489 0.20880428 0.032271821
-0.073469594 0.058497597 0.0015185466 -0.49996939 0.84560782 0.18702416 0.015976319
-0.071225829 0.059609842 0.0014943926 -0.39152819 0.90942049 0.14021429 0.0066365041
-0.066598915 0.059730634 0.0025677073 0.28093484 0.85857725 0.42885962 0.014703601
-0.064416625 0.058954403 0.0016202433 0.52352953 0.8237319 0.21767566 0.0070390012
-0.062078159 0.057552572 0.0013461182 0.46443972 0.86148518 0.2052777 0.010449615
0.061966974 0.058161233 0.0014695781 -0.76941109 0.57384849 0.28054312 0.019741362
0.063470058 0.059488207 0.0023210773 -0.71757782 0.58722335 0.37450072 0.017022623
0.072568044 0.058354978 0.002132626 0.66054213 0.022225859 0.75045985 0.0080961585
-0.069712318 0.060283821 0.0015744353 -0.18693207 0.96547484 0.18142395 0.020517515
-0.067576416 0.06054309 0.0013825024 0.19084929 0.94667745 0.25957349 0.019062124
-0.065756522 0.060120746 0.00052692473 0.2721968 0.96031582 0.060846247 0.018413836
0.062936507 0.06010773 0.00039055338 -0.8610996 0.49886912 0.098168664 0.031705052
0.064255036 0.061494675 0.0017474821 -0.76532829 0.41058743 0.49567202 0.028585469
0.071945608 0.062475096 0.0029554875 0.31842929 0.056982335 0.94623244 0.01695225
0.07279437 0.061572656 0.0020922655 0.44769534 0.043943495 0.89310575 0.012948706
0.065160386 0.064313687 0.0015317373 -0.81328589 0.27442405 0.51308638 0.019725427
0.066446178 0.065252215 0.002677246 -0.65598053 0.23519868 0.71719682 0.038911436
0.072426975 0.064061522 0.0027168959 0.18424688 0.088340417 0.97890192 0.015582859
0.065578401 0.06724491 0.00091798074 -0.81804341 0.20735411 0.53647864 0.023049032
0.06707678 0.067791231 0.0023982236 -0.52810484 0.2230548 0.81936067 0.031392671
0.069585279 0.068066634 0.0029266188 -0.24631637 0.10923525 0.96301401 0.0082914252
0.073606141 0.067463465 0.0022414702 0.19632576 -0.047733583 0.9793762 0.012975997
0.065807208 0.069351874 0.00056981453 -0.79041779 0.17816795 0.58608514 0.016873028
0.067319006 0.070373289 0.0019109476 -0.64427435 0.17381859 0.74478036 0.034882944
0.069470167 0.070663169 0.0028129113 -0.43240729 0.021467222 0.90142286 0.016444199
0.074294314 0.069565363 0.0022390073 0.10438995 -0.1549834 0.98238635 0.016537922
0.06741944 0.073373489 0.001541972 -0.83909196 0.24238499 0.48700529 0.038948074
0.069403313 0.073036529 0.0028186236 -0.50746924 0.12358607 0.85276115 0.022068447
0.076150753 0.074693143 0.0013013118 0.62628812 0.76511902 0.14951929 0.045496631
0.068085961 0.076597877 0.0013501691 -0.56051868 0.77977741 0.27886575 0.080888204
0.070420392 0.076536305 0.001509321 -0.19823015 0.9076342 0.37000671 0.094602369
0.073465727 0.075639747 0.0015506473 0.31866339 0.94115901 0.1125764 0.0082150688
0.075255513 0.075086862 0.0014443118 0.32829607 0.93961108 0.096709542 0.008887494
-0.0093803322 0.032931719 0.0057426565 0.19741988 0.90730488 0.37124559 0.0014122882
-0.0072646751 0.03267679 0.005376196 0.15974714 0.91671741 0.36621046 0.0015463382
-0.0043395776 0.032508161 0.00475707 0.13500553 0.92079103 0.36594725 0.0013942617
-0.0014182334 0.032254148 0.0045340299 0.11769616 0.93474996 0.33524653 0.002043613
0.0014891826 0.032041263 0.0045125014 0.048320636 0.94417465 0.32588226 0.0022810949
0.0044786688 0.031938672 0.0045644278 0.0085979411 0.93163753 0.36328727 0.0022209028
0.0075380211 0.031981114 0.0045350627 -0.041127291 0.9340955 0.35464656 0.0023681025
0.010542548 0.032200921 0.0045094714 -0.099869639 0.93516487 0.33984223 0.0030162495
0.013397505 0.032477353 0.0046698414 -0.15398173 0.92244399 0.35409975 0.0021172077
0.016211862 0.032700714 0.0053191893 -0.18880777 0.90939558 0.37060925 0.0024265212
0.018304929 0.032900125 0.0057895319 -0.23357031 0.87036043 0.43349469 0.0026505899
-0.018981503 0.035706073 0.0053576273 0.29662052 0.89139849 0.34267351 0.001923758
-0.016464032 0.035287578 0.0045689126 0.28322318 0.90232968 0.32493952 0.0018094705
-0.013486699 0.034411523 0.0045557632 0.2485294 0.90864742 0.33554882 0.0017409803
-0.010513011 0.033715073 0.0044356915 0.19783676 0.92363071 0.32827869 0.0017503882
-0.0076768217 0.033352986 0.0039685559 0.15386648 0.9325422 0.32663447 0.0018861654
-0.0051759151 0.033134576 0.0034719494 0.13403706 0.94163364 0.3088043 0.0015788422
0.014211365 0.033124659 0.0033806209 -0.14169429 0.95617503 0.25622624 0.00088039716
0.016584251 0.033352297 0.0039158021 -0.1899661 0.92557871 0.32743987 0.0026178353
0.019508518 0.033857644 0.0044636042 -0.23359428 0.91425616 0.33101246 0.0022100897
0.022522613 0.034675997 0.0045207008 -0.26434243 0.90473419 0.33403453 0.0019104943
0.025331475 0.035409655 0.0046899174 -0.29104403 0.89878052 0.32785189 0.0019077748
0.027644321 0.035775665 0.005598383 -0.30466884 0.88125622 0.36133704 0.0015075983
-0.027360713 0.038813874 0.0057043489 0.37342539 0.86131322 0.34451845 0.0018322039
-0.025254289 0.038356509 0.0047791544 0.37172532 0.87301892 0.31568685 0.0016960365
-0.022479251 0.037315246 0.0045184642 0.33444801 0.88704914 0.31825829 0.0017047278
-0.019716904 0.036447812 0.0041371207 0.2964201 0.90553063 0.30356121 0.001945735
-0.017798347 0.036128491 0.0033944193 0.28286624 0.92603976 0.24987406 0.0046045268
0.026389832 0.036192153 0.0035109026 -0.28240275 0.9130916 0.29412991 0.0014968208
0.02863723 0.036633838 0.004337471 -0.30921793 0.89502591 0.32142335 0.0021522501
0.03146911 0.037582662 0.0045016892 -0.36599877 0.87984192 0.30318829 0.0024860196
0.033919662 0.038526915 0.0048584663 -0.41049409 0.85530376 0.31614879 0.0027526896
0.069969222 0.038163085 0.0053378372 0.76781756 -0.14025417 0.62512803 0.0017093178
-0.033315357 0.041754056 0.0054899515 0.42844766 0.83596081 0.34293175 0.0023945374
-0.031362075 0.041147459 0.0045988322 0.43088132 0.85184669 0.29782283 0.0016950701
-0.028567912 0.039882887 0.0044489498 0.38318694 0.87357229 0.30006522 0.0019963458
-0.026312893 0.039237827 0.0036679991 0.36120608 0.88732064 0.28669199 0.0013681101
0.035120305 0.039407279 0.0040332335 -0.41564792 0.85799128 0.30180737 0.0020395408
0.037484366 0.040468466 0.0045212912 -0.45092711 0.82941657 0.32974678 0.0032560106
0.039625112 0.041582629 0.0049330797 -0.49927801 0.80542821 0.31938508 0.0027356211
0.070903353 0.04131541 0.0048615141 0.85737884 -0.10341446 0.50418943 0.0042135557
-0.070421807 0.043651052 0.0054527801 -0.68611151 -0.12384029 0.71687841 0.00070990651
-0.039436903 0.044789154 0.0056345575 0.42349675 0.8205952 0.38376278 0.0024118966
-0.037355013 0.0441432 0.0046501579 0.43774801 0.84304798 0.31248501 0.0018243636
-0.034592047 0.042862702 0.0043899328 0.42564237 0.85409015 0.29892895 0.0017984366
-0.032592908 0.042193014 0.0035163891 0.4265857 0.85678399 0.28973401 0.0015705987
0.038992606 0.042078905 0.0030039938 -0.51230425 0.83728307 0.19105381 0.0049435999
0.04096248 0.042652126 0.0043109651 -0.49572483 0.80864507 0.31678087 0.0025561221
0.043343339 0.044038117 0.004634208 -0.51487708 0.79568899 0.3190307 0.0022102299
0.045389518 0.044846285 0.0057343482 -0.48195234 0.76197797 0.43256381 0.0038366921
0.0712125 0.044160947 0.0047998866 0.86741567 -0.027428139 0.4968276 0.0038434081
-0.070989385 0.046703607 0.0054523833 -0.62519181 -0.065456942 0.77772141 0.0025400296
-0.045261472 0.047882348 0.0058235996 0.41832682 0.78526157 0.45647231 0.0024951051
-0.043243933 0.04726978 0.0047384198 0.45841616 0.82644725 0.32686332 0.0017436277
-0.040630579 0.045977879 0.004434681 0.45242232 0.8348285 0.31364855 0.0019365378
-0.038687386 0.045255397 0.0036398091 0.45027506 0.83484763 0.3166731 0.0019156329
0.044604819 0.045272171 0.0036106389 -0.51326174 0.7961812 0.32040271 0.0019749554
0.046591699 0.046195567 0.0044778646 -0.51056069 0.78680879 0.34678468 0.0033257811
0.048878726 0.047459871 0.0049026087 -0.51138246 0.78135121 0.35774052 0.0034322289
0.071242809 0.046455719 0.0047870153 0.86805427 -0.016617192 0.49619117 0.0039166166
0.072018161 0.046688206 0.0032310649 0.95981324 -0.026691362 0.27936742 0.0026687814
-0.072698727 0.049942102 0.004506249 -0.63769174 -0.093135372 0.76464051 0.001639539
-0.071493685 0.049471956 0.0055364016 -0.52262175 -0.029130446 0.85206687 0.0066327387
-0.051063329 0.050854344 0.0058422661 0.41292515 0.75435126 0.51034015 0.0046171253
-0.049162079 0.050415684 0.0048361742 0.43094513 0.82512009 0.36532614 0.0023538803
-0.04654707 0.049185872 0.0044709896 0.45182037 0.8211261 0.34872675 0.0023587523
-0.044370782 0.048333395 0.0037183857 0.44827715 0.83347744 0.32305267 0.0013430914
0.05002898 0.048584905 0.0041205049 -0.50473726 0.78325331 0.36298028 0.0030449182
0.052385315 0.049846068 0.0045983228 -0.47888345 0.7843715 0.39424869 0.0030270147
0.054485887 0.050625604 0.0054938644 -0.4844121 0.74397206 0.46027222 0.0048130732
0.071169242 0.049554341 0.0048485133 0.8243767 0.032632161 0.56510019 0.0044545308
0.072147086 0.049737889 0.0030397954 0.903961 0.00061611633 0.42761442 0.0032347883
-0.075009257 0.053248532 0.0031309584 -0.79536349 -0.018593969 0.6058476 0.021110708
-0.072875157 0.052667603 0.0048999367 -0.53470874 0.025219528 0.84466004 0.0048689432
-0.071557581 0.052452065 0.0058296015 -0.48124617 0.044895038 0.87543505 0.007546301
-0.057819843 0.053726453 0.0055006356 0.24862745 0.80649477 0.53642374 0.004266283
-0.055265393 0.053294674 0.0046950192 0.34548262 0.8510071 0.39551076 0.0018233187
-0.05247644 0.052257638 0.0044884034 0.37575299 0.82916623 0.41387579 0.0024685543
-0.050252963 0.051378995 0.0039425041 0.41200069 0.82669848 0.38317746 0.0022567622
0.053682845 0.051241491 0.0034775299 -0.48894879 0.78531301 0.37975338 0.002024079
0.055672865 0.05202825 0.0043173102 -0.45725846 0.78396225 0.41990229 0.0040267627
0.058179986 0.053186893 0.0048955972 -0.46372703 0.74539572 0.47889712 0.0055590882
0.060483806 0.053774383 0.0057824864 -0.34629127 0.63944846 0.68643129 0.0038893046
0.070990182 0.052703042 0.0049265111 0.77751881 0.065672226 0.62542129 0.0064343344
0.072076425 0.052846167 0.0032954141 0.89846307 0.022738364 0.43845999 0.012403776
-0.075123169 0.055412687 0.0035564685 -0.68697649 0.31937197 0.65273643 0.032408178
-0.073496349 0.055755623 0.0046032607 -0.55659461 0.22999553 0.79831356 0.019258361
-0.070575751 0.056337196 0.0058088154 -0.18711899 0.38862157 0.90219718 0.010278233
-0.067023568 0.056593698 0.0057846406 0.093559913 0.56363243 0.82071006 0.0055897986
-0.064269997 0.05623816 0.0052688401 0.2485915 0.66085929 0.70814353 0.0052338797
-0.061507557 0.055609565 0.0045982986 0.32392603 0.77568895 0.54164433 0.00769907
-0.058705691 0.054757636 0.0042236764 0.29963392 0.84486794 0.44319037 0.0038241204
-0.056426328 0.05425185 0.0035816634 0.33228806 0.86358559 0.37921563 0.0025839775
0.059172105 0.054556523 0.0038302848 -0.48005062 0.73820567 0.4739238 0.0049308068
0.061484706 0.055498619 0.0046007205 -0.41521335 0.68263072 0.60134286 0.0054374221
0.064126946 0.056398366 0.0054667704 -0.29032233 0.56532121 0.77209115 0.0083329743
0.067416951 0.056721218 0.0058445269 0.032324418 0.41799277 0.90787512 0.015333494
0.070224077 0.0557377 0.0051506688 0.41097444 0.28849563 0.86479503 0.01382037
0.072102189 0.054766692 0.003141691 0.79544383 0.045351136 0.6043281 0.0038873609
-0.073201381 0.058062136 0.0039541856 -0.44058254 0.69671661 0.56610328 0.018782379
-0.070483088 0.058697015 0.0045250659 -0.21829656 0.69229609 0.68780273 0.024876079
-0.067507148 0.058467105 0.0043918644 0.17669387 0.68264633 0.70906508 0.008565207
-0.064780153 0.057790905 0.0039156545 0.36267552 0.71734947 0.59487498 0.0070264167
-0.062715083 0.057158977 0.0032372966 0.43881118 0.75922632 0.48064548 0.015968852
0.062534779 0.057339836 0.0034751438 -0.52729911 0.60655499 0.59501827 0.0081362305
0.064568467 0.058393244 0.004307685 -0.48035604 0.4724623 0.73894346 0.016923798
0.067436986 0.058522809 0.0052416907 -0.012580161 0.35771567 0.93374586 0.017661581
0.070258446 0.058704495 0.0044685174 0.31047177 0.26091507 0.91407359 0.01418559
0.07205978 0.057218168 0.003163914 0.75732327 0.033717174 0.65216917 0.006697007
-0.06951084 0.060098458 0.003219984 -0.15263809 0.84614003 0.51063555 0.022689831
-0.068349071 0.060058426 0.0031292152 0.093413435 0.89330906 0.43962815 0.027784543
0.065397076 0.061050113 0.0034379261 -0.57435918 0.30926803 0.75793457 0.017595306
0.067392498 0.061444908 0.0041704411 -0.25317624 0.30834854 0.91696399 0.025076764
0.070080936 0.061574947 0.0039126514 0.23335207 0.16847169 0.9576869 0.016439978
0.072075456 0.061695702 0.003073222 0.4270483 0.0025222921 0.90422529 0.015975792
0.065941349 0.063183621 0.0030008319 -0.66458207 0.37219384 0.64792168 0.0146225
0.06774991 0.064266779 0.0034897991 -0.25189555 0.20619135 0.94553363 0.018283693
0.070236742 0.064479083 0.0034003805 0.12420437 0.093288682 0.98786157 0.014286955
0.0723892 0.06567204 0.0031370609 0.16211748 0.10524998 0.9811424 0.024546582
0.068361312 0.066801742 0.003138569 -0.31706962 0.20969945 0.92492867 0.025324173
0.070428915 0.066842042 0.0032348672 -0.061172847 0.038933393 0.99736762 0.020465456
0.072462894 0.067821652 0.003160889 0.13718046 -0.03503006 0.98992652 0.019207576
0.070721403 0.070529155 0.0033986601 -0.28779492 -0.064939722 0.95548779 0.021070356
0.073023058 0.070747115 0.0035448633 0.11266911 -0.17648372 0.97783393 0.018046709
0.070395663 0.073661849 0.0038021766 -0.3328011 0.12464039 0.93472362 0.058105849
0.073891923 0.074151814 0.0042868722 0.45707175 0.62423545 0.63357365 0.036699705
0.075432576 0.074539892 0.0032518662 0.44835004 0.81692898 0.36277997 0.043016199
0.068767101 0.076093443 0.0032183989 -0.2648187 0.84428823 0.46588454 0.098886579
0.070689224 0.076067239 0.0038389571 -0.033829056 0.83348596 0.55150402 0.061065763
0.073245056 0.075560078 0.0039008886 0.17439032 0.9330622 0.31461549 0.049836826
-0.0011754562 0.029920502 0.00890195 0.085110292 0.78704995 0.61098987 0.0010646568
0.0015351967 0.029838165 0.0087965773 0.049755 0.7892912 0.61199981 0.0011475614
0.0044097076 0.029783741 0.0087574357 0.0086428793 0.78190881 0.62333292 0.0013158232
0.0074936398 0.029799744 0.0087556653 -0.025652787 0.80042964 0.59887761 0.0018981569
0.010283416 0.029880228 0.0088413144 -0.062553011 0.78099889 0.62139183 0.00087532494
0.012708712 0.029871229 0.0089289881 -0.11228059 0.76664138 0.632182 0.0010150177
0.062645599 0.028147286 0.008693343 0.51119101 -0.33414143 0.79185438 0.00075789605
-0.015471903 0.032882571 0.0088330554 0.2568242 0.78525847 0.56339192 0.0012828927
-0.01310636 0.032558426 0.008272564 0.22259428 0.84500921 0.48622131 0.0016548162
-0.010363451 0.032240555 0.007620756 0.20451096 0.86210555 0.46362633 0.0011045007
-0.0075100958 0.031680435 0.0075552762 0.15408769 0.86191863 0.48306665 0.0021648251
-0.0045263264 0.031243548 0.0074958429 0.1212917 0.85788757 0.49931678 0.0019346094
-0.0015203785 0.03088302 0.0074923374 0.085488074 0.86663359 0.49156693 0.0021582097
0.0014945263 0.030749289 0.0073204138 0.046213798 0.87094063 0.48921028 0.0022516884
0.0044497545 0.03069555 0.0072729085 0.0080281422 0.87106806 0.49109665 0.0022364659
0.007494207 0.030705804 0.0073081884 -0.028784398 0.86824983 0.49529153 0.0024307829
0.01056615 0.030873174 0.0073741428 -0.067274913 0.86066574 0.50470638 0.002333523
0.013498482 0.031134201 0.007459959 -0.11683702 0.8432883 0.52460819 0.0026457338
0.016493807 0.031608056 0.0075638355 -0.17524077 0.83687508 0.51858538 0.0023040257
0.019384572 0.032211635 0.007706624 -0.22056453 0.82970309 0.51278073 0.001676959
0.022241658 0.032542665 0.0083570527 -0.22955689 0.78607094 0.57393038 0.0012929024
0.024509067 0.032824371 0.0087864548 -0.24862796 0.72679377 0.64027727 0.0017092922
-0.024219124 0.035845634 0.0089624068 0.31510967 0.76497215 0.56171477 0.001560198
-0.022142833 0.03554526 0.0080846036 0.31377465 0.82869178 0.46348193 0.0012301038
-0.019492971 0.03485826 0.0075463825 0.28813383 0.84816557 0.44451562 0.001030426
-0.01653426 0.033961248 0.0074413414 0.24716377 0.8480292 0.46878204 0.0013448885
-0.013784978 0.033411264 0.0069565438 0.23133503 0.86419606 0.44682118 0.001055105
-0.011480764 0.03313823 0.0062391101 0.20213166 0.87514019 0.43962771 0.00075843977
0.020366421 0.033229228 0.0064503849 -0.22191158 0.84620714 0.48444679 0.0015981133
0.022617081 0.033596709 0.0069403667 -0.23762332 0.83826578 0.49076027 0.0019681768
0.025570087 0.034160461 0.0074474127 -0.25237596 0.81980532 0.51402873 0.0021901561
0.028451264 0.034989983 0.007620092 -0.28793055 0.82332444 0.48911425 0.0017740488
0.031213999 0.03551805 0.0083177006 -0.30176458 0.77267641 0.55848837 0.00179338
0.033248764 0.03578693 0.0087063806 -0.32182461 0.70982796 0.62655663 0.002101437
0.066928923 0.035339344 0.0082187597 0.66818023 -0.22866957 0.70798695 0.0029650326
-0.066552691 0.038451865 0.0080882655 -0.64073396 -0.18310243 0.74560946 0.00043681133
-0.065601364 0.03787706 0.0088374848 -0.62147331 -0.19928981 0.75766385 0.00079152873
-0.030498317 0.038767263 0.0086901076 0.37899944 0.77688664 0.5027988 0.001329176
-0.028278679 0.038274292 0.0077238008 0.37003031 0.81872654 0.43904942 0.0011153918
-0.025493601 0.037168697 0.0075188596 0.33813134 0.8220343 0.45817772 0.001243218
-0.02295273 0.036428113 0.0069260779 0.32566467 0.83784223 0.43813562 0.0010263175
0.029642476 0.036156256 0.006413138 -0.31260031 0.83530957 0.45225984 0.0015270895
0.031715449 0.036599047 0.0069396105 -0.32247111 0.81630492 0.47922727 0.0024120833
0.034522515 0.037480935 0.0074810623 -0.35554236 0.80546778 0.47414258 0.0025417935
0.03709523 0.038328771 0.008060067 -0.39115515 0.74779981 0.53646344 0.0035808452
0.039237678 0.038872205 0.0086262906 -0.41518679 0.70487809 0.57512331 0.003792637
0.068014994 0.037917141 0.008057625 0.68434191 -0.13715877 0.71614498 0.004956672
-0.067686737 0.040991765 0.0077992333 -0.6605221 -0.14480102 0.73671114 0.0018347469
-0.036511276 0.041717786 0.0086054485 0.37308154 0.77505821 0.50999492 0.00098140317
-0.034330551 0.041162152 0.0076952935 0.39463893 0.79923773 0.45329821 0.0013187941
-0.031617519 0.039974134 0.0074228854 0.37485099 0.80689222 0.45652133 0.0013274072
-0.029371947 0.039294083 0.0066052754 0.3917504 0.81701481 0.42310569 0.00068115006
0.038010105 0.03959531 0.0069445823 -0.43412611 0.76393694 0.47742519 0.0022763622
0.040480524 0.040645432 0.007519389 -0.43251565 0.75071841 0.49935153 0.0024433637
0.042793114 0.041477721 0.0083013885 -0.41130432 0.70292097 0.58028507 0.0023491764
0.068391532 0.040428221 0.0082001779 0.72684252 -0.094111875 0.68032563 0.004316844
0.069683537 0.041130368 0.006822715 0.7663185 -0.094615035 0.63545561 0.0022406699
-0.069685139 0.044335514 0.0063841585 -0.65030509 -0.080505677 0.75539535 0.0014087304
-0.067626938 0.043558873 0.0082613043 -0.6213277 -0.051740076 0.78184068 0.0025437796
-0.042590428 0.044688988 0.0085976208 0.37723842 0.73156786 0.56789052 0.00083733816
-0.040281281 0.044113647 0.0077446029 0.39688045 0.7797907 0.4841615 0.001794273
-0.037644152 0.042991865 0.0074128439 0.37902179 0.79093504 0.48037919 0.0014368087
-0.035473812 0.042314518 0.0066259373 0.41512796 0.80190319 0.42967424 0.0010626129
0.041562356 0.042180732 0.0064188777 -0.47372642 0.75262105 0.45732364 0.001634775
0.043778401 0.042869497 0.0071957135 -0.44065341 0.73283601 0.51843601 0.0023852852
0.046350081 0.04398169 0.0078015667 -0.41860503 0.71689159 0.55752689 0.0025707353
0.048739698 0.044702154 0.0086014336 -0.38858801 0.6638816 0.63895267 0.0017714417
0.068446293 0.04362151 0.0084602144 0.67541128 -0.0079868967 0.73739797 0.0030067691
0.069782503 0.043768197 0.0070096478 0.77304965 -0.025094926 0.63384902 0.0024899661
-0.069621392 0.046892419 0.006913953 -0.62660807 -0.054861508 0.77740115 0.0029802276
-0.0677884 0.046402536 0.0083033182 -0.57710367 -0.013175519 0.81656456 0.0030778428
-0.048633009 0.047686934 0.008637487 0.34571454 0.71083951 0.61252654 0.0015978315
-0.046267059 0.047102328 0.0078462223 0.36386028 0.75964701 0.5390197 0.0020848836
-0.043594558 0.04610822 0.0073327222 0.38661411 0.77020514 0.50726092 0.0014120421
-0.04131338 0.045338213 0.0066610486 0.42596433 0.7791298 0.4599033 0.0016260395
0.047356147 0.045471083 0.0066341576 -0.46251431 0.72669196 0.50793624 0.0023328634
0.049620528 0.04628396 0.0073540732 -0.4077273 0.72555739 0.55436903 0.0020975342
0.052149046 0.047152516 0.0080378894 -0.36401445 0.6771723 0.63947725 0.002005745
0.054515149 0.047670469 0.008829101 -0.31244564 0.63733768 0.70439929 0.0024708176
0.068191476 0.046621948 0.0085381642 0.57957727 0.088564567 0.81009042 0.0045876205
0.069697887 0.046616048 0.0070580859 0.73815393 0.054546617 0.67242354 0.0039189523
-0.069910571 0.049538612 0.0068499586 -0.54661149 0.011838993 0.83730263 0.0070510749
-0.067573301 0.049778689 0.008350051 -0.34366864 0.19753797 0.91807979 0.0056134784
-0.065433122 0.050645798 0.0088842371 -0.21213795 0.30012462 0.93001217 0.0070063323
-0.061882153 0.0508935 0.008979518 -0.013135549 0.56829047 0.82272321 0.0042664604
-0.057534043 0.050808314 0.0088947928 0.13288718 0.69146055 0.71008688 0.0031464549
-0.05516557 0.050500065 0.0085334377 0.22011533 0.67812806 0.70120722 0.0018416463
-0.052329589 0.050040793 0.0077833883 0.31044596 0.75044394 0.58348715 0.0025547286
-0.049660552 0.049153294 0.0073395465 0.34188232 0.76380914 0.54745972 0.001687504
-0.047162045 0.048461437 0.0066062748 0.40802753 0.76963687 0.49109328 0.0016503838
0.052827526 0.048678711 0.0067696613 -0.42457032 0.70441544 0.5688048 0.0021681848
0.055503484 0.04952332 0.0075091701 -0.34142283 0.6818338 0.64694142 0.0026657758
0.058319513 0.050139066 0.0082528787 -0.26526433 0.59636021 0.75762081 0.002616168
0.061085399 0.050640132 0.0087164501 -0.14206161 0.55292135 0.82103384 0.0043422244
0.065053821 0.050530527 0.0088990703 0.12671901 0.37620217 0.91783124 0.0072459779
0.067447707 0.049637865 0.0083620213 0.36730945 0.26342136 0.89201629 0.0055014943
0.069693916 0.04946588 0.0067886566 0.67850518 0.094986252 0.7284286 0.0061783753
-0.069846645 0.052794326 0.0068592099 -0.30386531 0.22177397 0.92654312 0.0075015216
-0.067418307 0.052609026 0.0076717404 -0.18188192 0.32637903 0.92757517 0.010665812
-0.064435676 0.052643508 0.007990554 -0.019368947 0.46772343 0.88366264 0.0084168175
-0.061409686 0.052691158 0.0077451509 0.087693945 0.62733406 0.77379698 0.0054876325
-0.058542084 0.052367795 0.0074800514 0.18030508 0.72294456 0.66696417 0.0026116408
-0.055585504 0.051901411 0.0070858761 0.27149481 0.75752664 0.59366989 0.0020485807
-0.053129975 0.051386479 0.006495317 0.3456277 0.76892483 0.53786248 0.0017702117
0.05661267 0.051329125 0.0061890893 -0.41268447 0.70891505 0.57195365 0.0032056067
0.058777738 0.051884297 0.0068456572 -0.35322776 0.66499436 0.65803701 0.0031918206
0.061520282 0.052529123 0.0074473475 -0.25412443 0.5881542 0.76778609 0.0060496689
0.064391144 0.052503526 0.008021309 -0.015536755 0.4568229 0.889422 0.006465686
0.067336686 0.052592706 0.0075732376 0.27660739 0.33243114 0.90165281 0.010440055
0.069435775 0.052608341 0.0065396815 0.49805725 0.239921 0.83329278 0.0067296922
-0.06995225 0.055333082 0.0063169957 -0.23550059 0.34740141 0.90766281 0.010321897
-0.067442626 0.055263102 0.0065972246 -0.015726279 0.47102925 0.88197738 0.0088182511
-0.064594962 0.054811299 0.0065621869 0.12647747 0.59709215 0.79213917 0.009287064
-0.062000394 0.05433606 0.006363993 0.20568401 0.69961703 0.68427342 0.0049270634
-0.059685618 0.054058485 0.0060416968 0.27059343 0.72729629 0.63072926 0.0050228578
0.062397692 0.054333854 0.00632247 -0.33746117 0.62089008 0.70754188 0.0056877187
0.064603843 0.055006191 0.0065983883 -0.16913724 0.51111037 0.84270924 0.010669527
0.067334436 0.055316921 0.0065671131 0.12832987 0.39166686 0.91111392 0.016110629
0.069377288 0.054575898 0.0061532054 0.54742759 0.24139176 0.80128211 0.011575367
0.067412391 0.057098374 0.0061131343 0.08755523 0.33038601 0.93977612 0.023025198
0.021462427 0.0088031227 0.011801928 0.11320439 -0.4544529 0.88354814 0.0010387194
0.03597242 0.013699535 0.011911049 0.19449733 -0.45210296 0.870502 0.00076396816
0.040325452 0.014776149 0.011519293 0.23164766 -0.49785817 0.83574915 0.00031192612
0.042360146 0.014361379 0.010564606 0.23913623 -0.48906943 0.83882362 0.00026574548
0.043687437 0.015894013 0.01116358 0.24778295 -0.48673782 0.83766931 0.00025692733
0.045746412 0.017472181 0.011492442 0.26981428 -0.49564829 0.82555014 0.0002137535
0.047857631 0.018545043 0.011420091 0.27184504 -0.45610127 0.84739125 0.0004542309
0.049446914 0.01984036 0.011530539 0.31241742 -0.44444358 0.83956259 0.00045715627
0.052497163 0.022291943 0.011653254 0.32839149 -0.39321327 0.85880286 0.00055845268
0.054315139 0.022704238 0.011055898 0.34896836 -0.39306593 0.85071748 0.0010082069
0.0021169009 0.026817992 0.011938544 0.046792932 0.68875748 0.72348017 0.0012948753
0.0045847706 0.026814748 0.011883449 0.011419816 0.68701011 0.72655815 0.0012058725
0.0075882142 0.02681235 0.011875364 -0.022067547 0.68536347 0.72786665 0.0013785047
0.010397266 0.026866825 0.011877517 -0.06076242 0.68238991 0.72845864 0.0015168063
0.055861164 0.025369054 0.011621201 0.38808665 -0.37354904 0.8425259 0.00021326785
0.057927866 0.025644582 0.01066711 0.46126804 -0.38634828 0.79872829 0.0011910391
-0.057725724 0.029533781 0.011711455 -0.48189247 -0.32215568 0.81485915 0.0011009626
-0.012798156 0.02977345 0.01170632 0.19608516 0.7011832 0.68548721 0.00088496198
-0.010297574 0.02945151 0.011383017 0.17112465 0.67519313 0.7175169 0.0013698641
-0.0074036866 0.029106075 0.011051466 0.14587887 0.75020081 0.64491707 0.001840347
-0.004448982 0.028861606 0.010756479 0.11667547 0.74514705 0.6566146 0.0010889866
-0.001480061 0.028639907 0.010552497 0.080364652 0.75182974 0.65444136 0.0016910323
0.0015388002 0.028475428 0.010442275 0.042704955 0.74618965 0.66436243 0.0023179988
0.0045227432 0.028385753 0.010436329 0.012658615 0.73725295 0.67549819 0.0016261732
0.0075259092 0.028399276 0.010427409 -0.019913178 0.74201936 0.67008263 0.0022451517
0.010532157 0.028536918 0.010473999 -0.056151226 0.73768473 0.67280626 0.0020197649
0.013472426 0.028683692 0.010630805 -0.105846 0.72428495 0.681328 0.0025320854
0.016472252 0.029000243 0.010906853 -0.14683919 0.71461004 0.68393773 0.0016003642
0.019436337 0.029256215 0.011288746 -0.16455019 0.63946831 0.75100172 0.002105478
0.022302384 0.029584758 0.011633086 -0.1839468 0.67093617 0.71833718 0.0011920349
0.024390204 0.029765379 0.011875419 -0.20179993 0.65942037 0.72418338 0.0013088873
0.058723066 0.028132861 0.011435775 0.43062869 -0.32278892 0.84283227 0.00072392175
0.061177589 0.029005785 0.010280691 0.49548578 -0.33083874 0.80314362 0.0014183413
-0.059127253 0.031373039 0.011593712 -0.52486014 -0.28369963 0.80251873 0.00082853978
-0.021850603 0.0327431 0.011707317 0.26580966 0.68637431 0.6769309 0.00083234889
-0.019221149 0.032268684 0.011188977 0.25317344 0.73208624 0.63241833 0.0008605076
-0.016418656 0.03183677 0.01058304 0.24078225 0.76457137 0.597875 0.001366221
-0.013590281 0.031167021 0.010378792 0.20407751 0.74958432 0.62966311 0.0018029978
-0.010558137 0.030771052 0.0099404296 0.18397775 0.76592273 0.61604756 0.0017114644
-0.0076915123 0.030433305 0.0095722647 0.14888479 0.77603626 0.61286306 0.0017785368
-0.0049742935 0.030194486 0.009281042 0.11562072 0.78661305 0.60652441 0.001204746
-0.0028050342 0.030090861 0.0090472568 0.087974004 0.77566499 0.62498349 0.0015089406
0.014303594 0.030090848 0.0091341911 -0.10835942 0.76851451 0.63059002 0.001056491
0.016776739 0.030314662 0.0094349338 -0.15893251 0.75983953 0.63038427 0.00094708399
0.019685434 0.030712606 0.0098363571 -0.18778117 0.73285562 0.65395784 0.0015780148
0.022620166 0.031189675 0.010205513 -0.2047867 0.72888035 0.65329605 0.0022723007
0.025478447 0.031662781 0.010611611 -0.22184688 0.70133352 0.67743284 0.0013701404
0.028351329 0.032054704 0.011133938 -0.23460725 0.63295817 0.73778278 0.0014928441
0.03116519 0.032554314 0.011612182 -0.23982255 0.64299572 0.7273525 0.0014513675
0.033111695 0.03275577 0.011952722 -0.23676312 0.61297446 0.75379407 0.0023120944
0.059805337 0.030161509 0.011614357 0.50322443 -0.29616958 0.81181818 0.0017044358
0.06150857 0.031655688 0.01117393 0.50308698 -0.29924962 0.81077325 0.0016388217
0.063851386 0.031846464 0.0096148225 0.55783451 -0.28433108 0.77972853 0.0015385317
-0.063365161 0.035730492 0.010105523 -0.60843545 -0.19737712 0.76866674 0.00080109731
-0.061576825 0.03451404 0.011086862 -0.5349896 -0.23132887 0.81257188 0.0014281615
-0.028140536 0.035503566 0.011500038 0.30486512 0.67400968 0.67288059 0.001082972
-0.025312759 0.034937087 0.010760563 0.30328688 0.74758863 0.5908708 0.0014636341
-0.022596745 0.034174513 0.010357921 0.2752488 0.75677848 0.59289491 0.0021302474
-0.019783124 0.03360324 0.0097929416 0.27035952 0.76909482 0.57913637 0.0014819867
-0.017300621 0.03314716 0.0092373313 0.2532306 0.78316849 0.56790966 0.0014265552
0.026287787 0.033154752 0.009239967 -0.23501584 0.74728566 0.62155586 0.0011326795
0.028658947 0.033613887 0.0096681975 -0.25236946 0.73397344 0.63054955 0.001423866
0.031563815 0.034179829 0.010173238 -0.26776719 0.708175 0.65329075 0.0025423407
0.034362353 0.034685943 0.010799169 -0.28373393 0.64248401 0.71183515 0.0023259602
0.037197445 0.035351373 0.011421591 -0.2970708 0.62608856 0.72094524 0.0024608588
0.03940006 0.035736341 0.011725668 -0.27360198 0.60231209 0.74990809 0.0031435236
0.062157582 0.034381904 0.011615744 0.47379076 -0.19333421 0.85915321 0.0019105902
0.064650849 0.035096139 0.0102845 0.54172713 -0.15681566 0.82579684 0.0020416332
-0.064098597 0.037550621 0.010108538 -0.60819685 -0.20004301 0.7681663 0.00076782762
-0.061698526 0.036950763 0.011652155 -0.51637626 -0.12148292 0.84770125 0.0012751025
-0.034242738 0.038425118 0.011372271 0.32343665 0.67645377 0.66166377 0.00099218765
-0.031455249 0.037762325 0.010611889 0.3345069 0.73731589 0.58691597 0.0015132925
-0.028686762 0.036904365 0.010129479 0.33364683 0.74033737 0.58359259 0.0015224743
-0.026239157 0.036315244 0.0094788503 0.32692996 0.76795876 0.55077773 0.0012485385
0.035055239 0.036378641 0.0094187111 -0.32857972 0.70679158 0.62648308 0.0015377747
0.037701923 0.037033249 0.010033323 -0.35038915 0.67708987 0.64712965 0.0029278044
0.040387638 0.037705388 0.010785681 -0.33655706 0.6094017 0.71788496 0.0022086732
0.043144941 0.038350586 0.011517377 -0.30770043 0.56245977 0.76743698 0.0022075409
0.045607567 0.038713671 0.0118966 -0.25475037 0.50813872 0.82273769 0.0024624115
0.062612772 0.036692634 0.011891033 0.41478279 -0.079608291 0.90643138 0.0023666681
0.064441912 0.037689984 0.01095954 0.51244617 -0.10115409 0.85274076 0.0021743407
0.066776499 0.038427331 0.0094298506 0.61811924 -0.10897604 0.778494 0.0023501385
-0.066282548 0.041624844 0.0091660898 -0.60395753 -0.085066184 0.7924639 0.0018120243
-0.064186975 0.040640526 0.010577561 -0.54995751 -0.067180097 0.83248633 0.0027746374
-0.062442917 0.040500998 0.011696719 -0.47183636 -0.015786156 0.88154483 0.0032608437
-0.042262312 0.041793097 0.011782966 0.30685994 0.66363603 0.6822201 0.0023985684
-0.040173352 0.041323069 0.0112766 0.31398797 0.67965704 0.6629312 0.0013895413
-0.037397172 0.040607046 0.01057871 0.3297849 0.72595972 0.60351008 0.0010550396
-0.034722567 0.0398097 0.010013994 0.35263693 0.72883034 0.58690166 0.0015355437
-0.032617759 0.039340492 0.0092995772 0.37728715 0.75819486 0.53178477 0.001949803
0.041033152 0.039401621 0.0095019834 -0.38674149 0.6677466 0.63603908 0.0021830827
0.043642495 0.040206309 0.01016414 -0.3631241 0.63894337 0.67815363 0.0023452248
0.046371192 0.040763009 0.010991853 -0.30422673 0.56299341 0.76842999 0.0014867083
0.049110278 0.041399006 0.011574239 -0.25568232 0.53808808 0.8031736 0.0026809925
0.051847551 0.041792586 0.011837979 -0.19352186 0.49989226 0.84419012 0.0018528748
0.062650055 0.040887929 0.011916583 0.33598921 0.038812913 0.94106579 0.0033891685
0.064071752 0.04084523 0.01133996 0.3514851 0.099663213 0.93087351 0.0035424875
0.066771768 0.040628836 0.0097037386 0.61341363 -0.054130446 0.78790456 0.0032690475
-0.066388659 0.044170618 0.0093194805 -0.59399283 -0.024456112 0.80409849 0.0029012174
-0.06407363 0.043859482 0.010918 -0.4185521 0.13519642 0.89807349 0.0026323411
-0.062106546 0.043786332 0.011710803 -0.37701389 0.11448402 0.91910499 0.0043679029
-0.048851747 0.044727441 0.011703659 0.21877371 0.62959355 0.74548638 0.0019266206
-0.0462812 0.044181794 0.011248172 0.28003016 0.65282321 0.70385003 0.0015640579
-0.043460358 0.043532472 0.010538856 0.32147694 0.68418461 0.65463275 0.0012452031
-0.040736333 0.042721674 0.0099097006 0.35596663 0.71694916 0.59939277 0.0011799656
-0.038595468 0.042204648 0.0092845364 0.36841652 0.7354151 0.56871253 0.0012171209
0.044693928 0.04207712 0.009207488 -0.38576931 0.67071205 0.63350409 0.0037598631
0.046883911 0.042633057 0.0096424809 -0.36750576 0.63805932 0.67662388 0.002164369
0.049593493 0.043439437 0.010208833 -0.33853239 0.59601557 0.72812176 0.0021215696
0.052405387 0.043725353 0.011028576 -0.24593204 0.52966756 0.81176949 0.0017980215
0.055385064 0.044160713 0.011526999 -0.16753092 0.46361956 0.87005186 0.0024579859
0.058306906 0.044517051 0.011740178 -0.043640472 0.38854498 0.92039573 0.0032620553
0.061644647 0.043990653 0.011722386 0.15406726 0.2461559 0.95690668 0.0049111168
0.064164557 0.043687645 0.011079193 0.29914528 0.17572315 0.93788779 0.004414544
0.066942528 0.04359033 0.0096795168 0.56878811 0.034729943 0.82175052 0.0044412436
-0.06626714 0.04680432 0.0093956068 -0.42183399 0.17582694 0.88946098 0.0038721759
-0.064385451 0.046448093 0.010409532 -0.34755573 0.24759218 0.90437996 0.0045737005
-0.061439175 0.04684091 0.011326566 -0.22101815 0.35448474 0.9085657 0.0071448558
-0.058457252 0.047119871 0.011563416 -0.029573845 0.45962122 0.88762259 0.0040244777
