# .PCD v0.7 - Point Cloud Data file format
VERSION 0.7
FIELDS x y z normal_x normal_y normal_z curvature
SIZE 4 4 4 4 4 4 4
TYPE F F F F F F F
COUNT 1 1 1 1 1 1 1
WIDTH 572
HEIGHT 1
VIEWPOINT 0 0 0 1 0 0 0
POINTS 572
DATA ascii
0.010205462 0.029862875 0.0088101719 -0.068264395 0.78618139 0.61421394 0.0017466909
0.01234701 0.029933829 0.0089088622 -0.10510276 0.7689302 0.63063449 0.0011508694
0.062648915 0.028187506 0.0087426975 0.51369172 -0.33077976 0.79164743 0.00091659249
-0.063509434 0.032181207 0.0073243282 -0.70800257 -0.45355275 0.54131538 0.0015209788
-0.062213693 0.03113612 0.0081065753 -0.68868464 -0.4693228 0.55267495 0.0017586093
-0.015425674 0.032877989 0.0087947873 0.25129619 0.77534962 0.5793817 0.0010472009
-0.013137382 0.032575879 0.0083552869 0.22235896 0.82357919 0.52179873 0.0014777919
-0.010389022 0.032273971 0.0077136089 0.19519246 0.84877723 0.49140334 0.0014453772
-0.0075287372 0.031797498 0.0074912035 0.16446941 0.85998863 0.48308328 0.0016169684
-0.0044799894 0.031300109 0.0074995328 0.12742622 0.85444856 0.50366676 0.0022711733
-0.0014869425 0.03095899 0.0074413996 0.088642776 0.8594237 0.50352097 0.0020294434
0.0014480861 0.030830212 0.0072707585 0.04421911 0.86190969 0.50512999 0.0021751374
0.0044394173 0.030754715 0.0072340225 0.012687846 0.86392993 0.50345224 0.0021312777
0.0075023002 0.030743718 0.0072637238 -0.026163265 0.86155474 0.50699008 0.0022374173
0.010569786 0.030881805 0.0073237419 -0.071632683 0.85731637 0.50978172 0.0023095454
0.013508589 0.0311151 0.0074826796 -0.12161002 0.8459608 0.51919281 0.0025582544
0.016495703 0.031618495 0.0075263255 -0.18426622 0.84467953 0.50255591 0.0027039114
0.019385623 0.032206975 0.0077209119 -0.21874253 0.83168852 0.51033902 0.0015458189
0.022226959 0.032576796 0.0083529195 -0.22794728 0.79582608 0.56098211 0.0016162227
0.024388874 0.032882627 0.0088104671 -0.24647166 0.7501213 0.61365277 0.0022133102
-0.066071443 0.035199173 0.0063671959 -0.7345295 -0.4073047 0.54274243 0.0018598838
-0.064610124 0.034519974 0.007733081 -0.71553385 -0.38361457 0.58382457 0.0015866315
-0.062970154 0.033303052 0.0089806169 -0.67893767 -0.40496874 0.6124084 0.0015363893
-0.024294481 0.03590256 0.0088531701 0.31875473 0.76043159 0.56580848 0.001095071
-0.022075765 0.035561446 0.0081903515 0.31091249 0.82271904 0.47588518 0.0016532736
-0.019470897 0.034973711 0.007553447 0.29831907 0.84245318 0.44864053 0.0014932841
-0.016552402 0.034070898 0.0074419077 0.25127193 0.84485108 0.47232306 0.0018493129
-0.013733547 0.033513654 0.0069952626 0.22336945 0.85911947 0.46045607 0.0018469974
-0.011049974 0.033185977 0.0063142949 0.19961537 0.86943877 0.45191807 0.0014832966
0.020214818 0.033201452 0.0064184926 -0.22141546 0.84917384 0.47945696 0.0016635634
0.022694334 0.033573434 0.0069700307 -0.23691154 0.839127 0.48963138 0.0020963857
0.025525922 0.034136549 0.0074505801 -0.24711406 0.82027698 0.5158298 0.0021345173
0.028419012 0.034986284 0.0075855874 -0.28115559 0.82403678 0.49184838 0.0018436379
0.03112719 0.035522964 0.0082650473 -0.29188782 0.79236275 0.535689 0.00209651
0.03322541 0.03583128 0.008823758 -0.31649965 0.72804803 0.60809046 0.0020611018
0.067195058 0.035412468 0.0079812435 0.67901218 -0.20898716 0.70375198 0.0015544031
-0.066760257 0.037886109 0.0072684092 -0.72141379 -0.29813996 0.62503976 0.0014582879
-0.065508097 0.03743805 0.0085108057 -0.70339429 -0.28344876 0.65183842 0.0026835182
-0.030507255 0.03879001 0.0087094866 0.36981556 0.77118945 0.51817304 0.00085842813
-0.028197648 0.038317461 0.0078176884 0.36700821 0.81338739 0.45133787 0.0016816001
-0.025490619 0.037301209 0.0075110388 0.3404555 0.82135826 0.45766872 0.0020074653
-0.022840982 0.036533549 0.0069704428 0.32051012 0.83864522 0.44039464 0.0015334258
-0.020661384 0.036080126 0.0063241967 0.31865367 0.84910321 0.42128792 0.001594363
0.029547162 0.036141843 0.0062804855 -0.30916047 0.83586699 0.45359257 0.0015154616
0.031762015 0.036560699 0.0069526075 -0.3126477 0.82086587 0.47794423 0.0021932507
0.034535956 0.037403695 0.0074470234 -0.34914547 0.8048169 0.47996581 0.0029733235
0.0371002 0.038312424 0.007995924 -0.39932993 0.75642079 0.5180378 0.0034650245
0.039207742 0.038853031 0.008773528 -0.39720172 0.69569665 0.59852904 0.0027044297
0.067966379 0.037905458 0.0081662629 0.65071076 -0.13056576 0.74801612 0.002234586
0.069820426 0.038967557 0.00604806 0.75905609 -0.12735713 0.63844657 0.0018393577
-0.069050066 0.041886888 0.0063415468 -0.73629487 -0.27037263 0.62029719 0.0055614263
-0.066999264 0.04093384 0.0081557585 -0.65159267 -0.13534443 0.74639732 0.0017302281
-0.065920025 0.039575391 0.0089202942 -0.66724938 -0.19113457 0.71989292 0.0027357182
-0.036532037 0.041747581 0.0086719953 0.38492039 0.75711083 0.52784419 0.0010164146
-0.034266833 0.041175555 0.0078120842 0.39028254 0.79708064 0.46080577 0.0015695611
-0.031575993 0.040092219 0.0074323486 0.37505183 0.80072403 0.46709433 0.001523069
-0.029211747 0.039366309 0.0067271572 0.38363299 0.81937021 0.42597911 0.0013896473
0.038042512 0.039570134 0.006890526 -0.43077543 0.76803374 0.47387412 0.0021111686
0.040487342 0.04058687 0.0075011835 -0.43154043 0.75700152 0.49063385 0.0018832455
0.042863607 0.041445639 0.0082707871 -0.40889084 0.70491993 0.57956553 0.0024037911
0.068335898 0.040974606 0.0083506256 0.69803631 -0.060275834 0.71352094 0.0044382531
0.069693804 0.041111514 0.0068293554 0.76243556 -0.087688565 0.64109492 0.0020843092
-0.069383554 0.043872405 0.0065603051 -0.72126985 -0.17196169 0.67096865 0.0021615587
-0.067675494 0.043714292 0.008189003 -0.62182307 -0.051926538 0.78143436 0.0019363831
-0.042528462 0.044749316 0.0087090693 0.3725737 0.72690374 0.57688802 0.0013770069
-0.040237803 0.044213425 0.0077840704 0.40424296 0.78114814 0.47581008 0.0015979825
-0.037575725 0.043087363 0.0073924367 0.38544202 0.78847492 0.47931388 0.0015271595
-0.035267211 0.042329758 0.0066617155 0.4178459 0.80211145 0.42664042 0.0013740445
0.041658826 0.042180799 0.0062846593 -0.46763444 0.74792731 0.47108683 0.0017093675
0.043770552 0.042836428 0.0071227471 -0.44551933 0.73633891 0.50923234 0.0023443643
0.0463234 0.043923374 0.0077386913 -0.4136931 0.72310787 0.55314815 0.0023502691
0.048671171 0.044622403 0.0085577788 -0.39172447 0.66380906 0.63711023 0.0023574152
0.068459094 0.043916646 0.0084426058 0.67616683 0.0093427151 0.73668933 0.0034921302
0.069744021 0.044023484 0.00707469 0.75482988 -0.019469406 0.6556316 0.0027996751
-0.069560252 0.04684978 0.0069035813 -0.62921393 -0.035814203 0.77640659 0.003238677
-0.067923486 0.046578996 0.0082156425 -0.56144172 0.024258882 0.8271606 0.0042652739
-0.048600361 0.047765005 0.0086819194 0.32332602 0.70954233 0.62610692 0.0012431509
-0.046217296 0.047214676 0.0078847744 0.37641793 0.76089126 0.52853942 0.0022801885
-0.04357506 0.046191055 0.0074109291 0.38923311 0.77233237 0.50199628 0.0018491172
-0.041237187 0.045444977 0.0066385041 0.42300764 0.78466552 0.45317167 0.0015783965
0.047376122 0.045417313 0.0065866564 -0.45729446 0.73291844 0.50369859 0.0022469731
0.049640577 0.046208661 0.0073115476 -0.40894303 0.71866435 0.56239414 0.0023693962
0.052173387 0.047115553 0.0079880394 -0.3768518 0.68735629 0.62090588 0.0026042212
0.054599628 0.047676601 0.0087613696 -0.30926374 0.6356411 0.70733041 0.0024234618
0.068219744 0.046725556 0.0085072368 0.57262093 0.088963337 0.81497896 0.0040303338
0.069768816 0.046658501 0.0070265662 0.72923338 0.049644817 0.6824618 0.0043162075
-0.069964118 0.049517184 0.0067516365 -0.55328363 0.01440245 0.83286846 0.0071851844
-0.067434415 0.049730849 0.0082943887 -0.37877452 0.20361365 0.90281302 0.007610973
-0.065216035 0.05065931 0.0088392058 -0.17090887 0.36908162 0.91354746 0.0070998622
-0.057541493 0.050861552 0.008879398 0.11817564 0.67288005 0.73025125 0.0027695487
-0.055019096 0.050571013 0.0085334154 0.21462846 0.68164712 0.69949394 0.0020149027
-0.052309837 0.050087783 0.0078499764 0.30175835 0.74343497 0.59686381 0.0024093215
-0.049628761 0.049239729 0.007395301 0.34099138 0.75152791 0.56473941 0.0016340873
-0.047077913 0.048463687 0.0067138937 0.40066254 0.77232575 0.49293256 0.001717341
0.052896202 0.048638169 0.0067422106 -0.42893222 0.71038085 0.55801094 0.0023442185
0.055501763 0.049500376 0.0074325842 -0.35207528 0.67850173 0.64473128 0.0024408074
0.058285147 0.050096899 0.0082016699 -0.27048871 0.61005759 0.74475867 0.0021471765
0.061104205 0.05061638 0.0086777471 -0.17135352 0.57743257 0.79825407 0.0038586406
0.06460651 0.05064993 0.0088739851 0.025553687 0.4382675 0.89848125 0.0061792852
0.067347847 0.04974211 0.0084280185 0.2754463 0.31804585 0.90718031 0.0046075899
0.069712229 0.049562693 0.0068291356 0.67485011 0.11504311 0.72893232 0.0063522137
-0.06999106 0.052622959 0.0066913213 -0.38524362 0.13114047 0.91344923 0.0083893603
-0.067280382 0.052466217 0.0076754023 -0.18741415 0.3300505 0.92517167 0.011418426
-0.06436462 0.052590758 0.0079950308 -0.014708512 0.49453935 0.86903083 0.0087581221
-0.061425839 0.052696813 0.0077867103 0.090134315 0.63474292 0.76744848 0.0057034106
-0.058526587 0.052491393 0.0075089391 0.16957124 0.72735375 0.66498286 0.0028949326
-0.055617604 0.051983088 0.0071618822 0.26952198 0.75070578 0.60315734 0.0020465562
-0.053089034 0.051456437 0.006571671 0.34306177 0.76385021 0.54666394 0.0019178936
-0.050774507 0.051036738 0.0060465783 0.35647583 0.78213155 0.51107264 0.0014140019
0.056726139 0.051286086 0.0062058228 -0.40710866 0.70354873 0.58247894 0.0032151639
0.058733698 0.051802684 0.0067988485 -0.34970304 0.67747277 0.64710003 0.0030902631
0.061470393 0.052513555 0.0073321979 -0.25873581 0.59350139 0.76211017 0.0051194173
0.064289637 0.05259667 0.0079269093 -0.12223143 0.50679189 0.85335892 0.0056607295
0.067166805 0.052705064 0.0075648865 0.16504104 0.38348082 0.90868253 0.0065866923
0.069391713 0.052779648 0.0065353131 0.38401279 0.29531702 0.87482685 0.00592286
-0.069905087 0.05520042 0.006277022 -0.24885899 0.33395311 0.90914494 0.010292451
-0.067399092 0.055331979 0.0065410342 0.014551231 0.49696127 0.86765069 0.0090058688
-0.064614668 0.054873034 0.0065433779 0.13067667 0.59870023 0.79024142 0.0091137988
-0.061836496 0.054347429 0.0063176937 0.18865137 0.7000531 0.68872088 0.0053195953
-0.059634387 0.054084003 0.0061286511 0.23803897 0.74467748 0.62353259 0.0038402705
0.062373895 0.054304779 0.0062721777 -0.35365424 0.6141271 0.70553291 0.0058763879
0.064558379 0.054973319 0.0065619475 -0.23216596 0.5323379 0.81407332 0.0083582103
0.067146607 0.055460416 0.006506796 -0.042613082 0.44615802 0.89393914 0.012283188
0.069393903 0.054606691 0.0061669215 0.55966705 0.23914264 0.79346305 0.013287956
0.06695722 0.057210699 0.0060827266 0.096058674 0.31642291 0.94374216 0.023245376
-0.030247087 0.010893692 0.011082435 -0.22847345 -0.65818912 0.71734715 0.00029962201
-0.026571797 0.010485473 0.01197521 -0.20324045 -0.6428324 0.73855257 0.00068468897
-0.040884186 0.014522434 0.0097132046 -0.3833302 -0.67265779 0.6329214 0.0005913949
-0.03721616 0.013806586 0.011144754 -0.33040345 -0.67393219 0.66079426 0.00074352656
-0.0337817 0.012596421 0.011490783 -0.26950759 -0.66916579 0.69251919 0.00049984525
0.037226744 0.013499536 0.011463793 0.20424201 -0.45740768 0.86548454 0.001029974
0.040325738 0.014768109 0.011535303 0.21227284 -0.47646675 0.85318208 0.0005412164
-0.045628242 0.017059911 0.0092820153 -0.43173003 -0.66715628 0.60705173 0.00063648773
-0.043359235 0.01663366 0.01049123 -0.41842383 -0.66825986 0.61510187 0.00075680536
-0.040651914 0.016279548 0.011921387 -0.36481687 -0.64645755 0.6700756 0.0007824974
-0.038952857 0.015163899 0.011720076 -0.35596722 -0.65499973 0.66653031 0.00089162868
0.04432483 0.01685081 0.011639229 0.2438059 -0.45566455 0.85611248 0.00029624449
-0.049469795 0.020346513 0.010031079 -0.48316252 -0.65571177 0.58016902 0.0009150065
-0.046674717 0.019425549 0.011257409 -0.43912536 -0.64339167 0.62706947 0.0012338368
-0.044407099 0.018375 0.011735543 -0.41683486 -0.64309418 0.64240068 0.0017853522
0.047106192 0.018592563 0.011790434 0.26884842 -0.43846837 0.85759318 0.00021086566
0.050106399 0.020516723 0.011786478 0.29518422 -0.39552301 0.86972862 0.00050321594
-0.052459192 0.023008917 0.010390867 -0.51308894 -0.6105572 0.60329074 0.0010682655
-0.04982594 0.022027923 0.011546996 -0.46524951 -0.59103894 0.65895063 0.0012908522
0.050980099 0.021507075 0.011966458 0.31823912 -0.39695495 0.86090106 0.00078533794
0.053389333 0.022165511 0.011258224 0.34449705 -0.40272269 0.84801906 0.00023128257
0.055235963 0.023346765 0.010977491 0.37577429 -0.37488922 0.84749734 0.00048831216
-0.057261411 0.026125619 0.009145054 -0.5839749 -0.58430773 0.5635227 0.0014592368
-0.055373691 0.025631167 0.01044874 -0.53952169 -0.54667515 0.64036137 0.0010300025
-0.053300705 0.024560446 0.011246213 -0.53239417 -0.59379357 0.60329568 0.00092322915
0.002124971 0.026817426 0.011914534 0.048917588 0.68815827 0.72390968 0.0012671278
0.0046386817 0.026817717 0.01186737 0.012054354 0.67545569 0.73730212 0.0018970629
0.0073032649 0.026823949 0.011855644 -0.012092058 0.67917985 0.73387229 0.0018255829
0.009998234 0.026875688 0.011897762 -0.052611381 0.67229176 0.73841441 0.0017365854
0.056222171 0.02589415 0.011821792 0.38140652 -0.36917537 0.8474896 0.00043592235
0.057884999 0.025960041 0.010944637 0.46600953 -0.37889725 0.79954493 0.0016925728
-0.060263559 0.029609658 0.0091929715 -0.65586734 -0.48860565 0.57541507 0.0033746387
-0.058370322 0.028999642 0.010450006 -0.58982337 -0.44184247 0.67593169 0.0024119103
-0.056541186 0.028071618 0.011513467 -0.53460306 -0.4234153 0.7313816 0.0015646504
-0.012903893 0.029777298 0.011710431 0.20070197 0.71160877 0.67329913 0.0014110263
-0.010331811 0.029445263 0.011425816 0.17572738 0.70126468 0.69090354 0.001322236
-0.0073779915 0.029130073 0.011037533 0.14690839 0.73242086 0.66481388 0.0015839805
-0.0043933927 0.028852275 0.010769774 0.11870258 0.7403425 0.66166663 0.0016777464
-0.0014284695 0.028700745 0.01047733 0.087325431 0.73489767 0.67253226 0.0022817326
0.0015293156 0.028474772 0.010436058 0.04681661 0.73917425 0.67188525 0.0022905672
0.0044960021 0.028399302 0.010395674 0.012858688 0.7271648 0.68634248 0.0018270755
0.0075018625 0.02840385 0.010385349 -0.020083364 0.73645467 0.67618871 0.0019057817
0.010509889 0.028520539 0.010428798 -0.058114607 0.72404468 0.68730056 0.0025540011
0.013476101 0.028703026 0.010585037 -0.10872547 0.70828128 0.69750726 0.0028124137
0.016445464 0.028898483 0.010913875 -0.14741202 0.66444474 0.73265469 0.0016537216
0.019365579 0.02923747 0.011266959 -0.17174339 0.64389139 0.74559247 0.0016285764
0.022266714 0.02961842 0.011658206 -0.18842272 0.65781778 0.72922736 0.0010360789
0.024519868 0.029851152 0.011915777 -0.18719678 0.6377008 0.74719143 0.0013192995
0.058760867 0.028069476 0.011444651 0.42592615 -0.31607649 0.8477515 0.00062258542
0.061149824 0.029221091 0.01047642 0.50011379 -0.33125806 0.80009651 0.0013398356
-0.060892727 0.031750724 0.00998386 -0.6284253 -0.42235464 0.65322131 0.001265496
-0.059352905 0.031516522 0.011314237 -0.57060444 -0.36581486 0.73524833 0.001604925
-0.021730091 0.032732923 0.01166264 0.27278218 0.69503134 0.6652227 0.0014944675
-0.019280588 0.032326035 0.011203662 0.25153574 0.72318739 0.64321828 0.0013150587
-0.016409548 0.031845983 0.010621625 0.23940119 0.76086712 0.60313213 0.0011443645
-0.013574992 0.031240545 0.010331019 0.20778252 0.75499159 0.62194383 0.0018257251
-0.010609881 0.030789746 0.009966311 0.18499322 0.76333237 0.61895162 0.0016881287
-0.0076357927 0.030453058 0.0095640225 0.15077887 0.77115035 0.61854088 0.0015004482
-0.0048891683 0.030178456 0.0093076481 0.11876789 0.77548337 0.62009662 0.0012045695
-0.002530158 0.030044004 0.0090695191 0.094003104 0.76999474 0.6310876 0.001404431
0.00052106462 0.030030496 0.0090228897 0.072339199 0.78053069 0.6209178 0.0014990589
0.011000433 0.030028204 0.0090238163 -0.060150858 0.8283394 0.55698806 0.0043440429
0.01434597 0.030127168 0.0091680447 -0.10846031 0.75457913 0.64718366 0.0016042072
0.016740019 0.03035756 0.0094153844 -0.15842575 0.74750203 0.64509064 0.0018228041
0.019646296 0.030715548 0.0098251766 -0.19395758 0.72877043 0.65671462 0.0016021124
0.022596559 0.031169558 0.010202489 -0.20527597 0.72323507 0.65938818 0.0027367743
0.025454313 0.031686503 0.010568779 -0.21738227 0.69823486 0.68206519 0.0014826829
0.028343588 0.032077629 0.011120324 -0.2267841 0.6372152 0.7365635 0.0016957697
0.031114295 0.032557197 0.011591136 -0.23457676 0.64275551 0.72927296 0.0015761851
0.033226326 0.032779761 0.01191896 -0.23675101 0.63060969 0.73910779 0.0032286556
0.059769742 0.030426564 0.011851033 0.43137768 -0.24530648 0.86818087 0.0014339712
0.061503496 0.031742182 0.011261676 0.51132149 -0.29519621 0.80709946 0.0018470817
0.063837223 0.03198659 0.0097472435 0.56780702 -0.27836585 0.77466613 0.0018304458
-0.063422531 0.03520745 0.0095875273 -0.64731717 -0.32971975 0.68721575 0.0015774698
-0.061580297 0.034424189 0.01086093 -0.59503907 -0.28922406 0.74985194 0.0017081331
-0.059685625 0.033237211 0.011866603 -0.57145911 -0.29730633 0.76488125 0.0024301219
-0.028027333 0.035541426 0.011474182 0.30417037 0.68082327 0.66630334 0.0011683099
-0.025311448 0.034958586 0.010807951 0.30593279 0.73958629 0.59951413 0.0012300353
-0.022595212 0.03423037 0.010359843 0.28047791 0.75392884 0.59407359 0.0020356236
-0.019712159 0.033629797 0.0097958306 0.27049941 0.76574838 0.583489 0.0013829513
-0.017287796 0.033145096 0.0093051074 0.24739265 0.77730322 0.57844323 0.0010385307
0.026319139 0.033202343 0.0091907261 -0.23293629 0.74074358 0.6301108 0.0013505006
0.028699175 0.033584896 0.0096702008 -0.25213295 0.72612256 0.63966787 0.0016000452
0.03157014 0.034158882 0.010159052 -0.25925466 0.71094197 0.65371901 0.002454635
0.034378733 0.034747165 0.010666612 -0.27869785 0.65397388 0.70331049 0.0021452594
0.037174247 0.035309959 0.011352162 -0.30119166 0.60426241 0.73766559 0.002221796
0.03939306 0.035815015 0.011782613 -0.30677143 0.60168415 0.73747373 0.0020043908
0.062384233 0.034512296 0.011525535 0.41391116 -0.09969645 0.90484148 0.001338589
0.064673588 0.035198957 0.010325931 0.54468429 -0.16022842 0.82319248 0.0019146928
0.066018395 0.034527905 0.0091632707 0.55546266 -0.13609953 0.82032806 0.0017469963
-0.064010046 0.038111079 0.010133897 -0.59347451 -0.16038215 0.78871137 0.0016359184
-0.061810583 0.037488624 0.011703296 -0.52095366 -0.10266689 0.84738821 0.0017559634
-0.036335178 0.03889453 0.011812986 0.32102403 0.66070682 0.67853528 0.0026158514
-0.034193598 0.038447242 0.011399464 0.32094836 0.68807739 0.65080082 0.0012124717
-0.031419184 0.037796367 0.010634411 0.33237776 0.73338515 0.59301871 0.0012536533
-0.028649231 0.036951248 0.010135871 0.32890695 0.74226302 0.58383709 0.0014740556
-0.026117466 0.036327854 0.009483967 0.32284325 0.7599926 0.56407756 0.0010146839
0.035237759 0.036376182 0.0093465475 -0.32399732 0.70845449 0.62699121 0.0017872868
0.037705891 0.037011083 0.0099805212 -0.34275928 0.68969434 0.63783836 0.0022131286
0.040371682 0.03772426 0.010683495 -0.32633618 0.61250061 0.71996361 0.0017359076
0.043110188 0.038366213 0.011427771 -0.30426678 0.55684793 0.77287906 0.0021147777
0.045404717 0.038837273 0.011895711 -0.27376157 0.5363847 0.79833961 0.0017548611
0.062730931 0.037893075 0.01185779 0.40230212 -0.045600615 0.9143706 0.0022100422
0.064050011 0.037701096 0.011171075 0.47446218 -0.079401754 0.87668753 0.001818883
0.066642255 0.038573723 0.0095572034 0.59572196 -0.097510435 0.79724967 0.0020994258
-0.066191956 0.041601308 0.0091992859 -0.64486313 -0.16172288 0.74699217 0.0019792982
-0.064368173 0.040886175 0.010476153 -0.55772394 -0.073798411 0.82673931 0.002168671
-0.062457208 0.040326215 0.011711611 -0.48708788 -0.028768258 0.87287903 0.0024645559
-0.042343907 0.041809745 0.011769215 0.30276132 0.65804666 0.68942755 0.0016160297
-0.040189896 0.041357707 0.011330972 0.31169146 0.66152012 0.68208474 0.00095045794
-0.037436251 0.040670473 0.010625642 0.3353675 0.71809363 0.60981143 0.0013326501
-0.034686591 0.039844934 0.010041285 0.35380945 0.73328966 0.58060759 0.0015395411
-0.032516781 0.039322071 0.0093661444 0.3664858 0.74660009 0.55522656 0.0012215142
0.041199837 0.039450649 0.0094736563 -0.38933161 0.6690889 0.63304102 0.0023808812
0.043690931 0.04024867 0.01007867 -0.37282273 0.63680845 0.67489129 0.0022859669
0.046357717 0.040758777 0.010920641 -0.29836854 0.56257623 0.77102798 0.0012496684
0.049140219 0.041353736 0.011548552 -0.2586503 0.52324176 0.81198412 0.0021002775
0.051570933 0.041801885 0.011868272 -0.19920959 0.50997669 0.83680302 0.0021556129
0.062814437 0.041136142 0.011862789 0.25297073 0.15892792 0.95433104 0.0019467101
0.064413838 0.040618885 0.011187728 0.42320216 0.033474255 0.90541667 0.0033718566
0.066733085 0.040792074 0.009707069 0.54277784 -0.0014261242 0.83987516 0.0023938101
-0.066354617 0.043882038 0.0093236826 -0.57563037 -0.023294816 0.81737816 0.002338605
-0.064272553 0.04373011 0.010711872 -0.46839836 0.068171829 0.88088346 0.0032628851
-0.062267438 0.043889895 0.011735054 -0.36294079 0.13393262 0.92213666 0.0044371216
-0.048870724 0.044652365 0.011767115 0.21961597 0.62185854 0.75170523 0.0017782918
-0.046268355 0.044241916 0.011247995 0.27717748 0.64877701 0.70870388 0.0013304368
-0.043442816 0.043603484 0.010570876 0.31249642 0.6809864 0.6622715 0.0011110361
-0.040724389 0.042865317 0.0099533461 0.34823835 0.70924324 0.61294699 0.0014906205
-0.038465705 0.042300995 0.0092888819 0.37662232 0.73002791 0.57027614 0.0013970174
0.044712339 0.04213661 0.0092206523 -0.41781142 0.68931073 0.59184825 0.0016028538
0.046922866 0.042622972 0.0095941527 -0.36799693 0.64690435 0.66790199 0.0022690471
0.049597476 0.043404061 0.010163473 -0.3300305 0.60200214 0.7270993 0.0021675713
0.052382898 0.043698683 0.010980087 -0.24249552 0.53272694 0.81080073 0.001782462
0.055269655 0.044108365 0.0115031 -0.18334492 0.48049769 0.85761684 0.0020631645
0.058231458 0.044424806 0.011732035 -0.075469777 0.41599044 0.90623188 0.0027589872
0.06166169 0.044025976 0.011706084 0.087044545 0.3108933 0.94645059 0.0035162426
0.064068265 0.043729588 0.011100871 0.25279701 0.20817694 0.94485772 0.0035373056
0.066873319 0.043506294 0.0097144693 0.56094325 0.04135257 0.82682079 0.0036918258
-0.066415422 0.046660021 0.0092441225 -0.50835943 0.099339649 0.85539597 0.0049276524
-0.064409308 0.046722557 0.010296912 -0.34652209 0.24438387 0.90564835 0.0043294504
-0.061435282 0.046840359 0.011291155 -0.198277 0.35606948 0.9131816 0.0043896656
-0.058581267 0.047096971 0.011551064 -0.036433827 0.45918447 0.88759345 0.0039329119
-0.055401266 0.047139388 0.011434481 0.10132215 0.54971343 0.82918572 0.0020556187
-0.052390065 0.046906818 0.01101172 0.19153009 0.60179466 0.77534479 0.0010479578
-0.049523231 0.04651238 0.01039919 0.25887388 0.64722371 0.71699768 0.0011307137
-0.046730753 0.045823868 0.0098763639 0.32389268 0.69201171 0.64514589 0.0014755566
-0.044552177 0.045304254 0.0093126241 0.36491716 0.7017557 0.61186147 0.001926869
0.05061515 0.0452202 0.0091492971 -0.36727497 0.63386428 0.68067992 0.0022563005
0.052751135 0.045758218 0.0095891189 -0.3159655 0.61894143 0.71908092 0.0025340631
0.055543598 0.046447977 0.010092651 -0.26193646 0.55417693 0.79011214 0.0029901594
0.058415893 0.046685237 0.010636327 -0.13188507 0.48422968 0.86494386 0.0029828744
0.061449639 0.046599723 0.010850395 0.013001017 0.39583233 0.91823077 0.0034703203
0.064331874 0.046688274 0.010378372 0.18394893 0.32114354 0.92899388 0.0047067734
0.066633686 0.046674773 0.0095295208 0.43018788 0.16847123 0.8868798 0.0058455686
-0.066346474 0.048569933 0.0091534136 -0.39443657 0.23715866 0.88779259 0.0063069067
-0.064317115 0.049367286 0.009557195 -0.24090166 0.36086291 0.90096855 0.00591014
-0.061462004 0.049721297 0.0099573294 -0.08946456 0.48654181 0.86906451 0.0049298485
-0.058501672 0.0495327 0.01010089 0.053804718 0.57875735 0.81372297 0.0040518399
-0.055557635 0.049208287 0.0099182352 0.1689565 0.63826448 0.75104737 0.0030251045
-0.052734923 0.048661079 0.0095782205 0.2488008 0.67236966 0.69714934 0.0020407883
-0.050622284 0.048195809 0.009237607 0.30774468 0.69224167 0.65275919 0.0024520822
0.056569897 0.048241459 0.0091504371 -0.298648 0.61442178 0.73027062 0.0027088388
0.058706302 0.048704494 0.0094480319 -0.21406934 0.57325512 0.79091901 0.0035203702
0.061496045 0.049257319 0.0095947208 -0.10215598 0.51549959 0.85077864 0.0035851859
0.064145572 0.049237166 0.0095599145 0.035749648 0.44220021 0.8962037 0.0048906337
0.066426978 0.048505135 0.0092114527 0.24278139 0.32464293 0.91414672 0.004456968
-0.063504972 0.051110346 0.0090556256 -0.11283457 0.50678349 0.85465711 0.010139436
-0.06143092 0.051059574 0.0091073597 -0.012533396 0.5831514 0.81226677 0.0045083119
-0.05878292 0.051158629 0.0090537909 0.11138565 0.66994411 0.73400825 0.0025652046
-0.056972645 0.051020894 0.0090843709 0.15575746 0.70999873 0.68676162 0.0044755521
0.06285397 0.051112324 0.0090454388 -0.24958204 0.61991525 0.74391794 0.0012097646
-0.015604937 0.0086617554 0.012909725 -0.088871673 -0.54790914 0.83180374 0.00034609291
-0.012856951 0.0089852614 0.013538091 -0.061683364 -0.53102964 0.84510517 0.0010758995
-0.010843895 0.0087735448 0.013559191 -0.052295968 -0.55463839 0.83044654 0.00057406491
-0.00758758 0.0078645442 0.013038753 -0.021097763 -0.52999705 0.84773695 0.00030102898
-0.004356917 0.0080155823 0.013249001 0.0040372303 -0.51350373 0.85807788 0.00029981518
-0.0015425811 0.0079668425 0.013213765 0.0053873654 -0.50305301 0.86423874 0.00041810708
0.0011672428 0.0078262473 0.013074576 0.023301868 -0.4842816 0.87460184 0.00032533926
0.0051054908 0.0084601361 0.013389694 0.056513872 -0.42268017 0.90451515 0.0012126521
0.0072873617 0.0078494623 0.012846208 0.05958477 -0.43127692 0.9002499 0.00084270583
0.010525107 0.0082449093 0.012829477 0.059070524 -0.44017285 0.89596796 0.0010549617
0.013613188 0.0085299816 0.012780785 0.082425341 -0.44673938 0.89085913 0.00079085241
0.017985158 0.0088588065 0.012494812 0.096180268 -0.43046802 0.89746684 0.00059774995
0.018853739 0.0086956313 0.012149088 0.09116932 -0.43446305 0.89606363 0.0010532694
-0.025596077 0.011466051 0.013244863 -0.19449051 -0.62879938 0.75285119 0.0015466742
-0.022276368 0.011027589 0.013640332 -0.15590765 -0.59407556 0.78915596 0.0013956362
-0.019852031 0.011162134 0.014265233 -0.1041876 -0.50260073 0.8582176 0.00069073425
-0.016297059 0.010755736 0.014490223 -0.056704637 -0.45933491 0.8864513 0.0015277362
-0.013687882 0.010304685 0.014376516 -0.077800982 -0.51984185 0.8507123 0.00092623028
-0.01042118 0.009827964 0.014358827 -0.02110512 -0.4652532 0.88492602 0.00073131634
-0.0074490206 0.0098353717 0.014456434 -0.011092884 -0.42158136 0.90672278 0.0017353533
-0.0043237722 0.0099594556 0.014545606 0.0022129982 -0.43658584 0.89965987 0.0012390951
-0.0014123374 0.0099222809 0.014478805 0.02431058 -0.41442278 0.90975976 0.0012074863
0.0015229997 0.0097007509 0.01427104 0.050215881 -0.41689315 0.90756732 0.0012736155
0.0044740648 0.010450385 0.014515677 0.052887943 -0.39614332 0.9166643 0.0015270652
0.0075566769 0.010659128 0.014443761 0.057924815 -0.40880615 0.91078109 0.0013757317
0.010546188 0.010714146 0.014270341 0.052175388 -0.41899794 0.90648693 0.0013053182
0.013455981 0.010783983 0.01407298 0.07811819 -0.40378636 0.91151202 0.00114463
0.016522538 0.010918168 0.013851144 0.08961159 -0.42055672 0.90282995 0.0013236941
0.019609012 0.011014929 0.013552839 0.093206532 -0.40666875 0.90880859 0.0013377545
0.022085879 0.011602089 0.013520355 0.099023059 -0.40591058 0.90853232 0.0014924929
0.02551765 0.01125524 0.012811245 0.1152767 -0.38124135 0.91726023 0.00073745381
-0.03601528 0.014551397 0.012594531 -0.28556794 -0.63900751 0.71422708 0.00074083894
-0.034257773 0.01415097 0.012900922 -0.28558755 -0.63899118 0.71423393 0.00073570473
-0.031418905 0.01426346 0.014080966 -0.19840559 -0.55482119 0.80796576 0.00068044185
-0.0287496 0.013656031 0.014330346 -0.17757767 -0.53720123 0.82454896 0.0013412158
-0.025136989 0.012994265 0.014601256 -0.17028618 -0.57360208 0.80123866 0.0022150092
-0.023033669 0.012517719 0.01472103 -0.11845241 -0.48450741 0.86673039 0.0014976605
-0.018929824 0.012048868 0.014959068 -0.084998623 -0.49865818 0.86262119 0.0024746563
0.0099792751 0.012132514 0.014929308 0.039310873 -0.32785216 0.94391084 0.0039940979
0.013745626 0.012663895 0.014848167 0.07022538 -0.29325816 0.95345062 0.0016274757
0.016690122 0.012773858 0.01464178 0.083092816 -0.31386074 0.94582611 0.0017677596
0.019418722 0.013684113 0.014727612 0.078293651 -0.25538105 0.96366525 0.0011250895
0.022338882 0.013596078 0.014394376 0.09270075 -0.34436673 0.93424737 0.0010581153
0.025192458 0.013941741 0.014201885 0.089021645 -0.3292805 0.94002634 0.00085752032
0.028226931 0.014235205 0.013923531 0.10267737 -0.31425041 0.94377118 0.00074025581
0.031485286 0.014162205 0.013388466 0.11797391 -0.34654996 0.9305833 0.0013370774
0.03343951 0.014363916 0.0130819 0.18814225 -0.44192818 0.87709862 0.0014971433
0.037844978 0.014837396 0.012213438 0.19948047 -0.46003765 0.86520112 0.0010183733
-0.039791353 0.017351493 0.013396427 -0.35162064 -0.59630185 0.72165573 0.0021744729
-0.037411325 0.016598888 0.013792875 -0.30649665 -0.60677171 0.73340851 0.0015209554
-0.034456715 0.016142342 0.014613515 -0.20372407 -0.49518165 0.84456593 0.0013507111
-0.03189902 0.015410225 0.014767184 -0.22234631 -0.60605729 0.76371247 0.0016105701
0.02289439 0.015301571 0.014921024 0.074345246 -0.27926496 0.95733166 0.0018956162
0.025386365 0.015790513 0.014846005 0.075880401 -0.21298333 0.97410482 0.0010242501
0.028773226 0.016550496 0.014720925 0.077606902 -0.21229437 0.97411925 0.0009300083
0.031474795 0.016610844 0.014433673 0.098969795 -0.29641631 0.94991702 0.00086641242
0.034482792 0.016902935 0.014149681 0.13922073 -0.33873129 0.93052608 0.0012733354
0.037313301 0.017067119 0.013704289 0.15054919 -0.36035517 0.92058629 0.001568804
0.040441889 0.01661453 0.012632059 0.21226941 -0.47646809 0.85318226 0.00054095458
0.042757042 0.017652195 0.012590362 0.2240302 -0.43707737 0.87107629 0.00067230099
-0.046076145 0.020491848 0.012674574 -0.43152097 -0.58398026 0.68757308 0.00062508124
-0.043249495 0.019841274 0.013697492 -0.3767097 -0.56465942 0.73433614 0.00078934274
-0.040660001 0.019160945 0.01441109 -0.32203314 -0.54067206 0.77715409 0.0017678243
-0.038315155 0.018413549 0.014868517 -0.28466275 -0.55840647 0.77919793 0.0021263948
0.032049946 0.018298388 0.014909852 0.076167628 -0.18603855 0.97958565 0.0016532274
0.034261893 0.018657954 0.014794546 0.087735616 -0.20510095 0.97480059 0.0015277209
0.037433874 0.019730231 0.014738064 0.076958314 -0.19939469 0.97689265 0.0016522617
0.040358551 0.019844214 0.014283258 0.167686 -0.33324012 0.92781055 0.0015983765
0.043584343 0.019824332 0.013459854 0.22160119 -0.36788884 0.90307844 0.0011076344
0.046246342 0.019881448 0.012727577 0.24475677 -0.38397348 0.89031368 0.00029305535
0.048372425 0.020519078 0.012409203 0.29183874 -0.41804931 0.86027026 0.0003616029
-0.051150829 0.023722418 0.01212635 -0.44844872 -0.55426073 0.70120531 0.0016916214
-0.049227625 0.023081847 0.012844207 -0.45263141 -0.57019091 0.68557066 0.00085526932
-0.046673343 0.022758551 0.014144536 -0.36642128 -0.46555555 0.80560136 0.0011552083
-0.044283934 0.021530075 0.014443447 -0.34628168 -0.53148127 0.77305675 0.0015500758
-0.0067366413 0.023750613 0.014925912 0.11830906 0.41660002 0.90135866 0.0022097623
-0.0041415053 0.023567341 0.014757174 0.10272355 0.44826669 0.88797796 0.0019114506
-0.0012938065 0.023300206 0.014645297 0.078512713 0.45193744 0.88858783 0.0018023252
0.0013757831 0.023162097 0.014529866 0.0545476 0.47316614 0.87928283 0.0015693055
0.0044202302 0.023007983 0.014437572 0.024188539 0.45643589 0.88942748 0.0015978906
0.007436364 0.022889417 0.01444346 -0.0036055804 0.43965554 0.89815921 0.001652414
0.010425851 0.022795433 0.014540157 -0.023415484 0.43200144 0.90156889 0.0018811914
0.0134606 0.022992613 0.014568958 -0.048141181 0.4118813 0.90996504 0.0019932201
0.016408343 0.023353757 0.014642994 -0.080594152 0.4099527 0.90853918 0.0022795389
0.019160401 0.02356232 0.014754388 -0.091296121 0.36426491 0.92680961 0.0023322459
0.02200176 0.023570145 0.014923454 -0.067910254 0.24162073 0.96799153 0.0032423076
0.038922444 0.021534026 0.01498909 0.070812605 -0.12046325 0.99018896 0.0021260409
0.040672585 0.021878805 0.014886762 0.085329972 -0.14266925 0.98608536 0.0019619178
0.043271393 0.022928903 0.014766262 0.11313584 -0.17755616 0.97758585 0.0025494576
0.046398286 0.022739802 0.013972512 0.22485533 -0.3242169 0.91887075 0.0014422447
0.04936491 0.022336261 0.012899533 0.26358882 -0.34620434 0.90036851 0.00064521213
0.051733036 0.023593731 0.012642648 0.28781688 -0.34157908 0.89469838 0.00075843098
-0.054349199 0.026810827 0.01224979 -0.50224519 -0.49756512 0.70723319 0.001527388
-0.051688503 0.026338477 0.013709893 -0.43318799 -0.42959303 0.792337 0.00095847447
-0.049442798 0.025656737 0.014500458 -0.35135931 -0.36159724 0.8635937 0.0012901559
-0.047575504 0.02423111 0.014675139 -0.36804721 -0.42964244 0.82458997 0.00058958319
-0.015894538 0.026713803 0.014836646 0.18765303 0.51670831 0.83534354 0.00174684
-0.013301144 0.026283743 0.014616863 0.17184761 0.52055269 0.83635718 0.0016303327
-0.010377542 0.025889665 0.014305606 0.15347889 0.53459907 0.83105236 0.0011566512
-0.0074716765 0.025698805 0.013935345 0.1296107 0.54330695 0.82946891 0.00086768699
-0.0044751535 0.02572263 0.01349802 0.10675395 0.56527662 0.81796455 0.001220607
-0.0014884766 0.025583534 0.013254589 0.085336357 0.5810886 0.80935383 0.0021168801
0.0015135068 0.02561334 0.013001278 0.056714606 0.58609915 0.80825198 0.0019325595
0.0044609522 0.025470087 0.012969408 0.019002 0.58373582 0.81172127 0.0020156999
0.0075083622 0.025411339 0.01299797 -0.0057154996 0.58237761 0.81289828 0.0020216722
0.010532588 0.025532126 0.013017908 -0.038614426 0.56419677 0.82473689 0.0027943037
0.013482448 0.025614455 0.013172857 -0.078022867 0.54379129 0.83558565 0.0025963057
0.01642135 0.025651013 0.013444119 -0.10488231 0.51573652 0.85030317 0.0019789587
0.01938498 0.025761403 0.013774206 -0.11586194 0.47219515 0.87384653 0.0016976111
0.022403272 0.025733354 0.014214384 -0.11062174 0.43705964 0.89260387 0.0021905061
0.025419384 0.025955452 0.01449218 -0.11758564 0.41166314 0.90371847 0.0025190397
0.028372267 0.026134621 0.014731465 -0.098263197 0.31522888 0.94391477 0.0033376222
0.031320237 0.026479237 0.014848155 -0.09464509 0.25848228 0.96136844 0.0032653126
0.034312423 0.026701197 0.014952445 -0.073020175 0.17893828 0.98114687 0.0021761386
0.044648867 0.024494506 0.01492341 0.11614163 -0.13711023 0.98372352 0.0034608366
0.046471689 0.025656275 0.014823855 0.11668395 -0.10107718 0.98801225 0.0014059993
0.049462296 0.025747027 0.014181169 0.24722464 -0.2748602 0.92915648 0.0012355527
0.052482568 0.025711153 0.013211393 0.2971437 -0.30403352 0.90513492 0.0010110338
0.054974824 0.026074907 0.012465254 0.35311475 -0.34897524 0.86805892 0.0010268015
-0.055321906 0.029002832 0.012925394 -0.4863044 -0.36493364 0.79393417 0.0017945176
-0.052808102 0.028848795 0.014341203 -0.42666036 -0.31597853 0.84741873 0.0014758967
-0.05059804 0.027210917 0.014718663 -0.43095368 -0.43319264 0.79159528 0.0013905311
-0.024587067 0.029851735 0.014897364 0.22018652 0.54109371 0.81162524 0.0010133634
-0.02213457 0.029463494 0.014633318 0.21690074 0.5392651 0.81372434 0.0015065711
-0.019385129 0.028995961 0.014228647 0.21278977 0.56240267 0.79901421 0.0010269867
-0.016467316 0.02865945 0.01369617 0.20460606 0.57645535 0.7910977 0.00074771239
-0.013518908 0.028453834 0.013106815 0.19185387 0.62434387 0.75722307 0.0015842229
-0.010619946 0.028028211 0.012791313 0.16342008 0.64241695 0.74872839 0.0014342517
-0.0076355762 0.027646007 0.012508514 0.13633333 0.65570182 0.7426092 0.0014375556
-0.0047943513 0.027378283 0.012285207 0.10918134 0.67382193 0.73078281 0.0012241103
-0.001952537 0.02713193 0.01210224 0.083270647 0.66966724 0.73797822 0.0015588192
0.00058939739 0.027109735 0.01220676 0.043775938 0.67811662 0.73364949 0.0025527449
0.0048510269 0.027005462 0.01200645 0.028506469 0.65987653 0.75083309 0.0031547435
0.01093647 0.027125131 0.01209877 -0.081944503 0.64342386 0.76111156 0.0033941839
0.014180955 0.027197236 0.012120529 -0.096999221 0.65531576 0.74910104 0.0019911553
0.016798506 0.027377583 0.012352273 -0.12543966 0.63406044 0.76304138 0.0019003167
0.019724099 0.027819956 0.01252389 -0.14496213 0.60140616 0.7856822 0.0019551662
0.02260183 0.028181605 0.012824451 -0.15360859 0.56705737 0.80922818 0.0022549157
0.025510984 0.028630434 0.013097961 -0.16533507 0.53137726 0.83084452 0.0025145977
0.028411761 0.028687777 0.0136208 -0.16365521 0.48715508 0.85784429 0.0024150393
0.031360138 0.028705278 0.014115271 -0.14522918 0.42438644 0.89375871 0.0025545405
0.034421917 0.028766489 0.014486483 -0.12809904 0.36943999 0.92038286 0.0026136041
0.037265636 0.028945073 0.014746174 -0.10850258 0.28600177 0.9520663 0.0021846271
0.040275373 0.029298132 0.01488243 -0.070511475 0.19611619 0.97804219 0.0018982704
0.042620588 0.029681509 0.014934664 -0.048997451 0.16402818 0.98523808 0.001446805
0.047493983 0.028162543 0.014967778 0.040636029 0.050041411 0.9979201 0.0015268065
0.049379136 0.028642427 0.014791142 0.095905565 -0.026294596 0.9950431 0.0018515605
0.052423865 0.028900882 0.014190689 0.21028155 -0.13874462 0.96774566 0.0017624606
0.055516586 0.028559316 0.013068901 0.29874524 -0.22963473 0.92629319 0.0012468685
0.057778016 0.029311404 0.012406543 0.34905967 -0.23543929 0.90704232 0.0012355825
-0.057971768 0.032076288 0.012630954 -0.52236664 -0.33071163 0.78597891 0.0021334335
-0.055529196 0.031615369 0.013950616 -0.45639822 -0.26733693 0.84866458 0.0022248689
-0.053434033 0.031026563 0.014793788 -0.37514126 -0.21416463 0.90188837 0.0046899593
-0.030573942 0.032620057 0.014816856 0.23226403 0.50881284 0.82895291 0.001559534
-0.028264582 0.032251682 0.014458266 0.24672993 0.54928148 0.79838228 0.0014798027
-0.025454504 0.031794723 0.013898115 0.24249931 0.58064026 0.7772072 0.0010630559
-0.022562889 0.031444833 0.013234326 0.25128019 0.63827538 0.72764206 0.0014549129
-0.019657549 0.030932767 0.012754426 0.23456717 0.66844994 0.70579946 0.0013515818
-0.016850663 0.030432597 0.012341455 0.21557957 0.68513513 0.69578391 0.0011802054
-0.014677207 0.030096816 0.012111182 0.19361648 0.6870023 0.70038593 0.0023409629
0.026207559 0.030236209 0.012137737 -0.18600261 0.63610202 0.74885058 0.001843494
0.028725773 0.03065154 0.012436883 -0.19254082 0.60164469 0.77521062 0.0023766116
0.031601414 0.031198246 0.012768577 -0.19454433 0.55919462 0.8058871 0.0027543334
0.034499966 0.031645358 0.013153565 -0.19732839 0.50424308 0.84071422 0.0032525621
0.03744838 0.031602327 0.013821007 -0.18909857 0.44323125 0.87623501 0.0023950296
0.040341537 0.031711433 0.014250317 -0.15019575 0.35369724 0.92322236 0.0024355731
0.043351054 0.031942848 0.014563079 -0.10255471 0.2622326 0.95953983 0.0025792045
0.046219174 0.031911045 0.014805139 -0.042160522 0.17300478 0.98401821 0.0026554961
0.049251039 0.031481922 0.014830219 0.027432334 0.10583453 0.99400526 0.0020921247
0.052241836 0.031749412 0.01458527 0.069722295 0.08585716 0.99386483 0.0022058007
0.055311304 0.031787377 0.013962578 0.24726899 -0.05466995 0.96740335 0.0031202706
0.058382858 0.032158058 0.012986769 0.31820422 -0.1203981 0.94034588 0.0015513808
0.06013342 0.032596722 0.012401184 0.42500877 -0.1726447 0.88857269 0.0022755149
-0.06034261 0.035523456 0.012257401 -0.56144845 -0.24921817 0.78909189 0.0019953835
-0.058048882 0.035151847 0.01350209 -0.4362945 -0.10306996 0.89388126 0.002485699
-0.055830356 0.034516107 0.014500971 -0.35103345 -0.06317728 0.93422914 0.0018160838
-0.036875732 0.035614539 0.014714581 0.22424605 0.51671809 0.82626635 0.0015069803
-0.034233727 0.035116225 0.014318705 0.25341022 0.55290973 0.7937721 0.0011678895
-0.031347703 0.034621935 0.01369935 0.26956162 0.59233457 0.7592603 0.0010661696
-0.028602751 0.034196984 0.013033572 0.27719492 0.64445597 0.71262848 0.001723288
-0.025777861 0.03359814 0.012511064 0.27565864 0.67743337 0.68197972 0.0011402048
-0.023690408 0.033149902 0.012126498 0.26740342 0.66826385 0.69420367 0.0013719485
0.035201531 0.033386294 0.012198928 -0.23096697 0.60942876 0.75845301 0.0022920764
0.037675682 0.033900458 0.012600946 -0.2412262 0.54996347 0.79959375 0.0033877587
0.040488068 0.034552891 0.013018114 -0.24374242 0.4792836 0.84313518 0.0027856913
0.043410212 0.034702647 0.013644442 -0.19043958 0.41406059 0.89010483 0.0020321193
0.046336457 0.034545273 0.014157677 -0.13116032 0.32963583 0.93495303 0.0027923316
0.049365215 0.034672253 0.014395411 -0.070395902 0.26483318 0.9617213 0.0036024959
0.052386355 0.03460085 0.014427056 0.019856185 0.16539021 0.98602831 0.0030867108
0.055300821 0.034810241 0.014105652 0.098292254 0.11508389 0.98848081 0.0032605464
0.058189936 0.034612786 0.013430159 0.29052684 -0.064036749 0.95472169 0.0025575417
0.06084406 0.034885935 0.012445251 0.36790177 -0.071644492 0.92710048 0.0024775513
-0.060624927 0.03768177 0.012514943 -0.48322526 -0.083147973 0.87153876 0.0027309393
-0.058380701 0.037719719 0.013673445 -0.38984701 -0.018709574 0.92068952 0.0024301428
-0.055858109 0.037701532 0.014663978 -0.2697061 0.074462377 0.96005929 0.0033712676
-0.05384735 0.038708642 0.014931331 -0.13432862 0.15271139 0.97909909 0.0028553663
-0.045900177 0.038745299 0.014870057 0.12489443 0.44474739 0.88690537 0.0023752917
-0.04319483 0.038398851 0.014665312 0.1918097 0.49692938 0.84632754 0.0016767954
-0.040413585 0.037904546 0.014264029 0.23196404 0.54320878 0.80691814 0.0011278379
-0.037483633 0.03762177 0.013525411 0.27186021 0.58620048 0.76319134 0.0013066094
-0.034665249 0.037129801 0.012881543 0.29238239 0.63931578 0.7111876 0.001477206
-0.031975597 0.036452014 0.012401219 0.2996147 0.66885477 0.6803413 0.00121194
0.0413398 0.036372442 0.012206517 -0.28351158 0.56322217 0.77614558 0.0026951795
0.043687921 0.037018366 0.012548498 -0.24723186 0.50570172 0.8265242 0.0033715169
0.046444591 0.037495252 0.013012375 -0.2197554 0.44298807 0.86917728 0.0021304262
0.049368728 0.037649658 0.013504815 -0.14807388 0.38349828 0.91159379 0.0019755003
0.052395456 0.037607212 0.013805032 -0.067362361 0.30212152 0.95088631 0.0030033868
0.05525101 0.037755292 0.013780832 -0.00065596274 0.25075018 0.96805167 0.0031736356
0.058363803 0.037639048 0.013374664 0.14077058 0.14081649 0.97997671 0.0026355092
0.061124958 0.037590511 0.012585563 0.3493672 -0.028354563 0.93655676 0.0031493516
-0.060943063 0.040611677 0.012548633 -0.42726269 0.030827628 0.90360183 0.0035739876
-0.058491349 0.040756159 0.01356864 -0.27892861 0.15851678 0.94713843 0.0046614814
-0.055436753 0.040664405 0.014297639 -0.14822148 0.27231634 0.95072293 0.0045612282
-0.052478444 0.040795691 0.014497283 -0.017917462 0.35644034 0.93414634 0.0045381519
-0.049430769 0.040751457 0.014371243 0.10181892 0.45018238 0.88711256 0.0017600714
-0.04641756 0.040592324 0.014012281 0.17884712 0.52132225 0.8344081 0.0012560021
-0.043471679 0.040537611 0.013287957 0.24602576 0.57518107 0.78015262 0.0014680539
-0.040701091 0.039986316 0.012796449 0.27486339 0.62463945 0.73094159 0.0015914364
-0.03825612 0.039367978 0.012374587 0.29695606 0.6601063 0.68998313 0.001108181
0.047262866 0.039353196 0.012242065 -0.26103911 0.53217655 0.80538607 0.0025007038
0.049595416 0.039989579 0.012485663 -0.20390032 0.47717771 0.85482514 0.0026446504
0.052440446 0.040515367 0.012774413 -0.1514024 0.41304907 0.89803553 0.0020521514
0.055359699 0.040642578 0.013003421 -0.045097414 0.31987947 0.94638443 0.0029794439
0.058226295 0.040635947 0.012962658 0.063423574 0.24469554 0.9675234 0.0026504279
0.061214801 0.040624462 0.012424552 0.18469076 0.17099841 0.96780622 0.0032976149
0.063105807 0.041065145 0.012019008 0.38268781 0.049638826 0.92254323 0.0051929206
-0.06077205 0.043617837 0.012349903 -0.30206797 0.21720536 0.92821163 0.0044279844
-0.058395278 0.043578535 0.012984484 -0.18053676 0.28220451 0.94221395 0.0041573821
-0.055484444 0.043586332 0.013304147 -0.054771781 0.37623531 0.92490381 0.0039855484
-0.052490305 0.043737218 0.013158728 0.094523631 0.49029577 0.86641526 0.0028729106
-0.049537718 0.04347891 0.012841945 0.17500772 0.55135918 0.81570542 0.0024404959
-0.046691075 0.04286553 0.012551845 0.23504701 0.59949958 0.76508373 0.0020704924
-0.044334251 0.042270314 0.012249439 0.27811226 0.62794346 0.72687036 0.001782856
0.053266469 0.042291477 0.012196376 -0.1941316 0.49038836 0.84960705 0.001919319
0.055601794 0.042609856 0.012308379 -0.1352872 0.43687925 0.88928849 0.0022541331
0.058280349 0.042816821 0.012359094 -0.017108358 0.36581102 0.93053192 0.0028025126
0.060744267 0.042800501 0.012169122 0.15750304 0.26093695 0.95242041 0.0046439464
-0.060554631 0.045302205 0.012103208 -0.26243001 0.27300152 0.92552722 0.0051364764
-0.058223836 0.045634933 0.012270799 -0.12053712 0.38843778 0.91355729 0.0047515878
-0.055610891 0.0455973 0.012355446 0.041963082 0.50237334 0.8636319 0.0028867468
-0.052737311 0.045370933 0.012220886 0.15099458 0.57235616 0.80598325 0.0021194143
-0.050469853 0.045173772 0.012049938 0.21912603 0.61764872 0.75531042 0.0012715789
-0.01372443 0.011809298 0.015385218 -0.041201264 -0.43881598 0.89763188 0.0015138432
-0.010101427 0.011484408 0.015297323 -0.026793644 -0.46838257 0.8831194 0.0017265154
-0.0074311672 0.01132429 0.015239156 0.0040618754 -0.44678828 0.89463055 0.002100308
-0.0039625885 0.011786197 0.015444859 0.019007513 -0.3620373 0.93196982 0.0026264391
-0.0015165752 0.011730285 0.015353641 0.029131288 -0.38791561 0.92123443 0.0012787526
0.0013203393 0.011548353 0.015168155 0.043602996 -0.37795755 0.92479557 0.0013528083
0.0033262698 0.011564278 0.015066426 0.050326142 -0.38850725 0.92007029 0.0012962798
-0.028782632 0.014769737 0.015062637 -0.16713862 -0.54667282 0.8204959 0.0009814034
-0.02545438 0.01442317 0.015550766 -0.1291827 -0.46766046 0.87441725 0.0020819632
-0.022118906 0.014074247 0.015833596 -0.089281045 -0.42212671 0.90212965 0.0026073314
-0.01934645 0.013984434 0.016055515 -0.059924897 -0.39861095 0.9151603 0.0035834226
-0.016641878 0.013773583 0.016125441 -0.035002522 -0.37952211 0.92452031 0.0022342321
-0.013449946 0.013476711 0.016125057 -0.019548565 -0.35428768 0.93493211 0.0029982715
-0.010609115 0.013546159 0.01615354 0.025837291 -0.28216732 0.95901722 0.004875076
-0.0072172936 0.013773493 0.016142391 0.032941151 -0.1927498 0.98069489 0.0025727667
-0.0046347068 0.014000383 0.016105643 0.032059718 -0.16524616 0.98573112 0.0024870837
-0.0013907054 0.014016681 0.016013054 0.047701895 -0.14189431 0.9887318 0.0022831485
0.0018380744 0.013939476 0.015906163 0.04884598 -0.046290826 0.997733 0.0017925199
0.0045043048 0.014014241 0.015702637 0.048539992 -0.13828525 0.9892022 0.0015306682
0.0071041672 0.014029094 0.015565584 0.035755739 -0.14726157 0.988451 0.0015702943
0.010419673 0.013975378 0.015425033 0.040136155 -0.17187187 0.98430139 0.0018659296
0.013113129 0.013654031 0.015193115 0.051443744 -0.1907941 0.98028117 0.0015464164
0.016321227 0.014427021 0.015185844 0.061818574 -0.26029769 0.96354741 0.0016967681
0.018526427 0.014783204 0.015137926 0.066738099 -0.22148429 0.97287762 0.0011229246
-0.034595639 0.017545702 0.01551838 -0.21319531 -0.48530117 0.84795666 0.0012513793
-0.031412415 0.016932808 0.015908025 -0.15783714 -0.45736089 0.87516195 0.001781137
-0.028303463 0.016632091 0.016293813 -0.12511592 -0.41567776 0.9008652 0.0027450216
-0.025046084 0.017181978 0.016876439 -0.031739973 -0.21103874 0.97696227 0.0021893592
-0.022553517 0.017015098 0.016962923 -0.025745966 -0.22705752 0.97354096 0.0033498986
-0.019718615 0.016899334 0.017031386 0.0007941653 -0.19342333 0.9811151 0.003718965
-0.016456366 0.01711775 0.017124927 0.047735244 -0.034630563 0.9982596 0.002208659
-0.013474801 0.01710292 0.01698163 0.075043581 0.058488868 0.99546343 0.0021382412
-0.010162593 0.016544411 0.016784225 0.073203608 0.080272853 0.9940812 0.0022480735
-0.0075929868 0.016886206 0.016659133 0.074127167 0.09214896 0.99298227 0.0024053312
