# .PCD v0.7 - Point Cloud Data file format
VERSION 0.7
FIELDS x y z normal_x normal_y normal_z curvature
SIZE 4 4 4 4 4 4 4
TYPE F F F F F F F
COUNT 1 1 1 1 1 1 1
WIDTH 557
HEIGHT 1
VIEWPOINT 0 0 0 1 0 0 0
POINTS 557
DATA ascii
0.042161141 0.011907126 -0.0092535093 0.37756115 -0.74909049 -0.5443446 0.0014726408
-0.036219012 0.013871794 -0.0091075227 -0.35820448 -0.74038702 -0.56878513 0.00088626676
-0.034248598 0.013797157 -0.010086508 -0.31929365 -0.70637029 -0.63173777 0.0017026098
-0.032037232 0.013389102 -0.010714225 -0.29703307 -0.70005089 -0.64938444 0.0019301793
-0.02873983 0.0125755 -0.011276277 -0.2621513 -0.6920197 -0.67259598 0.0014046003
-0.026813572 0.012501391 -0.011936106 -0.2236623 -0.66003197 -0.71717012 0.0013684554
0.038419858 0.012331231 -0.011877008 0.28327647 -0.66643238 -0.68965369 0.001260584
0.040735025 0.012794053 -0.011225468 0.32086828 -0.68177551 -0.65743881 0.0010736586
0.043466982 0.013568155 -0.010531084 0.36294237 -0.72878891 -0.58063728 0.0012781427
0.04613639 0.014396147 -0.00977646 0.41577989 -0.70994258 -0.56842637 0.0010863788
-0.039600529 0.016672235 -0.010215692 -0.39663705 -0.69057041 -0.60480702 0.0010962294
-0.037438575 0.015899522 -0.010677095 -0.3546519 -0.66487765 -0.65738863 0.0018912124
-0.035474777 0.015832385 -0.011655219 -0.31090853 -0.62119049 -0.71934575 0.0012195327
0.044367671 0.01526963 -0.011912736 0.35817263 -0.6384756 -0.68122035 0.0010702797
0.046796575 0.015945423 -0.011135278 0.40843537 -0.64809412 -0.64277107 0.0015699109
0.049334284 0.016741488 -0.010232387 0.43737286 -0.67688811 -0.59205359 0.0015617978
0.051616356 0.017601768 -0.0094489809 0.48629016 -0.66599053 -0.56566638 0.0013139666
-0.043102335 0.018926369 -0.010302968 -0.39007586 -0.64904135 -0.65313566 0.0045590606
-0.041233499 0.018188676 -0.010775201 -0.39008021 -0.64903992 -0.65313441 0.0045571397
0.050226193 0.018513752 -0.011474504 0.42210937 -0.60816145 -0.6722821 0.00048702111
0.052602585 0.019378735 -0.010582187 0.46370476 -0.60294384 -0.6491816 0.001037357
0.054860841 0.020274382 -0.0096881567 0.5282383 -0.62296242 -0.57695931 0.0015779776
0.0535703 0.021401256 -0.011739041 0.45453846 -0.54666615 -0.7032432 0.00079816056
0.055787619 0.022242028 -0.010775685 0.49045682 -0.53238142 -0.68994361 0.00080985989
0.057916 0.023096405 -0.0097769964 0.55755091 -0.57877398 -0.59511143 0.00098591519
0.056681357 0.024404008 -0.011815101 0.48599443 -0.47208691 -0.73548847 0.0010441262
0.058725215 0.025247445 -0.010805225 0.52822489 -0.45920724 -0.7142179 0.00089136767
0.060716014 0.026045343 -0.0097050807 0.58752465 -0.50903875 -0.62904245 0.0012399497
0.059615582 0.027639478 -0.011666258 0.52985257 -0.37033579 -0.76295984 0.0016903251
0.061595894 0.02843645 -0.010506012 0.57889295 -0.38097855 -0.72092867 0.0010066378
0.063392736 0.029197427 -0.0093633458 0.65340024 -0.42695564 -0.62512165 0.0014500157
0.062196922 0.031226886 -0.011408881 0.56234723 -0.29126903 -0.77390432 0.0015496844
0.064218976 0.031577855 -0.0098764291 0.65279418 -0.33897004 -0.67746526 0.0014591016
0.062762395 0.03382181 -0.011860147 0.5413211 -0.1752461 -0.82235044 0.0022376513
0.064588331 0.034469426 -0.010631433 0.62943679 -0.24217567 -0.73834968 0.0017818073
0.066308334 0.034900375 -0.0093047349 0.69060189 -0.25554594 -0.67658359 0.0018128967
0.064668939 0.037409801 -0.011174351 0.55281079 -0.091901809 -0.82822353 0.0010963788
0.066718891 0.03749495 -0.009595139 0.66825229 -0.14352551 -0.72995842 0.0026378653
0.064752012 0.040375285 -0.011239238 0.54222548 0.014137414 -0.84011406 0.0016924952
0.067019247 0.040487759 -0.009690905 0.63212597 -0.040108599 -0.77382678 0.0022096927
0.064771548 0.042969663 -0.011013182 0.54431564 0.0506965 -0.83734721 0.0014740883
0.066906713 0.04352849 -0.0096997656 0.59094381 0.058027446 -0.80462307 0.0019520198
0.064980477 0.04537515 -0.010471411 0.56572443 0.096534863 -0.81892419 0.00098283659
0.066558056 0.046260584 -0.0094918087 0.59349817 0.092875898 -0.79945862 0.0016384041
-0.009541478 0.0028261899 -0.0061935708 -0.16666184 -0.86077827 -0.48092061 0.0011912539
-0.0072192759 0.0026349917 -0.0065061608 -0.11856014 -0.86076605 -0.49500033 0.0016790427
-0.0044941171 0.0024960821 -0.0068059689 -0.080107562 -0.8627063 -0.49932 0.0017925128
-0.0014858037 0.0023372548 -0.0069325292 -0.053090271 -0.8650831 -0.49881127 0.0017083047
0.0015019622 0.0022543783 -0.007054809 -0.028590098 -0.86676949 -0.49788877 0.0018105005
0.0045327493 0.002157616 -0.0069673983 -0.00030541178 -0.86964405 -0.49367917 0.0018060046
0.0074339118 0.002213445 -0.0069810213 0.028192451 -0.87202841 -0.48864257 0.0018098851
0.010521892 0.0024543805 -0.0071525755 0.058660708 -0.87544119 -0.47975156 0.001705666
0.013406764 0.0026139244 -0.00697798 0.087554716 -0.87904382 -0.46863216 0.0016467369
0.016255924 0.0027649754 -0.0066482006 0.11761977 -0.88339764 -0.45362347 0.0015850129
0.018447503 0.0029066189 -0.0063511208 0.16015996 -0.88496447 -0.43724915 0.001730112
-0.018949142 0.0053968667 -0.0066811703 -0.27863705 -0.83027411 -0.48270741 0.0013775689
-0.016265152 0.0050708004 -0.0074600088 -0.23466922 -0.82682216 -0.5111708 0.0015278442
-0.013303096 0.0042949822 -0.0074008568 -0.20326833 -0.82714462 -0.52394074 0.0019951048
-0.010472215 0.0038313544 -0.0075830612 -0.15667288 -0.83597159 -0.52593255 0.0010858517
-0.0075342958 0.0035494603 -0.0079073291 -0.11311895 -0.83124912 -0.5442692 0.0014328272
-0.004463309 0.0034811099 -0.0083518634 -0.079939961 -0.83295155 -0.5475412 0.0016227643
-0.0017676279 0.0034122053 -0.0085866749 -0.055719018 -0.79143238 -0.6087119 0.00076744921
0.0014457554 0.0032811188 -0.008654248 -0.031609967 -0.79543841 -0.60520947 0.0006821453
0.0045876098 0.0031792547 -0.0086054932 -0.0042894431 -0.83968365 -0.54305893 0.0019795466
0.0075638131 0.0031826373 -0.0085606053 0.021700107 -0.84219736 -0.53873241 0.0018883952
0.010565065 0.0033047977 -0.0085424026 0.048792887 -0.84563535 -0.53152609 0.0017634804
0.013718653 0.0034055195 -0.0083250124 0.077356368 -0.85197371 -0.51783854 0.0016986445
0.01665841 0.0035104211 -0.0079364749 0.10746509 -0.85565019 -0.50627476 0.0015725455
0.019555328 0.0037141996 -0.0075194547 0.14324249 -0.85935289 -0.4909116 0.0012726184
0.022513015 0.00423234 -0.0074464828 0.18198527 -0.87441635 -0.44975269 0.0014887069
0.025529776 0.0049525718 -0.0075105634 0.19693023 -0.86057341 -0.46971473 0.0013257023
0.02831907 0.0054483991 -0.007072818 0.24272417 -0.86680913 -0.4355765 0.0018099734
0.030708378 0.005891602 -0.0065378845 0.28408185 -0.86525118 -0.41308331 0.0015963364
-0.028074652 0.0088106748 -0.0066925213 -0.32817563 -0.82053143 -0.46800518 0.0014796763
-0.025474519 0.0082691964 -0.007460352 -0.3132183 -0.80726528 -0.5002169 0.0015303714
-0.022623533 0.0071950853 -0.0074869278 -0.29776895 -0.81761605 -0.49278566 0.0012164536
-0.019800441 0.0064867414 -0.0079809595 -0.26495618 -0.80683333 -0.52803236 0.0016427477
-0.017858006 0.0063967374 -0.0087431744 -0.2440542 -0.78654867 -0.56725544 0.0025145002
0.02658717 0.0060930066 -0.0089851245 0.2063974 -0.78956199 -0.57792044 0.00089740515
0.028838165 0.006365736 -0.0084752822 0.23377937 -0.80973208 -0.53822041 0.00058572472
0.031693671 0.0068434342 -0.0077690626 0.26330954 -0.84453863 -0.46628591 0.0015010237
0.034551661 0.0077021886 -0.0075364904 0.30816537 -0.83830982 -0.44974518 0.0014504885
0.037232008 0.0084240744 -0.0069739167 0.33354229 -0.84178382 -0.42444029 0.0015250534
0.039282534 0.0088670887 -0.0061718598 0.3780728 -0.83583081 -0.39805508 0.0010258488
-0.036108073 0.011918307 -0.0060540363 -0.38801485 -0.80265886 -0.45297167 0.0021235878
-0.033980843 0.011482455 -0.0070346878 -0.34772167 -0.80503082 -0.48064035 0.0011148803
-0.031451434 0.010679767 -0.0074980427 -0.34014317 -0.79626387 -0.50026625 0.0019547727
-0.028717721 0.0099442303 -0.0080957292 -0.32001078 -0.78673774 -0.52786064 0.0022540758
-0.026395794 0.0094123073 -0.008659184 -0.31219313 -0.74906814 -0.58432209 0.0012055867
0.037847649 0.009390505 -0.0083127776 0.32356036 -0.82384342 -0.46539301 0.0013988647
0.040557072 0.010147187 -0.0075490568 0.36104754 -0.82295507 -0.43862227 0.0014104254
0.043295637 0.011256151 -0.0072022756 0.38895482 -0.80883074 -0.44102961 0.0013938678
0.045307666 0.011790429 -0.0062778816 0.42713994 -0.80567575 -0.41041204 0.0010694803
-0.040455934 0.014460627 -0.0066279396 -0.45283848 -0.77510047 -0.44063196 0.0023278126
-0.03779358 0.013460368 -0.0073512965 -0.40449581 -0.78220254 -0.47385895 0.0024683832
-0.035424184 0.012664055 -0.0079033645 -0.3716861 -0.80681992 -0.45922881 0.0017455437
0.044272598 0.012405965 -0.0083863866 0.39583674 -0.75548863 -0.52206337 0.00088958273
0.04655445 0.013146917 -0.0075081252 0.45357725 -0.79282218 -0.40706342 0.00077536429
0.049063958 0.014326124 -0.0070153978 0.47482026 -0.76900667 -0.42798889 0.0011273505
-0.044052903 0.016760882 -0.0066864565 -0.48277885 -0.74348742 -0.46276453 0.0029114448
-0.040675342 0.015565051 -0.0081733614 -0.4359225 -0.73504627 -0.51930571 0.0015992479
0.050075479 0.015563732 -0.0080521945 0.48082778 -0.7613287 -0.43495205 0.0010851957
0.052400697 0.016656481 -0.007299677 0.51777452 -0.7534585 -0.40522799 0.00061156653
0.054457203 0.017653452 -0.0065683266 0.53242654 -0.72524983 -0.43650284 0.0011826507
0.053587254 0.018267618 -0.008498136 0.4943065 -0.66647571 -0.55809611 0.0010246445
0.055680566 0.019238226 -0.0075560925 0.56215572 -0.70382833 -0.43428865 0.00094181777
0.057756502 0.02036952 -0.0067254589 0.57350945 -0.6697861 -0.4716709 0.00097914087
0.05886123 0.022088166 -0.0077101206 0.58985865 -0.64134938 -0.49065039 0.0018492225
0.060752753 0.023205731 -0.006779301 0.6237601 -0.60288155 -0.49745074 0.00092750613
0.061887398 0.025176059 -0.0076318271 0.65997487 -0.57718259 -0.48092973 0.0012488797
0.063596465 0.026325332 -0.006678354 0.67783892 -0.55432099 -0.48297277 0.002424791
0.062861733 0.027298236 -0.0085469903 0.64440757 -0.51086777 -0.56899297 0.0030120916
0.064608522 0.028475946 -0.007395925 0.71690178 -0.45106763 -0.53159177 0.0018668426
0.066247158 0.029587762 -0.0062126345 0.72593433 -0.44440246 -0.52490556 0.001904262
0.065488659 0.031078311 -0.0083217779 0.67946231 -0.35107967 -0.64426237 0.0012710259
0.06685321 0.031641085 -0.0069388566 0.74300677 -0.38994157 -0.54395455 0.0022710781
0.067719117 0.034430448 -0.0074651982 0.75754941 -0.28735891 -0.58612609 0.0017517059
0.069159895 0.035546843 -0.0060935244 0.79261231 -0.31267035 -0.52345294 0.0019132354
0.068231635 0.037315749 -0.0080170892 0.75921971 -0.17564194 -0.62668598 0.0023026622
0.069501668 0.037601769 -0.0065224105 0.79586816 -0.20728268 -0.56888288 0.0024110104
0.068430357 0.040367339 -0.0084087485 0.67753464 -0.073227085 -0.73183644 0.0021606528
0.069789842 0.040554568 -0.0068984265 0.78552884 -0.10567748 -0.60973489 0.0022999223
0.068333991 0.043606952 -0.0086113848 0.62560624 0.043175265 -0.77894324 0.0035061641
0.06988392 0.043465238 -0.0070252507 0.75498635 -0.017480772 -0.65550745 0.0032343843
0.06813091 0.046478737 -0.0084324256 0.63584793 0.089616887 -0.76659393 0.0036761425
0.069910236 0.046451837 -0.0068561751 0.75414002 0.053391539 -0.65453959 0.0025595059
0.068321742 0.049215175 -0.0077655455 0.67133665 0.095181383 -0.73501539 0.0015926465
0.06981127 0.049231842 -0.0066098571 0.71999151 0.098521516 -0.68695396 0.0023563714
0.068633549 0.051931918 -0.0069317743 0.68985999 0.11070593 -0.71542817 0.00097474287
0.069468886 0.0519812 -0.0063635297 0.7213515 0.068328217 -0.68919021 0.0019730947
-0.013276323 0.0026833364 -0.0040961634 -0.21074839 -0.9244768 -0.31769136 0.0014716632
-0.010455001 0.0022716015 -0.0045159375 -0.16603139 -0.92980653 -0.32847121 0.0016368374
-0.0074446579 0.0017821299 -0.0045157424 -0.12545651 -0.93203115 -0.33996862 0.0019790973
-0.0044455966 0.0014399604 -0.0045247353 -0.084660441 -0.93072027 -0.35579824 0.0023239078
-0.0015063892 0.0011623474 -0.0043971869 -0.056056637 -0.93048751 -0.36200914 0.0024690186
0.0015455153 0.0010333351 -0.0044285669 -0.028282963 -0.93225968 -0.3606827 0.0024706842
0.0046165516 0.00099085318 -0.0044044461 0.0028498562 -0.93447489 -0.35601771 0.0023560375
0.0076586008 0.0011086065 -0.004509584 0.039059665 -0.93638927 -0.34878293 0.0022449256
0.010538539 0.001316828 -0.0046054302 0.069298923 -0.93702424 -0.34232041 0.0020746065
0.013497447 0.001569782 -0.004553922 0.096803986 -0.93946558 -0.32868427 0.0018332002
0.016512072 0.0019200479 -0.0045055877 0.12576585 -0.94235188 -0.31009015 0.0016448749
0.019445539 0.0023762796 -0.0044851759 0.16211107 -0.94191438 -0.29413825 0.0015397829
0.02214863 0.0027182261 -0.0039476217 0.19586407 -0.9406932 -0.27700827 0.0017439165
0.024073495 0.0029245019 -0.0031434223 0.17066696 -0.97417819 -0.147816 0.0029478865
-0.02232104 0.0054791989 -0.0042762086 -0.3124578 -0.88673192 -0.34070015 0.0020242222
-0.019557815 0.004641593 -0.0046164556 -0.28967294 -0.89164615 -0.3479321 0.0017894987
-0.016538192 0.0037269872 -0.0046556392 -0.25786862 -0.90197223 -0.34633785 0.0016343649
-0.01395232 0.0033433833 -0.0053801639 -0.21767886 -0.90596074 -0.36311293 0.0020500557
0.020698559 0.0031006839 -0.005875349 0.16886416 -0.9112224 -0.37571087 0.00095654646
0.023040013 0.0033066184 -0.005164458 0.22425215 -0.9260391 -0.30358282 0.001800605
0.02556828 0.0036784553 -0.0044963537 0.25466514 -0.92287689 -0.28886661 0.0011784309
0.028502919 0.0044533238 -0.0044657378 0.25877282 -0.91569167 -0.30748248 0.0017628351
0.031424332 0.005301083 -0.0043567251 0.2887511 -0.91282177 -0.28875455 0.0018022403
0.033596329 0.00581493 -0.0036798641 0.31849596 -0.90738773 -0.27424043 0.0015044835
-0.030599015 0.0087186918 -0.0041477806 -0.3457281 -0.8727259 -0.34470505 0.0020893696
-0.028296636 0.0079856887 -0.0046783811 -0.33011347 -0.87464648 -0.35499111 0.0017380685
-0.025361935 0.0068118065 -0.0046754242 -0.34766063 -0.87522292 -0.3363286 0.0015494991
-0.023058109 0.0063280622 -0.0056338459 -0.33016726 -0.87340319 -0.35798958 0.0019560873
0.032531705 0.0060764886 -0.0056290054 0.31202775 -0.9029386 -0.29553422 0.0019504803
0.034753464 0.0065469616 -0.004690208 0.35055768 -0.89468271 -0.2768611 0.0012530939
0.037490617 0.0074976892 -0.0043754084 0.36546525 -0.8962279 -0.25141737 0.00057831977
0.040079601 0.0085021062 -0.0041303327 0.3808403 -0.88513654 -0.26738355 0.0014409496
-0.036947809 0.011440854 -0.0039128549 -0.39443383 -0.85609144 -0.33396026 0.00184137
-0.03449931 0.010434901 -0.0042687692 -0.39887562 -0.85669428 -0.32706726 0.0015250816
-0.031977814 0.0096244151 -0.0049951724 -0.37889746 -0.86484349 -0.32936674 0.0012421154
-0.02977358 0.0091387695 -0.0059685335 -0.34400481 -0.82024223 -0.45701572 0.00078725215
0.041283354 0.009308992 -0.0049644951 0.41660759 -0.86698687 -0.2734445 0.0013044401
0.043523103 0.010178696 -0.0043571722 0.42107382 -0.86506468 -0.27269003 0.0013431038
0.046085209 0.011424555 -0.0041657994 0.45016745 -0.85239005 -0.26604602 0.0016200354
-0.042959139 0.014703976 -0.0038391277 -0.47768825 -0.82791406 -0.29389134 0.0031769157
-0.040077649 0.013182506 -0.0042739315 -0.4462586 -0.84166229 -0.30406892 0.0011606924
-0.037998144 0.012359699 -0.0050631985 -0.41032949 -0.84195024 -0.35035628 0.0016248098
0.047351886 0.012332978 -0.004804227 0.48250866 -0.83403116 -0.26753962 0.001387138
0.049509346 0.013434694 -0.0043575917 0.49735811 -0.8214035 -0.27916139 0.0018978987
0.05165882 0.014611199 -0.0039592837 0.50703394 -0.80884475 -0.29780322 0.0015209588
0.052962936 0.015689906 -0.0045450972 0.54098481 -0.79417437 -0.27680781 0.0010448794
0.055212591 0.017126303 -0.0041863336 0.56238729 -0.77437496 -0.28993779 0.0017715798
0.056502584 0.018373925 -0.0049354406 0.58703858 -0.75658315 -0.28804091 0.0015322538
0.058424219 0.019661618 -0.0042710584 0.61594176 -0.74305141 -0.26170677 0.00095704704
0.060253169 0.020800173 -0.0032409839 0.643161 -0.70715058 -0.2937381 0.0015991849
0.059750371 0.02130748 -0.0054113455 0.63712126 -0.69349265 -0.3363694 0.001584947
0.061515372 0.022495836 -0.0043235663 0.67105329 -0.68481767 -0.28409913 0.0012511611
0.063208148 0.023781735 -0.0033466667 0.70194399 -0.64186752 -0.30867589 0.0017063643
0.062787354 0.024308115 -0.0052770721 0.69642317 -0.62310576 -0.35599723 0.0015626706
0.064362772 0.025581259 -0.0042401198 0.73981124 -0.60446119 -0.29547584 0.00089744665
0.065586351 0.027569683 -0.0049026553 0.75883788 -0.5592832 -0.33371764 0.0018030836
0.066816971 0.028826918 -0.0041137333 0.78580016 -0.50987893 -0.35005933 0.0022054834
0.068132669 0.031337246 -0.0044894116 0.82009345 -0.4609614 -0.3390595 0.0017238259
0.069218092 0.032476455 -0.0034025428 0.83924043 -0.41188458 -0.35500208 0.0020497064
0.068788476 0.033502866 -0.0053542182 0.84827125 -0.34895262 -0.39833155 0.003235532
0.069804154 0.034628619 -0.0041760853 0.8560338 -0.34193161 -0.38767111 0.0030765885
0.07070639 0.037471481 -0.0043540299 0.89039648 -0.24053751 -0.38643998 0.0031182813
0.071300052 0.040406927 -0.0044306046 0.89277625 -0.17613436 -0.41464123 0.0020100037
0.072091714 0.04167141 -0.0030601174 0.96580136 -0.13614258 -0.22066493 0.0047628838
0.071474262 0.043455474 -0.0047780653 0.86519319 -0.04821055 -0.49911562 0.0028271463
0.072241671 0.043651771 -0.0032638966 0.92816675 -0.07750757 -0.36400434 0.0015937096
0.071343899 0.046475027 -0.0050736181 0.84715086 0.014111297 -0.53116494 0.0031158263
0.07224299 0.0464404 -0.0035232301 0.88784903 -0.012026452 -0.45997769 0.0035527491
0.071319282 0.049505308 -0.004876832 0.81773084 0.061990995 -0.57225287 0.0045416695
0.072301276 0.049374633 -0.0033622489 0.86465287 0.022341678 -0.50187284 0.0038601651
0.071071394 0.052446436 -0.0048233275 0.76606447 0.065028787 -0.63946575 0.0058952998
0.072223686 0.052494667 -0.003335027 0.82456833 0.02941007 -0.56499738 0.0053782798
0.070943296 0.055426907 -0.0045491564 0.7792657 -0.0023075009 -0.62668943 0.003966047
0.072214827 0.055223733 -0.0032153889 0.9149332 0.0076339771 -0.40353316 0.014858507
0.071178637 0.058561228 -0.004048639 0.89648539 -0.019890204 -0.44262668 0.016515533
0.0722204 0.058303222 -0.0031413287 0.89654273 -0.01986905 -0.44251147 0.016421204
0.071333267 0.061689738 -0.0038088101 0.87209952 -0.05750249 -0.48593822 0.020236799
0.072264686 0.061366893 -0.0031561777 0.87209952 -0.057506219 -0.48593765 0.02023782
0.071446411 0.064451165 -0.0037595364 0.64678037 -0.069527976 -0.7595005 0.0038034467
0.072543547 0.064525589 -0.003170152 0.82113236 -0.067186162 -0.56676942 0.027334763
0.071145043 0.068707056 -0.0041127205 0.62345606 -0.19237952 -0.75782096 0.011701678
0.072837442 0.067567766 -0.0033903455 0.6233936 -0.14780745 -0.76781082 0.011161701
0.071713306 0.069434568 -0.0041131601 0.62866682 -0.22107847 -0.7455886 0.010228163
0.073516548 0.070646599 -0.0036516688 0.58470011 -0.30265552 -0.75267881 0.0093805213
0.073912002 0.07334134 -0.0042368127 0.74482638 -0.35294259 -0.56627303 0.030797046
0.07548292 0.073472276 -0.0033498381 0.79305404 -0.33373728 -0.50959265 0.035977412
-0.015969237 0.0027244822 -0.001564458 -0.23465806 -0.95687151 -0.17126733 0.0017412447
-0.013536303 0.0021414966 -0.0016170684 -0.20325737 -0.96567225 -0.16175152 0.0018466796
-0.01051751 0.0015129101 -0.0015971586 -0.16223817 -0.97082639 -0.17656411 0.0027786442
-0.0075115892 0.0010517727 -0.0017197748 -0.1288835 -0.97480202 -0.18207151 0.0036331585
-0.004515409 0.00069407321 -0.0016948015 -0.095425576 -0.97731823 -0.1890583 0.0045246943
-0.0015279248 0.00045279702 -0.0015960241 -0.060610052 -0.97972751 -0.19094627 0.0050773714
0.0015052155 0.00031750082 -0.0015792312 -0.024202503 -0.98099351 -0.19252509 0.0052459827
0.0044950293 0.00030188583 -0.0016213829 0.011300442 -0.98261285 -0.18532221 0.0050850571
0.0074475659 0.00038802234 -0.0016591134 0.045238938 -0.98195183 -0.18364114 0.0048404508
0.010528648 0.00056304969 -0.0015651226 0.078546412 -0.97985363 -0.18362294 0.0049514039
0.013584989 0.00087149715 -0.0016726258 0.1072415 -0.97821397 -0.17775449 0.0044537252
0.016489919 0.0012326448 -0.0015812072 0.13749413 -0.97696161 -0.16322203 0.0037126816
0.019477017 0.0017170376 -0.0015889923 0.17407307 -0.97471559 -0.14010024 0.0023680455
0.022517791 0.0023064471 -0.0015132466 0.19924501 -0.97116727 -0.13090268 0.00218553
0.02480657 0.002821415 -0.0014574444 0.22476283 -0.96958816 -0.096852906 0.0018131182
-0.024860259 0.0057734954 -0.0016687021 -0.34378296 -0.91605735 -0.20652415 0.0012815538
-0.02259195 0.004908266 -0.001643004 -0.33901474 -0.91539723 -0.21706411 0.00078206521
-0.019563386 0.0038416621 -0.001698597 -0.30916145 -0.93359786 -0.1811464 0.00081509951
-0.017325386 0.0031839486 -0.0020123348 -0.27833307 -0.94409662 -0.17666969 0.0011759219
0.026228907 0.0032120796 -0.0017901366 0.26948497 -0.95714599 -0.10606372 0.0017688725
0.028465601 0.0037945688 -0.0015349787 0.27994114 -0.95328617 -0.11348338 0.0016125797
0.031457786 0.0047069304 -0.0015729599 0.29087979 -0.95098805 -0.10493218 0.0011485748
0.034062162 0.005568672 -0.0014431264 0.32066572 -0.94190711 -0.099922039 0.0019131531
-0.031444311 0.0084477756 -0.0016604686 -0.38964391 -0.89621401 -0.21208012 0.00060547987
-0.028344309 0.0071706385 -0.0017320141 -0.35939386 -0.90923327 -0.21007343 0.00064680079
-0.026201561 0.0063632699 -0.0019694827 -0.36321062 -0.90814149 -0.20822361 0.00070333952
0.035583999 0.0061519616 -0.0017310642 0.36177921 -0.92647332 -0.10374491 0.0017765304
0.037483681 0.0068705808 -0.0015133714 0.37248296 -0.92198175 -0.1058585 0.0016962622
0.040442552 0.0081172986 -0.0015378328 0.38833025 -0.9142701 -0.11536818 0.0015940734
0.042216651 0.0088802073 -0.0013153419 0.41391861 -0.90291983 -0.11578966 0.0016797854
-0.037755597 0.01124962 -0.0015168115 -0.41969243 -0.87855411 -0.22803698 0.0029443139
-0.034528494 0.0097598368 -0.0016931221 -0.39262483 -0.88981462 -0.23254183 0.0014537211
0.043634266 0.0096049961 -0.0015620104 0.44437337 -0.88821727 -0.11662944 0.0016986112
0.046475966 0.011062093 -0.0015714385 0.45359242 -0.88321805 -0.1190788 0.0014024933
0.048043478 0.011826019 -0.00087140751 0.48230284 -0.86756301 -0.12131929 0.0015946559
-0.042145651 0.013801682 -0.0025536641 -0.47631019 -0.83584917 -0.27291894 0.0023646147
-0.040706683 0.012761519 -0.0012726821 -0.44719464 -0.85428256 -0.26498738 0.0019264058
0.049592074 0.012813319 -0.0015485414 0.51229656 -0.8502242 -0.12112448 0.0015144601
0.052057337 0.014308156 -0.0014560288 0.52581966 -0.84350085 -0.10963562 0.0014828022
0.05352322 0.01530371 -0.0016731226 0.55202043 -0.82651281 -0.11022742 0.0015821327
0.055501219 0.016651556 -0.0015285283 0.56804156 -0.81235659 -0.13192996 0.0018084995
0.057232838 0.017824076 -0.00093695271 0.59892368 -0.79004914 -0.13081598 0.0019716087
0.058668599 0.019083614 -0.0015909791 0.62336463 -0.77111137 -0.12962954 0.0019166475
0.060486119 0.020565093 -0.0012953439 0.66109908 -0.74151367 -0.1144792 0.002186818
0.061967265 0.022019872 -0.0015861753 0.70150155 -0.70483983 -0.10533965 0.0015348782
0.063409679 0.023456199 -0.0014465841 0.72879118 -0.67006528 -0.14098184 0.003289307
0.064949065 0.025227621 -0.0015100244 0.76882935 -0.6232757 -0.14292969 0.0027539073
0.066159599 0.026758278 -0.0015103495 0.7932598 -0.59022117 -0.14959231 0.0026138739
0.067348748 0.028426083 -0.0014765054 0.82362646 -0.5496937 -0.13955732 0.002445545
0.068650387 0.030588584 -0.0017047732 0.8562004 -0.49913451 -0.1333625 0.0025493985
0.069500893 0.032035787 -0.0014096954 0.88778108 -0.43899691 -0.13829838 0.0032307149
0.070591398 0.034511387 -0.0015167838 0.91811341 -0.35751629 -0.17102605 0.0039239642
0.071594603 0.037380695 -0.0016161669 0.93765485 -0.27687809 -0.21009958 0.0041549955
0.07207761 0.038597483 -0.00076120347 0.95936793 -0.2220245 -0.17412135 0.0060467524
0.071867988 0.039318182 -0.0026140809 0.96092695 -0.19175173 -0.19962628 0.0040511326
0.072329916 0.040593125 -0.0014354113 0.97169876 -0.15883936 -0.17484742 0.003293684
0.072711676 0.043482207 -0.0015327751 0.98306477 -0.085445598 -0.16211948 0.0043601012
0.072883002 0.046463449 -0.0016026619 0.97969508 -0.034669001 -0.19747318 0.0060779969
0.072970219 0.04950735 -0.0014839737 0.9756301 -0.0098973969 -0.21919814 0.0068333382
0.072979614 0.052519623 -0.0015373528 0.96688759 -0.0030648047 -0.25518414 0.0099080335
0.07302215 0.055512574 -0.0015777478 0.95755619 -0.021675372 -0.28743058 0.013163985
0.073185444 0.058554139 -0.0015209025 0.95067877 -0.049851336 -0.30614498 0.013697771
0.073433571 0.06158055 -0.0015757461 0.90255713 -0.020472156 -0.43008298 0.019490214
0.073880002 0.064535514 -0.0015818744 0.87101704 -0.21435352 -0.44202039 0.022278707
0.074353486 0.067275211 -0.0018315401 0.88900852 -0.25782931 -0.37840176 0.028105514
0.075193062 0.068160355 -0.0007365495 0.94496185 -0.27774909 -0.17292361 0.036094029
0.07468269 0.069889776 -0.0025345865 0.70260388 -0.34503195 -0.62233484 0.017158145
0.075709693 0.070687711 -0.0013936708 0.89253932 -0.27535275 -0.35714769 0.018368794
0.076602228 0.073122367 -0.001627698 0.93119049 -0.24123962 -0.27329046 0.056904811
-0.018038101 0.0029128811 0.0019339398 -0.26646635 -0.96369356 -0.017039709 0.004240403
-0.01655315 0.0025972063 0.0015966408 -0.22171229 -0.97511208 -2.2913082e-05 0.0037010894
-0.013480254 0.0019130281 0.0014369697 -0.18641253 -0.98245788 0.0051867533 0.0010346905
-0.010316489 0.0013265908 0.0014282567 -0.16157925 -0.98363978 0.079654947 0.0043841926
-0.0073817605 0.00089113147 0.001420301 -0.12158774 -0.9867323 0.1075912 0.0056295977
-0.0045186547 0.00059250847 0.0015148155 -0.085252903 -0.99432313 0.063666962 0.001497565
-0.0015728942 0.0003677863 0.0013148452 -0.049599268 -0.99858463 0.01919793 0.0058383243
0.0015402529 0.00025188422 0.0013972723 -0.016137233 -0.99939102 0.030936062 0.0065341163
0.0045784442 0.00023662345 0.0013897988 0.019727768 -0.99896479 0.040988326 0.006949442
0.0075139087 0.00032756128 0.0014303412 0.05446966 -0.9917227 0.11627162 0.0023723054
0.010586438 0.00051101542 0.0013350844 0.072288878 -0.99022597 0.11927668 0.0024958942
0.013574246 0.00081520143 0.001444819 0.10835949 -0.97825003 0.17687602 0.0065130689
0.016416702 0.0011705677 0.0013357773 0.13400544 -0.97783875 0.16085383 0.0055431961
0.019409953 0.0016568832 0.0013813083 0.17074466 -0.97602153 0.13501215 0.0037171799
0.022512984 0.0022504858 0.0012936972 0.19284877 -0.97585577 0.10254173 0.0032960055
0.024895893 0.0027902706 0.0012781419 0.22210899 -0.9719218 0.077689297 0.0025473989
-0.02762467 0.0057306075 0.0027129948 -0.34513524 -0.93850362 -0.0096204886 0.0093945647
-0.025274104 0.0052822689 0.0017408858 -0.28652623 -0.94979036 -0.12570243 0.0042784498
-0.02243012 0.0043926514 0.0014639741 -0.32067379 -0.9452132 -0.061157852 0.0015594218
-0.019509751 0.0034438123 0.00145529 -0.29438064 -0.95493042 -0.038051352 0.0015448418
0.026288958 0.0031614336 0.0015532817 0.27344906 -0.95776546 0.088943541 0.0025585419
0.028416971 0.003719623 0.0012828112 0.281845 -0.95458972 0.096550226 0.0023435343
0.031418957 0.0046375329 0.001364206 0.28739691 -0.95393318 0.086107127 0.0015968786
0.034174155 0.0055576772 0.0012301297 0.31535643 -0.94515288 0.085066527 0.0024246273
-0.034413457 0.0085199522 0.0020031184 -0.37656048 -0.92105252 -0.099320002 0.0079426616
-0.0316654 0.007826928 0.001455397 -0.36043814 -0.92126203 -0.14615324 0.0033546013
-0.028782487 0.0066426881 0.0015395524 -0.38209435 -0.91231531 -0.14725743 0.0041091121
-0.026845872 0.0063790553 0.00049324584 -0.33712348 -0.931907 -0.13377982 0.0056505916
0.035669003 0.0061426111 0.0018660253 0.36455193 -0.9270891 0.087221541 0.0023082055
0.037465896 0.0068044704 0.0012641432 0.37565237 -0.92233545 0.09045767 0.0021900884
0.040485412 0.0080786804 0.0013183315 0.38607562 -0.91700864 0.10020366 0.0020494785
0.042236332 0.0088623185 0.001315697 0.41145688 -0.90598595 0.099462003 0.0022081882
-0.03948544 0.010840867 0.0020260985 -0.43422464 -0.88154703 -0.18526657 0.0073144645
-0.037041485 0.010215835 0.0012596697 -0.41970727 -0.89030814 -0.17662747 0.0060717156
-0.034718677 0.0096668443 0.00050198782 -0.40709046 -0.8970598 -0.17193361 0.0031842908
0.04371902 0.0095836073 0.0013135916 0.44645932 -0.88918453 0.10012445 0.0022207471
0.0464729 0.01099962 0.001352571 0.45097747 -0.88669449 0.10194233 0.0019219043
0.048058286 0.011812141 0.00087178795 0.48166239 -0.87033457 0.10256334 0.0021323001
-0.045359887 0.01423058 0.002054967 -0.51147926 -0.85674047 -0.066217825 0.02131922
-0.043080762 0.012908025 0.0020428523 -0.47159669 -0.86702597 -0.16081887 0.0090621095
-0.039946608 0.012212095 0.00050803274 -0.42332867 -0.87380362 -0.23929064 0.0033805557
0.049598411 0.012751729 0.0013058856 0.51453871 -0.85107189 0.10452971 0.0019805736
0.052090343 0.014276479 0.00130301 0.52538139 -0.84655583 0.085543066 0.0019405539
0.053578548 0.015250285 0.0013014227 0.55088073 -0.83014929 0.085922204 0.0020647971
0.055470042 0.016565507 0.0013435666 0.56768203 -0.81861985 0.087171286 0.0018470244
0.057225864 0.017790519 0.00090849103 0.59897083 -0.79309148 0.11063339 0.0024904646
0.058708508 0.019038903 0.0013633592 0.62463081 -0.7732141 0.10943612 0.002497131
0.06051977 0.020531116 0.001115663 0.66154295 -0.74496651 0.085940294 0.002530806
0.062018324 0.021977596 0.0013440448 0.70171213 -0.70820594 0.077746198 0.0018319788
0.063483439 0.023451177 0.0012007385 0.73307115 -0.67406178 0.090815373 0.0026486025
0.064989671 0.025185306 0.0013774479 0.7632941 -0.64180666 0.073934652 0.0020217937
0.066225588 0.026688876 0.00090242852 0.79591292 -0.59881735 0.089108407 0.0029345781
0.067454249 0.028471259 0.0012879199 0.83220541 -0.55124718 0.059671324 0.0017451432
0.068702906 0.030532042 0.0015127775 0.85790265 -0.50413263 0.099264011 0.0028931594
0.069540076 0.0319837 0.0012595929 0.89255762 -0.43932059 0.10167779 0.003503402
0.07067088 0.03449066 0.0012731608 0.92691427 -0.36074108 0.10342059 0.0028984682
0.071639396 0.03725547 0.0014777019 0.94306791 -0.30524331 0.13209656 0.0035505395
0.072083466 0.038510047 0.00070713647 0.96788049 -0.24028629 0.073958844 0.0055640191
0.072403073 0.040543091 0.0012416455 0.98342115 -0.14068747 0.1144113 0.0032171197
0.072813474 0.043522805 0.0013138978 0.98916334 -0.087873958 0.11761818 0.0046560438
0.072994053 0.046411965 0.0014048716 0.98972303 -0.03667419 0.13821451 0.0056886142
0.073085077 0.049430255 0.0012870523 0.98797572 -0.013098509 0.15405336 0.0069301906
0.073130175 0.052552875 0.0012907889 0.98537391 -0.0076963268 0.17023239 0.0089455051
0.073204421 0.055506591 0.0013817124 0.97881287 -0.022476856 0.20351957 0.013710313
0.073371962 0.058509242 0.0013183495 0.97239071 -0.05306977 0.22724409 0.017878106
0.073669896 0.06148456 0.0012957483 0.93389267 -0.079188965 0.34867418 0.036609743
0.074137017 0.06446813 0.0013078632 0.90500683 -0.23899454 0.35191515 0.031899747
0.074487165 0.067113757 0.0018923642 0.87454826 -0.30465436 0.37729424 0.05074887
0.075232454 0.068022646 0.00070848316 0.96316558 -0.24986306 0.099400587 0.039816212
0.074793562 0.06954737 0.0026142597 0.75781733 -0.38444462 0.52717656 0.016696448
0.075852171 0.070621148 0.0012847498 0.90189564 -0.29845595 0.31226307 0.022066647
0.076861918 0.073073834 0.0013098931 0.96161985 -0.17096932 0.21460825 0.057329744
-0.01808838 0.0029501375 0.0038682148 -0.27182952 -0.93258113 0.23748936 0.0076250476
-0.016264472 0.0026145461 0.0041432097 -0.18702374 -0.95680696 0.22258177 0.0055748615
-0.013547182 0.0022091076 0.0045396867 -0.16769886 -0.95869792 0.22972868 0.0043664053
-0.01048472 0.0017037129 0.0045391098 -0.13523343 -0.95732456 0.25542414 0.0041668485
-0.0074309208 0.001343411 0.0045476942 -0.098864779 -0.95361906 0.28431749 0.0039061964
-0.0044684061 0.0010709408 0.00441946 -0.065218873 -0.94871062 0.30934557 0.0039307452
-0.001517409 0.00095463381 0.0044732839 -0.032429904 -0.94514364 0.32504126 0.0034546354
0.0014576535 0.00090509461 0.0044285893 -0.0038452009 -0.94298625 0.33280963 0.0029171961
0.0044948868 0.0009488939 0.0044331774 0.025354929 -0.93807977 0.34549016 0.0025363858
0.0075993361 0.0010902217 0.0044645891 0.056466822 -0.93427658 0.35204938 0.0024131418
0.010507181 0.001341993 0.0046064565 0.078100517 -0.93081605 0.35704592 0.0024771737
0.013469976 0.001592048 0.0045549064 0.097521372 -0.92992216 0.35459056 0.0029852057
0.016533475 0.0019592661 0.0045463 0.11858971 -0.93141448 0.34409815 0.0031716137
0.019477833 0.0023496726 0.0043977974 0.14564613 -0.93364507 0.32725242 0.0038555427
0.022232544 0.002674852 0.0038740865 0.19028452 -0.9299162 0.31471813 0.0050061825
0.024073094 0.0029248369 0.0033683926 0.23104605 -0.91165841 0.33984798 0.0048818933
-0.027729977 0.0058074188 0.0034538731 -0.28412133 -0.95738047 0.051939528 0.011936563
-0.025549157 0.0054284846 0.0045563476 -0.30095643 -0.94305652 0.1416672 0.019607527
-0.022552492 0.0044859592 0.0046200575 -0.27286074 -0.93629915 0.22111283 0.0064999964
-0.019602546 0.0036545682 0.0047035692 -0.26114273 -0.92858815 0.2636826 0.0066933474
-0.017058009 0.0032649492 0.0054082619 -0.22988798 -0.9343403 0.27232292 0.0058634514
0.020306488 0.0031321393 0.0058801793 0.15547739 -0.83943456 0.52074593 0.0014464286
0.022846133 0.0033304959 0.0052727009 0.18148158 -0.90080965 0.39446986 0.0049309037
0.025548583 0.0036533242 0.0044971714 0.26016381 -0.91493601 0.30855623 0.0026401428
0.028491355 0.0044212062 0.0044660717 0.25024933 -0.90592569 0.34157562 0.0046560466
0.031456809 0.0052729575 0.0043567144 0.28709662 -0.90643066 0.3097724 0.0038655254
0.033643432 0.0057737711 0.0036796927 0.31194639 -0.90459931 0.29049894 0.002792066
-0.034103829 0.0084275771 0.0042176023 -0.3428131 -0.93539518 0.086689621 0.017945107
-0.031345498 0.0075232722 0.0047266022 -0.3400462 -0.92395377 0.17515168 0.0088699795
-0.028651705 0.0065470431 0.0047267452 -0.33683702 -0.90442312 0.26183882 0.0089996327
-0.026749991 0.0063088085 0.0059154108 -0.249449 -0.92549211 0.2850253 0.0059773591
0.032523032 0.0060840449 0.0056295767 0.28693733 -0.89126575 0.35115847 0.0032799516
0.034781773 0.0065220678 0.0046902169 0.35314441 -0.88879859 0.29210615 0.0025049062
0.037529439 0.0074631278 0.0043752752 0.36856535 -0.89380348 0.2554895 0.0010249285
0.040184248 0.008493959 0.0041461866 0.37471756 -0.88528818 0.27541149 0.0024643433
-0.042145569 0.011922765 0.0030568764 -0.47161239 -0.86701661 -0.16082282 0.009055227
-0.039943371 0.011118832 0.0044377074 -0.42566362 -0.90040451 0.089901142 0.022109907
-0.03751165 0.0099091735 0.0042234957 -0.40469044 -0.90193397 0.15080033 0.0089643318
-0.03531146 0.0091698607 0.0050191507 -0.44147056 -0.89472705 0.067582481 0.016053403
0.041347403 0.0093136439 0.0050402032 0.41870174 -0.86365867 0.28068224 0.0022955628
0.043537062 0.010131986 0.0043833917 0.41944596 -0.86387479 0.27890041 0.002395659
0.046160765 0.011389778 0.0041348175 0.44543117 -0.85382521 0.26939487 0.002497158
-0.045395229 0.014255951 0.0046238527 -0.52063429 -0.80103129 0.29544681 0.010250822
-0.043216538 0.012900796 0.0044299192 -0.50827837 -0.83208013 0.22202638 0.0069417097
-0.041832309 0.01232255 0.005094938 -0.46262941 -0.85634547 0.22944815 0.0063358066
0.047376215 0.012322823 0.0049289688 0.48503029 -0.83208019 0.26905063 0.0021602924
0.049502805 0.013353685 0.0043495572 0.4978286 -0.83355886 0.23947085 0.0012989851
0.051675115 0.014574488 0.0040585068 0.51320279 -0.81444156 0.2707544 0.0021626267
0.053024162 0.015639214 0.004518779 0.54831028 -0.79201353 0.26845944 0.0017716861
0.055269312 0.017077291 0.0041922238 0.55663395 -0.78062761 0.28421667 0.0025488667
0.056507945 0.018355889 0.0051234481 0.58471447 -0.76123255 0.28041741 0.0021721779
0.058434181 0.019560209 0.0042706369 0.61657643 -0.74733627 0.24763285 0.001280595
0.060257114 0.020734979 0.0033706739 0.64258826 -0.71372271 0.27871165 0.0021926526
0.059739441 0.02121637 0.0054831975 0.63743943 -0.69592053 0.33070481 0.0023693552
0.061555412 0.022411112 0.0043442808 0.67594057 -0.687262 0.26603612 0.0017842783
0.063260965 0.023778772 0.0035266776 0.7030856 -0.64995837 0.28848696 0.0021207598
0.062780656 0.024273768 0.0054790205 0.67221481 -0.59310281 0.44312125 0.0010417842
0.064446121 0.025535677 0.0042848266 0.7445178 -0.61179674 0.26720396 0.0018540913
0.066030622 0.026893949 0.0030223057 0.76878893 -0.57122618 0.28751382 0.0022467761
0.065610714 0.027506141 0.0050725942 0.76562619 -0.55602479 0.32350114 0.0031824345
0.066863656 0.028695948 0.0041414434 0.78852522 -0.53146511 0.3094717 0.0032510487
0.068206683 0.031222945 0.0045423731 0.82261312 -0.47158247 0.31767535 0.0023318138
0.069245256 0.032392632 0.0035941228 0.8467446 -0.42045107 0.32595176 0.0028152694
0.068900257 0.033487521 0.0054979697 0.84336257 -0.36710843 0.39239144 0.0037430017
0.069900893 0.034517862 0.0042317435 0.86679298 -0.34845328 0.35672155 0.0037343714
0.070880674 0.03741863 0.0043525849 0.90242267 -0.2505734 0.35049433 0.0030044559
0.071445338 0.0403345 0.0045671808 0.90510321 -0.17305385 0.38838205 0.004298938
0.072125278 0.041198518 0.0032036926 0.92527032 -0.18009739 0.33382583 0.0031289053
0.071597509 0.043324277 0.0050950623 0.89147264 -0.072883084 0.44717395 0.0035522608
0.072284527 0.043671738 0.0036368866 0.92751569 -0.088720448 0.36310226 0.0038670241
0.071636774 0.04647183 0.0052915486 0.88426507 -0.010029775 0.46687755 0.003775503
0.072378479 0.04652952 0.0037551119 0.92250228 -0.026038274 0.38511249 0.0040328219
0.071575657 0.049320802 0.0053162426 0.87143737 0.034288533 0.48930687 0.0051074806
0.072389625 0.04952801 0.0037483964 0.91237563 0.0077945786 0.40927988 0.003961103
0.071489602 0.052464545 0.0051488159 0.76205689 0.073184602 0.64336103 0.0032444675
0.072383627 0.052404225 0.0036515594 0.88888896 0.020793959 0.45765063 0.0053546377
0.071227238 0.055509243 0.0050203972 0.84805149 0.01375284 0.52973539 0.0065490161
0.072394982 0.055408981 0.0034987628 0.85138208 0.018126613 0.52423269 0.0065165735
0.071265124 0.058175657 0.0045450605 0.81901145 0.0081354287 0.57371956 0.0042154957
0.072396539 0.058437902 0.00336577 0.92443097 0.00086230692 0.38134867 0.021561924
0.071305238 0.06152454 0.0039374372 0.76745087 -0.014349934 0.6409471 0.0053033363
0.072453134 0.061139792 0.0032444193 0.89913821 -0.045841683 0.43525738 0.031146791
0.071462445 0.063729636 0.0036260113 0.69217688 -0.059453573 0.71927482 0.007953397
0.072720669 0.064310238 0.0031684593 0.86876786 -0.12364329 0.47953597 0.036665928
0.071962945 0.067350291 0.0036431476 0.68891692 -0.24525909 0.68208611 0.0085773831
0.073131107 0.067690596 0.0033649267 0.68880665 -0.24531439 0.6821776 0.0085968319
0.073851988 0.070600279 0.0036749791 0.66433275 -0.31394076 0.67830902 0.0080449404
0.075129531 0.071634337 0.0031908005 0.838516 -0.3078422 0.44958234 0.030727347
0.07383468 0.073348112 0.0045529008 0.69549656 -0.32203564 0.64232194 0.0070559303
0.075651318 0.073379576 0.003577251 0.90708208 -0.21868491 0.3596929 0.035790697
-0.01316091 0.0028688617 0.0063923276 -0.16846314 -0.8791883 0.44569963 0.0011007695
-0.010298707 0.0025636337 0.0066763819 -0.12347104 -0.87929904 0.45998704 0.0015447364
-0.0072931051 0.0024075543 0.0070517934 -0.082141936 -0.88226235 0.46353629 0.0016242457
-0.0043245424 0.0022745479 0.0072262944 -0.04930649 -0.87988925 0.47261381 0.0018294541
-0.0014674094 0.0021534953 0.0072120754 -0.024126841 -0.8796044 0.4750936 0.0019073138
0.0015100096 0.0021443625 0.0072385049 0.0043130661 -0.87966204 0.47557974 0.0017415234
0.0045160148 0.002206384 0.0072103892 0.032765225 -0.87825412 0.47707033 0.0015689021
0.0073661949 0.002351067 0.0071565146 0.058323745 -0.87191123 0.4861781 0.0013934757
0.010458668 0.0025841666 0.0070622447 0.084046915 -0.86502504 0.49463904 0.0010252665
0.013408725 0.0027300746 0.006727837 0.10534097 -0.85569066 0.50665241 0.00075950933
0.016027218 0.0028347226 0.0063784271 0.12063561 -0.84843016 0.51537681 0.00067172461
-0.024308207 0.0057321414 0.006377168 -0.30041713 -0.85694414 0.41880339 0.0012238027
-0.022024825 0.0054115322 0.0071435347 -0.25605279 -0.85927153 0.44281986 0.0010961622
-0.019397797 0.0048478725 0.0074763363 -0.23030953 -0.85583299 0.46314934 0.0011062187
-0.016539626 0.0041606533 0.0075050439 -0.19400649 -0.87012178 0.45304474 0.001190136
-0.01363376 0.0036947478 0.0077552116 -0.15987304 -0.85727882 0.48940119 0.0011457105
-0.010665395 0.0033790073 0.0080686733 -0.11610971 -0.85314459 0.50858903 0.0014044906
-0.0077571468 0.0031986863 0.0083644465 -0.078985967 -0.85142493 0.51849473 0.0017434425
-0.0047002928 0.0032400277 0.0087938653 -0.04508673 -0.85233486 0.52104944 0.0021007278
-0.0014852033 0.0031924625 0.008932624 -0.021648185 -0.85007876 0.52621043 0.002114096
0.0016535856 0.003118227 0.0088829808 0.0045108888 -0.85081762 0.52544177 0.0022094415
0.0045901602 0.0031773518 0.008838255 0.036298435 -0.84912461 0.52694386 0.0020434298
0.007730464 0.0032468198 0.0086365147 0.064361684 -0.8459987 0.52928615 0.0016355006
0.010568575 0.0033796974 0.0084137032 0.093388908 -0.80704439 0.58305907 0.00068057235
0.01351135 0.0035771877 0.0080947177 0.11187878 -0.83473516 0.53916639 0.00070675393
0.016523831 0.0037869927 0.007697728 0.12791245 -0.82592523 0.54907721 0.00055125897
0.019506983 0.004156292 0.0075085848 0.14873061 -0.81836301 0.55512279 0.00079633808
0.022488512 0.0046462179 0.0074521969 0.16296293 -0.80832273 0.56573623 0.002245246
0.025339441 0.0050468044 0.0072258436 0.18701182 -0.80620027 0.5613088 0.0026439957
0.028359894 0.0054881657 0.0068233637 0.2196272 -0.81780457 0.53193951 0.0036561631
0.030536672 0.0058438685 0.0063910857 0.26806989 -0.82851666 0.49162868 0.0034717158
-0.033574276 0.0088358764 0.006003581 -0.35215116 -0.8878181 0.29625759 0.0043046521
-0.031097157 0.0085261231 0.0073282346 -0.31004336 -0.84956032 0.42675561 0.0010944934
-0.02849232 0.0077688894 0.0076297433 -0.29395372 -0.84096688 0.45427513 0.0011317377
-0.0257478 0.0069021415 0.0077467295 -0.29325017 -0.84818488 0.44111985 0.00078839442
-0.023037866 0.0063127172 0.008246663 -0.25826752 -0.84495205 0.46835226 0.00075659523
0.026197048 0.0063276249 0.0085455673 0.17385009 -0.73098862 0.65987253 0.00029523287
0.028651848 0.0067122974 0.0083211903 0.19466677 -0.72700441 0.65845996 0.00077238306
0.031634729 0.0070550614 0.0076858606 0.25283229 -0.79437423 0.55230922 0.0040546712
0.034475513 0.0078249825 0.0074740932 0.27744144 -0.79614806 0.53774947 0.004101092
0.03726076 0.0084554404 0.0068735243 0.32389781 -0.81336862 0.4832409 0.0031256075
0.039264753 0.0088830926 0.0061726198 0.33752704 -0.81713939 0.4672887 0.0016620597
-0.037606869 0.011037963 0.0069878078 -0.38012296 -0.82423955 0.41968516 0.0011545473
-0.034678478 0.0099807214 0.0074188933 -0.35992438 -0.83973694 0.40656656 0.00077040144
-0.031868581 0.0094413655 0.0084880218 -0.30260727 -0.83219433 0.46463045 0.00087700586
0.035555013 0.0092350636 0.0088834241 0.26131618 -0.70376331 0.66062921 0.0031836343
0.037785828 0.0095755486 0.0082622813 0.28252119 -0.72375262 0.62957436 0.0024400579
0.040535573 0.010248821 0.0075340583 0.33563015 -0.79656386 0.50283056 0.0025474094
0.043246429 0.011232657 0.007105005 0.38496864 -0.78908169 0.47869533 0.0026737661
0.045314904 0.011783716 0.0062781349 0.39785871 -0.78450853 0.47566259 0.0027837341
-0.045404334 0.014892978 0.0061705783 -0.5206337 -0.80103135 0.29544762 0.010250453
-0.043413103 0.014298429 0.0073421821 -0.43673846 -0.79501814 0.42095807 0.00222131
-0.040617436 0.01282232 0.0075316979 -0.42109022 -0.80263513 0.42244524 0.00096461421
-0.038184665 0.012183554 0.0086090043 -0.36111492 -0.78015286 0.51084006 0.00062028761
0.044099666 0.012436645 0.0083225844 0.35009247 -0.76450527 0.5412643 0.0036138662
0.046607703 0.013245583 0.0075195008 0.40966535 -0.77152371 0.48674989 0.0022900712
0.049091667 0.014314992 0.0069597699 0.45272505 -0.75814742 0.4693107 0.0022953101
0.051032066 0.014989937 0.0060983971 0.46995893 -0.75236529 0.46161145 0.0025095651
0.050028298 0.015608808 0.0080539519 0.43436381 -0.74618846 0.50451046 0.0042343945
0.052415643 0.016664332 0.0072958521 0.47882342 -0.74132329 0.47028494 0.0023600853
0.054487299 0.017624022 0.0065680468 0.51866245 -0.71933222 0.46211526 0.001491799
0.053502977 0.018349862 0.0085736541 0.5087229 -0.63743091 0.57869053 0.0031615398
0.055720489 0.019239612 0.0075340499 0.55053121 -0.6983549 0.45740113 0.0012591616
0.057798047 0.020328011 0.0067248894 0.57571954 -0.66807443 0.47140592 0.0021981504
0.058859047 0.022038825 0.0077076093 0.57200271 -0.63578618 0.51825553 0.0029060263
0.060782366 0.023146091 0.0068180538 0.61154753 -0.60136396 0.51417023 0.0011448524
0.061912477 0.025154548 0.0076950761 0.64088786 -0.55382711 0.53154325 0.0041871211
0.063612439 0.026144948 0.006657803 0.66855705 -0.56825459 0.47970632 0.0020028048
0.062751152 0.027205085 0.0086926594 0.60266536 -0.49768695 0.62378055 0.0031479327
0.064651623 0.028380696 0.0074443496 0.70614898 -0.45502323 0.54250097 0.0023489525
0.06632974 0.029604815 0.0063567809 0.72904962 -0.49108782 0.47678018 0.0025325462
0.065525904 0.030856034 0.0083311275 0.66706789 -0.36331233 0.6504035 0.0010668267
0.066980772 0.031734079 0.0070845773 0.74695653 -0.37695575 0.54768628 0.0024890527
0.067901641 0.034375276 0.0075079282 0.75339246 -0.30023271 0.58503008 0.0021223775
0.069277041 0.035418626 0.0062001571 0.79277015 -0.32135266 0.51792669 0.0023051281
0.068340644 0.037224382 0.0082367752 0.76284754 -0.20000036 0.6148687 0.0026560954
0.069620006 0.037587423 0.0067455522 0.80075765 -0.2255967 0.55488127 0.0026347449
0.068650559 0.040200349 0.0086331954 0.67797315 -0.10966689 0.72686005 0.0023742148
0.069947511 0.040536601 0.0071623214 0.79744148 -0.13798493 0.58740735 0.0024006637
0.068796195 0.043417066 0.0088222697 0.64653128 -0.0038666024 0.7628777 0.0039830604
0.070211351 0.043444749 0.0072226338 0.78865999 -0.041127544 0.61345255 0.0031995794
0.068666555 0.046205267 0.0088636391 0.62211609 0.067875117 0.77997732 0.0028940248
0.070240647 0.04645801 0.0072441367 0.7471596 0.02323981 0.66423815 0.0027476258
0.06831871 0.049199656 0.0086441981 0.63431323 0.09449584 0.76727921 0.0033609925
0.070241898 0.049367081 0.0070282109 0.71924084 0.062979668 0.69190031 0.0055205864
0.06869778 0.051857799 0.0078248158 0.70340252 0.081033967 0.70615757 0.0033086017
0.070057638 0.052109659 0.0067825289 0.75181884 0.065204181 0.65613788 0.0033957541
0.069819503 0.054625716 0.0064238482 0.73995411 0.08301542 0.66751504 0.0016595491
-0.019069985 0.005789564 0.0092399567 -0.2131632 -0.80183864 0.55822593 0.00076173269
-0.016399762 0.0054733106 0.0096781012 -0.17525171 -0.79437137 0.58160216 0.0011139209
-0.013451942 0.0051660934 0.010033255 -0.14038494 -0.78847724 0.59882861 0.0011336223
-0.010454576 0.0049177809 0.010291845 -0.10701785 -0.77659059 0.62084955 0.0011110333
-0.0074009206 0.0046171998 0.01032052 -0.075583138 -0.77407271 0.62856871 0.0016475169
-0.0044901101 0.0046304576 0.010600439 -0.030092554 -0.75081486 0.65982682 0.0017857687
-0.0015415818 0.0045645349 0.010644541 -0.018917782 -0.7518487 0.65906417 0.0026361626
0.001454147 0.004465098 0.010545038 0.013576269 -0.7329697 0.68012571 0.0019545432
0.0044789235 0.004465647 0.010443082 0.043037742 -0.74646568 0.66403067 0.0026915204
0.0075242729 0.0046533546 0.010445346 0.062327247 -0.74468338 0.66450125 0.0020711371
0.010470843 0.0047926097 0.010283465 0.090996996 -0.76502109 0.63754392 0.0018165312
0.013498922 0.0050506713 0.010141681 0.11897468 -0.75074536 0.64978951 0.0015671758
0.016405486 0.0052429414 0.0097894026 0.13760616 -0.75506729 0.64104444 0.0011448638
0.01931021 0.0055485987 0.0094116945 0.15743373 -0.75142246 0.64076436 0.00081164553
0.021657273 0.0058377935 0.0090623796 0.16382238 -0.75410104 0.63599831 0.00074705243
-0.027733376 0.0088660344 0.0099106357 -0.2764307 -0.79171121 0.54477465 0.0007525715
-0.025229888 0.0082408441 0.010169148 -0.24806072 -0.79522699 0.55324489 0.001666504
-0.022307169 0.0075734504 0.010445833 -0.23011795 -0.77646774 0.58663744 0.0014344124
-0.019479943 0.0070061758 0.010725425 -0.21083944 -0.75902188 0.61598092 0.0016081403
-0.016528696 0.0066075358 0.011096869 -0.15858766 -0.77137691 0.6163016 0.0012328656
-0.013750604 0.0063209613 0.01141541 -0.12321796 -0.71687311 0.68622905 0.00083844864
-0.010805466 0.0062890747 0.011837753 -0.084856406 -0.69613534 0.71287799 0.0012505741
