# .PCD v0.7 - Point Cloud Data file format
VERSION 0.7
FIELDS x y z normal_x normal_y normal_z curvature
SIZE 4 4 4 4 4 4 4
TYPE F F F F F F F
COUNT 1 1 1 1 1 1 1
WIDTH 566
HEIGHT 1
VIEWPOINT 0 0 0 1 0 0 0
POINTS 566
DATA ascii
0.0023294808 0.032612592 -0.0033640163 0.029586153 0.99786478 -0.058228523 0.0014884863
-0.016913164 0.035834983 -0.0035881596 0.29327074 0.95380241 -0.065216862 0.0017230907
-0.01380454 0.034798823 -0.004228035 0.25634089 0.96439242 -0.065089077 0.001698954
-0.010332398 0.034252599 -0.0032243645 0.21704561 0.97405142 -0.064147823 0.0015869586
-0.0073312512 0.033662137 -0.0031865248 0.14781944 0.98814976 -0.041346464 0.0010377147
0.014462047 0.033370394 -0.0030557809 -0.14578618 0.98836201 0.043439325 0.0029553219
-0.024923241 0.03872985 -0.0035785672 0.38408086 0.9208864 -0.066708893 0.0017645035
-0.022641813 0.037764605 -0.0038116183 0.35215309 0.93406957 -0.059179563 0.0014991235
-0.019603394 0.036785629 -0.003325016 0.32937369 0.94170016 -0.068657383 0.0015818913
-0.03097558 0.041432019 -0.0037375523 0.42520395 0.89900261 -0.10486169 0.00095148961
-0.028540336 0.040209651 -0.004008675 0.40931341 0.89809 -0.16092514 0.00016516363
-0.026465986 0.039370604 -0.0037382003 0.3946566 0.90452629 -0.16148809 0.00013691818
-0.036906004 0.044518668 -0.0034426458 0.47265887 0.8777082 -0.078878887 0.0017161156
-0.034816038 0.043115061 -0.0043434086 0.44883382 0.87746793 -0.16911002 0.00015116374
-0.032886192 0.042447578 -0.0033846486 0.45083162 0.8867501 -0.10210317 0.0010775949
-0.042522777 0.047445823 -0.0038276054 0.48059925 0.86989099 -0.11096862 0.0014396937
-0.03956835 0.045764789 -0.0040096352 0.4857249 0.86753219 -0.1070477 0.00095585291
-0.048382647 0.050839864 -0.0033264714 0.48905551 0.8675397 -0.090551667 0.0017989351
-0.046372361 0.049467839 -0.0041367132 0.48423961 0.86736238 -0.11486704 0.0013410076
-0.043292526 0.048117395 -0.0030312219 0.4868598 0.86873531 -0.09091907 0.0018799299
-0.051905915 0.052686349 -0.0033798234 0.44932076 0.88757104 -0.10162892 0.0012082651
-0.054847419 0.054122429 -0.003151549 0.40916058 0.91115844 -0.04876288 0.0029543263
0.071150362 0.076443329 -0.0036162329 0.24676128 0.9674316 0.056437138 0.0055263815
0.073226884 0.075804844 -0.0036919157 0.29469475 0.95559138 0.00042984574 0.00010445631
0.0015470529 0.032892179 -0.0022609443 0.039714262 0.99846196 -0.038683765 0.0021307226
0.0052428814 0.032970026 -0.00096313161 -0.010037637 0.99978918 -0.017915979 0.0015424866
0.0071341721 0.032949701 -0.001388176 -0.047126375 0.99887657 -0.0049611134 0.00091110088
-0.015392757 0.035797182 -0.0013156034 0.2995559 0.95149535 -0.070163094 0.0016514204
-0.013651462 0.035319023 -0.0013192298 0.24992108 0.96604812 -0.065501772 0.0017565861
-0.010589261 0.034616616 -0.0012480913 0.21705376 0.97404951 -0.064150766 0.0015963977
-0.007586733 0.034057774 -0.0010190422 0.16196224 0.98622286 0.033653345 0.0037426795
-0.0045137662 0.033569295 -0.0013119787 0.10674098 0.99428165 0.0032108019 0.0022893306
-0.0015149958 0.033251528 -0.001035042 0.097773641 0.99454188 -0.036422823 0.0011316836
0.0012614519 0.033073116 -0.00089823129 0.036131375 0.9983688 -0.044208106 0.0020624234
0.0036049772 0.033014968 -0.0005019246 0.010733512 0.99965829 -0.023832614 0.0017311177
0.0086156419 0.033043537 -0.0013473288 -0.060133986 0.99700528 0.048623607 0.0010712605
0.010603308 0.033197481 -0.0011970391 -0.076364532 0.99686944 0.020487968 0.0010441608
0.013405599 0.033551294 -0.0005193649 -0.12206125 0.99189878 0.035183527 0.0025583552
0.016217772 0.034005757 -0.0012138633 -0.18935661 0.97960174 0.067263506 0.0038672325
0.019190621 0.034693029 -0.0014848125 -0.25761154 0.96294051 0.079886168 0.0026211457
0.022243332 0.035560884 -0.001142366 -0.27262121 0.95619231 0.10664965 0.0012623146
-0.02418476 0.038803816 -0.0016063629 0.39532456 0.91673678 -0.057552129 0.0016919096
-0.02246449 0.038145911 -0.0012546894 0.35675213 0.93262076 -0.054281659 0.0014832122
-0.019610044 0.037116412 -0.0012410973 0.31041417 0.94864005 -0.061033148 0.0012531611
-0.017150979 0.036309678 -0.0012241834 0.27531657 0.9613297 -0.0067827767 0.0029873846
0.025577063 0.036522493 -0.0012113507 -0.28871608 0.94987386 0.11992846 0.0015338965
0.028624127 0.037572224 -0.00090616522 -0.332899 0.94087934 0.062643468 0.0011582478
0.031007724 0.038341746 -0.0015365644 -0.36661944 0.92310369 0.11605918 0.0019789778
-0.030580034 0.041608024 -0.0017419043 0.45140725 0.89023149 -0.06098678 0.0012665389
-0.028442847 0.040644471 -0.0013212974 0.42401433 0.90352052 -0.062149499 0.0014201702
-0.025721863 0.039450083 -0.0013390462 0.37332314 0.92595828 -0.056842554 0.0015832243
0.032692406 0.039119974 -0.00042401708 -0.39509085 0.91304183 0.1012807 0.0022767158
0.034636147 0.040001918 -0.00082442304 -0.46400508 0.88473207 0.044140778 0.00063971308
0.037410028 0.041576728 -0.0004872384 -0.48792195 0.86401075 0.12416778 0.0016404081
-0.036501374 0.04466315 -0.0013537053 0.48293594 0.87237412 -0.075737886 0.0018381554
-0.034459043 0.043574102 -0.0014511783 0.4629001 0.88363689 -0.070067063 0.0019153821
-0.032004304 0.042369969 -0.0011821891 0.41992185 0.90484923 -0.070096828 0.0015288941
0.038849361 0.042471588 -0.00019712193 -0.51788294 0.84789068 0.11348389 0.0014163875
0.040022168 0.043089356 -0.0013026732 -0.53304726 0.84526461 0.037261516 0.00020583368
0.042081494 0.044501379 -0.00057164492 -0.53273237 0.84055722 0.098284386 0.0010635001
-0.04229695 0.047846802 -0.001297727 0.51109415 0.85717773 -0.063475646 0.0013805353
-0.040461931 0.046795845 -0.0015356377 0.49188042 0.86775321 -0.071119465 0.0016954485
-0.037947509 0.04543408 -0.0012629299 0.46617031 0.8831265 -0.052656632 0.0013896961
0.043604597 0.045480128 -0.00086593424 -0.54450148 0.83343762 0.09433905 0.0010178116
0.045822062 0.046968304 -0.00029149334 -0.54764587 0.83499926 0.05348197 3.8453734e-05
-0.04627268 0.050077643 -0.0014267404 0.49301699 0.8662169 -0.081256002 0.0017324622
-0.043673463 0.04864978 -0.0011382467 0.47143209 0.87856489 -0.076651946 0.0018869755
0.047605019 0.048074663 -0.0010554809 -0.55759448 0.82006991 0.12873946 0.0014381524
0.049787436 0.049585525 -0.00065429835 -0.55479521 0.81973797 0.1422388 0.001756693
-0.052444607 0.053421404 -0.0014259524 0.44363338 0.89518565 -0.042803567 0.0025704775
-0.049618959 0.051938675 -0.0013547781 0.46782824 0.88300043 -0.038040403 0.0022861226
-0.047921475 0.05114888 -0.00011476318 0.46988192 0.88259923 -0.015149007 0.0074681067
0.05269219 0.051592991 -0.00062970317 -0.55190521 0.82583916 0.11571667 0.00070697634
0.055415075 0.053351294 -0.00088266277 -0.56169415 0.81588846 0.13720666 0.00083923532
-0.060599625 0.056773029 -0.0014976012 0.45931226 0.87830842 0.13268951 0.0050537833
-0.058558505 0.055944026 -0.0011321887 0.40164882 0.9157697 0.0066368701 0.0023022029
-0.055374477 0.05481321 -0.00085357385 0.3757284 0.92666668 -0.010818902 0.0020187409
-0.05377169 0.054100793 -0.0013347137 0.42603782 0.90364909 -0.04370397 0.0029293969
0.056358885 0.054003641 -0.00038518201 -0.54110277 0.82125759 0.18095189 0.0026331814
0.058645524 0.055645831 -1.4860092e-05 -0.59465224 0.76948386 0.23298772 0.0034434975
-0.064254329 0.059342548 -0.00053166621 0.50809127 0.8427633 0.17774534 0.0025524504
-0.062113244 0.057869859 -0.00080689247 0.53263164 0.83528048 0.13641901 0.0024523351
0.061316326 0.058126714 -0.00015956495 -0.67224181 0.5925855 0.44377169 0.01091532
-0.070092663 0.060343754 -0.00054057373 -0.15462096 0.98791355 -0.010918907 0.014898838
-0.066618696 0.060659394 -0.0009013752 0.20156606 0.97459722 0.097629331 0.017877107
-0.065864585 0.06019637 -0.00087761815 0.3159048 0.94714034 0.055939876 0.026458809
0.07629478 0.074844405 -0.000951603 -0.94819546 -0.3024869 0.097092614 0.092251733
0.068732433 0.077186972 -0.00058964733 -0.016704554 0.98616809 0.16490419 0.07623139
0.070578903 0.076618582 -0.0017181978 0.22068198 0.97013885 0.10064837 0.008183117
0.073433161 0.075740598 -0.001500087 0.34946716 0.93554258 0.05131093 0.010604612
0.075297154 0.07516735 -0.001081381 0.33445972 0.9377237 0.093866147 0.01142304
0.06724523 0.028751038 0.0014760427 0.80131501 -0.47520578 0.36341938 0.0013629643
0.0017868582 0.032874919 0.0021017748 0.046434868 0.99199587 0.1174225 0.0039434913
0.0045684977 0.032885168 0.0016386595 0.011437845 0.99404895 0.10833179 0.0022815047
0.0072004953 0.032845471 0.002001754 -0.059563339 0.99098074 0.12003871 0.0031776517
0.010335444 0.032891601 0.002922046 -0.089806877 0.98197657 0.16630372 0.0025811885
0.068134151 0.030471185 0.0020764393 0.82304478 -0.45599058 0.33862957 0.00099068438
0.069004625 0.032050394 0.0022474336 0.81606376 -0.45059714 0.36194211 0.0015577255
-0.015658399 0.035813365 0.0015769965 0.30241537 0.94710034 0.10745183 0.0021882507
-0.013459306 0.035239447 0.0015721966 0.25535616 0.9595477 0.118581 0.0020520312
-0.010528414 0.034537945 0.001674699 0.19825844 0.96732402 0.15804349 0.0030183478
-0.0074304007 0.033951357 0.0016261451 0.16279912 0.97611839 0.1438379 0.0027448991
-0.0044739093 0.033515349 0.0016464937 0.13387236 0.98212373 0.13232997 0.0019202015
-0.0016101736 0.033198867 0.001561255 0.075038448 0.9891656 0.12617694 0.0021408652
0.00086287939 0.033082385 0.00097800652 0.035629436 0.9934696 0.10839107 0.0039321571
0.0083914585 0.033053655 0.00086825003 -0.04735082 0.99285167 0.10956057 0.0035370763
0.010539692 0.033171196 0.0012875213 -0.091785423 0.98905706 0.1155058 0.0025897783
0.013522306 0.033445857 0.0016557003 -0.13162062 0.98257273 0.1312512 0.0022132238
0.016477654 0.033989646 0.0016418009 -0.19310579 0.97002596 0.14751181 0.0028898912
0.019462802 0.034736048 0.0015801779 -0.26175588 0.95677447 0.12675321 0.0018278541
0.022395406 0.035518363 0.0016989609 -0.2690233 0.95278901 0.14078189 0.001938688
0.069857098 0.03418234 0.0026502272 0.86271489 -0.35453272 0.36059603 0.0021577179
-0.024462041 0.03885711 0.0018270219 0.40137988 0.90991104 0.10467132 0.002111126
-0.022499248 0.038111895 0.0016149317 0.35881504 0.92686498 0.11033186 0.0020230068
-0.019527031 0.037040792 0.0015347108 0.30950943 0.94252735 0.12588157 0.0026474192
-0.017191999 0.036289226 0.0014609465 0.2744154 0.9558534 0.10507389 0.0021611918
0.023784176 0.036028042 0.00086789537 -0.28229108 0.94942778 0.13747217 0.0024987096
0.025513366 0.036440339 0.0017170322 -0.2862981 0.94689852 0.14634404 0.0018483286
0.028366297 0.037386004 0.0016313305 -0.318647 0.93979245 0.12350859 0.0016426002
0.031297404 0.03841557 0.0017096907 -0.36879361 0.91937286 0.13691166 0.0027627742
0.071090952 0.037311394 0.0022637967 0.90724605 -0.25716972 0.33281872 0.0017989017
-0.030674485 0.041649278 0.0016128905 0.45374352 0.88577801 0.097540826 0.0018918234
-0.028403476 0.040580899 0.001678441 0.41777542 0.90313727 0.0990282 0.001939144
-0.025840996 0.03945861 0.0015582197 0.37628067 0.92094034 0.10139943 0.0021648239
0.032912526 0.039146814 0.0013724336 -0.44876844 0.88248152 0.14083095 0.0025892302
0.034477267 0.039815444 0.0016940709 -0.43764624 0.88537061 0.15679517 0.0022013229
0.037191279 0.041298669 0.0017313967 -0.49879712 0.85082942 0.16519919 0.0018050947
0.071782507 0.040419441 0.0022866495 0.91534978 -0.1392858 0.37780181 0.0014363349
0.072234116 0.041645918 0.0010529489 0.92951334 -0.12332854 0.34755582 0.0008201368
-0.036663968 0.044680551 0.0017242359 0.4906159 0.86486572 0.10631683 0.0019144979
-0.034580935 0.043609716 0.0015813503 0.45906901 0.88177711 0.10828126 0.0019761641
-0.032194927 0.042428322 0.0013259207 0.42620414 0.89935362 0.097534917 0.0021634898
0.038559712 0.042168453 0.0014219444 -0.50544214 0.84833217 0.15767284 0.0021000216
0.040489849 0.043319125 0.0017325248 -0.52550131 0.83718807 0.15154055 0.0027574878
0.042707592 0.044725813 0.0019291372 -0.51460916 0.83755195 0.18353248 0.001957356
0.072303131 0.043683618 0.0018872287 0.91483724 -0.094856873 0.39252388 0.0015397931
-0.042359307 0.047841914 0.0016518061 0.50833809 0.85236192 0.1227661 0.0023756062
-0.040536791 0.046818558 0.0016211465 0.48462105 0.8671369 0.11496099 0.0026057784
-0.038226545 0.045561414 0.0014388618 0.45656019 0.88323516 0.10699752 0.0022081835
0.044149492 0.045725252 0.0015461571 -0.54757166 0.81588167 0.18574814 0.0023855953
0.046438027 0.047181051 0.0017539496 -0.54219627 0.82339978 0.16743958 0.0025496115
0.072452031 0.046289265 0.0020637389 0.90822178 -0.064174809 0.41353926 0.0036858688
-0.048084509 0.050847806 0.0027398996 0.47765756 0.86551648 0.15074638 0.0050662169
-0.046436258 0.050138362 0.0015899749 0.51304001 0.84931785 0.1242951 0.0021380002
-0.043883748 0.048710544 0.0015339877 0.46889365 0.87387365 0.12838833 0.0026479885
0.047858641 0.048109725 0.0017836215 -0.5216769 0.8337279 0.18097238 0.0023198156
0.04947057 0.049184848 0.0016982846 -0.55415845 0.80863726 0.19752045 0.0030482945
0.051527645 0.050578997 0.0018982748 -0.52267349 0.82262135 0.22384478 0.0032118564
0.072560437 0.049673654 0.0017949087 0.88368607 0.01680918 0.46777824 0.0016558302
-0.075470582 0.0530812 0.0026893711 -0.654531 0.0089434637 0.75598222 0.01127205
-0.05410447 0.053999458 0.0024737543 0.41855454 0.89191693 0.17116155 0.0062284456
-0.052325994 0.05332344 0.0016133512 0.44607353 0.88528156 0.13151024 0.0034877544
-0.049529698 0.051847667 0.0015966423 0.44326562 0.8781786 0.17977202 0.0037374261
-0.047945801 0.051046684 0.001502384 0.47761956 0.86553848 0.15074098 0.0050418624
0.053042803 0.051616415 0.0016973622 -0.50612682 0.82972282 0.2353631 0.0030625118
0.055324547 0.053112313 0.0016094837 -0.55678827 0.81033772 0.18259117 0.0026862591
0.057051215 0.053890944 0.0028394526 -0.55468452 0.79262692 0.25311586 0.0049498826
0.072463199 0.052572582 0.0022576873 0.85039741 0.023135636 0.52563202 0.002719467
-0.075926326 0.055768467 0.0024572816 -0.68137288 0.29947636 0.66786593 0.047813032
-0.060625169 0.056639101 0.0019800372 0.4931778 0.84806055 0.19382687 0.0084436052
-0.058514327 0.055829883 0.0016166396 0.35908067 0.91414165 0.18816507 0.0073758829
-0.055568952 0.054753404 0.0016199701 0.34559345 0.91866583 0.19135882 0.0050080433
-0.053787813 0.054169044 0.0010442379 0.41858274 0.89190394 0.17116025 0.0062114247
0.056938924 0.054240249 0.001398955 -0.5546394 0.79266071 0.25310916 0.0049404823
0.058531433 0.055238482 0.0017646682 -0.53804171 0.78605622 0.30434641 0.0045752982
0.060427263 0.056618165 0.0019644415 -0.62989855 0.69495469 0.34679344 0.0066152015
0.072659791 0.055577327 0.0017740548 0.80661887 0.0061047664 0.59104037 0.0041351966
-0.075192571 0.05771666 0.0020745725 -0.67075664 0.57835919 0.46431258 0.063776508
-0.073128395 0.058864016 0.0012328506 -0.52623415 0.80866838 0.2629317 0.017285068
-0.071393125 0.059710171 0.00022529832 -0.32942507 0.93806845 0.10726929 0.010468738
-0.066482842 0.059832189 0.0025931736 0.34299541 0.84465694 0.41098517 0.013717094
-0.064440221 0.059060358 0.0017682671 0.50846303 0.82457411 0.2480786 0.0054630004
-0.06202678 0.057608206 0.0014780229 0.4792363 0.84409934 0.2404764 0.010589981
0.061911508 0.058291294 0.0017519213 -0.6722765 0.5926103 0.44368622 0.010857222
0.063400723 0.059662703 0.0025190627 -0.71941191 0.45186555 0.52750736 0.0087937964
0.072758026 0.058654211 0.001811648 0.74550498 -0.0041652573 0.66648704 0.004612626
-0.069535568 0.06046924 0.0025025553 -0.081042476 0.94885319 0.30513895 0.039703555
-0.067467712 0.060606651 0.0016904939 0.15423173 0.9782486 0.13871643 0.015620447
-0.065735176 0.060129337 0.0010172883 0.39182958 0.86918604 0.30163753 0.011119501
0.064190917 0.061545234 0.0020416705 -0.5792309 0.34066674 0.7405659 0.0087261284
0.072847955 0.06161382 0.0020336304 0.44235709 0.0038398202 0.89683074 0.011950022
0.065220989 0.064429022 0.0019721841 -0.55749947 0.25233576 0.79089886 0.0048311213
0.066337086 0.065329678 0.0028377329 -0.35923123 0.21541208 0.90804774 0.023086086
0.073059157 0.064536676 0.0022506833 0.35862043 0.058796663 0.93162996 0.020806892
0.06545683 0.067138888 0.0011290201 -0.56335211 0.23673792 0.79157412 0.0039862851
0.066785254 0.06770806 0.0024675902 -0.44079697 0.20281795 0.87439281 0.014428801
0.073825397 0.067428529 0.0021376312 0.47011745 -0.097971536 0.87714946 0.02290876
0.075052142 0.068864353 0.00076970132 0.54399616 -0.21672232 0.81061679 0.015860297
0.06596034 0.069483496 0.0010266886 -0.56438959 0.16839349 0.80815095 0.0049066907
0.06756933 0.070484377 0.0022950319 -0.43295497 0.051946849 0.89991754 0.010350119
0.069175385 0.070496634 0.0029490576 -0.44289353 0.02924368 0.89609718 0.0126829
0.074465178 0.070156775 0.0025338707 0.52437806 -0.25774485 0.81153888 0.025490738
0.075377204 0.070739895 0.0015610489 0.7495662 -0.2184456 0.62484568 0.016252592
0.067711115 0.073437922 0.0020980381 -0.62355489 0.14406079 0.76839167 0.037886526
0.069094114 0.072363771 0.0029992771 -0.39450043 -0.068654723 0.91632736 0.024016771
0.074954197 0.072124392 0.0029551208 0.75077158 -0.077024505 0.65605587 0.067272916
0.076152414 0.073603176 0.0019325672 0.91318917 0.11779919 0.39013958 0.070992701
0.067877077 0.07636977 0.0017057423 -0.22467706 0.78381717 0.57892209 0.13888775
0.070479147 0.076642536 0.0014213744 0.16400672 0.95256752 0.25635326 0.049382351
0.073553048 0.075702876 0.0018809444 0.40549934 0.88592416 0.22518562 0.026138136
0.075447619 0.075120047 0.0016903827 0.62931311 0.7164585 0.30108503 0.066269971
-0.00024506426 0.0013832704 0.0054182825 -0.0072820452 -0.84653175 0.53228849 0.00080927188
0.00057809666 0.0015846286 0.0058072191 -0.0072820242 -0.84653175 0.53228849 0.00080923608
0.01419549 0.0025762359 0.0059233182 0.12419525 -0.82297391 0.55433697 0.00017585853
0.016544055 0.0024891656 0.0052463147 0.12567888 -0.82034123 0.55789357 0.00015993734
0.021714889 0.0034458379 0.0054632602 0.15190224 -0.80124456 0.57873392 0.00032878193
0.025137329 0.0042396113 0.0055750483 0.17911831 -0.79797578 0.57545745 0.00046083151
0.027994359 0.0048048347 0.0051758029 0.2293455 -0.79195464 0.56586975 0.0017319516
0.031308003 0.0055948114 0.00460371 0.23527919 -0.79318708 0.56169206 0.0020164484
0.032170281 0.006340249 0.0057840454 0.25056478 -0.80609906 0.5361172 0.0010627825
0.034999199 0.0071403505 0.0053422567 0.25958183 -0.80873823 0.52778757 0.0012814089
0.038124792 0.0084404834 0.0055279592 0.32163328 -0.77953219 0.53747702 0.0013391195
0.040958107 0.0095770126 0.0053245798 0.35347342 -0.78895509 0.50259966 0.00035732539
0.043349721 0.010850543 0.0055984063 0.38738534 -0.78281426 0.48696464 0.00091636769
0.045675091 0.011891844 0.0052399682 0.41889134 -0.76669002 0.48653516 0.00048905704
0.047303725 0.01269478 0.0050599044 0.43041587 -0.76990259 0.47116047 0.00021377945
0.049192756 0.013910644 0.005294688 0.44614354 -0.75575185 0.47936955 0.00070000807
0.052317679 0.015800692 0.005078502 0.50142723 -0.72773653 0.4679426 0.0003020445
0.054740768 0.017430667 0.0049841842 0.52485234 -0.69809347 0.48702723 0.00091383996
0.056138624 0.018626275 0.0052945958 0.54208225 -0.70245254 0.46120197 0.00045318616
0.058027118 0.019888923 0.0046867523 0.5772301 -0.67475843 0.45989838 0.00061805971
0.059337564 0.021348298 0.0053767199 0.59625256 -0.64693564 0.47534955 0.00074044708
0.061191101 0.022915253 0.0049403091 0.62797713 -0.62518936 0.46344692 0.00070857862
0.06258291 0.024697114 0.0054530185 0.65679628 -0.57762301 0.48473725 0.0010599628
0.063951425 0.02615002 0.0052383048 0.69027764 -0.54816806 0.47225913 0.001188556
0.065358058 0.02769424 0.004736871 0.75751424 -0.50656211 0.41178516 0.002635872
0.066571333 0.029189637 0.0043473425 0.784455 -0.4849723 0.38656455 0.0015034465
-0.0067207981 0.032747254 0.005645128 0.164377 0.92290097 0.34818676 0.002317125
-0.0043519107 0.032690257 0.0049068737 0.14505148 0.92858738 0.34159267 0.0020996286
-0.0014955315 0.032485507 0.0045206249 0.096515119 0.94142187 0.32312489 0.0024812405
0.0015147356 0.032222301 0.0046438393 0.041389942 0.94415927 0.32687941 0.0021157125
0.0043965164 0.032229707 0.0044059125 -0.002202366 0.94265437 0.33376321 0.0017147647
0.007520135 0.032102864 0.0048571308 -0.040019561 0.94298434 0.33042243 0.0027821837
0.010480436 0.032364074 0.0047279475 -0.096732959 0.93126911 0.35125569 0.0023947284
0.013510071 0.032632776 0.0049032657 -0.14112256 0.92139798 0.36209151 0.002632628
0.015759777 0.032780599 0.0055413046 -0.19801028 0.91224039 0.35862142 0.002647589
0.067689955 0.031507064 0.0048272675 0.80998129 -0.41076061 0.41857633 0.0023175383
0.069023304 0.032929346 0.0035144154 0.81010556 -0.41059473 0.41849846 0.0022247029
-0.018560413 0.035779171 0.0053820121 0.32525519 0.89949727 0.29174259 0.002322285
-0.016402518 0.035356563 0.0045969547 0.29522336 0.91250736 0.28314933 0.0019288906
-0.013523391 0.034579337 0.0045528733 0.23932226 0.92561156 0.2932032 0.0016759461
-0.010502484 0.033855397 0.0045837122 0.18901406 0.9343251 0.30217579 0.001803979
-0.0076613761 0.033381425 0.0043289969 0.15850414 0.94066697 0.30003688 0.0020344534
-0.004718631 0.033216096 0.0034603199 0.1346976 0.96263343 0.23493275 0.007215946
0.013734779 0.033146713 0.0034207033 -0.12952629 0.97239751 0.19407746 0.0021656961
0.016702363 0.03342177 0.0043440345 -0.19542931 0.93037099 0.31018898 0.002419062
0.019547835 0.034039725 0.0046145255 -0.22667469 0.92045593 0.31840152 0.0022088981
0.022604061 0.034874938 0.0046018753 -0.26392218 0.91681421 0.29966113 0.002280141
0.025318263 0.035593659 0.0048854761 -0.29496086 0.90219694 0.31470418 0.0026036301
0.068495631 0.033875138 0.0055162236 0.82396764 -0.35289249 0.44333315 0.0016481519
0.069442391 0.035004146 0.0045702695 0.84399825 -0.33480284 0.41901556 0.0020136258
-0.067446768 0.036606263 0.0059443526 -0.73826516 -0.31270751 0.59764415 0.00061926694
-0.025152864 0.038448486 0.0047290637 0.37178761 0.88121241 0.29195669 0.0018195504
-0.022505272 0.037435576 0.0046253586 0.33776754 0.89264381 0.29849631 0.0019756116
-0.019716967 0.036494832 0.0043857936 0.30826807 0.90770352 0.28468415 0.0021655492
-0.017517634 0.036044605 0.0034891297 0.27390051 0.93594503 0.22132637 0.00031248681
0.026214063 0.036229126 0.0038295747 -0.29552737 0.91124648 0.2868683 0.0020624588
0.028555764 0.036763489 0.0045706471 -0.29879802 0.90241116 0.31044134 0.0020140754
0.031535454 0.037785649 0.0046933261 -0.34985712 0.88716424 0.30089799 0.0024216112
0.033795167 0.038610656 0.0050062453 -0.43092605 0.85203022 0.29723266 0.002556419
0.070308298 0.03767091 0.0046623629 0.86738056 -0.24316254 0.43419215 0.002117512
-0.069592863 0.04034574 0.0051530306 -0.74302787 -0.26771462 0.61338282 0.001059127
-0.068953194 0.039494134 0.0056353086 -0.74303609 -0.26773304 0.61336482 0.0010497876
-0.033247795 0.041843373 0.0056624683 0.39326069 0.86599839 0.30885726 0.0026864193
-0.031312093 0.041259255 0.0046576927 0.43140268 0.86218542 0.26557127 0.0016493778
-0.028484603 0.039968818 0.0045479429 0.38561806 0.87721282 0.28600082 0.0017733858
-0.026439108 0.039236572 0.0040126299 0.36407295 0.88551545 0.2886405 0.0019291204
0.034998812 0.03949032 0.0041751419 -0.42077738 0.85613322 0.29997042 0.0026676846
0.037485871 0.040726583 0.0045590731 -0.47254592 0.8269406 0.30474505 0.0023026245
0.03947534 0.041602172 0.0053400509 -0.47280902 0.81819183 0.32712969 0.0028703469
0.070913583 0.040601369 0.0047086263 0.90522945 -0.13637118 0.40244561 0.0020241158
-0.070352376 0.043192446 0.0055115679 -0.76769865 -0.21518286 0.60360175 0.0007647319
-0.037397388 0.044314172 0.0047198115 0.44317862 0.84413713 0.30170387 0.0022534353
-0.034580462 0.042912994 0.0045337286 0.43198928 0.8567661 0.28166848 0.0022977195
-0.032645188 0.042215642 0.003695047 0.43074825 0.85569763 0.28677082 0.0022720064
0.040808111 0.042778596 0.0044363178 -0.49063772 0.81069839 0.31944129 0.0023337784
0.043249927 0.044164035 0.0048322179 -0.49110904 0.7964263 0.35286969 0.0031418162
0.045045871 0.044910122 0.0057077557 -0.45954615 0.79621434 0.39352265 0.0039500962
0.071315438 0.04349567 0.0046415944 0.90926695 -0.10529869 0.40267333 0.0016884467
-0.072500743 0.047227565 0.0039382558 -0.72883815 -0.15696621 0.66645068 0.0010574299
-0.071392782 0.046349216 0.0052254018 -0.7203902 -0.13830349 0.67963964 0.001300914
-0.043103524 0.047341924 0.0048460709 0.44901848 0.82969117 0.33165491 0.002741768
-0.040552597 0.046070714 0.0045508258 0.44093272 0.84035188 0.31525716 0.0022264889
-0.038527764 0.04526446 0.0037419065 0.43341365 0.84733522 0.30688035 0.0020239705
0.044564534 0.045328211 0.0040826225 -0.50334036 0.79087728 0.3480826 0.0031336027
0.046525836 0.046361312 0.0045415922 -0.49684569 0.79694188 0.3435519 0.0030150178
0.048699398 0.0475416 0.0049261726 -0.50572664 0.78807986 0.35095674 0.0025961774
0.071246251 0.046479583 0.0050315689 0.87703377 -0.028418241 0.47958758 0.0032858013
0.072089359 0.046610821 0.0033092783 0.88619983 -0.0097944299 0.46319959 0.0038071177
-0.072701901 0.049847554 0.0046187481 -0.67216682 -0.12368137 0.72999638 0.0033823168
-0.07167083 0.049478348 0.0057109073 -0.63008928 -0.11769498 0.76755154 0.0056643956
-0.049106386 0.050485861 0.0050271135 0.42597467 0.82828838 0.36398354 0.0019023515
-0.046496905 0.049317472 0.0045381882 0.45171148 0.82487351 0.33991235 0.0024608509
-0.044351377 0.048321851 0.0041184505 0.43549892 0.83395362 0.33891317 0.0023173962
0.050096508 0.048667591 0.0044686692 -0.50744951 0.77200669 0.38275394 0.0026079884
0.052369166 0.050046023 0.004681801 -0.50139391 0.75881094 0.41570431 0.004437041
0.054276496 0.050772738 0.005493572 -0.49090949 0.75572771 0.43345517 0.0034298357
0.071262576 0.049516495 0.0049014688 0.85554749 0.051541135 0.51515239 0.0023418639
0.072018281 0.048349671 0.0035451092 0.87734264 0.012523327 0.47970098 0.0023087729
-0.075215079 0.05374226 0.0032992081 -0.65452969 0.0089441175 0.75598335 0.011275133
-0.073353305 0.052591991 0.0047277822 -0.58498526 -0.043951493 0.80985218 0.0048425351
-0.071818896 0.051779535 0.0059220754 -0.56771117 -0.011917943 0.82314152 0.0041681533
-0.057324946 0.053675696 0.0058490159 0.23259927 0.77594781 0.58634686 0.0026935034
-0.055291262 0.053458199 0.004942622 0.3520121 0.85087496 0.38999897 0.002422462
-0.052457862 0.052377254 0.0046087047 0.36691275 0.83567071 0.40869242 0.0026697039
-0.050093807 0.051477827 0.0039517148 0.41952059 0.83461159 0.35696787 0.0019223212
0.053503871 0.05130101 0.0036860844 -0.47874826 0.78650063 0.39014974 0.0021521859
0.055601239 0.052129041 0.0045107445 -0.47770792 0.79202324 0.38012421 0.0019424313
0.058044516 0.05328469 0.0050033717 -0.48188272 0.75198966 0.44977853 0.0036166471
0.060241155 0.053870268 0.0058994479 -0.39882758 0.66564554 0.63075554 0.0072937366
0.071111575 0.052527241 0.0048313318 0.83218634 0.056919862 0.55156684 0.0049307272
-0.075471751 0.055401128 0.0032925438 -0.68137288 0.29947636 0.66786593 0.047813032
-0.073453054 0.055604197 0.0049840147 -0.61548001 0.09548305 0.78234732 0.011215722
-0.071482472 0.056511208 0.0058337348 -0.24529083 0.33467293 0.90984964 0.029985962
-0.066775203 0.05672488 0.0058542276 0.11406878 0.60026819 0.79162264 0.0082298741
-0.06411466 0.05624219 0.0054100221 0.25133985 0.63454717 0.7308749 0.0056194137
-0.061508775 0.055756152 0.0046129869 0.30879286 0.78975254 0.53003573 0.0081060035
-0.058600664 0.054807898 0.0044667055 0.25764936 0.84570205 0.467338 0.0032393029
-0.056062415 0.054368369 0.0036824287 0.3335456 0.86428559 0.3765074 0.0025869708
0.059139695 0.054583833 0.0040707649 -0.48942629 0.72967827 0.4775264 0.0037799063
0.061417978 0.055666495 0.0047171316 -0.41749623 0.69077092 0.5903663 0.0056665465
0.063925564 0.056504417 0.0056272461 -0.28962681 0.56870782 0.76986212 0.0091006486
0.070597805 0.055604976 0.0049435673 0.62580335 0.20761535 0.75184172 0.019144107
0.072122961 0.055618726 0.00307266 0.79708099 0.050017271 0.6017974 0.0035959454
-0.073224135 0.05793247 0.0044363192 -0.49312252 0.57234263 0.65517491 0.021302076
-0.070387043 0.058419973 0.0050280616 -0.12554799 0.55968255 0.81914169 0.013048154
-0.067471951 0.058396541 0.0046397722 0.20146264 0.67555243 0.70925438 0.006940315
-0.064693592 0.057801157 0.0040616812 0.366945 0.71684986 0.59285551 0.0062855957
-0.062593058 0.057276912 0.0031850995 0.46707126 0.79447055 0.38815072 0.010354376
0.062467523 0.057644296 0.0034935363 -0.67920387 0.54446512 0.49217868 0.011434938
0.064569212 0.058377355 0.0046019214 -0.46428508 0.48583668 0.7405417 0.015271425
0.067563012 0.05855554 0.0054315934 0.066574343 0.36026236 0.93047237 0.023983721
0.070582263 0.058528386 0.0044028019 0.53387529 0.23613542 0.81192201 0.016887631
0.072037078 0.057524826 0.003131679 0.76543856 0.029997595 0.64280939 0.0038743173
-0.069688194 0.060043588 0.0035804349 -0.19583371 0.91309851 0.35763159 0.031768546
-0.068234369 0.06005913 0.0033754185 0.27160808 0.75769621 0.59340155 0.009677412
0.065328024 0.061247092 0.0035465842 -0.51139629 0.29494131 0.80714524 0.0081873592
0.067530885 0.061381791 0.0044568549 -0.1551351 0.27229115 0.94962656 0.030545687
0.070475765 0.061472025 0.0038960231 0.37498263 0.059433524 0.92512465 0.020695353
0.065864764 0.063375749 0.0031140873 -0.55622226 0.25463775 0.79106027 0.0042697461
0.067646638 0.064473003 0.0036108305 -0.18273897 0.19087607 0.96445459 0.018239293
0.07043045 0.064503103 0.003476142 0.10411455 -0.021720441 0.99432808 0.025810236
0.072139859 0.065044582 0.0030637353 0.23405708 0.0069574029 0.97219795 0.018712964
0.068267271 0.06722413 0.00319053 -0.35664093 0.15680605 0.92098814 0.022043006
0.070558533 0.067610011 0.0033112215 -0.018286668 -0.038091604 0.99910688 0.022260731
0.072475828 0.067653455 0.0032428494 0.45666516 -0.10699815 0.8831808 0.021844482
0.07074739 0.070510507 0.0035901822 -0.04689344 -0.055807371 0.99733979 0.025697891
0.073176757 0.070730217 0.0035975429 0.38822511 -0.22002096 0.89491457 0.037331518
0.070453189 0.073515855 0.0040285815 -0.27978513 -0.12348267 0.95208842 0.012518716
0.073548123 0.073536821 0.0043062191 0.40065655 0.15240231 0.90346438 0.065816589
0.075443372 0.074147694 0.0033767957 0.69704193 -0.0056649358 0.71700794 0.064320974
0.068798542 0.075882547 0.0032817128 -0.33562067 0.60634702 0.72090364 0.10630243
0.070548899 0.075885408 0.004278203 -0.25140387 0.39114019 0.88532788 0.096757941
0.073240094 0.075476475 0.0044065369 0.34929028 0.62250131 0.70034885 0.082990102
-0.013065378 0.0028774517 0.0062203603 -0.12830818 -0.83332634 0.53768414 0.00025155861
-0.010155904 0.0028129385 0.0069207968 -0.10378591 -0.82802701 0.55099899 0.00042727755
-0.007122728 0.0025693695 0.0071040182 -0.064786077 -0.81943244 0.56950265 0.00036585287
-0.0039781476 0.0021035483 0.0066601201 -0.023810148 -0.83553648 0.54891878 0.00091185467
-0.0017562695 0.0026784907 0.0077999234 -0.020600004 -0.83712125 0.54662949 0.0012228684
0.0019359551 0.0019001812 0.0064039733 0.023242485 -0.83477628 0.55009842 0.0010615544
0.0042880732 0.0023041803 0.0070525394 0.037262045 -0.84309196 0.53647691 0.00067503704
0.0075013982 0.0025356975 0.007073252 0.063822016 -0.83101535 0.55257595 0.00052721141
0.010617419 0.0025710436 0.0065824683 0.098566487 -0.8200804 0.56369573 0.00045860632
0.012754709 0.0025523372 0.0061298455 0.11110183 -0.82985419 0.54680759 0.00019627607
-0.022274403 0.0052216728 0.0065015685 -0.23484163 -0.81767225 0.5256058 0.00021078814
-0.019518772 0.004984193 0.0074973209 -0.20726532 -0.81417274 0.54236877 0.00045917716
-0.016300822 0.0043680118 0.0077767284 -0.16205212 -0.81257677 0.55987316 0.00076020166
-0.013611967 0.0040725963 0.0081729423 -0.13971879 -0.81461102 0.5629276 0.00057308358
-0.010587908 0.003687379 0.0083255498 -0.10961886 -0.81509674 0.56885946 0.00085061387
-0.0080353236 0.0035827963 0.0086214738 -0.068048015 -0.80677933 0.58692139 0.0007942011
-0.0045705927 0.0032877959 0.0085768308 -0.043544829 -0.79751563 0.60172468 0.00066621089
-0.00013680027 0.0030348934 0.0084609231 0.0033291879 -0.83303905 0.5532043 0.0013712825
0.0016453289 0.0032587554 0.0087321959 0.0099747963 -0.82936728 0.55861473 0.0013791325
0.0085747559 0.0038226657 0.0089564398 0.070242174 -0.79077441 0.60806412 0.0013671265
0.010504462 0.0038932736 0.0087847067 0.096822724 -0.80175608 0.58975631 0.0012648707
0.013563444 0.0038386323 0.0080611408 0.116102 -0.81946927 0.56124008 0.00029563784
0.016806863 0.0042029549 0.0078061149 0.1276989 -0.8043648 0.58025014 0.00071157888
0.019701859 0.0044283993 0.0073926491 0.15715113 -0.78441685 0.59999484 0.00083796377
0.022490749 0.0050307564 0.0075275428 0.1708961 -0.76451707 0.62153685 0.00069768622
0.025295828 0.0051634852 0.0069730747 0.18047646 -0.77724952 0.60275334 0.0011781456
0.02885931 0.0056151082 0.0062915832 0.2293506 -0.79195398 0.56586856 0.0017300667
-0.030068759 0.0087258052 0.0083121797 -0.2806007 -0.79967678 0.53082991 9.2661452e-05
-0.028448371 0.0078838309 0.0078276945 -0.27368453 -0.79520226 0.54106385 0.0002079877
-0.026051193 0.0070574204 0.0077350065 -0.24861477 -0.80763918 0.5347051 0.00029734551
-0.022840623 0.0063182889 0.0082162395 -0.2408984 -0.80830824 0.53722042 0.00023598142
0.02338626 0.0063163531 0.0087722214 0.1664847 -0.74836427 0.64205432 0.00060880824
0.025749054 0.006469992 0.0083995061 0.17927557 -0.75116569 0.63530338 0.00064102607
0.028521599 0.0067963214 0.0080240583 0.20322359 -0.76588386 0.61001813 0.0014015738
0.03158683 0.0075948299 0.0079421019 0.22186628 -0.76597953 0.60336614 0.0034295088
0.034497924 0.0080772247 0.0073207309 0.26849115 -0.76712477 0.58260798 0.002276208
0.036606073 0.0085990271 0.0069593862 0.3027817 -0.76252234 0.57173669 0.0029052766
-0.033524368 0.010114776 0.0084835449 -0.29575971 -0.78159916 0.54920763 0.00024502151
-0.032699727 0.0094306199 0.0078538526 -0.29041743 -0.7868036 0.54460794 0.00011330246
0.034766383 0.0092381276 0.0087267244 0.24143292 -0.74059987 0.62707412 0.0025310365
0.037656799 0.0097053126 0.0079565346 0.30529171 -0.75697589 0.57774079 0.0028248315
0.040363029 0.010682892 0.0077142818 0.3323403 -0.75816703 0.56101042 0.0026989819
0.042888556 0.011583118 0.0073214797 0.37825382 -0.76422817 0.52237862 0.0015145362
-0.043024465 0.014674859 0.0084610237 -0.41278628 -0.708211 0.57275182 0.00059947808
-0.040534463 0.013277543 0.0084503442 -0.38284963 -0.71581727 0.58397919 0.00049372792
0.041969139 0.012097489 0.0086595491 0.34358013 -0.74860793 0.56704402 0.0026266552
0.044001225 0.012685982 0.0081121484 0.39402789 -0.75416142 0.52534044 0.0011663545
0.046541311 0.013770615 0.0076971496 0.40283212 -0.76107341 0.50842267 0.0013777167
0.048994508 0.014598787 0.0068243942 0.45102444 -0.73688608 0.50356323 0.0011848391
-0.046746243 0.017037872 0.0084980149 -0.46594486 -0.68512225 0.5599134 0.00062992692
0.047130931 0.015056282 0.008967123 0.37894347 -0.66915321 0.63924623 0.0018038094
0.049738616 0.015972247 0.0081157489 0.44227785 -0.71297646 0.54410934 0.0027262357
0.052268177 0.017072711 0.0073288903 0.48741174 -0.69826978 0.52426064 0.0014980067
-0.051621385 0.020187503 0.0079995096 -0.50228018 -0.6587249 0.56017512 0.00031489506
-0.049542002 0.018862061 0.0082927924 -0.48744103 -0.66982245 0.56012428 0.00045676882
0.053275 0.01852634 0.008327717 0.5055753 -0.69156075 0.515885 0.0014035263
0.055396922 0.019622466 0.0076447795 0.52468425 -0.67840886 0.51426446 0.001673262
0.057571635 0.020549065 0.0065414789 0.55680341 -0.6528042 0.51363075 0.0010394963
-0.054320201 0.022857759 0.0088152103 -0.52054894 -0.62753648 0.5789876 0.00067867537
-0.053989239 0.022210466 0.0083309049 -0.51577049 -0.6308676 0.57964379 0.00067322177
0.056302253 0.021285877 0.0087318262 0.49721494 -0.62522221 0.60156 0.0032795279
0.058549609 0.022375816 0.0077068615 0.58420455 -0.63827592 0.50130713 0.0010005953
0.060448587 0.023485422 0.0068840259 0.60881084 -0.59225219 0.52781302 0.0010349132
-0.058949374 0.025549801 0.0067814379 -0.59923249 -0.58728111 0.54407841 0.00049924798
0.059748679 0.024302596 0.008501865 0.59894729 -0.57636565 0.55593598 0.0024942553
0.061596401 0.025616517 0.0077856011 0.6344673 -0.53537619 0.5575155 0.0028635708
0.063419484 0.026764572 0.0068101045 0.66294622 -0.49360532 0.56289983 0.0023973109
-0.061228402 0.029107202 0.0079442225 -0.62867087 -0.51380682 0.58375984 0.0012890436
0.0046306518 0.029880503 0.0089012096 0.011520108 0.84582335 0.53333861 0.0026531923
0.0067801718 0.029963344 0.0087661659 -0.027931308 0.84423637 0.5352428 0.0027159376
0.062648006 0.027760858 0.0085329181 0.65212846 -0.4911114 0.57752752 0.0018760454
0.064240873 0.028733307 0.0074828705 0.67621529 -0.45950019 0.57584059 0.0021983767
-0.063611023 0.032243252 0.0077810152 -0.6728704 -0.41703826 0.61100292 0.00053651189
-0.06224218 0.030995945 0.0084787691 -0.65074676 -0.4306978 0.6253224 0.00060171832
-0.013113445 0.032628853 0.0084666219 0.22267355 0.84032023 0.49424535 0.0019333408
-0.010423774 0.032371368 0.0078008156 0.18844339 0.84778786 0.49572653 0.0014987056
-0.0075060525 0.031914175 0.007536008 0.16129738 0.86136889 0.48169163 0.0013189319
-0.0044904575 0.03140983 0.0075806398 0.13104592 0.85047954 0.50942278 0.0019107566
-0.0014613851 0.031068267 0.0075379047 0.10580331 0.85261738 0.51171201 0.0019330061
0.0014453398 0.030829299 0.0075592939 0.03686877 0.86018544 0.50864685 0.0022689977
0.0044808751 0.030897804 0.0073103411 -0.011675112 0.85683608 0.51545686 0.0022499682
0.007484938 0.030791068 0.0075204372 -0.013938917 0.85161299 0.52398568 0.0024148417
0.010476916 0.03098874 0.007487705 -0.064476937 0.84721416 0.52732432 0.0022496232
0.01339682 0.031275213 0.0075796265 -0.13612999 0.85602838 0.49868226 0.0038403901
0.016509438 0.031856272 0.0075599249 -0.18730892 0.84967655 0.49291497 0.0016358295
0.019305887 0.0323481 0.0079128779 -0.21157315 0.82775569 0.51967043 0.001693051
0.022027133 0.032662872 0.0085715726 -0.23063834 0.78234732 0.57856607 0.00068174151
0.024030825 0.032993414 0.0089605507 -0.24454388 0.74342418 0.62251014 0.0016120981
0.06511201 0.031211935 0.0082827164 0.65885133 -0.35503641 0.66322249 0.0010497972
0.066500194 0.031784181 0.0069863056 0.72921705 -0.39313054 0.56008118 0.001692099
-0.066050373 0.035502546 0.0071791816 -0.72027689 -0.34207612 0.60347748 0.00093143567
-0.064886175 0.034290042 0.0077612889 -0.6908164 -0.37275255 0.61953861 0.00090208935
-0.021957502 0.03556845 0.0082576498 0.30848214 0.82427692 0.47476977 0.001610192
-0.019441025 0.035004202 0.0076608956 0.28607705 0.84182662 0.45769846 0.0017993863
-0.016515797 0.034126494 0.0075157923 0.2555013 0.84926111 0.46203315 0.0018126478
-0.013650314 0.033524204 0.0071435785 0.22293428 0.86093396 0.45726696 0.0019060809
-0.010909736 0.03329194 0.0062981197 0.19158584 0.86891758 0.45637399 0.0016855777
0.019963142 0.033308055 0.0065825754 -0.2222518 0.85090166 0.47599426 0.0016390826
0.022672869 0.033700917 0.0071977992 -0.23599392 0.85918629 0.4539887 0.00056060887
0.025529582 0.034371853 0.0075276494 -0.25706005 0.82438862 0.50428516 0.0026195212
0.028300779 0.035150897 0.0077339807 -0.28155383 0.8211419 0.49644083 0.0019478548
0.03098396 0.035610579 0.0085179787 -0.29675823 0.74852926 0.59299105 0.0011967329
0.06558042 0.033435471 0.0089934804 0.66841537 -0.2959244 0.68238533 0.0041316296
0.067255929 0.034540616 0.0076480489 0.73688054 -0.28636071 0.61237615 0.0021285987
-0.067006119 0.037929721 0.0074112592 -0.73137343 -0.29985306 0.61252022 0.00069947232
-0.065468617 0.036850147 0.0086923121 -0.69131881 -0.2819376 0.66527402 0.002006568
-0.030499913 0.038859081 0.0087836981 0.3598727 0.76948512 0.52762133 0.00050166686
-0.028189646 0.038370829 0.0078409975 0.36909801 0.81724036 0.44258887 0.0022709135
-0.025506346 0.0373642 0.0075477762 0.32857013 0.83610201 0.43928942 0.0019281945
-0.022791434 0.036506359 0.0071365638 0.31790274 0.84034139 0.43904927 0.0016899189
-0.020583272 0.03615449 0.006195724 0.32291967 0.84731424 0.4216415 0.0014064542
0.029444626 0.036230545 0.0065909112 -0.29994267 0.84001076 0.45212421 0.0016341046
0.031713463 0.036656439 0.0072615314 -0.31341931 0.81710005 0.48385516 0.0022131212
0.034458935 0.037621751 0.007561591 -0.37965944 0.81410402 0.43942389 0.0019508456
0.036859408 0.038434792 0.0081552146 -0.39758521 0.75863272 0.51614177 0.0026870251
0.068073019 0.037468173 0.0079015214 0.75575691 -0.21390606 0.618931 0.0022228337
0.069398336 0.037770558 0.0063344887 0.78942174 -0.22871698 0.56965053 0.0015579723
-0.069104895 0.04122328 0.0064265691 -0.72581577 -0.22491097 0.65008199 0.0020272818
-0.067705408 0.04066661 0.0078358455 -0.72581375 -0.22491708 0.65008211 0.0020199928
-0.036343455 0.041815061 0.008571147 0.41200966 0.77952605 0.47179133 0.0015229904
-0.034271259 0.041192282 0.0078985216 0.38281712 0.79638523 0.46821117 0.0017849773
-0.031606492 0.040148921 0.0074653546 0.36822245 0.80407727 0.46676764 0.0015337259
-0.029249938 0.039433613 0.0067420979 0.37617883 0.82516032 0.42142618 0.0013804452
0.035845663 0.039168589 0.0060489653 -0.48012567 0.78879589 0.38377127 0.0036382624
0.038002931 0.039708029 0.0071919467 -0.4289434 0.76476336 0.480775 0.0024406437
0.040384512 0.040854506 0.0075636692 -0.44895884 0.73881721 0.5025785 0.0028224266
0.042598009 0.041642722 0.0083242003 -0.4468039 0.72571427 0.52316844 0.0017043258
0.068340905 0.040346269 0.008325493 0.74888879 -0.10666153 0.65405577 0.0024760771
0.069660544 0.040647142 0.0068298955 0.79098123 -0.12701721 0.59851092 0.0021574132
-0.069491275 0.043936655 0.0068877763 -0.71903759 -0.17798451 0.6717934 0.0022782381
-0.067995101 0.043549765 0.0083079105 -0.68283397 -0.12018327 0.72062045 0.0025304742
-0.04225865 0.044703912 0.0087212631 0.40078378 0.7620616 0.50856102 0.0023140449
-0.040186595 0.044178963 0.0078935008 0.40045384 0.77997398 0.48091304 0.0022086869
-0.037577298 0.0431385 0.0074035744 0.39555159 0.79386455 0.46186373 0.0019354522
-0.035233725 0.042315319 0.0067484365 0.4222362 0.79969549 0.4268533 0.0014286651
0.041698389 0.042308085 0.0065638009 -0.46434635 0.74184024 0.48379287 0.0011469438
0.043767389 0.043004643 0.0074190656 -0.42550144 0.72553712 0.54087371 0.0017612262
0.046187367 0.044123758 0.0078822765 -0.45020404 0.73096448 0.5128423 0.0014413965
0.04826225 0.044753343 0.0086031528 -0.39618519 0.66558725 0.63247997 0.0034214242
0.068532802 0.043339882 0.0084538469 0.73377538 -0.019385474 0.67911559 0.0033129817
0.069828257 0.043600198 0.0070084743 0.77652323 -0.04579936 0.6284219 0.0026400213
-0.070023045 0.046705138 0.0068752496 -0.68291354 -0.079623491 0.72614676 0.0054670195
-0.068136662 0.046589311 0.0084482562 -0.5731312 -0.005585935 0.81944466 0.0027631698
-0.048630875 0.047859795 0.0087095425 0.33314306 0.70374346 0.62750363 0.00082826067
-0.046221919 0.047235686 0.0079595214 0.38140866 0.76275051 0.52224433 0.0026558987
-0.043578632 0.046164628 0.0075497231 0.37360919 0.78347528 0.49657089 0.0017886652
-0.041289475 0.045450594 0.0067541869 0.41853419 0.79048949 0.44716403 0.0015841573
0.047086913 0.045505796 0.0067362152 -0.45191753 0.73751193 0.50184333 0.0018809846
0.049589608 0.046325985 0.0076041878 -0.38851908 0.72235388 0.57206458 0.002303679
0.05212865 0.047277603 0.008228492 -0.38447544 0.69365841 0.60911137 0.0044290186
0.054027777 0.047683802 0.0088865776 -0.30302346 0.63767141 0.70820332 0.0038871195
0.068283536 0.046691541 0.0085646342 0.58346391 0.072050676 0.80893672 0.0042569512
0.069744132 0.046532772 0.0071644573 0.74581397 0.031435676 0.66541213 0.0039022195
-0.070173845 0.049582798 0.0069788992 -0.5773862 -0.00033586397 0.81647104 0.0096428767
-0.067681871 0.049777482 0.0084596816 -0.41984823 0.12805142 0.89851558 0.0097296704
-0.057180706 0.050980296 0.0089539634 0.11685183 0.68698102 0.7172187 0.0035980134
-0.055248972 0.050719071 0.0086256368 0.22045644 0.69223315 0.68717712 0.0017505653
-0.052412413 0.05012507 0.0080038821 0.31997219 0.74972713 0.579247 0.0028121027
-0.049584251 0.049266193 0.0074499687 0.34640193 0.74181926 0.57420367 0.0014246687
-0.047158666 0.048481759 0.0068466538 0.39906916 0.77271754 0.4936105 0.0015866085
0.052816138 0.048765965 0.0069919983 -0.4102084 0.70141512 0.58287728 0.0024358097
0.055415798 0.049640995 0.0076499595 -0.33417353 0.69610512 0.63542557 0.0018144767
0.05818652 0.05025392 0.0083784917 -0.26549089 0.64750963 0.71431494 0.0033816455
0.061289757 0.050829943 0.0088618724 -0.1520862 0.57971925 0.800497 0.0054924316
0.065779068 0.050669733 0.0089419363 0.15387332 0.29125732 0.94418865 0.0070316298
0.067875899 0.049698375 0.0083060842 0.49271503 0.17330575 0.85275847 0.0053776568
0.069754563 0.049451977 0.0069206273 0.6784392 0.10674315 0.72686046 0.0056249718
-0.070291772 0.05259189 0.0068354942 -0.4413901 0.10294452 0.89139062 0.010160965
-0.067487292 0.052568022 0.0078479797 -0.23362336 0.29613239 0.92613488 0.01310494
-0.064545088 0.052585434 0.0081931027 -0.11122034 0.48816019 0.86563838 0.011987815
-0.061491501 0.052766126 0.007952326 0.088356562 0.63115895 0.77060461 0.0036033592
-0.058513328 0.052559681 0.007633178 0.15531819 0.74744827 0.64590812 0.0018851149
-0.055626236 0.052098326 0.0071828431 0.28864545 0.74684054 0.59909362 0.0022343185
-0.052977953 0.051467691 0.0066066678 0.35658532 0.76466691 0.53677887 0.0015999242
0.056627814 0.051383808 0.0064714104 -0.4237211 0.6871106 0.59020287 0.0018189135
0.058766935 0.051982187 0.0070205447 -0.3541601 0.6636492 0.65889329 0.0032290225
0.061501961 0.052550718 0.0076368893 -0.2090321 0.60395312 0.76912045 0.0019821236
0.064491101 0.052481115 0.0082236342 0.011066378 0.462511 0.88654447 0.0085199345
0.067414887 0.052395079 0.0077730105 0.31671175 0.31463525 0.89481741 0.012531572
0.069624804 0.052466083 0.0065266215 0.58783215 0.15006416 0.79494286 0.0074718515
-0.070369549 0.055325698 0.0063715819 -0.24409746 0.26053181 0.9340983 0.011634526
-0.067574285 0.055332512 0.0067386674 -0.035412151 0.45449299 0.89004612 0.010493003
-0.064731628 0.054954834 0.0066781524 0.12463778 0.59733647 0.79224658 0.010508831
-0.061891463 0.054444287 0.0064135501 0.18557274 0.69462627 0.69502312 0.0059097088
-0.059734844 0.054127723 0.0061199013 0.23565483 0.73663568 0.63390428 0.0046151686
0.062166292 0.0544689 0.0063944608 -0.32707188 0.61049533 0.72133166 0.006738421
0.064732358 0.055198718 0.0067383074 -0.15822871 0.48840976 0.85814899 0.011759927
0.067477152 0.055339448 0.0067158272 0.18632066 0.36264923 0.91311014 0.019000536
0.069247968 0.054938633 0.0062250341 0.54109073 0.24604942 0.80416447 0.010720081
0.0671826 0.057085089 0.0060795248 0.1020723 0.33049685 0.93827134 0.023649238
-0.018375276 0.0056412369 0.009102419 -0.21517216 -0.79643172 0.56515265 0.000875319
-0.016231386 0.0056242668 0.0097270645 -0.17077936 -0.78098416 0.60074806 0.0010658521
-0.013261517 0.0052695386 0.0099736238 -0.13324609 -0.7728464 0.6204465 0.00093135057
-0.010411937 0.0051093893 0.010288841 -0.10120752 -0.76024979 0.64169872 0.0009872308
-0.0073249778 0.0049388641 0.010457202 -0.063103288 -0.75137925 0.6568464 0.00090298039
-0.0046056788 0.0050053587 0.010734663 -0.033922832 -0.72213775 0.69091702 0.0012850114
-0.0015354878 0.0046682111 0.010443908 -0.010603446 -0.74451643 0.66751993 0.00099651678
0.0014127273 0.0050644008 0.010886874 0.0040530488 -0.70466316 0.70953041 0.0012658908
0.0045382399 0.0044879946 0.010128238 0.036534376 -0.74504197 0.66601628 0.0023035
0.0073409355 0.0047998196 0.010274066 0.056693874 -0.74682122 0.66260386 0.0022931441
0.010439074 0.0052627651 0.01048013 0.095823146 -0.72853804 0.67827004 0.0013386376
0.013531175 0.0053966832 0.010155898 0.12165208 -0.74082226 0.66059303 0.0012742759
0.016278896 0.0055690943 0.0098136831 0.14402784 -0.74590069 0.65029842 0.0011839016
0.018865701 0.0056816926 0.0092847161 0.16237639 -0.74238467 0.64999914 0.00063142175
-0.028002394 0.0087538082 0.0094765443 -0.27126661 -0.78270566 0.56016618 0.00054013106
-0.025389975 0.0082215443 0.0099192569 -0.24893513 -0.77531111 0.58045167 0.00092388416
-0.022470156 0.0078880908 0.010613474 -0.22458769 -0.77687699 0.58823681 0.0015799758
-0.019575067 0.007234572 0.010766384 -0.20367178 -0.7476303 0.63211286 0.0018319497
-0.016693326 0.0068300678 0.011082959 -0.14885359 -0.75851983 0.63442117 0.00093495141
-0.013588647 0.0065477537 0.011428963 -0.11630046 -0.74428952 0.65765291 0.00093136518
-0.010580328 0.0063037658 0.011609425 -0.081571534 -0.73385936 0.67438596 0.001040171
-0.0083131026 0.0062764641 0.011815558 -0.043881971 -0.69365561 0.71896887 0.0020962078
