# .PCD v0.7 - Point Cloud Data file format
VERSION 0.7
FIELDS x y z normal_x normal_y normal_z curvature
SIZE 4 4 4 4 4 4 4
TYPE F F F F F F F
COUNT 1 1 1 1 1 1 1
WIDTH 561
HEIGHT 1
VIEWPOINT 0 0 0 1 0 0 0
POINTS 561
DATA ascii
0.061222695 0.022510704 -0.0042237416 0.67908293 -0.67715579 -0.28338385 0.0016863759
-0.058231451 0.025867131 -0.004163227 -0.62537813 -0.71799934 -0.3055802 0.0011338174
-0.05611477 0.024371739 -0.0048183366 -0.60349298 -0.72298735 -0.33628199 0.0022651555
0.062654279 0.024768125 -0.0055876588 0.70167154 -0.63917166 -0.31482813 0.0012852662
0.063694209 0.025200436 -0.0042206435 0.72711664 -0.6285305 -0.27613556 0.000845553
-0.061243109 0.02855086 -0.0037845273 -0.69734693 -0.66185665 -0.27505109 0.0011157971
-0.059826076 0.02745739 -0.0043999515 -0.66933584 -0.68024415 -0.29875976 0.0013456154
0.065366983 0.027901957 -0.0051139444 0.75814676 -0.59393638 -0.269171 0.002100724
0.066739023 0.028694101 -0.0032165553 0.81569654 -0.56299001 -0.13297138 0.0029644251
-0.063948758 0.031795774 -0.0042982581 -0.72014594 -0.63905942 -0.270172 0.00086419628
-0.062483896 0.030866392 -0.0054394007 -0.70385617 -0.65333337 -0.27882245 0.00098301668
-0.066499799 0.034966022 -0.0041155107 -0.76259887 -0.62048161 -0.18288149 0.0019412987
-0.065330766 0.033390619 -0.0040566656 -0.73761064 -0.62249529 -0.26159158 0.0013202109
-0.016340915 0.0026297821 -0.0011660396 -0.25031 -0.95860338 -0.1357366 0.001236216
-0.013567618 0.0019921376 -0.0013993423 -0.20190483 -0.96764392 -0.15132637 0.0019856109
-0.010493484 0.0013991121 -0.001531601 -0.15596434 -0.97149462 -0.17853092 0.0032091539
-0.0074878423 0.00093293231 -0.0014974691 -0.12883691 -0.97468054 -0.1827535 0.0039041748
-0.0044568102 0.00057323114 -0.0013875338 -0.084893569 -0.97973037 -0.18144304 0.0047549144
-0.0013699706 0.00035019463 -0.001282723 -0.041388396 -0.99724835 -0.061504167 0.0064677289
0.0015583211 0.00027519409 -0.0014241483 -0.020631639 -0.99157125 -0.1279095 0.0019759217
0.0046510845 0.00028206909 -0.0015497933 0.0088565657 -0.98443913 -0.17550239 0.0050144903
0.0074927807 0.00034531954 -0.0013489234 0.041635711 -0.98458433 -0.1698824 0.0048785242
0.010578929 0.00054451224 -0.0013603412 0.07954096 -0.98305583 -0.16515 0.0047742939
0.013666853 0.00088767923 -0.0015627961 0.11512408 -0.97931021 -0.16642712 0.004852613
0.016442195 0.0012276883 -0.0013315368 0.14686364 -0.97815502 -0.1471183 0.0034415468
0.019439371 0.0017448046 -0.0014712362 0.17857112 -0.97530609 -0.12996355 0.0027338313
0.022429494 0.0023366318 -0.0014092759 0.19312634 -0.97482741 -0.11141711 0.0020537323
0.024621112 0.0028116878 -0.0011541239 0.21823587 -0.96959239 -0.11074138 0.0023505462
-0.025145968 0.00561827 -0.0011965672 -0.34923118 -0.92006332 -0.17754176 0.00069379667
-0.022506593 0.0046735499 -0.0015276282 -0.31837037 -0.93170905 -0.17480995 0.0003226246
-0.019449569 0.0035957852 -0.0013689178 -0.29121181 -0.94289827 -0.16167423 0.00095577119
-0.017387982 0.0030886459 -0.0022947446 -0.26668525 -0.94560993 -0.18628161 0.0019599474
0.02601907 0.00323464 -0.0017380799 0.26565248 -0.9581821 -0.1063759 0.0017243735
0.028518461 0.003896113 -0.0014973383 0.28484493 -0.95302022 -0.10303344 0.0016183592
0.031397782 0.0047774543 -0.001420566 0.29335964 -0.95145005 -0.093182229 0.0012988936
0.033936888 0.0056464206 -0.0014476971 0.32189277 -0.94216061 -0.093372069 0.0016653934
-0.033409476 0.0089412061 -0.00091622747 -0.37338075 -0.89414221 -0.24717711 0.0021829202
-0.031461697 0.0081956964 -0.0013985186 -0.38440979 -0.89969707 -0.20681946 0.00081898144
-0.028398996 0.0069461823 -0.0014115656 -0.35977799 -0.9088136 -0.211229 0.00097651366
-0.026480973 0.0062496648 -0.0019340898 -0.37106737 -0.90961623 -0.18683493 0.00058075838
0.035536014 0.0062605785 -0.0017528633 0.3647981 -0.92602426 -0.096961111 0.0016323987
0.037587874 0.0070440648 -0.0014470958 0.3801426 -0.91938418 -0.10111526 0.0015730895
0.040468596 0.0082760863 -0.0014727684 0.39827856 -0.91207343 -0.097448751 0.0026423503
0.042122662 0.0089441175 -0.0009188978 0.42321396 -0.90096521 -0.095664643 0.0029941385
-0.039485261 0.011788364 -0.00097429968 -0.45169511 -0.8519901 -0.26473442 0.002855134
-0.037594549 0.010918223 -0.001386339 -0.44031742 -0.86671448 -0.23436418 0.0031101524
-0.034686409 0.0095907263 -0.0014728942 -0.38395539 -0.88707447 -0.25627571 0.0022893162
0.043491669 0.0097020548 -0.0015007216 0.44111636 -0.89184028 -0.10018633 0.0025760012
0.046390705 0.011179072 -0.001324083 0.47162351 -0.87752157 -0.08675921 0.0022034969
-0.043418877 0.014109419 -0.0013775843 -0.51488507 -0.83332753 -0.20114346 0.0015361372
-0.040846847 0.012630839 -0.0016008634 -0.45675689 -0.84906411 -0.26544908 0.0029709334
0.047657229 0.012097574 -0.0028557144 0.48716092 -0.85543334 -0.17580694 0.0033281522
0.049546193 0.012989302 -0.0014714553 0.51185268 -0.85201478 -0.10989848 0.0015872262
0.051898491 0.01442655 -0.0013198631 0.53246933 -0.8405906 -0.099417992 0.0018046319
-0.048474319 0.017587688 -0.0013366339 -0.57700378 -0.78444088 -0.22741845 0.0017232349
-0.04649004 0.016166646 -0.0014297288 -0.55624139 -0.79671645 -0.23630129 0.00092888123
-0.04481592 0.015170162 -0.0024501081 -0.54565644 -0.81087774 -0.21150939 0.00071600359
0.053365581 0.015413808 -0.0015324897 0.55331415 -0.82679659 -0.10124677 0.0019402286
0.05553158 0.016928241 -0.0014446804 0.57120836 -0.81225342 -0.11817514 0.0019230442
0.057052858 0.017966434 -0.0011264718 0.60962832 -0.78424793 -0.11536244 0.0019114313
-0.052077476 0.020265015 -0.0013565926 -0.58337158 -0.7904591 -0.18668681 0.00066366926
-0.049999058 0.018720912 -0.0014181481 -0.58691746 -0.77830207 -0.22310011 0.0015012234
0.058490485 0.019228647 -0.001487231 0.64260209 -0.75669181 -0.12033252 0.0017232114
0.060263276 0.020625023 -0.00077755493 0.67325097 -0.73131734 -0.10912449 0.0020945338
-0.055440448 0.02282523 -0.001390685 -0.61093026 -0.77176785 -0.17646095 0.00058872352
-0.053553231 0.021405969 -0.0015395159 -0.5934177 -0.77191484 -0.22804166 0.00317269
0.061745804 0.022171376 -0.0015543061 0.69784898 -0.7090171 -0.10149679 0.0015837
0.063320398 0.02364308 -0.0007222378 0.72607303 -0.68022752 -0.10054022 0.0024127569
-0.060184825 0.026729135 -0.0011806282 -0.68187273 -0.71360266 -0.16068885 0.00084378716
-0.058425281 0.02522777 -0.0014552645 -0.64267004 -0.74608505 -0.17416157 0.00074560294
0.064553417 0.02522069 -0.0015121007 0.75207818 -0.641599 -0.15076239 0.0025397306
-0.063368075 0.029916035 -0.00041379512 -0.73327029 -0.66460192 -0.14359301 0.0010227814
-0.061763868 0.028349254 -0.0013054074 -0.70526713 -0.69178599 -0.15501751 0.00075240299
0.065827303 0.027244313 -0.0029177559 0.78272527 -0.59542006 -0.18115197 0.0030903893
0.067006163 0.028404728 -0.0011920767 0.81774896 -0.56609142 -0.10405343 0.0028118184
-0.064536914 0.031518448 -0.0016565204 -0.7387237 -0.64824873 -0.18455589 0.001476277
0.06835907 0.030747801 -0.0016677933 0.8588739 -0.51153004 -0.025933979 0.0025716138
0.069345199 0.032284886 -0.00084353518 0.87234843 -0.48874915 -0.011513275 0.0023958073
-0.067094557 0.034633182 -0.0012720107 -0.7865845 -0.60560113 -0.12054896 0.0011634198
-0.065920852 0.033455178 -0.00249309 -0.77442586 -0.61534756 -0.1470101 0.0010376838
0.070296831 0.034365624 -0.00069273711 0.92222643 -0.37535882 0.092758663 0.0034285404
-0.069372632 0.037697837 -0.00094240013 -0.82520729 -0.56354368 -0.038096994 0.0046847085
-0.068581216 0.036837734 -0.0018287613 -0.80276835 -0.58414465 -0.11974144 0.0016652375
-0.070640542 0.039859541 -0.00082613586 -0.87850261 -0.47575346 0.043495156 0.0018499641
-0.072297908 0.043236129 -0.00041711263 -0.89827013 -0.38464636 0.21250379 0.0039437236
-0.074546747 0.049376711 -0.00029721469 -0.86301637 -0.32827875 0.38397366 0.009269529
0.075958662 0.071323954 -9.9116107e-05 0.76082516 -0.27075863 0.58977515 0.014587924
-0.018440874 0.002819573 0.0022683383 -0.26053202 -0.96538925 0.012108728 0.0046372032
-0.016501216 0.002466799 0.0014896808 -0.22651358 -0.97400761 -0.00089219457 0.0041561723
-0.013487028 0.0017982302 0.0014976718 -0.18646774 -0.98014235 0.067459255 0.0038199134
-0.010430181 0.0012566282 0.001453917 -0.15534468 -0.98329967 0.094814874 0.0043788622
-0.0074107181 0.00082275691 0.0014517502 -0.12198791 -0.98451912 0.12586136 0.005496968
-0.0044244351 0.00052009179 0.0015126731 -0.079877697 -0.99657428 0.02142659 0.0054082605
-0.0014284512 0.0003454893 0.0016763215 -0.04576505 -0.99401098 0.099235222 0.0017005407
0.0015639625 0.00025871882 0.0017576481 -0.014189462 -0.99388689 0.10948784 0.002030815
0.0044826996 0.00024652272 0.0016195761 0.025628675 -0.99242407 0.12015673 0.0022954014
0.0075477134 0.00034621442 0.0016756706 0.048689283 -0.9803651 0.19108559 0.0066935886
0.010544454 0.00053157681 0.00150198 0.084139228 -0.99418813 0.067161217 0.0068502976
0.013522044 0.00084771414 0.0015688025 0.11361496 -0.97722214 0.17924431 0.0056760092
0.0165879 0.0012506336 0.0015122638 0.14016476 -0.97610927 0.16602579 0.0051471828
0.019523051 0.0017457651 0.0015670105 0.17378005 -0.97471374 0.14047648 0.0036196632
0.022470692 0.0023370031 0.0016150464 0.18896438 -0.97511685 0.11592933 0.0026522537
0.024717763 0.0028210268 0.0012571109 0.21550536 -0.96992964 0.11311094 0.0032539002
-0.027927177 0.0057630697 0.0023223362 -0.3271018 -0.94312662 -0.059301805 0.0087298183
-0.025302688 0.0051527945 0.0016533354 -0.30033359 -0.94734341 -0.11108664 0.0037284207
-0.02250527 0.0042560217 0.0014349144 -0.31972799 -0.9461903 -0.049979068 0.0016362992
-0.019732473 0.0033910985 0.0013310609 -0.30244434 -0.95089608 -0.065757878 0.0017122846
0.026129447 0.0032203132 0.0016924278 0.26685378 -0.95791382 0.10578334 0.0024519491
0.028424235 0.0038438402 0.0015698633 0.28366655 -0.9534598 0.1022137 0.0023205101
0.031496711 0.0047885822 0.001554965 0.30547813 -0.94351172 0.12833044 0.0029250861
0.034040492 0.0056539807 0.001475458 0.32026815 -0.94334108 0.086809762 0.0025278826
-0.036271073 0.0089300293 0.0022643791 -0.35847503 -0.92250532 -0.14310724 0.013571443
-0.034408804 0.0083132489 0.0021418694 -0.36845252 -0.91613913 -0.15789849 0.01270133
-0.031548355 0.0074568712 0.0016087635 -0.37606776 -0.91659868 -0.13571985 0.0048609511
-0.02884312 0.0067359656 0.00093081163 -0.36054492 -0.92152601 -0.14421237 0.0035484217
-0.026635848 0.0061020134 0.00043007286 -0.33276057 -0.93273485 -0.13883829 0.0033268349
0.035468396 0.0061831013 0.0015670164 0.37157559 -0.92391294 0.091195211 0.0023861222
0.037415445 0.006947347 0.0015496725 0.37753704 -0.92118257 0.094278358 0.0022197703
0.040356342 0.008197709 0.0015439814 0.39324704 -0.91189134 0.11751964 0.0021999686
0.042036958 0.0088584265 0.00043141897 0.42764434 -0.89783335 0.10495482 0.0031468656
-0.042319171 0.011824159 0.0024840955 -0.45094678 -0.87930667 -0.15318912 0.014810516
-0.04031137 0.011080138 0.0020319354 -0.40870076 -0.88720602 -0.21407753 0.0063612112
-0.037676863 0.010168011 0.0014080779 -0.44082949 -0.86540723 -0.23820098 0.0070646261
-0.03477598 0.0094766598 0.00043711811 -0.37991628 -0.87932706 -0.28713682 0.0022698916
0.041925035 0.0090133771 0.0025041334 0.42776516 -0.89777559 0.10495692 0.0031360264
0.043673586 0.0097560529 0.0015120568 0.46712926 -0.87983561 0.087632731 0.0015568143
0.046509404 0.011228045 0.0015318346 0.46753818 -0.88087368 0.073956653 0.0031503341
-0.046255805 0.014208722 0.0027435799 -0.56617123 -0.82382864 -0.027504802 0.011338896
-0.043482501 0.013260208 0.0014531241 -0.52678055 -0.81517577 -0.24081267 0.007825288
-0.040866759 0.012464717 0.00032181019 -0.45442647 -0.84271365 -0.28866985 0.0028251272
0.047758088 0.0120496 0.0025965637 0.47534785 -0.86904377 0.1371398 0.0034014715
0.049527097 0.012947465 0.0015119662 0.50655967 -0.85678643 0.096511051 0.0021724086
0.051948033 0.014445252 0.0015677814 0.52810925 -0.84376627 0.095702969 0.0020037144
-0.051295377 0.017829888 0.0028105627 -0.56112742 -0.80606979 -0.1881157 0.012297822
-0.049229193 0.016889468 0.0018846749 -0.55972284 -0.7933386 -0.23942468 0.0080173416
-0.046540122 0.015813142 0.00071020302 -0.55745071 -0.80302501 -0.21071196 0.0044408636
0.053391151 0.015419444 0.001689282 0.56781924 -0.81754458 0.095927998 0.0018987427
0.055559583 0.016916413 0.0015092449 0.58298784 -0.80484432 0.11113431 0.0017928903
-0.054665864 0.020598754 0.0025874998 -0.56265938 -0.81062925 -0.16215643 0.011473643
-0.052354962 0.019933624 0.00095050066 -0.57572693 -0.77471596 -0.2614454 0.0060154842
-0.050140787 0.018670142 0.00037367639 -0.57483429 -0.76418084 -0.29256302 0.003999487
0.05862461 0.019309085 0.0016089429 0.62912625 -0.76570749 0.13376176 0.0017923751
0.060459882 0.020862637 0.0014030935 0.65843534 -0.74282092 0.1211613 0.0029771165
-0.05748082 0.022775294 0.002902797 -0.6880883 -0.7112298 -0.14382835 0.010773741
-0.055751126 0.022733944 0.00075043755 -0.60357112 -0.7604723 -0.23954925 0.0045098197
-0.053494759 0.021189123 0.00016114807 -0.57701522 -0.78019017 -0.24157138 0.003277228
0.061767567 0.022130881 0.0015613856 0.69269097 -0.70944846 0.12985438 0.0023323554
0.06309735 0.02350447 0.0016318284 0.73901635 -0.66146606 0.12773961 0.0032718289
-0.060335409 0.026754608 0.00071856752 -0.69778615 -0.70122021 -0.14623505 0.00085979246
-0.058583576 0.025086338 0.0008381877 -0.66177839 -0.72537595 -0.18941781 0.0034346003
0.064746372 0.025397712 0.0015129107 0.77722555 -0.61364609 0.13913593 0.0023177152
-0.06329155 0.029583884 0.0016823096 -0.74654192 -0.66014743 -0.082948864 0.0010706628
-0.061882164 0.028083645 0.0013365902 -0.71237993 -0.69202745 -0.11667408 0.0013917704
0.066991687 0.028393 0.0015366543 0.83155674 -0.55065179 0.072773628 0.0051793917
-0.064801127 0.031490423 0.0013566896 -0.7797606 -0.62223345 -0.069275111 0.00031852681
0.068490632 0.030840637 0.0015550996 0.85690838 -0.50210601 0.11660808 0.0026062042
0.069388814 0.032526124 0.0015120819 0.87716955 -0.45361227 0.15751027 0.0052722176
-0.066961028 0.034275122 0.0013537984 -0.79652077 -0.60336655 -0.038773909 0.00077878992
0.070369646 0.034762911 0.0015352914 0.90908176 -0.3691707 0.19308913 0.0029128834
-0.069738023 0.038319938 0.0015327469 -0.84988475 -0.51799279 0.096847154 0.0033047369
-0.068605892 0.036575276 0.0015007037 -0.8337304 -0.54983795 0.050713859 0.0017338013
0.071317874 0.037817836 0.0020595607 0.91166437 -0.311854 0.2676101 0.0042356993
-0.071019202 0.040685318 0.0016987978 -0.89260685 -0.40869039 0.19032937 0.0027916853
0.071455188 0.039117787 0.0029992443 0.91000402 -0.20382418 0.36103797 0.0029546984
-0.072393313 0.043790437 0.0013322264 -0.88669604 -0.37407258 0.27173498 0.0084958049
-0.071995832 0.043261517 0.0024540899 -0.89650744 -0.32035553 0.30601755 0.0046667489
-0.07323581 0.046536501 0.0018752585 -0.90461725 -0.29976392 0.30300039 0.0048789531
0.072258852 0.046139155 0.002982341 0.87214309 0.00060994056 0.48925054 0.0015703378
-0.075076915 0.050492272 0.00073479419 -0.84662926 -0.3481721 0.402486 0.008354377
-0.074245147 0.049422946 0.0020299708 -0.86301637 -0.32827875 0.38397366 0.009269529
0.072596394 0.048201837 0.0019478672 0.90949684 0.004889979 0.41568199 0.00049055897
-0.075798303 0.052653063 0.0017023375 -0.83700222 -0.36260384 0.40981194 0.0089662597
-0.074994333 0.051254291 0.0023748945 -0.83695662 -0.36257419 0.40993115 0.0090846252
0.072670884 0.053149648 0.0018197609 0.8774994 0.012571368 0.47941285 0.0025096703
-0.076167636 0.054918319 0.0023405543 -0.69778609 -0.21957339 0.68182254 0.020659368
0.07240314 0.056036107 0.0027408041 0.80332196 0.031292465 0.59472221 0.004443883
0.072613314 0.058727309 0.0023889299 0.71062762 0.039391194 0.7024647 0.0023434621
0.064403437 0.061774578 0.0025287939 -0.22461052 0.33228114 0.91604549 0.018973263
0.072856568 0.061627269 0.0023048061 0.61411238 0.012364874 0.78912169 0.0039521195
0.065234296 0.064655401 0.002118743 -0.32866889 0.22803357 0.91650283 0.017855711
0.066295467 0.065705538 0.0029242628 -0.29208392 0.186515 0.93802935 0.013822267
0.073404185 0.064726658 0.0020338341 0.52729738 -0.0054700514 0.8496632 0.0091776308
0.065664306 0.067309827 0.0016876545 -0.37921214 0.15293786 0.91258323 0.0076987352
0.066561446 0.067958407 0.0024855828 -0.38855094 0.14963309 0.90919644 0.0092581566
0.073962703 0.06736882 0.0022320813 0.54831523 -0.16854082 0.81911194 0.018608918
0.075060546 0.06882368 0.00084503891 0.79974806 -0.26916662 0.53661197 0.010983936
0.067332491 0.070732906 0.0023952918 -0.39940551 0.0087625384 0.91673249 0.0073549496
0.07434921 0.069909252 0.0027748235 0.60447043 -0.24670623 0.75746381 0.052727681
0.075368926 0.070833169 0.001798703 0.76082516 -0.27075863 0.58977515 0.014587924
0.067663498 0.073533095 0.0022692136 -0.52137423 0.018661477 0.85312402 0.0098608648
0.076241255 0.072874472 0.0017607696 0.56118912 -0.20865959 0.8009544 0.059460908
0.067539327 0.07571093 0.0019718208 -0.4258185 -0.041578367 0.90385276 0.018395057
-0.018427083 0.0028581168 0.0035612329 -0.23037176 -0.94095069 0.24807389 0.0083796158
-0.016204299 0.0025576411 0.0042978046 -0.17871504 -0.95469403 0.23794994 0.0048564943
-0.013480063 0.0021185651 0.0045315893 -0.16518798 -0.95723844 0.23750266 0.004327008
-0.010537528 0.0016686693 0.0045876144 -0.12959528 -0.95396703 0.27046627 0.0041892463
-0.0073951436 0.0013096594 0.0045581004 -0.097667143 -0.95036489 0.29541111 0.0039134542
-0.0044419821 0.0010628824 0.0045024427 -0.062999509 -0.94536489 0.31986925 0.003445619
-0.0014146592 0.00096204266 0.0045536202 -0.031309504 -0.93897963 0.34254473 0.0030763356
0.0015675332 0.00095060881 0.0045642457 0.0031885428 -0.93492907 0.35482037 0.0025335194
0.0045498186 0.00099349942 0.0045246161 0.029541632 -0.93204039 0.36114824 0.0020562273
0.0075789494 0.0011573316 0.0045915917 0.056795482 -0.92941815 0.36463159 0.0021128175
0.01051942 0.001335149 0.0045207832 0.080382392 -0.92692578 0.36653408 0.0022522467
0.013508464 0.0016274806 0.0045632138 0.1021254 -0.92655212 0.36203814 0.0028246727
0.016474804 0.0020089385 0.0045624287 0.12496745 -0.92710543 0.35335356 0.0031713208
0.019474223 0.0024163986 0.0044156304 0.15007886 -0.92772073 0.34177563 0.003740577
0.022134174 0.0027179802 0.0038381442 0.21291719 -0.923163 0.32005686 0.0039477083
-0.027685761 0.0057399292 0.0037582994 -0.28192815 -0.95873266 0.03671838 0.010612646
-0.025441604 0.0052373027 0.0045038783 -0.27439651 -0.93023372 0.24366334 0.0059064385
-0.022437464 0.0043189055 0.0045883693 -0.291991 -0.93473125 0.20253111 0.0063806656
-0.019674985 0.0035527949 0.0047023576 -0.26128474 -0.92439777 0.27788293 0.006701855
-0.017202213 0.003240075 0.0055148001 -0.22051792 -0.93194342 0.2878426 0.0052034035
0.020297915 0.0031631333 0.0058034821 0.16005673 -0.83681899 0.52356076 0.0014149303
0.022859469 0.0033428208 0.0050958856 0.20519064 -0.90422839 0.37452349 0.0052099051
0.025586115 0.0037800281 0.0045721331 0.22653942 -0.91243362 0.34080011 0.0036394077
0.028548393 0.0045856694 0.0045975246 0.25320572 -0.90401787 0.34443954 0.0039926497
0.031457007 0.0054029501 0.0043926463 0.29218554 -0.90165508 0.31881928 0.0035092377
0.033415843 0.0057862904 0.0035591628 0.32159212 -0.89955664 0.29559514 0.0026684289
-0.036447041 0.0089161023 0.003222368 -0.35593942 -0.93441516 -0.013244406 0.016229847
-0.034200847 0.0083512589 0.0043972242 -0.31972027 -0.92425388 0.2086473 0.0065845773
-0.031387325 0.0073221656 0.0045629875 -0.3506327 -0.90994775 0.22147664 0.0053857099
-0.028794019 0.0064629889 0.0047589382 -0.3906894 -0.9057287 0.16436972 0.010511925
-0.026628122 0.0060824808 0.0057924809 -0.24075647 -0.93085694 0.27484834 0.006339821
0.032417424 0.0061544506 0.0055711372 0.29352221 -0.88645852 0.35782129 0.0029989891
0.034557376 0.0065788557 0.0046978607 0.32049114 -0.88659954 0.33350676 0.0034103324
0.0374889 0.0076580415 0.0045567597 0.34389845 -0.88281834 0.31994632 0.0027030185
0.040013831 0.0085603008 0.004073211 0.383881 -0.88073695 0.27737644 0.0029836865
-0.042238165 0.011853927 0.0037173927 -0.50247633 -0.86212623 0.065237336 0.028167712
-0.040432137 0.01115887 0.0044329455 -0.38041615 -0.90360755 0.19691883 0.0091864625
-0.03761024 0.0098560182 0.0045705396 -0.45038956 -0.87609231 0.1720797 0.0083505455
-0.03558882 0.0092140054 0.0053052362 -0.43672082 -0.87322372 0.21622954 0.011602703
0.041204192 0.0093696918 0.004883003 0.42144227 -0.86273742 0.27941108 0.0030251394
0.043556586 0.01037822 0.0045298273 0.40891477 -0.85567111 0.31719971 0.0016060479
0.045958184 0.011512006 0.0042330483 0.43679813 -0.84951127 0.29586855 0.0021555009
-0.045942452 0.014330464 0.0044920207 -0.51663178 -0.85073012 0.096695423 0.020991258
-0.043539397 0.012908128 0.0046018818 -0.51443535 -0.83802682 0.18184459 0.010343375
-0.041504763 0.012176313 0.0057289065 -0.39662015 -0.87118483 0.28936028 0.0056624198
0.047128305 0.012429915 0.0050068526 0.48240921 -0.82468045 0.29526865 0.0020510268
0.049395997 0.013581569 0.0045342129 0.50421321 -0.80628633 0.30930784 0.0022118029
0.051434159 0.014685954 0.0041450136 0.50326222 -0.80630141 0.31081378 0.0024183432
-0.051192869 0.01782232 0.0040790415 -0.63818204 -0.76981801 0.010197608 0.029367829
-0.049385279 0.01668793 0.0045472267 -0.56826031 -0.79257303 0.22115201 0.0083951382
-0.047291603 0.015397913 0.0049589747 -0.56580406 -0.81889296 0.096332863 0.01958696
0.0527214 0.01577642 0.0047454317 0.53026867 -0.78856528 0.31141603 0.0026082615
0.054929487 0.0171829 0.0043850564 0.55607432 -0.76889181 0.31557372 0.0021460087
-0.054627184 0.020526467 0.0044720625 -0.53761119 -0.82984573 0.14943337 0.017823277
-0.052553471 0.019083872 0.0046886271 -0.6314249 -0.771456 0.078474514 0.018478947
-0.050607942 0.018056354 0.0057588844 -0.56306595 -0.7924338 0.23453227 0.0096807424
0.056359801 0.01841394 0.0048175217 0.58596826 -0.75081664 0.30482054 0.0017586011
0.058256995 0.019816188 0.0044682766 0.61615264 -0.71517968 0.32996055 0.0023985524
-0.057891149 0.023268996 0.0045670955 -0.68792331 -0.71556568 0.12135566 0.018159885
-0.05608109 0.021834061 0.004832352 -0.62753868 -0.77564949 0.06755095 0.020327335
0.059611786 0.021308433 0.0051867003 0.64530677 -0.69777071 0.31095842 0.0021345431
0.061360374 0.022653818 0.004439238 0.68078071 -0.66137463 0.31483531 0.0022016149
-0.060796712 0.026100308 0.0045021474 -0.7403186 -0.66846228 0.071319565 0.01567615
-0.059354279 0.024808722 0.004976497 -0.70707816 -0.70337969 0.072783902 0.014642747
0.062747896 0.02455006 0.0052467352 0.71181625 -0.59832388 0.3678669 0.0039535169
0.064202897 0.025779428 0.0044164858 0.72303587 -0.59660119 0.34826148 0.0027131073
-0.063465685 0.029356256 0.0048384541 -0.79151607 -0.58819705 0.16591109 0.017616805
-0.062215939 0.027907209 0.0050498871 -0.76843584 -0.63443267 0.08367639 0.0093250917
0.065492809 0.027754987 0.0048311129 0.76742393 -0.55063707 0.32841948 0.0020246881
0.066605434 0.028995302 0.0043022898 0.78958702 -0.50144774 0.35369831 0.0024132635
-0.066164501 0.032971296 0.00431734 -0.83062428 -0.51491451 0.2119583 0.010435072
-0.064781673 0.031270117 0.0049056821 -0.78533846 -0.59239554 0.17975269 0.013375489
0.067845553 0.031402729 0.0046883198 0.82985908 -0.41614893 0.37169063 0.0030370401
0.069288798 0.032962549 0.0030552002 0.86343759 -0.44274199 0.24177487 0.0071204966
-0.066924602 0.034533147 0.0046752919 -0.83294362 -0.47773811 0.27923316 0.0072553619
0.068664804 0.033668414 0.0053151469 0.84799284 -0.33880204 0.40757981 0.0041245217
0.069548689 0.034707103 0.0043249396 0.86822832 -0.33301064 0.36780915 0.0027657226
-0.069270186 0.038338769 0.0039632968 -0.84365338 -0.40604088 0.35125467 0.005803579
-0.068341523 0.037210863 0.0049511516 -0.84784484 -0.40115064 0.34675267 0.0059364079
0.070296898 0.037402652 0.0047637662 0.8697418 -0.26697615 0.41505781 0.0029851771
-0.069976956 0.040411036 0.0045486083 -0.84439105 -0.35579872 0.40051341 0.0047196806
0.071134828 0.040326416 0.0043350817 0.87454557 -0.14508463 0.46273157 0.0025853685
-0.072029293 0.044390503 0.0034479457 -0.86779743 -0.34165382 0.36083287 0.0071127615
-0.07100074 0.04324019 0.0046559898 -0.8583461 -0.31251419 0.40691131 0.0030024291
0.071410447 0.043355238 0.004611325 0.86077225 -0.08468771 0.50189543 0.0018276391
0.072098695 0.044991553 0.0032771491 0.88681978 -0.035928454 0.46071669 0.0011936196
-0.072414473 0.046679389 0.0040362203 -0.82863492 -0.24349499 0.50405777 0.0023459906
-0.07135693 0.046208043 0.005478492 -0.80830443 -0.19131498 0.55681455 0.0050111413
0.071425006 0.046584688 0.0049196733 0.87209994 0.00055427768 0.48932737 0.001660811
-0.073091194 0.049687523 0.0042945477 -0.77380627 -0.27088636 0.57257694 0.006153659
-0.071888387 0.049175218 0.0056399684 -0.78110009 -0.16239017 0.60291964 0.011054111
0.071212247 0.049372155 0.0052280109 0.86288476 0.014158963 0.50520235 0.0025950223
0.07218086 0.050104924 0.0032989541 0.8686552 0.022597551 0.49490148 0.0025432017
-0.07509324 0.052864075 0.0033341136 -0.78538102 -0.27501234 0.55456734 0.0093900822
-0.073422149 0.052314531 0.004856783 -0.68726563 -0.15378056 0.70994186 0.0073258714
0.071101964 0.052805252 0.0050268876 0.82214075 0.063808151 0.56569695 0.0034262617
0.072039448 0.053461101 0.0034998418 0.82214463 0.063810162 0.56569111 0.0034338052
-0.07531067 0.054869324 0.0036654975 -0.69777852 -0.21958566 0.68182641 0.020665849
-0.073594622 0.055236161 0.0051366575 -0.57370877 0.093568951 0.81369716 0.015197919
-0.06676989 0.056931417 0.0058821868 -0.12145411 0.35018161 0.9287743 0.0053349761
0.070615172 0.055983417 0.0050276932 0.62628967 0.13577799 0.76767546 0.014069376
0.072235741 0.054823875 0.0030588855 0.80332023 0.031309512 0.5947237 0.0044438546
-0.072899193 0.057192229 0.005358804 -0.49284387 0.044029728 0.86900306 0.021912592
-0.070570506 0.058084022 0.0054934318 -0.31516787 0.172374 0.93325043 0.02889232
0.0650708 0.058456343 0.0050748955 0.069617599 0.46498317 0.88257807 0.028592616
0.067471631 0.058961373 0.0054351115 0.097044781 0.3662723 0.92543334 0.019607306
0.070592493 0.058683693 0.0045711058 0.48058596 0.11297926 0.86963946 0.018824324
0.072106473 0.058301643 0.0032061916 0.71007657 0.039381083 0.7030223 0.002459785
0.065210491 0.061404061 0.0035694169 -0.23085235 0.35735506 0.90498865 0.020777838
0.06749133 0.0614243 0.0046251742 -0.13081272 0.33778286 0.93208945 0.02837217
0.07053867 0.061467446 0.0040727076 0.33802846 0.064229906 0.9389416 0.020687124
0.072059095 0.06243284 0.0031983606 0.43682894 0.039185248 0.89869076 0.014047628
0.067576967 0.064297378 0.003821682 -0.20629196 0.22130415 0.95313597 0.019635715
0.070649736 0.064658009 0.0036313017 0.21837471 0.012910511 0.97577953 0.022206271
0.0722991 0.064563178 0.0031607233 0.30481467 -0.01248437 0.95232981 0.017583506
0.06802278 0.067376532 0.0033209231 -0.29781899 0.10298736 0.9490509 0.014437261
0.070553914 0.06768287 0.0035293368 -0.028695807 -0.04420504 0.9986102 0.023508856
0.072626516 0.067710094 0.0033884004 0.46452689 -0.1035323 0.87948614 0.025533644
0.068691254 0.070369728 0.0030720627 -0.39927441 0.0087045729 0.91679019 0.0073691597
0.070574701 0.070579603 0.0037735545 -0.08113201 -0.13688038 0.98725951 0.02439039
0.073305488 0.07062313 0.0037211697 0.44921738 -0.30857217 0.83844322 0.02713179
0.068696514 0.074268967 0.003198416 -0.42591244 -0.041630991 0.90380609 0.018374208
0.070387326 0.0734891 0.004239752 -0.36758241 -0.11257575 0.92315215 0.02685196
0.073398724 0.073419444 0.0045459536 0.21444695 -0.14078258 0.96653652 0.050764851
0.075426452 0.07328514 0.0033567983 0.47676507 -0.21061778 0.85342562 0.058872666
0.068640359 0.075579062 0.0034033023 -0.425917 -0.041639842 0.90380353 0.018372243
0.070502453 0.075444229 0.0046922155 -0.2149545 -0.022565141 0.97636336 0.048590023
-0.013351266 0.0028435269 0.006407029 -0.16116908 -0.87712562 0.45241049 0.0010621648
-0.010495815 0.002572902 0.0067379633 -0.11643451 -0.87739474 0.46542612 0.0015591409
-0.0075547318 0.0024614464 0.007178803 -0.079984292 -0.87881875 0.47040427 0.0016073217
-0.0046136002 0.0022212653 0.0071307435 -0.046098758 -0.87815624 0.47614768 0.0017136297
-0.0014060771 0.0022568789 0.0074080671 -0.015872354 -0.87735027 0.47958794 0.0015653891
0.0015698891 0.0022535182 0.0074111358 0.0076501155 -0.87580663 0.48260137 0.0015861529
0.0044943001 0.0022336228 0.0072180466 0.03550677 -0.87295735 0.48650262 0.0016726989
0.0074674189 0.0023953205 0.0071656252 0.063358031 -0.86836481 0.49186209 0.0013617077
0.010507969 0.0025216632 0.006856468 0.086912587 -0.86096513 0.50118381 0.00096398982
0.013428625 0.0026342233 0.0064796261 0.10611348 -0.85293984 0.51111013 0.00073818024
0.016315829 0.0028740072 0.0063014631 0.12369797 -0.84371537 0.52234387 0.00066790136
-0.02456113 0.0057412074 0.0064909947 -0.2848376 -0.86093056 0.42150462 0.0012533178
-0.022243679 0.0053996514 0.0072133569 -0.25194719 -0.85789084 0.44782352 0.0011806781
-0.019588055 0.0048367148 0.0075424416 -0.22662118 -0.85355455 0.46913484 0.0011558143
-0.016556364 0.0041017798 0.0075407545 -0.19151123 -0.86333913 0.46687141 0.00094054226
-0.013623646 0.0036481021 0.007781601 -0.15357441 -0.85542625 0.49463215 0.0011754862
-0.010760749 0.0034656872 0.0082574124 -0.11219013 -0.85062873 0.51365763 0.0013857383
-0.0076757809 0.0032962237 0.0085572647 -0.07911399 -0.80973423 0.58143914 0.00081588188
-0.0046080868 0.0031813183 0.0087326718 -0.042601161 -0.80149281 0.59648496 0.00084626372
-0.0018608874 0.0032475058 0.0089813238 -0.017427858 -0.79761553 0.60291433 0.00092129403
0.0020281794 0.003230172 0.0089970119 0.012760796 -0.79451478 0.6071108 0.0010007571
0.0047356738 0.0031835148 0.0087821111 0.045531545 -0.79577893 0.60387313 0.0010258994
0.0075213616 0.0032795684 0.0086436523 0.069297925 -0.7984733 0.5980286 0.0010789329
0.010601928 0.0033944347 0.0083380183 0.093353398 -0.83822984 0.53726703 0.0010483331
0.013489018 0.0036062584 0.0080382256 0.11307476 -0.83139729 0.544052 0.00061950093
0.016562538 0.0038957982 0.0077351863 0.13039464 -0.82296151 0.55293 0.00052626856
0.019477056 0.0042415946 0.0075126369 0.15367898 -0.81553054 0.55793619 0.0007478192
0.022436703 0.0047353166 0.0074543171 0.16051355 -0.78428698 0.59927392 0.00077936106
0.02539859 0.0051232623 0.0071800682 0.19006953 -0.8048051 0.56228316 0.0026168209
0.028259968 0.0055115204 0.006724956 0.22264515 -0.81596035 0.53351456 0.0033007925
0.030408189 0.0058730743 0.00629385 0.29266486 -0.81889963 0.49371114 0.0027854673
-0.033472832 0.0087700011 0.0062769665 -0.33697507 -0.89167178 0.3022736 0.0039465269
-0.03124891 0.0083997892 0.0072481045 -0.30926535 -0.8486703 0.42908469 0.0010627167
-0.028475881 0.0075822528 0.0075498465 -0.29266962 -0.84123152 0.45461413 0.0011685591
-0.025625139 0.0067156758 0.0077077979 -0.26363543 -0.8437987 0.46743998 0.0011059018
-0.022873819 0.0063176113 0.0085303644 -0.24425158 -0.81040978 0.53251976 0.00047174134
0.023181416 0.0061021685 0.0088783382 0.17781411 -0.73278654 0.65681499 0.00019111195
0.025803857 0.0063815271 0.0085801398 0.17686844 -0.72953504 0.66067863 0.00034063699
0.028722409 0.0067012045 0.0081532169 0.19917755 -0.77880871 0.59479845 0.0027503266
0.031618267 0.0071411729 0.0076357513 0.23126931 -0.7970019 0.55794472 0.0032344903
0.034329608 0.0079299482 0.0074980701 0.25966331 -0.78728718 0.55924404 0.0031340118
0.037040364 0.0085038701 0.0068268739 0.32389832 -0.81210178 0.48536655 0.0023956306
-0.039698046 0.011651651 0.0065909727 -0.40614906 -0.82681543 0.38912612 0.0007946908
-0.037445895 0.011033275 0.0074668764 -0.36299056 -0.81980383 0.44289908 0.00091481674
-0.034678824 0.0099255787 0.0076284409 -0.35547778 -0.8360647 0.41788915 0.00067214691
-0.032257065 0.0093806097 0.0083762724 -0.2994048 -0.83221376 0.46666586 0.0010283901
0.035402235 0.0092302794 0.0087641897 0.24823222 -0.6825074 0.68743318 0.0025382172
0.037775476 0.0096275965 0.0081008384 0.29107583 -0.75194556 0.59148353 0.0056970869
0.040543694 0.010452643 0.007564873 0.34887391 -0.80443501 0.48080283 0.0022962829
0.043179899 0.011380522 0.00708981 0.38649037 -0.78676653 0.48127285 0.0024993035
0.04516799 0.011875693 0.0062047625 0.44976276 -0.79206157 0.41273716 0.0028768037
-0.045270789 0.014788722 0.0066235266 -0.49986911 -0.78075951 0.37489393 0.0026539741
-0.043228649 0.013967273 0.0073562106 -0.46718639 -0.77459961 0.42630064 0.0012150514
-0.040590908 0.012770727 0.0078464346 -0.40470266 -0.79769212 0.44710532 0.0011152514
-0.038518246 0.012257617 0.0087690698 -0.37562144 -0.78874213 0.48661521 0.0009319479
0.043811865 0.012529562 0.0083572157 0.3561855 -0.76023304 0.5433026 0.003384375
0.046347186 0.013361751 0.0075800177 0.40920743 -0.76982492 0.48981515 0.0024766459
0.048861787 0.014416456 0.0069623576 0.46107236 -0.7531544 0.46922362 0.0018214578
-0.048734549 0.017395996 0.0071164761 -0.52501607 -0.74394888 0.41339841 0.0010012478
-0.046426028 0.016150743 0.0076937741 -0.49596369 -0.74388152 0.44795123 0.0013980444
-0.044135381 0.015222599 0.0086086048 -0.44489616 -0.73530847 0.51126212 0.00062385027
0.047562174 0.015067087 0.0089924913 0.39132434 -0.66397613 0.63718206 0.0017878308
0.049722478 0.015682818 0.0080667501 0.43465102 -0.73014092 0.5272311 0.003156373
0.052126065 0.016815063 0.0074067567 0.48633996 -0.71739662 0.49881411 0.0030575579
0.054247558 0.017724067 0.0065497616 0.51933497 -0.71302438 0.47104922 0.0013642375
-0.05413904 0.020930987 0.0063923188 -0.58620727 -0.73652565 0.33747754 0.0061511602
-0.052104525 0.020022865 0.0073976018 -0.54550952 -0.71815187 0.4320617 0.001531939
-0.049890693 0.018723574 0.0079448428 -0.51623106 -0.74405074 0.42413902 0.0015526554
0.05315765 0.018401334 0.0085797282 0.46804428 -0.63367838 0.61594331 0.001635014
0.055392299 0.019373808 0.0076348432 0.51428264 -0.69349521 0.50455701 0.0026007895
0.05744911 0.020403946 0.0067853578 0.5651983 -0.66200852 0.49223533 0.0014121797
-0.057375431 0.023704767 0.0065106354 -0.63557333 -0.67894661 0.3675296 0.0042280243
-0.055300046 0.022569405 0.0075158784 -0.58345604 -0.70377582 0.40531307 0.00092864269
-0.053255986 0.021417091 0.0083158519 -0.55287331 -0.713907 0.42973 0.0015813264
0.056566305 0.021186901 0.0086690234 0.54938 -0.62129289 0.5587278 0.0013672233
0.058607567 0.022179049 0.007703614 0.59605831 -0.64143056 0.48299193 0.0013500199
0.060574718 0.023302343 0.0067929267 0.61722684 -0.60013592 0.50879067 0.0012858695
-0.060443848 0.026725717 0.0064418674 -0.66829044 -0.60487199 0.43303314 0.00077983266
-0.058512006 0.025498549 0.0075186039 -0.64638245 -0.63506168 0.42294964 0.00096730556
-0.056548052 0.024305487 0.0084985187 -0.584059 -0.65166706 0.48394743 0.0019688339
0.059691831 0.024292475 0.008821141 0.54802889 -0.52938271 0.64762515 0.0013360736
0.061677158 0.0253019 0.0076520401 0.65304273 -0.54391903 0.52696043 0.0035858727
0.063643657 0.026506802 0.0065023676 0.67770356 -0.51875454 0.5211637 0.0016357275
-0.063210331 0.029914381 0.006258178 -0.75380939 -0.58866626 0.29196495 0.017100299
-0.061399966 0.028580295 0.0073820441 -0.69365364 -0.57150042 0.43844256 0.00097034418
-0.0597043 0.027579673 0.0085371295 -0.65637159 -0.5429039 0.52386236 0.001815912
0.062740587 0.027556593 0.0085566668 0.64993078 -0.4816311 0.58789587 0.0023384492
0.064400174 0.028589871 0.0074368147 0.69310057 -0.45060778 0.56264049 0.0030102024
0.066244133 0.029973488 0.0062083886 0.72728568 -0.44026938 0.52651536 0.0016608484
-0.063868396 0.031811669 0.0072905244 -0.7302202 -0.47286311 0.4931317 0.0019440779
-0.062474839 0.030782895 0.0082491767 -0.69608635 -0.49428642 0.52071553 0.0024212466
0.065354325 0.031239513 0.0082860291 0.70996189 -0.36320627 0.6033535 0.0028412335
0.066739269 0.031890184 0.0069983783 0.73321837 -0.40732411 0.54449785 0.0021457127
-0.066314869 0.035202719 0.006787281 -0.75730824 -0.445544 0.47746703 0.0013745488
-0.064970508 0.034284726 0.0078940177 -0.741575 -0.42705101 0.5173915 0.0039029114
0.065884285 0.033466477 0.0089400979 0.65136737 -0.28295061 0.70403093 0.001839568
0.067558959 0.034461316 0.0074631362 0.76135623 -0.29380417 0.57794106 0.0015052044
-0.067066334 0.037629485 0.0073953946 -0.77060258 -0.33596912 0.54156852 0.0032150284
-0.06568905 0.036822926 0.0086844135 -0.68479121 -0.29157519 0.66786593 0.0013762373
0.068100393 0.037036534 0.0079556927 0.74875295 -0.20552063 0.63018268 0.0017845636
0.069396131 0.037844233 0.0065890029 0.81496567 -0.2204822 0.53592771 0.0028465858
-0.069382928 0.041290138 0.0062944521 -0.77668166 -0.30653888 0.55027217 0.0022095407
-0.067961305 0.040550753 0.0077076042 -0.7544291 -0.26791543 0.59921461 0.0029985143
0.068382338 0.040489446 0.00852222 0.68586081 -0.11263801 0.71896285 0.002014979
0.069667719 0.040458571 0.0069724615 0.80031854 -0.12757549 0.58584529 0.0022741593
-0.069726892 0.043850079 0.006804714 -0.75484145 -0.17460226 0.63224083 0.0029004535
-0.068351701 0.043290928 0.008145065 -0.71559876 -0.13982794 0.68437308 0.0032860178
0.06857866 0.043482486 0.0086204326 0.64221221 -0.020254673 0.76625925 0.0035906411
0.069907703 0.043437019 0.0070806202 0.7960847 -0.060106955 0.60219282 0.0026927409
-0.070099637 0.046608888 0.0070097623 -0.70834219 -0.1094054 0.69733906 0.0067451433
-0.068415128 0.046516746 0.0084656999 -0.63639623 -0.028202856 0.77084661 0.0034979514
0.068595693 0.046493206 0.0085402653 0.69235146 0.080956362 0.71700448 0.0052172579
0.069905147 0.046454463 0.0071821297 0.75308615 0.022603022 0.65753353 0.0047448478
-0.070313953 0.049494922 0.00707852 -0.60526663 0.023016321 0.79569 0.007751843
-0.067957066 0.049551427 0.0085728476 -0.46041432 0.18120798 0.86901224 0.008870733
0.067915246 0.049535111 0.0085226223 0.45698422 0.19846304 0.86705124 0.010693277
0.069717623 0.049235899 0.0071783927 0.68079519 0.10521202 0.72487813 0.0065062661
-0.070531107 0.05255273 0.0069145076 -0.44426584 0.068170913 0.89329755 0.010873104
-0.067563638 0.052537937 0.0080049401 -0.25213858 0.27135962 0.92886496 0.013834927
-0.065552808 0.052634157 0.0082943225 -0.21539615 0.37911862 0.8999297 0.005581147
0.06242748 0.051965583 0.0085019479 0.08083763 0.37601122 0.92308223 0.0059110671
0.065117091 0.052878216 0.008208192 0.21965654 0.3746185 0.90078402 0.010069372
0.067646921 0.052494679 0.0078234822 0.31666413 0.31150538 0.89592874 0.011932774
0.069815315 0.05192313 0.0066352449 0.6610384 0.15971176 0.73315787 0.0064408234
-0.072057597 0.055042993 0.0060858671 -0.46553251 0.067917719 0.88242096 0.02011705
-0.070596211 0.055424906 0.0064731529 -0.27998155 0.20775138 0.93725646 0.023813557
-0.068094991 0.0554308 0.0068436973 -0.12146984 0.35012767 0.92879254 0.0053432514
-0.064634994 0.05457788 0.0070869755 -0.1725086 0.38133448 0.90819865 0.0069649192
0.064729229 0.055502258 0.006745032 0.10042959 0.39877594 0.91153264 0.0066525922
0.067741416 0.055308621 0.0068684174 0.23921533 0.36013255 0.90170985 0.015110065
0.069604173 0.054310821 0.0063426327 0.62774426 0.1852545 0.75605422 0.013009315
0.067442514 0.057414282 0.0061433497 0.18446662 0.3429099 0.92107809 0.012893871
-0.019162294 0.005813167 0.0093689766 -0.20704903 -0.79794788 0.56604767 0.00081041979
-0.016408389 0.0054482813 0.0097361282 -0.16852771 -0.79141837 0.58758426 0.0010678698
-0.013556393 0.00514455 0.010045264 -0.13729298 -0.78261608 0.60717601 0.0011530827
-0.01048526 0.0049400032 0.010355203 -0.10406635 -0.7705884 0.62877959 0.001157492
-0.007583702 0.004704129 0.010440047 -0.070356756 -0.76864946 0.63578928 0.0016679374
-0.0046060607 0.0045899362 0.010542447 -0.040848579 -0.74279946 0.66826671 0.00092147745
-0.0013631623 0.0044874582 0.010539022 -0.010477202 -0.77065587 0.63716549 0.00073977915
0.0015342149 0.0044861301 0.010524975 0.0093695894 -0.76862669 0.63962895 0.00079096208
0.004544646 0.004594828 0.010538138 0.032158803 -0.7258724 0.68707728 0.0008895818
0.0075202882 0.0047048945 0.010439488 0.067497723 -0.7355991 0.6740461 0.0013587194
0.010411129 0.0048618834 0.010298734 0.091711082 -0.7424596 0.66358322 0.0014125508
0.013483304 0.0050859759 0.010097851 0.11765113 -0.75125742 0.64943862 0.0013881758
0.016355958 0.0053452933 0.0098157655 0.13945134 -0.75451034 0.64130133 0.00112732
0.019244786 0.0056462293 0.009429764 0.1604716 -0.76567954 0.62288332 0.00024859284
0.021328494 0.0058782073 0.0090792859 0.15723529 -0.75867105 0.63221449 0.00071145629
-0.028041089 0.00860315 0.0095567163 -0.27432683 -0.7914483 0.54621816 0.00075419672
-0.025510527 0.0082031013 0.01014076 -0.25235617 -0.78162575 0.57041878 0.0012177974
-0.022570267 0.0076158335 0.010522921 -0.21510601 -0.78613621 0.57941294 0.00070824131
-0.019659225 0.0070207245 0.010777985 -0.1931673 -0.77519923 0.60145867 0.00099470711
-0.016707001 0.0066689057 0.011189621 -0.15196806 -0.76705217 0.62332714 0.0012062195
-0.013669829 0.0064331116 0.011582565 -0.11784296 -0.70673132 0.6975987 0.0010256229
-0.01073886 0.0062122531 0.011778586 -0.083948888 -0.69235337 0.71665853 0.0010573546
-0.0078140032 0.0060943109 0.011959817 -0.053283717 -0.72531652 0.68635041 0.00098564324
0.0059183622 0.0060589076 0.01199124 0.056674499 -0.71780324 0.69393557 0.0014355462
0.0075215478 0.0061333422 0.011925176 0.058726281 -0.70144808 0.71029699 0.0014059801
0.010755908 0.0062334491 0.011700227 0.079883941 -0.70791292 0.70176774 0.0014927106
0.013485425 0.0064961188 0.01160324 0.10476597 -0.71778917 0.68833327 0.0016737967
0.016614355 0.0067145866 0.011286737 0.13422571 -0.72550911 0.67499626 0.0014364958
0.019556701 0.0070162164 0.010942177 0.16295426 -0.71383882 0.68108749 0.00046509446
0.022510843 0.0074241045 0.010567668 0.17779712 -0.71787405 0.67308617 0.00021077527
0.025415299 0.0078299874 0.010161745 0.18102807 -0.70114535 0.68965501 0.00075413799
0.028378231 0.0081875324 0.0097472416 0.1983611 -0.70449477 0.68142498 0.00057601673
0.031400789 0.0086226081 0.0094072577 0.20336847 -0.69314587 0.69151294 0.00073049619
0.033203758 0.0087112458 0.009019509 0.23082252 -0.74486983 0.62601107 0.0028724389
-0.036553998 0.011756206 0.0094167357 -0.36114395 -0.77233869 0.52255917 0.0010650492
-0.034414887 0.011291659 0.01005161 -0.32351747 -0.76979911 0.55022341 0.0010079936
-0.031501979 0.010531807 0.010537992 -0.27992728 -0.76527333 0.57965291 0.0012595817
-0.02856178 0.0098061925 0.010956756 -0.25388917 -0.75388432 0.60596925 0.0019878359
-0.025923179 0.0093999291 0.011537225 -0.22205879 -0.71983051 0.65767306 0.0009396383
-0.023981966 0.0090516359 0.011796491 -0.21644014 -0.72510147 0.65374422 0.0022876638
0.023884572 0.0090083843 0.011834548 0.18479484 -0.68184179 0.70777303 0.0010158877
0.025824271 0.0093622403 0.011625472 0.18986098 -0.654751 0.73161048 0.00051587535
0.028727714 0.0098768547 0.011215162 0.19538586 -0.66368681 0.72204167 0.00028664304
0.031658735 0.010401568 0.010869116 0.20134179 -0.62662578 0.75286227 0.00037146558
0.03435095 0.01052831 0.010292413 0.23097241 -0.64495301 0.7284829 0.0016700072
0.037283767 0.011041087 0.0098794373 0.26234049 -0.66484946 0.6993944 0.0032147092
0.040024854 0.01165099 0.0094475523 0.30290383 -0.67075956 0.67700136 0.0022821925
-0.042388931 0.014712788 0.0094046984 -0.43768784 -0.73226875 0.5217393 0.00092584005
-0.040151466 0.014080961 0.010223077 -0.39428344 -0.73042822 0.55768728 0.0011407037
-0.037559461 0.013163388 0.010710257 -0.34350386 -0.74790955 0.56801099 0.00091238064
-0.034870997 0.012501725 0.011400891 -0.29668599 -0.7127763 0.63555282 0.00059232442
0.034670461 0.012476222 0.011725264 0.21102475 -0.60958689 0.76411545 0.00029702325
0.037695926 0.012919389 0.01129508 0.22294727 -0.58179605 0.78218144 0.00043667987
0.040642817 0.013432243 0.010760086 0.2713607 -0.60558945 0.74808073 0.0018199107
0.043331563 0.013866615 0.010089978 0.34369665 -0.64656144 0.68105137 0.0028864888
0.045775604 0.014557499 0.0095400969 0.3766346 -0.6539458 0.65612596 0.0027423678
-0.04592628 0.017198484 0.0097967656 -0.47354901 -0.7009486 0.53331268 0.0012281938
-0.043480448 0.01636347 0.010704353 -0.41635567 -0.71478778 0.56189525 0.0010866883
-0.040886171 0.015450371 0.011462952 -0.38321275 -0.69778049 0.60518628 0.00087185623
0.041566968 0.015282762 0.011891514 0.24036282 -0.55440086 0.79678434 0.0004569217
0.043721836 0.015752431 0.011457204 0.2798785 -0.57319516 0.77013987 0.00063783268
0.04647848 0.01636182 0.010788836 0.32939705 -0.57292277 0.75050461 0.0010881778
0.049062975 0.016931737 0.0099474229 0.41679364 -0.64595747 0.63954836 0.0021390775
0.05118392 0.017720053 0.0093755126 0.43387988 -0.62372065 0.65016979 0.0036735574
-0.051214904 0.020745948 0.0095436461 -0.50683802 -0.67095858 0.54123002 0.00083982368
-0.049332272 0.019930996 0.010245039 -0.49407741 -0.67941713 0.54247564 0.0017675313
-0.047018308 0.01886053 0.010933286 -0.47756475 -0.68886876 0.54533637 0.0005871235
-0.044752784 0.018161047 0.011878748 -0.41497993 -0.65560734 0.63084918 0.0018237411
0.047142666 0.018166589 0.011874009 0.30171663 -0.5207876 0.7985909 0.0012010102
0.049601398 0.01894909 0.011315236 0.3555868 -0.52243799 0.77499455 0.0011884087
0.052194439 0.019607037 0.01039792 0.42039406 -0.57760131 0.69974673 0.0028603938
0.054537296 0.020431804 0.0095983902 0.49303427 -0.5884105 0.6408512 0.0032564979
-0.054437358 0.023488864 0.0097516095 -0.53597575 -0.63965821 0.55096954 0.0017748408
-0.052320924 0.022483859 0.010562755 -0.51726055 -0.63339835 0.5755415 0.0021825477
-0.050101191 0.021554802 0.011453676 -0.49594235 -0.63754725 0.58955461 0.00055487728
0.052884471 0.021690294 0.011559428 0.38236424 -0.46841997 0.79647994 0.0014567242
0.055399977 0.0224692 0.010606774 0.44969919 -0.53403252 0.71594691 0.0028553219
0.057693426 0.023184646 0.0095843012 0.53499484 -0.55594313 0.63616645 0.0018994075
-0.057596531 0.026383584 0.0096848654 -0.58363611 -0.57484448 0.57351786 0.0019489648
-0.055526543 0.025346821 0.010646475 -0.53790259 -0.58080858 0.61100096 0.0025135933
-0.053448059 0.024363331 0.011552515 -0.524216 -0.58528155 0.61858135 0.00053891627
0.056237981 0.024850493 0.011649265 0.4198181 -0.4102146 0.80961519 0.0020871933
0.058471095 0.02548027 0.010614199 0.4845531 -0.44197157 0.754897 0.00087179645
0.060630005 0.026171867 0.0094732484 0.5842371 -0.49084601 0.64632595 0.0020233293
-0.060670264 0.029476736 0.0092557715 -0.63711125 -0.5200569 0.56888497 0.001626329
-0.058584016 0.028506348 0.010562737 -0.58894283 -0.47270519 0.65551221 0.0009986537
-0.056518961 0.027401933 0.011606521 -0.56747687 -0.53538853 0.62556291 0.0010111914
0.059338227 0.028181283 0.011531252 0.46508896 -0.35042244 0.81295532 0.0015464358
0.061477929 0.028544595 0.010248852 0.55518562 -0.37957752 0.74006069 0.002200614
0.063368887 0.029704547 0.0093565062 0.63702792 -0.41786519 0.64775318 0.002106562
-0.061221138 0.031717982 0.010326033 -0.63725626 -0.40827686 0.65361649 0.0011582021
-0.059515052 0.030650713 0.011265729 -0.61864525 -0.42617795 0.66003823 0.0014772768
0.061799489 0.031378482 0.011313329 0.51007146 -0.29328233 0.80858678 0.00090855366
0.06387727 0.031645626 0.0099071199 0.6220749 -0.3395234 0.70551157 0.0021529612
-0.063763551 0.034783747 0.0096347937 -0.66383153 -0.36722264 0.65151763 0.0015769424
-0.062005959 0.034322236 0.011056422 -0.61430502 -0.31729838 0.72246182 0.0017277416
0.062659435 0.034367748 0.011705135 0.53571445 -0.20424284 0.8193258 0.0016022983
0.064545743 0.034456082 0.010422186 0.56847775 -0.24272293 0.78607798 0.0018414782
0.066216201 0.035451692 0.0093903644 0.64119321 -0.27621815 0.71594334 0.0021065306
-0.064360835 0.037577584 0.01029263 -0.65293258 -0.27445033 0.70594335 0.001715003
-0.062461156 0.03711402 0.011724714 -0.5844658 -0.20763066 0.78440374 0.0025016868
0.039884664 0.036675081 0.011923545 -0.20781204 0.44473395 0.87122095 0.00086178677
0.064611286 0.037395932 0.011085797 0.53402895 -0.12900491 0.83556622 0.0011086561
0.06662596 0.037589703 0.0096241292 0.66381991 -0.17286836 0.72763979 0.0025071306
-0.066385292 0.040678605 0.0094142398 -0.66886002 -0.18996802 0.71870601 0.0024401078
-0.064565316 0.040363375 0.010840584 -0.58586985 -0.1244157 0.80079788 0.003930063
0.046268545 0.040927291 0.011296665 -0.21699531 0.47119761 0.8549186 0.00044737791
0.048515774 0.041845184 0.011497007 -0.2196676 0.46886548 0.85551822 0.00058350712
0.064771272 0.040411938 0.011301165 0.48687676 -0.0040013907 0.8734616 0.0033826348
0.066909969 0.040601965 0.0098638432 0.62742138 -0.078851171 0.77467722 0.0034195145
