# .PCD v0.7 - Point Cloud Data file format
VERSION 0.7
FIELDS x y z normal_x normal_y normal_z curvature
SIZE 4 4 4 4 4 4 4
TYPE F F F F F F F
COUNT 1 1 1 1 1 1 1
WIDTH 558
HEIGHT 1
VIEWPOINT 0 0 0 1 0 0 0
POINTS 558
DATA ascii
-0.0045578424 0.013554549 -0.015833929 -0.021982959 -0.25504127 -0.96668023 0.0020859181
-0.0015343794 0.013536467 -0.015910842 -0.019826602 -0.23873691 -0.97088188 0.0021093923
0.0014740629 0.013468707 -0.015976928 -0.024625547 -0.2313351 -0.97256243 0.0023217599
0.0045838747 0.01338472 -0.016045285 -0.024281202 -0.22933289 -0.97304511 0.0023217208
0.007627646 0.013426948 -0.016134946 -0.023952508 -0.2369817 -0.97121876 0.0025350538
0.010613744 0.013434679 -0.01620868 -0.022639271 -0.24959038 -0.96808678 0.0026025956
0.013570541 0.013508341 -0.016277013 -0.015518366 -0.27160192 -0.96228456 0.0029797079
0.016583603 0.013579634 -0.016315082 -0.0050048418 -0.29598612 -0.9551791 0.0029349946
0.019566972 0.013585549 -0.016281761 0.01130553 -0.32804576 -0.94459414 0.002914035
0.022508388 0.013588446 -0.0161692 0.037481166 -0.36198261 -0.931431 0.0027668367
0.025486525 0.013473238 -0.015895229 0.079152219 -0.400612 -0.9128226 0.0029424746
0.028433409 0.013834905 -0.015754148 0.10622831 -0.45210117 -0.88561851 0.0028924523
0.031374916 0.014168675 -0.015468466 0.14667712 -0.49700543 -0.85526097 0.0024034244
0.034221273 0.014716864 -0.015238088 0.18310556 -0.54105395 -0.8208124 0.0018182669
-0.028344644 0.017687581 -0.015184736 -0.16592523 -0.46683821 -0.86863738 0.0021112985
-0.025272202 0.017003432 -0.015390624 -0.13291866 -0.41613129 -0.89953732 0.002966579
-0.022360926 0.016494183 -0.015592778 -0.10490044 -0.34908351 -0.93120176 0.0025149172
-0.019460486 0.016477237 -0.015902447 -0.076743685 -0.29093117 -0.95366108 0.0025999707
-0.01647825 0.016383059 -0.016102241 -0.044566043 -0.24185571 -0.96928823 0.0029424704
-0.013573671 0.016546888 -0.016269302 -0.024344707 -0.19859479 -0.97977924 0.002851468
-0.010569931 0.016514167 -0.016321741 -0.0019285572 -0.15986088 -0.98713773 0.002868209
-0.0074790441 0.01654624 -0.016340273 0.00084046682 -0.13190684 -0.99126172 0.0036192161
-0.0044096662 0.016577693 -0.016344804 0.0010864288 -0.10320176 -0.99465984 0.0039901254
-0.0013538678 0.016609123 -0.016353715 -0.0085392557 0.018207613 -0.9997977 0.0054246397
0.0017512613 0.01651529 -0.016378546 -0.015481655 0.033035479 -0.99933422 0.0053416505
0.0045645628 0.016437579 -0.016428145 -0.024325598 -0.05822188 -0.99800724 0.0046171732
0.0073364498 0.016468707 -0.016514558 -0.031356644 0.039042961 -0.99874544 0.0055000167
0.01030795 0.016502455 -0.016621932 -0.035838183 -0.075879857 -0.99647272 0.0052716997
0.013330996 0.016537113 -0.016743554 -0.038091566 -0.095904037 -0.99466151 0.0052906084
0.016336177 0.016571445 -0.016861126 -0.035358384 -0.1231291 -0.99176055 0.0050772256
0.019347364 0.016484128 -0.016943021 -0.023462178 -0.15921396 -0.98696524 0.0048552924
0.022499096 0.016408406 -0.016974552 -0.00015171271 -0.20423552 -0.97892177 0.0044492385
0.025555372 0.016487828 -0.016936036 0.032597985 -0.25634632 -0.96603519 0.0044261436
0.028502414 0.016466897 -0.016805544 0.05914199 -0.30295321 -0.95116854 0.003675373
0.031461425 0.016444167 -0.016507948 0.094591975 -0.34928903 -0.93222827 0.00333455
0.034485891 0.016528957 -0.016134797 0.13632233 -0.39841613 -0.90701747 0.0029057206
0.037380476 0.016731417 -0.015684655 0.18186773 -0.44633082 -0.87619233 0.002696408
0.040082905 0.017301036 -0.015317732 0.23948279 -0.48713642 -0.83984888 0.0023096476
-0.034167286 0.020490555 -0.015331715 -0.20863095 -0.43449128 -0.8761794 0.0023906189
-0.031380132 0.019826002 -0.0156018 -0.14885715 -0.36996296 -0.91704357 0.0025322032
-0.028459903 0.019637236 -0.015977545 -0.10795718 -0.31555706 -0.94274545 0.0028584625
-0.025546161 0.019540364 -0.016252225 -0.067751437 -0.25816041 -0.96372348 0.003486661
-0.022465006 0.019503798 -0.01646965 -0.041271135 -0.19762041 -0.97940946 0.0045881304
-0.019498391 0.019488994 -0.01656254 -0.0091431942 -0.13662708 -0.99058044 0.0051710219
-0.016640332 0.019585835 -0.01656975 0.01565611 -0.075540498 -0.99701977 0.0059249448
-0.013624271 0.019538112 -0.01649449 0.026592856 0.078340285 -0.99657196 0.0056112329
-0.010535555 0.019357987 -0.016401391 0.029422002 0.12520917 -0.99169403 0.0040943269
-0.0075038895 0.019379491 -0.016281297 0.03312749 0.16083184 -0.98642576 0.0035921533
-0.0044814879 0.019401107 -0.016171627 0.022053381 0.18700711 -0.98211098 0.0030432451
-0.0014573075 0.019423503 -0.016099781 0.012831233 0.20435503 -0.97881275 0.002733232
0.0015724632 0.019446945 -0.016077144 -0.0001722755 0.21634191 -0.97631764 0.0028580842
0.0046099741 0.019471621 -0.016111745 -0.02073683 0.22116375 -0.97501624 0.0030323274
0.0076151909 0.019530326 -0.016195299 -0.038740553 0.22210272 -0.9742533 0.0030459601
0.01057763 0.019543167 -0.016338998 -0.050503895 0.22244081 -0.97363728 0.0032596062
0.013495789 0.019549921 -0.016520618 -0.064268954 0.21410513 -0.97469407 0.0036072643
0.016406724 0.019557239 -0.016726444 -0.060751565 0.19255011 -0.97940487 0.0040247696
0.019399729 0.019486839 -0.016946759 -0.062507629 0.16298518 -0.9846465 0.0052987919
0.022310661 0.019401912 -0.01713269 -0.056340218 -0.0047927354 -0.99840015 0.0073581664
0.025455981 0.019400943 -0.017274942 -0.027879242 -0.002543458 -0.9996081 0.0028242576
0.028605537 0.019488184 -0.017344408 0.00020658398 -0.13299543 -0.99111664 0.0062205661
0.031549428 0.019479457 -0.017292043 0.036412802 -0.19473644 -0.98017949 0.0057266993
0.034478951 0.019438814 -0.017127575 0.075796947 -0.25058821 -0.96512192 0.0044514337
0.0374633 0.019576497 -0.016830051 0.12801155 -0.30309671 -0.94432271 0.0035797742
0.040484626 0.019500902 -0.016256588 0.18761411 -0.35299456 -0.91662192 0.0027535961
0.04331854 0.019790137 -0.015657287 0.2449439 -0.4084774 -0.87928873 0.0027154516
0.045749985 0.020639379 -0.015303038 0.30966914 -0.46001095 -0.8321628 0.0027241064
-0.039745178 0.023525033 -0.015215631 -0.27471197 -0.3888824 -0.87937689 0.0020248517
-0.037292697 0.022785081 -0.015552173 -0.20481694 -0.34921074 -0.91438603 0.0027329098
-0.034511074 0.022542534 -0.016040893 -0.14714076 -0.28427047 -0.94738585 0.002895809
-0.031496059 0.022542303 -0.016466802 -0.091560684 -0.228598 -0.96920562 0.0037472236
-0.028519133 0.022642994 -0.016705254 -0.040217433 -0.16792305 -0.98497945 0.0050705587
-0.025488283 0.022599498 -0.016757345 0.0014855345 -0.10152654 -0.99483174 0.0064266273
-0.022361346 0.022615032 -0.016694672 0.032844402 0.087314449 -0.9956392 0.0069356319
-0.019417511 0.022693062 -0.01652246 0.054554589 0.14556782 -0.98784298 0.0050388384
-0.016490778 0.022633806 -0.016297836 0.073898435 0.19764158 -0.97748494 0.0038001733
-0.013434169 0.022607427 -0.016009089 0.078435957 0.24155909 -0.96721089 0.0027869905
-0.010509511 0.022427471 -0.01577656 0.075311512 0.2756893 -0.95829207 0.0021403213
-0.0075833439 0.02229107 -0.015581564 0.064046897 0.3100526 -0.9485597 0.0021658705
-0.0045447289 0.022027373 -0.015480551 0.044698041 0.34393671 -0.93792838 0.0023391668
-0.0015802896 0.021803135 -0.015433807 0.027553277 0.36971763 -0.92873555 0.0024565826
0.0014197227 0.021780835 -0.015378781 0.0060622948 0.38702148 -0.92205083 0.0024434899
0.0044517922 0.021799056 -0.015387862 -0.01721932 0.39609376 -0.91804862 0.0024157721
0.0074964426 0.021837952 -0.015468803 -0.039392572 0.39680508 -0.91705722 0.0023962273
0.010494231 0.022086224 -0.015534207 -0.058122292 0.38968995 -0.91911024 0.0024009778
0.013534166 0.022379201 -0.015648371 -0.080864511 0.36973742 -0.92561072 0.0020559402
0.016502853 0.022540702 -0.015881646 -0.092634507 0.34483457 -0.93408138 0.002002524
0.019544428 0.022595739 -0.016219065 -0.099486455 0.3185367 -0.94267535 0.0026766392
0.022606229 0.022617212 -0.016583415 -0.10272029 0.28504747 -0.95299339 0.003288961
0.025661018 0.02240951 -0.016984461 -0.089858569 0.24270445 -0.96592957 0.0038793988
0.028644357 0.022429639 -0.017231261 -0.072586164 0.1958382 -0.97794616 0.0055407286
0.031586364 0.022448469 -0.017405448 -0.036684174 0.077528112 -0.996315 0.0033442273
0.034478918 0.02246552 -0.017476283 0.00097328261 0.00018921228 -0.99999952 0.0033988091
0.037544768 0.022481224 -0.017390098 0.054457594 -0.08730571 -0.99469191 0.003773547
0.040540714 0.02249388 -0.017121704 0.1180992 -0.21079633 -0.97036982 0.0053179427
0.043459553 0.022502914 -0.016634533 0.18338524 -0.26569435 -0.94645464 0.0038461143
0.046489574 0.022536077 -0.015868604 0.28301862 -0.34906909 -0.89333707 0.0014384066
0.04885399 0.023040418 -0.015283157 0.33430123 -0.37277535 -0.8656103 0.0034416728
-0.043024845 0.026141871 -0.01527098 -0.28623909 -0.35294309 -0.89078522 0.0032485665
-0.040471252 0.025502643 -0.015741108 -0.23815829 -0.30937099 -0.92063582 0.0011934728
-0.037547652 0.025411133 -0.016314792 -0.13477795 -0.21239534 -0.96784461 0.0038570126
-0.03446969 0.025503175 -0.016693726 -0.066778459 -0.14224358 -0.98757654 0.0054340367
-0.031505492 0.025494689 -0.016808227 -0.0074478346 -0.067089684 -0.99771917 0.0077545899
-0.028621493 0.025429696 -0.016758593 0.062327232 0.13723375 -0.98857582 0.0073400666
-0.025582545 0.025471399 -0.016555471 0.082294405 0.20192787 -0.97593683 0.0044802008
-0.022566061 0.025477916 -0.016249187 0.096493252 0.25936443 -0.96094698 0.0032722559
-0.019555306 0.025515933 -0.015845533 0.11493905 0.30729818 -0.94464642 0.0022996417
-0.016681986 0.025267076 -0.01553354 0.12450814 0.35998589 -0.92461234 0.0022476807
-0.013789603 0.024782225 -0.015312962 0.12393269 0.41199571 -0.90271825 0.0026193436
-0.011239139 0.024409126 -0.015125734 0.11206261 0.44860548 -0.88667643 0.002057238
0.017440049 0.024424521 -0.015145664 -0.11815547 0.50266522 -0.85636848 0.0017742231
0.019684205 0.024826337 -0.015283153 -0.13399513 0.47250065 -0.87108457 0.0022477014
0.022542147 0.025265064 -0.015535967 -0.13787268 0.43567008 -0.88948452 0.0025678119
0.025483873 0.025373412 -0.015961416 -0.13262856 0.38924295 -0.91153693 0.0025097358
0.028475819 0.025375105 -0.016426848 -0.11974122 0.35051146 -0.92887235 0.0031000853
0.03146375 0.025409708 -0.016820656 -0.10344288 0.30598503 -0.94639993 0.0036049529
0.034434352 0.025421117 -0.017123871 -0.067906968 0.2498699 -0.9658953 0.0042592357
0.037548985 0.025403658 -0.017308997 -0.035052467 0.082328632 -0.99598861 0.0081116278
0.040598687 0.025441295 -0.01731265 0.041002173 0.04948568 -0.99793285 0.0044794637
0.04359727 0.025448594 -0.017099174 0.13161677 -0.10693701 -0.98551583 0.0089913998
0.046547439 0.025422208 -0.016629277 0.18933809 -0.16947445 -0.96717602 0.0051415688
0.049408194 0.025465725 -0.015907302 0.2642301 -0.21858346 -0.93936354 0.0034638289
0.051777661 0.026099687 -0.015321262 0.34543017 -0.29214215 -0.89181334 0.0038716213
-0.046010487 0.028855417 -0.015322826 -0.26852506 -0.28722221 -0.91945505 0.0029488455
-0.043434944 0.028334143 -0.015817398 -0.18939956 -0.20050143 -0.9612112 0.0035096505
-0.040389918 0.028376061 -0.016403982 -0.12720801 -0.13099831 -0.9831875 0.0064108004
-0.037503891 0.02833917 -0.016681504 -0.075185113 -0.056721602 -0.99555498 0.010170706
-0.034543648 0.028341101 -0.016703092 0.018940141 0.1420425 -0.98967934 0.0063312422
-0.031433783 0.02834278 -0.016511777 0.079535522 0.2263027 -0.97080439 0.0048707742
-0.028454788 0.028378395 -0.016152361 0.10112645 0.3013941 -0.94812185 0.0033448851
-0.025527308 0.028278619 -0.015731696 0.16675434 0.37800816 -0.91066062 0.0019224136
-0.022608772 0.027907059 -0.015393543 0.14507665 0.41603586 -0.89770091 0.0030606277
-0.019869627 0.027288038 -0.015176817 0.158859 0.46414682 -0.87139636 0.0020567151
0.026260668 0.027222248 -0.015176792 -0.17109357 0.53328699 -0.82845151 0.0017342699
0.028706444 0.027686466 -0.015414289 -0.16727087 0.49380964 -0.85333025 0.0024440808
0.031646144 0.028179664 -0.015723404 -0.16010833 0.44500276 -0.88110036 0.0026142497
0.034528762 0.028575566 -0.016044674 -0.13801382 0.38564327 -0.91226721 0.0028040509
0.037503168 0.02861044 -0.016495045 -0.10480306 0.3265847 -0.93933952 0.0036256504
0.040449075 0.028611669 -0.016821727 -0.070191391 0.26055491 -0.9629041 0.0053153168
0.043554135 0.028612752 -0.016954638 0.0052639646 0.17294979 -0.98491663 0.0061243316
0.04656757 0.028613558 -0.016831256 0.0935416 0.077959679 -0.99255848 0.0067793988
0.049483996 0.02861405 -0.016413951 0.19273561 -0.057871677 -0.97954261 0.0039994912
0.052502353 0.028642384 -0.015661171 0.24747153 -0.15479098 -0.95645052 0.0036325653
0.054539714 0.029457994 -0.015157044 0.3718684 -0.21964183 -0.90192652 0.0033391963
-0.049004436 0.03189256 -0.01525487 -0.2594842 -0.19559239 -0.94573337 0.0032322647
-0.046565033 0.031578153 -0.015781954 -0.16934618 -0.112042 -0.97916728 0.0043071941
-0.043629121 0.031536918 -0.016234158 -0.13128738 -0.04290206 -0.99041563 0.0092897285
-0.04056678 0.031454414 -0.016419856 -0.027893245 0.11846644 -0.99256617 0.0062063541
-0.037480712 0.031545196 -0.016322333 0.049125891 0.21415293 -0.975564 0.004744688
-0.034499533 0.031480722 -0.016011527 0.11463579 0.29071173 -0.94991857 0.0037500099
-0.031627491 0.031262875 -0.015617745 0.15238161 0.36692357 -0.91768563 0.0033863427
-0.028746959 0.03056014 -0.015367934 0.16972251 0.39802915 -0.90153599 0.0015291772
-0.026502021 0.030026363 -0.015154653 0.19171339 0.46438897 -0.86463219 0.0013247378
0.035335936 0.030527145 -0.015210906 -0.19410196 0.52722073 -0.82726228 0.0019221294
0.037821155 0.031093288 -0.01544974 -0.19254018 0.45516971 -0.86933815 0.003321693
0.040624827 0.031467013 -0.015820429 -0.15605679 0.37563917 -0.9135325 0.0032793942
0.043572966 0.031555906 -0.016224524 -0.079041377 0.31102833 -0.94710815 0.0034322857
0.046449855 0.031548534 -0.016424868 -0.0081763361 0.23256075 -0.97254753 0.004542904
0.04946173 0.031542484 -0.016335623 0.095870607 0.13177949 -0.98663211 0.004547582
0.052593242 0.031538166 -0.015887842 0.179647 0.035023816 -0.98310751 0.0031680597
0.055041954 0.031653076 -0.015278071 0.28008518 -0.057826534 -0.95823193 0.0033514434
-0.051502228 0.035344146 -0.015070952 -0.25480375 -0.059032623 -0.96518922 0.0077089895
-0.049544822 0.034693304 -0.015446102 -0.14299507 -0.01499214 -0.98960978 0.0053397585
-0.046542168 0.03471487 -0.015851609 -0.076475292 0.10573563 -0.99144912 0.0046503795
-0.043509606 0.034626421 -0.015949298 -0.0083162142 0.18522489 -0.98266101 0.0047104494
-0.040492624 0.034707826 -0.015716791 0.077281699 0.27426496 -0.95854384 0.0041425484
-0.037666429 0.034312088 -0.01546432 0.13829276 0.36611947 -0.92023456 0.0038301433
-0.034887202 0.033663064 -0.015234603 0.18659483 0.44614488 -0.8752926 0.002785709
0.041363109 0.033157818 -0.015148284 -0.2099454 0.4881694 -0.8471207 0.0018920621
0.043670844 0.033715047 -0.015360368 -0.16280627 0.44211936 -0.88205701 0.0029202092
0.046677213 0.034199148 -0.015610946 -0.096799411 0.35354251 -0.93039644 0.0029167465
0.049519558 0.034478396 -0.015712559 -0.0074209939 0.25614914 -0.96660882 0.003866527
0.052519083 0.034465443 -0.015617749 0.096125565 0.15078156 -0.98388249 0.0032414065
0.055143241 0.034389574 -0.015243938 0.20726499 0.079999752 -0.97500831 0.0025685416
-0.051499434 0.037012003 -0.015076232 -0.16120702 0.12057537 -0.97952735 0.0051190332
-0.049523763 0.037443087 -0.015253717 -0.071389049 0.18252389 -0.98060626 0.0024986363
-0.046525326 0.037276953 -0.015361377 0.0060671191 0.26103887 -0.9653092 0.0042451569
-0.04368123 0.03694877 -0.015282498 0.08833883 0.36713147 -0.92596471 0.0040041003
-0.041285045 0.036460385 -0.015168423 0.16081595 0.44820461 -0.87934691 0.0026999563
0.050126534 0.036438726 -0.015101795 -0.087529704 0.39507422 -0.91446978 0.0026052133
0.052501343 0.036480661 -0.015161102 0.019692423 0.30787688 -0.95122236 0.0032001147
0.054575387 0.036373846 -0.01507448 0.097627714 0.22977634 -0.96833456 0.0019315802
-0.015758825 0.0089133317 -0.012145039 -0.17559646 -0.66156954 -0.7290346 0.001024914
-0.013223946 0.0086172586 -0.01240759 -0.14507456 -0.64181483 -0.753012 0.0010949953
-0.010391022 0.0081630293 -0.012513788 -0.11699732 -0.62958091 -0.76807511 0.0011782674
-0.0074299248 0.0079149734 -0.012702982 -0.092893846 -0.61691248 -0.78153038 0.0011990861
-0.0044451612 0.0077570314 -0.012878458 -0.070077248 -0.60478532 -0.79329932 0.0011890859
-0.0014423984 0.0076850401 -0.013040937 -0.046987534 -0.58618939 -0.80881041 0.0020768116
0.0014953138 0.0075654793 -0.013116752 -0.016803535 -0.59662712 -0.80234265 0.001891344
0.0044694301 0.0076181549 -0.01326732 -0.03130395 -0.599814 -0.79952687 0.0018709034
0.0074838963 0.0076955548 -0.013364552 -0.008162016 -0.60127878 -0.79899764 0.0022426273
0.010498081 0.0077487943 -0.013376311 0.020111492 -0.58655369 -0.80966055 0.0011963896
0.013461018 0.0076726279 -0.01320759 0.038752165 -0.64439172 -0.763713 0.0011477836
0.016476257 0.0076509146 -0.012990789 0.064402699 -0.6599257 -0.74856555 0.0010959149
0.01952509 0.0078741647 -0.012857694 0.096424259 -0.67498469 -0.73150396 0.0013002795
0.022405922 0.0081856009 -0.012713686 0.131449 -0.69388658 -0.70798492 0.0014359638
0.025248861 0.0084922006 -0.012447964 0.15731491 -0.66862422 -0.72676939 0.0016701169
0.027423322 0.0086828619 -0.012112151 0.1898222 -0.67949915 -0.70869488 0.0017484501
-0.024182087 0.011675937 -0.012157504 -0.24044411 -0.60731632 -0.75720114 0.0018093664
-0.022207851 0.011364203 -0.012476902 -0.21761543 -0.63649631 -0.73994321 0.0014427342
-0.019387215 0.010938381 -0.012887737 -0.19392577 -0.60982275 -0.76844585 0.0010097295
-0.016518272 0.010632574 -0.013295499 -0.16434847 -0.5682376 -0.80628514 0.0017294987
-0.013482357 0.010714334 -0.013884341 -0.11778034 -0.52882582 -0.8405183 0.00085381715
-0.010568408 0.010410075 -0.014073437 -0.096402735 -0.51641023 -0.85089773 0.0010514269
-0.007578766 0.010242061 -0.01427686 -0.077234827 -0.50190753 -0.86146599 0.0015219246
-0.0045597637 0.010081609 -0.01441661 -0.059165031 -0.48506549 -0.87247413 0.0019171471
-0.0015293584 0.0099825719 -0.014536918 -0.045100361 -0.4726212 -0.88011086 0.0022232372
0.0014135398 0.0098136645 -0.014579276 -0.03459863 -0.46550676 -0.88436782 0.0021913464
0.0045534805 0.0098178964 -0.014683098 -0.024231927 -0.46401766 -0.88549447 0.0020680574
0.0074684592 0.0096832672 -0.014668759 -0.010618247 -0.4645679 -0.88547379 0.0020747988
0.010570697 0.0096791247 -0.014678437 0.0081349015 -0.4763934 -0.87919456 0.0021224343
0.013634794 0.0095477859 -0.014549557 0.028403861 -0.4943172 -0.86881745 0.0022943062
0.016571369 0.0096673639 -0.014498304 0.04928077 -0.51563334 -0.85539091 0.0022144276
0.01944642 0.0097794319 -0.014364245 0.07274887 -0.5386377 -0.83939087 0.001843484
0.022513472 0.01003607 -0.014205775 0.10416374 -0.56251442 -0.82019973 0.0016326343
0.025523415 0.010311713 -0.01394464 0.13193265 -0.58992451 -0.79660708 0.001252083
0.028467234 0.010414527 -0.013433325 0.18068098 -0.65938896 -0.7297675 0.0012093218
0.031403914 0.010774481 -0.012988437 0.21794482 -0.67197049 -0.70778215 0.0010995737
0.034221943 0.011238452 -0.012496826 0.24706969 -0.68981665 -0.68052155 0.0011685879
0.036365863 0.011591192 -0.012068869 0.28206778 -0.71748722 -0.63690656 0.001934933
-0.031443495 0.014632636 -0.012272964 -0.26639169 -0.64349437 -0.71760046 0.00097183749
-0.028400691 0.013943828 -0.012709224 -0.23984757 -0.62235427 -0.74508274 0.0011739646
-0.025473177 0.013463615 -0.01319232 -0.22139902 -0.59553903 -0.77221483 0.0012247189
-0.022532711 0.013452001 -0.013934148 -0.18082482 -0.53283191 -0.82667559 0.00082553836
-0.019618487 0.013172857 -0.014377485 -0.15826729 -0.49912849 -0.85195196 0.0014273433
-0.016646562 0.012729702 -0.014635623 -0.13236368 -0.46008417 -0.87795353 0.0020287198
-0.013690714 0.012475733 -0.014887339 -0.10382606 -0.41257843 -0.90498567 0.0022380466
0.026686301 0.01202241 -0.014998019 0.13196422 -0.58415365 -0.8008433 0.0012931164
0.028809989 0.012210885 -0.014758847 0.15466747 -0.58093303 -0.7991212 0.0014960892
0.031688325 0.012663089 -0.014447015 0.18477355 -0.54574925 -0.81732285 0.0020077722
0.034572527 0.013100689 -0.014009038 0.21259077 -0.57950419 -0.78675294 0.0011406832
0.037457447 0.013550945 -0.013471228 0.25162369 -0.6222837 -0.74124801 0.0017831175
0.040320992 0.014164485 -0.012929046 0.30725414 -0.62512952 -0.71750116 0.0012013372
0.042746767 0.014742766 -0.012363095 0.34614581 -0.65559286 -0.67110443 0.00078054768
-0.036821578 0.017417433 -0.012483512 -0.32810333 -0.61227363 -0.71935332 0.00098807004
-0.034329053 0.016823443 -0.012990344 -0.28508884 -0.59839636 -0.74876308 0.00095216511
-0.031449772 0.016647436 -0.013809009 -0.23426415 -0.56166285 -0.79350817 0.0016470858
-0.028569605 0.016107619 -0.014232873 -0.20327896 -0.51193619 -0.83462507 0.0013746239
-0.025708145 0.015592151 -0.014588079 -0.1835925 -0.46852666 -0.86416227 0.0024037012
-0.023182597 0.015268535 -0.014908276 -0.15547436 -0.41137952 -0.89810616 0.0028674412
0.038091291 0.015524443 -0.014806923 0.22134279 -0.4997918 -0.83738607 0.0023722388
0.040704302 0.01611113 -0.014346757 0.27212662 -0.53869563 -0.79734194 0.0013068017
0.0435271 0.016572252 -0.013555377 0.33299917 -0.56343836 -0.75607461 0.0011546771
0.04621122 0.017078718 -0.012702633 0.37890008 -0.61672348 -0.68999052 0.0012819293
0.048265554 0.017683787 -0.012087514 0.41217363 -0.62747031 -0.66060114 0.0011572399
-0.042686671 0.020734483 -0.01228402 -0.39807203 -0.59125668 -0.7013945 0.0015717599
-0.040321141 0.019896548 -0.01281568 -0.35397428 -0.57055771 -0.74105746 0.00090547511
-0.037504841 0.019612012 -0.013806364 -0.30176353 -0.51838607 -0.80013418 0.0010236284
-0.034617107 0.019101335 -0.014481495 -0.2479316 -0.48314613 -0.83970219 0.0013818169
-0.032100048 0.018551726 -0.014852082 -0.20082814 -0.43594161 -0.87728155 0.0024268494
0.044114169 0.018481607 -0.01470116 0.30142033 -0.53177941 -0.79142678 0.0016347197
0.046672404 0.019257059 -0.01411573 0.3444849 -0.50422418 -0.79188889 0.001248966
0.049340963 0.019783637 -0.01316676 0.4060035 -0.54195768 -0.7358281 0.0021932595
0.051697508 0.020547288 -0.012423483 0.44335103 -0.57389861 -0.68853486 0.0015762667
-0.045858301 0.023241725 -0.012427787 -0.4211688 -0.54779691 -0.72286606 0.0014196271
-0.043350611 0.022547198 -0.013227815 -0.38255283 -0.52409333 -0.76090699 0.0011295853
-0.040642444 0.022309804 -0.014281646 -0.31480372 -0.4671776 -0.82622254 0.0013712794
-0.038175475 0.021616437 -0.014787887 -0.2569325 -0.42241317 -0.86922538 0.0023192898
-0.0070554698 0.023854295 -0.014909528 0.093391255 0.47080958 -0.87727785 0.001617341
-0.0044290097 0.023649208 -0.014784846 0.068620585 0.48669887 -0.87087053 0.0013095622
-0.0014376974 0.023432134 -0.014714311 0.044214983 0.41936705 -0.90673947 0.00240748
0.0015016656 0.023416953 -0.014632885 0.015422955 0.43576312 -0.89992923 0.002319294
0.004531472 0.023430867 -0.014626767 -0.012633897 0.44434413 -0.89576709 0.0022950869
0.0075028888 0.023472963 -0.014699243 -0.041160516 0.44630525 -0.89393371 0.0023327908
0.010487027 0.023714548 -0.014757466 -0.070365563 0.52273482 -0.84958643 0.0012420253
0.013133984 0.023939298 -0.01487445 -0.099278837 0.51949841 -0.84868431 0.00141319
0.047673002 0.021371108 -0.014970679 0.31130114 -0.38075209 -0.87070054 0.0034611381
0.049880248 0.022183422 -0.014438391 0.3682228 -0.42866883 -0.82501823 0.0017403855
0.052451067 0.022536833 -0.013335249 0.413313 -0.47543666 -0.77661592 0.0026200039
0.054703824 0.023183215 -0.012446026 0.4786365 -0.50255007 -0.71996558 0.0017604075
-0.049228739 0.026066674 -0.012609458 -0.41640231 -0.52632773 -0.74134225 0.0012548425
-0.046474658 0.025416773 -0.013545718 -0.36901116 -0.48518887 -0.79273111 0.0019449644
-0.043719787 0.024987048 -0.014517254 -0.32853439 -0.41414252 -0.84885281 0.0017504698
-0.041634806 0.024194954 -0.014905249 -0.28599337 -0.43437591 -0.85412258 0.0037333625
-0.01591496 0.026542645 -0.014840202 0.16307384 0.41663176 -0.89432931 0.0023880226
-0.013336387 0.026111191 -0.014588298 0.15715916 0.46028161 -0.87375164 0.0020713587
-0.010443567 0.02566234 -0.0143608 0.13018042 0.48876503 -0.86264807 0.0016160773
-0.0075029097 0.02551759 -0.014037976 0.10524379 0.50694132 -0.85553151 0.0012461492
-0.0044740122 0.025511429 -0.013717404 0.079199977 0.51732111 -0.85211873 0.0011561663
-0.0015094948 0.025518125 -0.013464729 0.055461928 0.58361673 -0.81013298 0.0015680931
0.001488538 0.025525741 -0.013324973 0.024648588 0.56950259 -0.82161993 0.0030022208
0.0045163292 0.025534265 -0.013295201 -0.0068701897 0.59809959 -0.80139232 0.0013532961
0.0074847122 0.025529645 -0.013379833 -0.046261799 0.60965329 -0.79131705 0.0016266594
0.010440718 0.025560051 -0.013554187 -0.071790405 0.55311739 -0.83000439 0.0011193033
0.013469473 0.025557833 -0.013879887 -0.10385014 0.55152148 -0.82767093 0.0011179131
0.016431792 0.025662702 -0.014234093 -0.13248388 0.54023087 -0.83102262 0.0013889371
0.019361485 0.02611866 -0.014458532 -0.15918788 0.5180912 -0.84038126 0.0018963028
0.022207007 0.026597427 -0.014734664 -0.16880058 0.48675415 -0.85707456 0.0022294559
0.050930489 0.024099624 -0.014916134 0.38994506 -0.40591237 -0.82654577 0.0014693148
0.05291089 0.025060726 -0.014443381 0.39124113 -0.35265431 -0.85003847 0.0019582382
0.055479787 0.025533609 -0.013323376 0.44775933 -0.41870868 -0.79005986 0.0017488246
0.057649765 0.026233315 -0.012397602 0.50497121 -0.42863825 -0.74918187 0.0022304913
-0.054075345 0.029559147 -0.012102277 -0.47651327 -0.49306706 -0.72788733 0.0019903344
-0.052066065 0.028604098 -0.012683556 -0.43206188 -0.46385679 -0.7734077 0.0020481457
-0.049435664 0.028376522 -0.013851264 -0.38023242 -0.39846662 -0.83465421 0.0014694748
-0.046933923 0.027822595 -0.014629657 -0.32413909 -0.35260388 -0.8778407 0.0018526327
-0.024471283 0.029544873 -0.014972971 0.19035889 0.40558788 -0.89401454 0.0036285061
-0.022218812 0.029236114 -0.014630792 0.19187817 0.46618629 -0.86362785 0.0024372919
-0.019374978 0.028602209 -0.014341821 0.18902352 0.50942695 -0.83949649 0.0013929319
-0.016491048 0.028373135 -0.013824545 0.18313064 0.53529882 -0.82457167 0.00097853702
-0.013553996 0.028282374 -0.013210299 0.17637384 0.60135019 -0.77927548 0.0016581317
-0.010551117 0.027957676 -0.012832454 0.14675237 0.61794734 -0.77240205 0.0015489587
-0.007587438 0.027608266 -0.012595661 0.11795095 0.63555485 -0.7629925 0.0017327984
-0.0046244254 0.027379684 -0.012390653 0.089428104 0.65549701 -0.74988413 0.0015114908
-0.0014995703 0.027167672 -0.012226713 0.063351959 0.67538923 -0.73473525 0.0015873775
0.00098996796 0.02717087 -0.012070529 0.032077122 0.65422231 -0.75562167 0.00293362
0.0057872306 0.027178006 -0.012009876 -0.0019558945 0.63225275 -0.77475971 0.0016332616
0.0075728223 0.02718096 -0.012061191 -0.044019841 0.6338582 -0.7721957 0.0016186121
0.010678505 0.027186699 -0.012300096 -0.071979478 0.68944842 -0.72074956 0.0013888181
0.013611899 0.027447205 -0.012427699 -0.10558544 0.67801791 -0.72742236 0.0015219152
0.016607998 0.027742259 -0.012681644 -0.14591737 0.66308761 -0.73418182 0.0013547313
0.019646408 0.02810147 -0.013034791 -0.17552565 0.63197744 -0.75484794 0.0023172866
0.022580709 0.028550526 -0.013377507 -0.19536637 0.61843854 -0.76116073 0.0018894551
0.025437716 0.028690983 -0.013990789 -0.20145018 0.59605479 -0.77726221 0.0026460937
0.028383905 0.029265197 -0.014335265 -0.20475443 0.59770459 -0.7751289 0.0011840089
0.031224644 0.029690547 -0.01475578 -0.20651153 0.57094419 -0.79459155 0.0013077627
0.053724859 0.027263489 -0.014928643 0.34845814 -0.22649132 -0.90954852 0.0031605321
0.055657979 0.028449412 -0.014421486 0.41169441 -0.27159885 -0.86990905 0.0016441641
0.058352157 0.028668771 -0.013088295 0.47592846 -0.33276826 -0.81409913 0.0024080549
0.060353093 0.029785108 -0.012319556 0.53875303 -0.32922381 -0.77547204 0.0013378509
-0.055034272 0.031612575 -0.012630681 -0.45660022 -0.37304607 -0.80768365 0.0027335887
-0.052454092 0.031433616 -0.013840383 -0.37560198 -0.30043548 -0.87673354 0.0016398389
-0.050156336 0.031026514 -0.014655626 -0.3285313 -0.2671119 -0.90593517 0.0021903524
-0.030881392 0.032790694 -0.014727903 0.21823333 0.50375485 -0.8358261 0.0018047282
-0.0283479 0.032171551 -0.014389669 0.23176832 0.48700321 -0.84208751 0.0020679198
-0.0254122 0.031586394 -0.013925055 0.2300178 0.5378927 -0.8110261 0.0015692549
-0.022578197 0.031311728 -0.013289424 0.24111967 0.58874357 -0.77151942 0.0024227183
-0.019699005 0.030802725 -0.01285977 0.22324999 0.59496963 -0.77212083 0.0015042335
-0.016831396 0.030264439 -0.012484045 0.20270437 0.63911533 -0.74191809 0.00081123388
-0.014727458 0.030023437 -0.012111504 0.15983276 0.65914512 -0.73483413 0.0032341864
0.025869364 0.030707896 -0.012444079 -0.22325543 0.66199899 -0.71548194 0.0020685925
0.028685603 0.031176839 -0.012879328 -0.23523566 0.66006052 -0.71343136 0.0013333658
0.031549249 0.031525232 -0.013453187 -0.2434652 0.64843881 -0.72128493 0.00086051709
0.034404449 0.031739797 -0.014136658 -0.2268717 0.5624283 -0.79511237 0.001196202
0.037142951 0.032263663 -0.014570636 -0.229462 0.51094097 -0.8284241 0.0021998109
0.039394833 0.032710925 -0.014917696 -0.1980429 0.5072037 -0.83876294 0.0014745725
0.056458496 0.031364217 -0.014761529 0.35517061 -0.13373624 -0.92518568 0.0029884635
0.058534961 0.031536471 -0.013871337 0.41458452 -0.17177516 -0.89365137 0.0013961979
0.060912844 0.031696673 -0.012617201 0.51082498 -0.24332871 -0.82452953 0.0033574617
-0.057737395 0.034846939 -0.012433667 -0.47394675 -0.30270833 -0.82688701 0.003253896
-0.055493511 0.034512322 -0.013466545 -0.4092015 -0.26319724 -0.87365967 0.001924261
-0.052817278 0.034514926 -0.014556686 -0.33608168 -0.17933048 -0.92460239 0.002253602
-0.03708924 0.035590395 -0.014742349 0.20406988 0.43453303 -0.87723225 0.0026856556
-0.034364492 0.035055276 -0.01432538 0.2328596 0.49553752 -0.83679086 0.0018554195
-0.031495389 0.034641147 -0.013689852 0.2603907 0.5410099 -0.7996906 0.0013428736
-0.028706117 0.034340534 -0.012952114 0.27797535 0.62055123 -0.73324341 0.0012750328
-0.025846988 0.033712603 -0.012444283 0.26377812 0.65466589 -0.7084021 0.0014987692
0.032312565 0.033215754 -0.012210946 -0.25016573 0.68299556 -0.68624645 0.00073640951
0.034773894 0.03369201 -0.012650806 -0.26381755 0.67113775 -0.69280183 0.0013716971
0.037694119 0.034349244 -0.013166011 -0.29222533 0.60685116 -0.73914546 0.0018629754
0.040464383 0.034578551 -0.0139777 -0.23937996 0.53034085 -0.81328702 0.00076506392
0.043369934 0.035245087 -0.014450955 -0.22667679 0.48478636 -0.84474838 0.0020438188
0.046020482 0.035735127 -0.014823905 -0.16581495 0.41603732 -0.89410204 0.0025583915
0.056634255 0.034595441 -0.014880873 0.2577419 0.023764117 -0.96592146 0.0032994733
0.058624104 0.034453738 -0.014217956 0.34259424 -0.023728857 -0.93918377 0.0045736791
0.061483737 0.034484368 -0.012901344 0.48658958 -0.15035418 -0.86059523 0.0012842305
0.063148618 0.035357673 -0.012086482 0.561782 -0.17228603 -0.80914676 0.0024709015
-0.060183235 0.038753077 -0.012169688 -0.5049541 -0.22420762 -0.83351797 0.0036469453
-0.058392372 0.03764616 -0.012825314 -0.44660398 -0.19789073 -0.87257326 0.0016457494
-0.055555493 0.037695721 -0.014009791 -0.30920047 -0.05147459 -0.94960278 0.0046109552
-0.052872077 0.037792675 -0.014737154 -0.23187509 0.013473498 -0.97265226 0.0055379122
-0.049529444 0.038863596 -0.014952422 -0.030189835 0.21783951 -0.97551757 0.0054478031
-0.046188619 0.038770657 -0.014826939 0.088387303 0.34320685 -0.93509185 0.0038288329
-0.043253623 0.038280025 -0.014631565 0.16235487 0.42870975 -0.88873446 0.0029284342
-0.04036339 0.03778775 -0.014265747 0.2068262 0.49236006 -0.84546107 0.0013291391
-0.037474912 0.037589457 -0.013558186 0.26497063 0.56667644 -0.78017205 0.0020082514
-0.034641627 0.037193503 -0.012885978 0.28737685 0.61683095 -0.73275793 0.0014403661
-0.0319914 0.036595169 -0.012344783 0.29319859 0.65346485 -0.69786698 0.001357447
0.040889826 0.036691781 -0.012521806 -0.32719868 0.6230433 -0.71046329 0.0015275395
0.043645479 0.037399326 -0.013074052 -0.29541877 0.57541722 -0.76264203 0.0016599614
0.046513438 0.037465263 -0.013931389 -0.20818081 0.4977605 -0.84195918 0.0013168243
0.049438361 0.037601557 -0.014484364 -0.14509641 0.44084468 -0.88577819 0.0017928878
0.052562065 0.037984796 -0.014641011 -0.056339029 0.36830804 -0.9279952 0.002880309
0.055589013 0.037722453 -0.014623336 0.072527207 0.2597169 -0.96295738 0.0040456122
0.058597818 0.03759991 -0.014116828 0.25316614 0.11938561 -0.96002811 0.0056850812
0.061558694 0.037597753 -0.013087067 0.37563604 0.033756819 -0.92615223 0.0035655578
0.063389033 0.0377049 -0.012202833 0.51242095 -0.049299587 -0.85731816 0.0029864425
-0.060543377 0.040635671 -0.012244363 -0.4389545 -0.063402228 -0.89626956 0.0050436514
-0.058485799 0.040774517 -0.013082581 -0.31071925 0.041237883 -0.94960678 0.0042047598
-0.055394791 0.040725984 -0.013939837 -0.19886236 0.16756125 -0.96559668 0.0080583002
-0.052479099 0.040596332 -0.014331331 -0.099085942 0.28344277 -0.95385647 0.0065500243
-0.049483795 0.040622178 -0.014329715 0.048854563 0.35842094 -0.9322809 0.0048536686
-0.046469446 0.040574554 -0.013979505 0.14037873 0.45572135 -0.87898344 0.0018111866
-0.043481447 0.040556706 -0.013321589 0.2291728 0.5457406 -0.80600685 0.0020316395
-0.040638909 0.040090665 -0.012780634 0.25911704 0.6014927 -0.75568831 0.0019477648
-0.038100231 0.039455526 -0.012364231 0.2905674 0.63824666 -0.71288973 0.0014760414
0.044481128 0.039112009 -0.012073088 -0.32344624 0.61740899 -0.71706945 0.001598501
0.04674219 0.039590444 -0.012585155 -0.27067441 0.58383304 -0.76542431 0.0023862906
0.049621642 0.040214468 -0.013046331 -0.21100616 0.53073955 -0.82084829 0.0023494484
0.052473843 0.040436372 -0.013498501 -0.093846574 0.44134161 -0.89241827 0.0026480178
0.055484436 0.040561296 -0.013705064 0.0046265642 0.352505 -0.93579847 0.0037746364
0.058452766 0.04053583 -0.013554896 0.1454054 0.26693878 -0.95268095 0.0049254857
0.061504796 0.040523257 -0.012872035 0.26939583 0.15065141 -0.95117295 0.0048923912
0.063377239 0.040420718 -0.012167824 0.44828042 0.073982164 -0.89082617 0.0036073618
-0.060426403 0.043722402 -0.012238311 -0.34077108 0.13416724 -0.93052363 0.0063460665
-0.058404919 0.043711402 -0.012768524 -0.20309234 0.18426359 -0.96166545 0.0048273038
-0.05548124 0.043646161 -0.013197445 -0.084542073 0.31393412 -0.94567335 0.0051385178
-0.052480947 0.043634202 -0.013169205 0.055061605 0.41827375 -0.9066506 0.0043340647
-0.049577247 0.043441389 -0.012922197 0.13850196 0.49677062 -0.85675919 0.0034967938
-0.04663045 0.042912167 -0.012603546 0.20782486 0.56431979 -0.79896933 0.0031057876
-0.044228226 0.042435538 -0.01220849 0.26622173 0.61355305 -0.74342364 0.0022513561
0.052732177 0.042558316 -0.012321295 -0.19614895 0.53969479 -0.81869119 0.0022858453
0.05561867 0.042932905 -0.012609413 -0.095290199 0.46944287 -0.87780583 0.003237542
0.058516391 0.043312833 -0.012573722 0.043015227 0.37440595 -0.92626661 0.0039847302
0.06127103 0.042999212 -0.012383908 0.19634353 0.27918679 -0.93994892 0.0034517737
0.06313815 0.042326532 -0.012043837 0.32448974 0.1830747 -0.92800325 0.0047459509
-0.058339484 0.045655321 -0.01224068 -0.16061743 0.34299833 -0.92550212 0.0063555567
-0.055461202 0.045664642 -0.012349867 0.015112568 0.46453834 -0.88542402 0.0034983635
-0.052754004 0.045487586 -0.012238368 0.12702033 0.53705841 -0.83392692 0.0025488215
-0.015541014 0.0058885142 -0.0090388795 -0.22070377 -0.7526142 -0.62037224 0.0012277593
-0.013350462 0.0057733483 -0.0095552867 -0.17731325 -0.75041801 -0.63673604 0.0012325223
-0.010297759 0.0052473382 -0.00967055 -0.14055222 -0.76515478 -0.62831789 0.001841771
-0.0074563622 0.005069722 -0.0099954018 -0.11128935 -0.74634635 -0.65618742 0.0011448684
-0.0044726473 0.0049819457 -0.010309109 -0.082240351 -0.74311954 -0.66408575 0.00117862
-0.001475902 0.0047834804 -0.010377264 -0.053892624 -0.74895221 -0.66042882 0.001685135
0.0014996632 0.0048732953 -0.010672263 -0.040722691 -0.73720819 -0.6744374 0.0019298226
0.0045757662 0.0048112478 -0.010693252 -0.018679267 -0.72876936 -0.68450445 0.0017161934
0.0074778064 0.0046969214 -0.010540345 0.0043927156 -0.76244032 -0.64704353 0.0017611369
0.010533828 0.0047934162 -0.010566 0.036661759 -0.77164847 -0.63499171 0.0025390689
0.013473623 0.0048415675 -0.010373087 0.071207047 -0.76550788 -0.63947427 0.001277561
0.016379433 0.0050029205 -0.010210549 0.098061197 -0.78202164 -0.61548859 0.0011910629
0.019403815 0.005226397 -0.0099433819 0.12995064 -0.79136962 -0.59736663 0.0010514018
0.022311898 0.0055086105 -0.0096007744 0.16041157 -0.79597574 -0.58368719 0.00093291234
0.02471816 0.0057028048 -0.0091573456 0.19724812 -0.80132258 -0.56477886 0.00072995212
-0.022106281 0.0084242327 -0.0095572053 -0.27358022 -0.73252326 -0.62334877 0.00089380442
-0.01934842 0.0080615291 -0.010220974 -0.24341248 -0.73228943 -0.63600522 0.0018569893
-0.01646802 0.007565035 -0.010623393 -0.19746412 -0.7275036 -0.65707415 0.00096042553
-0.013660419 0.0072061592 -0.011022745 -0.16208486 -0.72379929 -0.67070341 0.0010771779
-0.010593675 0.0066604731 -0.01113807 -0.13207546 -0.71790427 -0.68349797 0.0011203547
-0.0075912629 0.0064554778 -0.011451298 -0.10123716 -0.71636671 -0.6903404 0.0013458808
-0.0049022841 0.0063494751 -0.011699617 -0.073094152 -0.70813078 -0.70228779 0.0013092675
-0.0021393888 0.0062745721 -0.011909602 -0.039569203 -0.67202502 -0.73947054 0.0030649481
0.0087882997 0.0060074218 -0.01194522 0.0084768943 -0.68492746 -0.72856188 0.0030203538
0.010532212 0.0060384572 -0.011908283 0.026989967 -0.71840572 -0.69510061 0.0013412373
0.013481203 0.0060867765 -0.011761446 0.052955974 -0.67889607 -0.73232228 0.0011460227
0.016681965 0.0062588416 -0.011659476 0.079211265 -0.69387841 -0.7157222 0.0013277173
0.019455833 0.0063975919 -0.011413751 0.11409427 -0.71052641 -0.69435924 0.0014298511
0.022570172 0.0067617255 -0.011185731 0.14783894 -0.77161121 -0.61867583 0.0010415802
0.025567805 0.0070301024 -0.010674166 0.18241358 -0.78004384 -0.59854561 0.00077637326
0.028466364 0.0076561491 -0.010516683 0.20256297 -0.77650118 -0.59666908 0.0018202619
0.031321533 0.0081509976 -0.010096756 0.25406957 -0.7748341 -0.57886165 0.0012058121
0.033889633 0.0085415933 -0.0094450051 0.29025751 -0.78298622 -0.55016661 0.0009840111
-0.031007778 0.01177598 -0.009439433 -0.32127383 -0.73828179 -0.59306246 0.00074123184
-0.028098227 0.011055821 -0.0099784136 -0.30188432 -0.73676258 -0.60501802 0.0018750755
-0.025358127 0.010566052 -0.010598469 -0.25803474 -0.69388855 -0.67226249 0.00094108237
-0.022544162 0.0099223927 -0.011032753 -0.25350282 -0.71336359 -0.65333664 0.0013022348
-0.019744029 0.0095150601 -0.011618129 -0.21479133 -0.69232041 -0.68888116 0.001132815
0.029573938 0.0091763251 -0.011989383 0.20389734 -0.71585774 -0.66781259 0.0028647636
0.031731214 0.0094230687 -0.011532801 0.23115946 -0.70202988 -0.67358679 0.0012680112
0.034691963 0.0098864352 -0.010841646 0.27438605 -0.76032621 -0.5887413 0.001211531
0.037453935 0.010699231 -0.010519534 0.2921668 -0.75819981 -0.58289927 0.0021530625
0.040178414 0.011260943 -0.0097293379 0.35434103 -0.75035101 -0.55804646 0.00098678411
-0.036886163 0.014546019 -0.0095912078 -0.37440488 -0.70894462 -0.59767759 0.0008643411
-0.034286071 0.013961193 -0.01031513 -0.33443055 -0.71218514 -0.61721027 0.0016364986
-0.03156006 0.013262095 -0.010870496 -0.29114455 -0.69178212 -0.66081184 0.0022210458
-0.02867095 0.012472364 -0.011286366 -0.26699018 -0.69948775 -0.66289765 0.0012871107
-0.026461458 0.012116572 -0.011825236 -0.25060076 -0.65783417 -0.71024895 0.0031137096
0.038416371 0.012067013 -0.011715113 0.30037662 -0.72442037 -0.62047487 0.0011070947
0.040703755 0.012596028 -0.011125256 0.33345556 -0.73160565 -0.59460962 0.0016877539
0.043456551 0.013520587 -0.010585711 0.36635214 -0.7319535 -0.57448256 0.00087528094
0.046111755 0.014424928 -0.0099335294 0.41493714 -0.71440464 -0.56342983 0.00094911357
-0.042837854 0.017723156 -0.0092625162 -0.45620921 -0.70241106 -0.54634416 0.0015077468
-0.040184684 0.016908139 -0.010193465 -0.3948932 -0.68084377 -0.6168558 0.0014167663
-0.037723787 0.016274253 -0.010988167 -0.35937309 -0.68529731 -0.63341826 0.00117239
-0.035347775 0.015522523 -0.011472477 -0.30192527 -0.67589742 -0.67231232 0.0016409991
0.04488714 0.015361151 -0.01183895 0.35232505 -0.66655177 -0.65694422 0.0027105673
0.04688666 0.015929347 -0.011186247 0.40459943 -0.67594218 -0.61595577 0.0011591871
0.049320582 0.016736263 -0.010356903 0.439603 -0.6758731 -0.59156132 0.0019349598
0.051551431 0.017497865 -0.0094967848 0.48855796 -0.66439384 -0.5655899 0.0014014898
-0.04562607 0.020095276 -0.0097295148 -0.48174721 -0.65775812 -0.57902843 0.00051502249
-0.043297887 0.019489404 -0.010785883 -0.42260242 -0.63660848 -0.64508671 0.0018363611
-0.040913556 0.018608104 -0.011469065 -0.37622565 -0.63909841 -0.67082602 0.0012944704
0.050273843 0.018462371 -0.011528643 0.45320794 -0.64698881 -0.61319494 0.00099102396
0.052609485 0.019387508 -0.010715588 0.46198681 -0.60506797 -0.64842957 0.0011173565
0.054947924 0.020344179 -0.0098145325 0.5197624 -0.61369282 -0.59432995 0.0010634536
-0.049001344 0.022929925 -0.010038753 -0.47717506 -0.62919492 -0.61352903 0.0010750942
-0.046648901 0.022093829 -0.010962694 -0.44057503 -0.61036336 -0.65829337 0.0023352264
-0.044561863 0.021451114 -0.011821518 -0.44046414 -0.57364666 -0.69059449 0.0033317273
0.053588137 0.021355998 -0.0118284 0.48480329 -0.58679563 -0.64856511 0.00094507425
0.055823058 0.022234093 -0.010889131 0.48861533 -0.53124547 -0.69212234 0.00092127
0.057891976 0.022997836 -0.0098544378 0.56507742 -0.56114161 -0.60482031 0.001626277
-0.05430308 0.026578581 -0.0095748315 -0.5071007 -0.5854125 -0.63256711 0.0016714303
-0.052289762 0.025735771 -0.010298549 -0.48150459 -0.60428965 -0.63481283 0.0014137897
-0.04972174 0.02466497 -0.011181318 -0.4591336 -0.60127681 -0.65395921 0.0013909185
0.056801684 0.024088282 -0.011649199 0.51203793 -0.50939399 -0.69161767 0.00092130923
0.058747184 0.025218459 -0.010919435 0.54241544 -0.49237007 -0.68070352 0.0028280898
0.060798198 0.026045712 -0.0097765764 0.59384406 -0.51597965 -0.61734444 0.0012892379
-0.057554405 0.029314067 -0.0092536863 -0.57927334 -0.56112432 -0.59125441 0.0014643675
-0.055355433 0.028534256 -0.010398054 -0.53611273 -0.52008992 -0.66489822 0.001697463
-0.0531465 0.027579358 -0.0113091 -0.48973155 -0.57818151 -0.65258652 0.0010346172
-0.012467144 0.02954334 -0.011910881 0.19408937 0.62294382 -0.75780624 0.0018128409
-0.010306573 0.029351648 -0.011613718 0.17014414 0.68275589 -0.71056002 0.00054048025
-0.0074195666 0.029041141 -0.01127089 0.13398267 0.66467512 -0.73502082 0.0017950148
-0.0044579096 0.028753728 -0.011065922 0.10515627 0.6859504 -0.72000986 0.0014638799
-0.0014964013 0.02860526 -0.010819758 0.076871939 0.75229806 -0.6543228 0.0012505043
0.0015889077 0.028502267 -0.010686283 0.030016515 0.73449993 -0.67794454 0.0023706858
0.004466447 0.028369797 -0.010751848 -0.022251239 0.74085826 -0.67129272 0.0024897382
0.0074664899 0.028609492 -0.010569334 -0.057623014 0.74786466 -0.66134566 0.0023336457
0.010493433 0.028562134 -0.010899996 -0.081835851 0.7382217 -0.66957563 0.0027425312
0.013519598 0.028840629 -0.011006352 -0.11798672 0.76048827 -0.63854259 0.0014280108
0.016341979 0.029098272 -0.011305401 -0.15605265 0.68725109 -0.70946008 0.0015304469
0.019246688 0.02961647 -0.011518221 -0.18699674 0.73824048 -0.64809972 0.0017287874
0.021422677 0.029996326 -0.01176877 -0.2128471 0.68830758 -0.69349027 0.0026567276
0.059663922 0.027620787 -0.011785666 0.57229728 -0.39406916 -0.71915597 0.0010252248
0.061612859 0.028510887 -0.010696514 0.57805723 -0.38536513 -0.71926588 0.0010165981
0.063535549 0.029475207 -0.0095561631 0.63282305 -0.42907903 -0.6445356 0.0018812646
-0.060203437 0.032064632 -0.009037843 -0.61919028 -0.50853074 -0.59833097 0.0022139896
-0.05824862 0.031554062 -0.010347699 -0.56050849 -0.45043331 -0.69493896 0.0014358736
-0.056194969 0.030924283 -0.011524718 -0.4931992 -0.4192602 -0.7622174 0.0018650282
-0.021824267 0.032828294 -0.011754218 0.25875172 0.69570541 -0.67010558 0.0021329809
-0.019303443 0.032391239 -0.011255378 0.24668571 0.72461641 -0.64348829 0.0019609041
-0.016417274 0.031883981 -0.010713139 0.24470976 0.74531418 -0.62018055 0.0013505892
-0.013536646 0.03114347 -0.010567922 0.19641554 0.7189945 -0.66668421 0.0015303142
-0.010588337 0.030744692 -0.010166393 0.17871544 0.74656063 -0.64086503 0.001705744
-0.0075826948 0.030412156 -0.0097919721 0.14356881 0.76005691 -0.63379925 0.0016008579
-0.0047471952 0.030180577 -0.0095037045 0.11006904 0.76790297 -0.63103861 0.0012597208
-0.0016949767 0.030019291 -0.0091927899 0.081945293 0.7706781 -0.63193369 0.0012194194
3.1855227e-05 0.030018322 -0.0090140151 0.080067389 0.75885534 -0.64631855 0.00097791781
0.010773035 0.030009728 -0.0091795083 -0.087508313 0.82033569 -0.5651474 0.0041015195
0.013758332 0.030141417 -0.0094870413 -0.11641473 0.78170526 -0.61268634 0.0013601303
0.016651379 0.030372974 -0.0098853651 -0.16685137 0.77341008 -0.61155325 0.0014972193
0.019631123 0.030938029 -0.010097708 -0.20703475 0.75869334 -0.61767393 0.001589123
0.022600172 0.031380001 -0.010581989 -0.22553112 0.75405204 -0.61688024 0.002279934
0.025300533 0.032026477 -0.010820774 -0.23555742 0.75826377 -0.60790515 0.00081966654
0.028260013 0.032464091 -0.011450991 -0.24698244 0.71256638 -0.65669543 0.00049348007
0.030547783 0.032761663 -0.011996758 -0.2575919 0.69502538 -0.67125714 0.0031753483
0.062335856 0.031271331 -0.011492806 0.58084518 -0.28198966 -0.7636103 0.0015152027
0.064235367 0.031708103 -0.010094557 0.63970435 -0.34226513 -0.68820995 0.0017431844
-0.061071452 0.03459958 -0.0099469675 -0.58726263 -0.41835895 -0.69289136 0.0012124188
-0.05892789 0.033995457 -0.011300299 -0.51793474 -0.3595922 -0.77616811 0.0017994617
-0.02796093 0.035586692 -0.011532727 0.2998203 0.64496595 -0.70294148 0.0014921492
-0.025420651 0.035090692 -0.010867588 0.29969624 0.73401129 -0.60943377 0.0013116925
-0.022622239 0.034347828 -0.010396302 0.27819103 0.74253368 -0.60930574 0.0025181388
-0.019747304 0.03380518 -0.0097864224 0.26982144 0.74582636 -0.60904795 0.0016158515
-0.017537246 0.03341471 -0.0092914226 0.25095305 0.75764894 -0.60248703 0.0015156635
0.026213223 0.033354621 -0.0095099388 -0.25364694 0.79457098 -0.55165225 0.0017143395
0.028762205 0.033743128 -0.010108734 -0.2622371 0.75830704 -0.59682679 0.00111448
0.031581368 0.034320109 -0.010631431 -0.27144012 0.74523962 -0.60904688 0.00046543346
0.0344407 0.035091162 -0.011050638 -0.29967499 0.7337383 -0.60977298 0.0016607292
0.03676822 0.035660606 -0.01155889 -0.33578914 0.70726109 -0.62211531 0.001083263
0.062649399 0.03311336 -0.011924933 0.5896073 -0.23748042 -0.77198851 0.0023952238
0.064542189 0.034416065 -0.010829336 0.59008366 -0.19343336 -0.78382701 0.00084476743
0.06642434 0.034967877 -0.0093889823 0.69119614 -0.25468621 -0.67630088 0.0015600016
-0.063616358 0.037829261 -0.0095153172 -0.61215174 -0.34672421 -0.71067053 0.0022615714
-0.061647013 0.037333444 -0.010797327 -0.55210125 -0.27083984 -0.788562 0.0020180487
-0.059920304 0.036275297 -0.011623915 -0.52882802 -0.26275021 -0.8070336 0.001153436
-0.034141354 0.038549934 -0.011454467 0.31519935 0.64113033 -0.69971508 0.001359376
-0.031426836 0.037930824 -0.010700102 0.32677495 0.72275865 -0.60896468 0.0013621465
-0.02871901 0.037131734 -0.010174998 0.31803834 0.73724806 -0.59608465 0.0021110887
-0.026151357 0.036544364 -0.0094686681 0.32270569 0.74753249 -0.58056545 0.0011195203
0.032999974 0.036027066 -0.0090434281 -0.32178983 0.76477313 -0.55818743 0.00065160269
0.034799043 0.036337368 -0.0096972194 -0.33228651 0.74562389 -0.57760781 0.0012600061
0.037700854 0.037203107 -0.010319778 -0.3595511 0.70258313 -0.61408472 0.0017037881
0.040354792 0.037989732 -0.011004523 -0.3624613 0.69460368 -0.62140769 0.0016195257
0.042636946 0.038525078 -0.011722852 -0.33739641 0.60900158 -0.71783054 0.0012720737
0.064930901 0.037544984 -0.011188906 0.56287438 -0.094235994 -0.82115287 0.001829
0.06684579 0.037756782 -0.0097149014 0.66672105 -0.14358762 -0.731345 0.0024818419
-0.06418848 0.040518187 -0.010018687 -0.57760394 -0.19866124 -0.79177481 0.0027818745
-0.06185111 0.040131349 -0.011473186 -0.49528 -0.13153486 -0.85871774 0.0034439131
