# .PCD v0.7 - Point Cloud Data file format
VERSION 0.7
FIELDS x y z normal_x normal_y normal_z curvature
SIZE 4 4 4 4 4 4 4
TYPE F F F F F F F
COUNT 1 1 1 1 1 1 1
WIDTH 568
HEIGHT 1
VIEWPOINT 0 0 0 1 0 0 0
POINTS 568
DATA ascii
-0.02460603 0.038872655 0.0019905849 0.40092707 0.90749955 0.12530763 0.0017189635
-0.022616033 0.038144059 0.0017061009 0.36408111 0.9220894 0.13113394 0.0016760926
-0.01954654 0.037023161 0.0016743366 0.3155185 0.93641585 0.15353647 0.0025556146
-0.017200956 0.036286376 0.0014834857 0.27915403 0.95384866 0.11065989 0.0023816931
0.023933256 0.036099646 0.0003331675 -0.24872351 0.96849793 -0.012181592 0.004190797
0.025604784 0.036476701 0.0015529292 -0.28558424 0.94947398 0.13015652 0.001933551
0.028499177 0.037415951 0.0016724583 -0.3215833 0.93566132 0.14533426 0.0025456408
0.031402592 0.038443055 0.0017162728 -0.36675075 0.92046154 0.13507205 0.002631431
-0.070803605 0.040799052 0.0024333894 -0.85747528 -0.35664985 0.37085989 0.0013253357
-0.030824149 0.04169016 0.0019018822 0.44998071 0.88436222 0.1241808 0.001388146
-0.028513497 0.040618289 0.0017293965 0.42183399 0.89764202 0.12765189 0.0014628379
-0.025947459 0.039525971 0.0014491915 0.37163833 0.91891444 0.13221629 0.0015862744
0.03293075 0.039140575 0.0011480503 -0.35979646 0.92401266 0.12941019 0.0030103626
0.034617938 0.039870109 0.0016697063 -0.42956576 0.89307398 0.13376138 0.0028751472
0.037238624 0.041318938 0.0016226072 -0.4993389 0.85647726 0.1307954 0.0030574889
-0.07224147 0.043781333 0.0016000642 -0.85753345 -0.31163618 0.40929127 0.0012929967
-0.07169877 0.042729478 0.0022525729 -0.85753125 -0.31162086 0.40930745 0.0012944349
-0.03661738 0.044646349 0.0017616584 0.4893527 0.86386842 0.11943733 0.0017765258
-0.034509327 0.043558542 0.0016388554 0.45397881 0.8851921 0.10167687 0.0017758177
-0.032055799 0.04234891 0.001389615 0.42086726 0.8978405 0.1294342 0.0013482288
0.038651723 0.042205673 0.001441127 -0.54143834 0.82999629 0.13398002 0.0029378394
0.040517703 0.043337837 0.0015750941 -0.53820252 0.83407122 0.12109201 0.0034813131
0.042542413 0.044614159 0.0017688805 -0.52522373 0.84263337 0.11878154 0.0027001058
-0.073033929 0.046448823 0.0020186435 -0.85501242 -0.27903989 0.43713892 0.00079869363
-0.042332631 0.047770198 0.0018913054 0.48152789 0.86214095 0.1576198 0.0016912874
-0.040542811 0.046826005 0.0016183334 0.47632429 0.86732608 0.1444315 0.0016827446
-0.038119934 0.04549671 0.0015305972 0.4673762 0.87500376 0.12620597 0.002026553
0.043974318 0.045581792 0.0016229685 -0.52663589 0.84053987 0.12707256 0.0028018986
0.046385001 0.047147878 0.0016156234 -0.54135543 0.82496434 0.16238248 0.0033554872
-0.075076327 0.050675716 0.00079740031 -0.8231734 -0.26877785 0.50014389 0.0018548608
-0.07402461 0.049528565 0.0023086686 -0.80117881 -0.26491618 0.53659296 0.0028501251
-0.048016615 0.050805107 0.0027151424 0.46708044 0.86959249 0.16013969 0.0031328523
-0.046380237 0.050100248 0.0015908129 0.48752913 0.85688877 0.16750234 0.002613785
-0.043809343 0.048640314 0.001696522 0.46973446 0.87024212 0.14841871 0.0019378015
0.04780478 0.048184618 0.00103404 -0.53593969 0.83686781 0.11144986 0.0083452156
0.049526997 0.049226191 0.001593261 -0.52320343 0.83393908 0.17551021 0.0035908637
0.051582418 0.050569668 0.0019278771 -0.54584926 0.82333314 0.15547107 0.0037502805
0.072257116 0.050502136 0.0028601168 0.81422132 0.084860794 0.57431901 0.0017047958
-0.075525582 0.052825846 0.0021429302 -0.82305485 -0.16870843 0.54232675 0.011643259
-0.074619219 0.051400483 0.002736124 -0.77278984 -0.24483903 0.58553368 0.0043851626
-0.052389234 0.053303253 0.0018230859 0.41551018 0.87676072 0.24216081 0.0021844248
-0.049536843 0.051841881 0.0015986365 0.44451958 0.87853664 0.17485923 0.0030180777
-0.047805674 0.051084176 0.00011046202 0.46471915 0.87470692 0.13756412 0.0028821442
0.053077988 0.051666308 0.0015223779 -0.53292847 0.82782036 0.17521624 0.0037557292
0.055424906 0.053134214 0.0016865314 -0.52864921 0.82225299 0.21078432 0.0056520961
0.072195165 0.051034648 0.0029681623 0.81432253 0.084912464 0.57416779 0.0016196648
-0.076142147 0.055676047 0.0019929837 -0.84384787 0.15641184 0.51327986 0.042827412
-0.060708813 0.056679361 0.0018859351 0.45823824 0.83200312 0.31271127 0.0042182431
-0.058443572 0.055765349 0.0017241514 0.37969109 0.88140649 0.28099346 0.0059769247
-0.055461466 0.054712653 0.0015795812 0.36365244 0.91183788 0.19054821 0.0036314847
-0.053830072 0.054118264 0.0014303337 0.40130752 0.88858569 0.22218834 0.0030159587
0.056762796 0.054219332 0.00079186913 -0.54096818 0.81041712 0.22489461 0.00468793
0.058570296 0.055281956 0.0016286594 -0.5383808 0.80602831 0.24589521 0.0072242981
0.060554452 0.056636769 0.0021139209 -0.68065679 0.68441337 0.26131299 0.0087892031
-0.075583123 0.057405461 0.0015055932 -0.74746388 0.5824163 0.31951371 0.063497469
-0.073637679 0.05856007 0.0015778956 -0.55323464 0.81227046 0.18479215 0.016678097
-0.071446873 0.059649765 0.0012378774 -0.41495028 0.89511871 0.16303043 0.0079482021
-0.066381119 0.059657954 0.0027153357 0.28358766 0.85141087 0.44122288 0.011429328
-0.064487562 0.059090529 0.0017258035 0.4052738 0.82482904 0.39422101 0.0085274605
-0.062118284 0.057630114 0.001586503 0.42123893 0.79294002 0.44023162 0.0041164216
0.061885964 0.058270257 0.0015054002 -0.74506241 0.5707159 0.34520343 0.01517871
0.06334801 0.059506796 0.0024955235 -0.72599018 0.5851984 0.36122161 0.015172641
0.072589077 0.059091508 0.0022029832 0.43687627 0.13347623 0.8895635 0.0140292
-0.069761343 0.06039634 0.001821349 -0.22589877 0.95315623 0.2011541 0.025320895
-0.067565531 0.06059077 0.0017433335 0.166085 0.94759989 0.27289224 0.031019563
-0.065710612 0.060188338 0.00062004389 0.38405713 0.86019725 0.33550084 0.011082395
0.064138621 0.061531138 0.0017788616 -0.74109095 0.43378749 0.51245743 0.027314836
0.072564222 0.06186904 0.002387332 0.29310304 0.061580062 0.95409572 0.016075326
0.065052226 0.064383104 0.0015983159 -0.81701922 0.25661504 0.5163607 0.013795775
0.066230394 0.065090306 0.002732387 -0.73693454 0.24903721 0.62841696 0.018849965
0.072793312 0.06457749 0.0024453311 0.18745287 0.043595418 0.98130572 0.014099211
0.06557449 0.067348845 0.0011274543 -0.78399861 0.21174242 0.58353341 0.015825544
0.067017727 0.067709111 0.0024969978 -0.62933868 0.24657081 0.7369774 0.019237198
0.069358908 0.068539135 0.002966803 -0.17922105 0.028430907 0.9833979 0.0086818235
0.073522992 0.067395024 0.0023972862 0.18946485 -0.067082442 0.97959328 0.013213705
0.065836184 0.069407225 0.00056182384 -0.66227251 0.24914823 0.70662606 0.021701934
0.067484744 0.07051453 0.0020988537 -0.63714993 0.1136241 0.76231849 0.029137861
0.069290772 0.070489243 0.0029061802 -0.30103242 0.0070073847 0.95358813 0.013993441
0.074388243 0.070220642 0.0025467146 0.37219712 -0.22260849 0.90106314 0.012132141
0.075052105 0.07110998 0.0022120948 0.59097815 -0.14077345 0.79430956 0.05982681
0.067567669 0.073502518 0.001786437 -0.76339388 -0.0095614903 0.64586246 0.015546885
0.069178529 0.07246305 0.0029728008 -0.51618183 -0.07978256 0.85275495 0.0035869635
0.075932071 0.073534317 0.0022453428 0.9052341 0.13383597 0.4032855 0.089872651
0.067819975 0.076241836 0.001663698 -0.77181566 0.53350264 0.34594145 0.13211644
0.06984286 0.076773465 0.0022110499 -0.082326874 0.90241939 0.42292029 0.12318067
0.073027357 0.07588128 0.0011929075 0.38581437 0.89829093 0.21028714 0.021788541
0.075590223 0.075093962 0.00011804846 0.74124956 0.65071112 0.16469368 0.068893306
-0.014292462 0.0026844156 0.0051758736 -0.17931038 -0.85410035 0.48822162 0.00041626912
-0.0071402444 0.0016016441 0.0049991999 -0.087378345 -0.85632676 0.50898874 0.00051162118
-0.0044620344 0.0014971093 0.0052216691 -0.057249524 -0.84787261 0.52710009 0.00087688235
0.0035942881 0.0016980063 0.0058770385 0.046906944 -0.84046322 0.53983444 0.00087901595
0.0079412181 0.0017016702 0.0052954508 0.072982259 -0.86718649 0.4926064 0.0001104175
0.011434687 0.0019859222 0.0053078514 0.090669423 -0.85984176 0.50244522 9.8690936e-05
0.01440884 0.0023502673 0.0054377117 0.10872991 -0.8304534 0.54637444 0.00023677538
0.016880309 0.0027568433 0.0055867005 0.11383829 -0.81931955 0.56192195 0.00034073982
-0.02481121 0.0056802733 0.0057422719 -0.27283388 -0.85699928 0.43716583 6.0547234e-05
-0.022819882 0.0048556263 0.0052664788 -0.25481004 -0.85301381 0.45545506 0.0001672752
-0.020455411 0.0043379678 0.0057019037 -0.23522423 -0.86222237 0.44860032 0.00018283243
-0.017714258 0.0034502342 0.0052064694 -0.1958604 -0.86027622 0.47070533 0.00014875333
0.019088924 0.0032027038 0.0057929629 0.13173929 -0.81561077 0.56340379 0.0001470334
0.022452833 0.0035993271 0.0053611603 0.15423097 -0.79282165 0.58961564 0.00024880702
0.025913738 0.0044975886 0.0056038657 0.17558879 -0.77100056 0.61214918 0.00092544907
0.029614624 0.0056553232 0.005885662 0.2047731 -0.75797939 0.61930227 0.00057151867
-0.033819489 0.0085235815 0.004838611 -0.33229423 -0.83578998 0.43707642 0.00034372657
-0.030549007 0.0075284899 0.0055245073 -0.30814573 -0.84200835 0.44279569 0.00034172033
-0.028657347 0.0069685774 0.0057449862 -0.28638756 -0.84184641 0.45746785 0.0001118853
-0.026746223 0.0063551133 0.0058239573 -0.27862737 -0.8432647 0.45964292 0.00032252102
-0.039953988 0.011099572 0.00448961 -0.41747397 -0.82108635 0.38927209 0.00039375667
-0.037416682 0.010159519 0.0051774001 -0.37398845 -0.83197075 0.40982598 0.00042095641
-0.035331391 0.009437209 0.0056813327 -0.34707886 -0.83386534 0.42919096 0.00018463298
-0.046030678 0.014441965 0.0042203777 -0.49879631 -0.78170043 0.37436178 0.00029781903
-0.043699246 0.013049961 0.0042883963 -0.46268922 -0.80297959 0.37568948 0.00026245168
-0.041490596 0.012484679 0.0059712036 -0.42894447 -0.81262583 0.3945199 0.00032828527
-0.049616307 0.017106576 0.0047131875 -0.52931833 -0.75581414 0.38544396 0.00020497103
-0.047529012 0.016081471 0.0057709962 -0.49834681 -0.76143068 0.41457653 0.0010600798
-0.052774712 0.019541245 0.0050317426 -0.54130876 -0.72456133 0.42660955 0.0004503566
-0.0577695 0.023354743 0.0047133379 -0.61232185 -0.66009629 0.43512619 0.00052234577
-0.055752993 0.021922588 0.0052648918 -0.5768429 -0.70199066 0.41768587 0.00050453132
-0.060692523 0.026321538 0.0049248436 -0.66568547 -0.61886644 0.41697401 0.00059797592
-0.059062421 0.024837643 0.0052206293 -0.63675886 -0.64416271 0.4237836 0.00067889428
-0.063563392 0.029655838 0.0048172637 -0.70071846 -0.54128343 0.46476442 0.00045461359
-0.062249541 0.028201742 0.0051242667 -0.69325757 -0.56686896 0.44503197 0.00064444332
-0.064780459 0.031613998 0.0051496685 -0.72913539 -0.50037783 0.46688706 0.00043499589
-0.00730479 0.032831892 0.0056181387 0.15946217 0.92149979 0.35413274 0.0025638398
-0.0043173092 0.032604899 0.0050282814 0.14341724 0.92680299 0.3470847 0.002267438
-0.0014919123 0.032447323 0.0045559229 0.1024784 0.94399887 0.31363091 0.0023650173
0.0015056456 0.03224672 0.0044819303 0.035010576 0.94339973 0.32980448 0.0019676525
0.0044687865 0.032139551 0.0045800745 0.010532711 0.94776708 0.31878939 0.0031876585
0.0075167986 0.032124974 0.0047013224 -0.040089149 0.94123095 0.3353762 0.0028210336
0.010509088 0.032330807 0.0047066109 -0.093585789 0.93297219 0.34756961 0.0026930389
0.013373485 0.032542951 0.0049875779 -0.14504935 0.91921884 0.36605638 0.0025455183
0.016030181 0.03281815 0.005486588 -0.19351114 0.91055316 0.36530319 0.0028303072
0.067064762 0.031221507 0.0056648157 0.70609719 -0.35404792 0.61325097 0.0011356554
-0.066881202 0.035039883 0.0052973777 -0.78602117 -0.41749609 0.45592508 0.0027553346
-0.06574136 0.033478636 0.0057072146 -0.7165637 -0.45012495 0.53284526 0.0014997853
-0.018745499 0.035740845 0.0055833571 0.29950604 0.89435923 0.33229163 0.0021819463
-0.016491294 0.035336908 0.004680356 0.29141825 0.91095114 0.29196465 0.0017969767
-0.013506044 0.034562044 0.0045357854 0.23276019 0.91695398 0.32406491 0.0023028255
-0.010515697 0.033829916 0.00458501 0.1934057 0.93146616 0.30816379 0.0020042676
-0.0075352201 0.033398937 0.0041331928 0.15516353 0.93947953 0.30545449 0.0023259958
-0.0048095067 0.0331387 0.0037719843 0.12362574 0.94080299 0.31560487 0.002275032
0.013755227 0.03310832 0.0035293251 -0.14724885 0.93751514 0.31525099 0.0031463595
0.016707448 0.03341648 0.0042683324 -0.19350258 0.9287793 0.31611043 0.0025721572
0.019515118 0.034021229 0.0045373584 -0.22944812 0.91735607 0.32528657 0.0022769335
0.022580847 0.034813818 0.004659534 -0.27358112 0.89369756 0.35560927 0.0025598221
0.025212817 0.035556626 0.0047932109 -0.29048628 0.89555907 0.3370336 0.0022684101
0.027608082 0.035939679 0.005749831 -0.28905183 0.88458395 0.36600587 0.0027148752
0.068676382 0.034734387 0.0057432824 0.75427282 -0.28633556 0.59083372 0.0012682093
-0.069341443 0.03873818 0.0039497525 -0.82232243 -0.36148009 0.43945181 0.003774774
-0.068180881 0.03756468 0.0053216438 -0.81873727 -0.35924271 0.44789955 0.0033319108
-0.027079446 0.038899448 0.0057419701 0.37605432 0.87103641 0.31603599 0.0024117306
-0.025132498 0.038387459 0.0048301779 0.38610333 0.8790611 0.27959907 0.0016620739
-0.022398844 0.037389103 0.0045629819 0.32684904 0.89610696 0.30027002 0.0022032959
-0.019718233 0.036477864 0.0043943534 0.31166464 0.90412307 0.29227823 0.0020636672
-0.017722752 0.036167189 0.0031750116 0.26606911 0.94605893 0.18487772 0.0019042215
0.026221605 0.036190338 0.0038605805 -0.30493852 0.90989196 0.2812635 0.0029216241
0.028578073 0.036787566 0.0044329725 -0.30504593 0.89736849 0.31886786 0.0024235863
0.031493161 0.037755433 0.0046275589 -0.34437928 0.88933462 0.30081043 0.00266039
0.033867881 0.038611379 0.0049950932 -0.42862603 0.85298908 0.29780757 0.0029007124
0.070107013 0.037485972 0.0049278932 0.76514786 -0.21484292 0.60695237 0.0009617919
-0.069880687 0.040699188 0.0046395934 -0.8335917 -0.32716694 0.44506937 0.0024680779
-0.068901978 0.039413035 0.0055155735 -0.82221371 -0.36168057 0.4394905 0.0038596487
-0.033114597 0.041830633 0.0054614986 0.42757556 0.85499287 0.29354104 0.0022756809
-0.031281356 0.041230325 0.0046376605 0.43198204 0.86019111 0.27104032 0.0015054028
-0.028622678 0.039984912 0.0046194405 0.37411755 0.87477702 0.30789784 0.0016744421
-0.026536241 0.039266486 0.0039853887 0.38733593 0.87349963 0.29490536 0.0021673501
0.034963623 0.039449647 0.0041572023 -0.42098925 0.85600293 0.30004483 0.0028952379
0.037450705 0.040635899 0.0046186186 -0.47283134 0.83502382 0.28136411 0.0019709447
0.039535772 0.041620322 0.0052682995 -0.48006809 0.82130909 0.30819812 0.0020809274
0.070634425 0.040588506 0.0052187308 0.77469552 -0.12297065 0.62026215 0.0020955275
-0.072221041 0.044893999 0.0030040385 -0.84144217 -0.28873977 0.4567323 0.0014711804
-0.07080131 0.043496888 0.004755463 -0.84569573 -0.2913287 0.44713128 0.0016515893
-0.039392214 0.04492363 0.0057991273 0.44577423 0.81150758 0.37781054 0.0037340373
-0.037223671 0.044212326 0.004699287 0.46153772 0.84040636 0.28407773 0.0015573414
-0.034642242 0.042895492 0.0046265312 0.40652215 0.85896504 0.31131777 0.0018081756
-0.032763224 0.042241823 0.0038045365 0.42758739 0.8549844 0.29354846 0.0023016676
0.04078041 0.042731199 0.0044102296 -0.49014577 0.81032836 0.32113102 0.0023776316
0.043307357 0.044199277 0.0047348379 -0.50299382 0.79206473 0.34587678 0.0029069355
0.071180679 0.043602854 0.004856932 0.78529203 -0.034593128 0.61815828 0.00096149603
-0.072395205 0.046876043 0.003785931 -0.81407672 -0.25027338 0.52406341 0.0038612341
-0.0713204 0.04641461 0.0052110041 -0.79659915 -0.18134145 0.57666725 0.0040147766
-0.043239273 0.047404386 0.0048209163 0.44864592 0.82678378 0.33933079 0.0025679888
-0.04056979 0.046054956 0.0045584883 0.4515208 0.83751601 0.30772695 0.0022391374
-0.038568437 0.045273978 0.0036948421 0.47949502 0.8425011 0.24551255 0.0043896711
0.044510204 0.045380566 0.0037796879 -0.48745844 0.79849744 0.35325077 0.0024822378
0.046580654 0.046342354 0.0045624888 -0.51006448 0.79001367 0.34016564 0.0028351154
0.048875425 0.047528114 0.0050800727 -0.50409412 0.78685457 0.35601822 0.0029369837
0.071128197 0.046618719 0.0051979111 0.80995834 0.023968864 0.5859974 0.001939397
-0.07276547 0.049563397 0.0043209242 -0.75573993 -0.22230013 0.61598682 0.0051701567
-0.07155297 0.049581688 0.0057215942 -0.72775686 -0.13381864 0.67265332 0.0060427017
-0.0490642 0.050494455 0.0048921173 0.41881052 0.82065535 0.38874489 0.0035588846
-0.046474934 0.049226012 0.0046669026 0.43762317 0.82064259 0.3674666 0.0026617213
-0.044471707 0.048453227 0.0039035296 0.45851845 0.81703067 0.34960219 0.002041324
0.050010402 0.048658065 0.0042832047 -0.51515692 0.77287656 0.37050682 0.0031894832
0.052336622 0.049930707 0.0047608609 -0.50819218 0.78026152 0.36459941 0.0019777964
0.054420739 0.050761729 0.0055553401 -0.48023435 0.72987777 0.4864704 0.0050135111
0.070908077 0.049457099 0.0054561184 0.7764256 0.083764613 0.62461728 0.0050637037
-0.073481664 0.052596733 0.0045435154 -0.69095951 -0.18254469 0.69946581 0.0053050136
-0.071911432 0.052545767 0.0058111032 -0.61897331 -0.02073513 0.78513825 0.0096594868
-0.057656936 0.053829148 0.0056670881 0.26085159 0.81406254 0.51890129 0.0040026437
-0.055242237 0.053369127 0.0049909153 0.35429239 0.84824282 0.39365068 0.0019188091
-0.052533254 0.052374408 0.0046249013 0.37169433 0.82646006 0.42285597 0.0021006051
-0.050221827 0.051439684 0.0041212249 0.3978726 0.82387066 0.40365154 0.0023836701
0.053365339 0.05124839 0.0035187206 -0.48200369 0.78378183 0.39161018 0.00200167
0.055607047 0.052135587 0.0044237138 -0.45037788 0.77537513 0.44266605 0.0043331436
0.058067545 0.053260121 0.0049575395 -0.44446722 0.74130267 0.50291085 0.0073600914
0.060225952 0.053798724 0.0058784205 -0.37248296 0.63480216 0.67696577 0.0030573474
0.070993572 0.052836049 0.004883178 0.75469291 0.08777754 0.65017968 0.010556125
0.072069228 0.051856555 0.0032233042 0.81421077 0.084801003 0.57434273 0.0017050352
-0.075317539 0.055610385 0.0032974165 -0.84384406 0.15641907 0.51328385 0.042826481
-0.073486879 0.055539034 0.0048592221 -0.57648379 0.12603065 0.80733061 0.018401723
-0.07112205 0.056191146 0.0058358465 -0.19339508 0.31912434 0.92777044 0.014621935
-0.067474112 0.056764312 0.0058410265 0.081208117 0.54915369 0.83176655 0.0063138846
-0.064212464 0.056285992 0.0053295102 0.2832835 0.7204414 0.63302028 0.010477161
-0.06150014 0.055663325 0.0046524415 0.35154104 0.76753241 0.53601587 0.0080933636
-0.058730073 0.054813061 0.0044461805 0.27984643 0.84596908 0.45389682 0.0040380382
-0.05611274 0.054330688 0.0037265499 0.34198397 0.85852885 0.38206694 0.0020507558
0.059167553 0.054623418 0.0039585116 -0.54138875 0.69754046 0.46939921 0.0050525032
0.06142183 0.055567265 0.0047454764 -0.417483 0.66814888 0.61586124 0.0054112016
0.063779593 0.056479804 0.0054900171 -0.30115107 0.56746954 0.76634616 0.0097880764
0.068746194 0.056716856 0.0058701984 0.30897209 0.20818652 0.9280057 0.016130416
0.070680588 0.055586528 0.004775235 0.55281729 0.19123431 0.81106257 0.026444074
-0.073186472 0.05795946 0.0043329769 -0.51789892 0.65225285 0.55348617 0.017344363
-0.070495464 0.058609772 0.0047967355 -0.17123923 0.67424452 0.71838117 0.030306039
-0.067557596 0.058436785 0.0045424812 0.17496434 0.69128478 0.70107967 0.012466036
-0.064724945 0.057808347 0.0039937678 0.34538221 0.71183193 0.61156064 0.0065565831
-0.062746197 0.057351157 0.0031547288 0.46865389 0.7611987 0.44826344 0.0049094753
0.062443733 0.057434112 0.0036047876 -0.49387082 0.61582381 0.6138832 0.0085103083
0.064573206 0.058392677 0.0044834921 -0.50004828 0.49353281 0.71160179 0.013836066
0.067362346 0.058575802 0.0053531951 -0.050174929 0.39988714 0.91518998 0.012881819
0.070354655 0.058515571 0.0044641262 0.40176684 0.26988596 0.87506855 0.010735281
-0.069670044 0.060087752 0.0033881811 -0.12797731 0.885611 0.44644707 0.023719449
-0.06854184 0.060048088 0.00343614 0.00096245704 0.91759777 0.39750898 0.029245064
0.065422103 0.061133835 0.0035793483 -0.67923427 0.31442916 0.66315538 0.027379544
0.06745702 0.061524738 0.0043127751 -0.17886856 0.27429438 0.94486433 0.029939676
0.070334449 0.061446525 0.0038871348 0.34449983 0.11600432 0.93159151 0.017129108
0.067572527 0.064435132 0.0034975579 -0.2132303 0.19806151 0.95671546 0.019590747
0.070461191 0.064442821 0.0033907085 0.14947842 0.030546291 0.98829305 0.013943964
0.072032452 0.064997211 0.0030119335 0.18745287 0.043595418 0.98130572 0.014099211
0.068286844 0.066869631 0.0031674521 -0.29438952 0.13711235 0.94579864 0.018193133
0.070628442 0.067278147 0.0032173705 0.10852827 -0.0056762723 0.99407715 0.012056913
0.072547972 0.068039961 0.0031932897 0.18951142 -0.06705834 0.97958589 0.01321434
0.070706248 0.070367835 0.0034773415 -0.090379231 -0.081259511 0.99258673 0.02756012
0.072964743 0.070604399 0.0035611677 0.14651756 -0.17135367 0.97425377 0.025193974
0.068970643 0.074961729 0.0032516907 -0.55255055 0.24623507 0.79627645 0.049406264
0.070443414 0.073410444 0.003913756 -0.33415368 -0.088572852 0.93834752 0.014410306
0.073345058 0.073506452 0.0042735753 0.36549279 0.05144975 0.92939115 0.084934957
0.075397119 0.074011952 0.00333642 0.54619604 0.1697443 0.82027847 0.1130401
0.068906926 0.075946636 0.00330777 -0.55254632 0.24624437 0.79627657 0.049407192
0.070449702 0.075754791 0.0042156093 -0.12127703 0.45767003 0.88081223 0.10970145
0.073275246 0.075450845 0.0042861789 0.23472774 0.6977464 0.67679602 0.058487274
-0.013701244 0.0029956156 0.0061275614 -0.16372873 -0.83438468 0.52630323 0.0014043348
-0.0012470055 0.0028058265 0.0079581123 -0.027125247 -0.82461751 0.56504005 0.0012902891
0.0013703608 0.0023236547 0.0071483268 0.020015385 -0.81282806 0.58215976 0.0008144484
0.0046747848 0.0025486159 0.0073276944 0.06441696 -0.83163434 0.55157477 0.0010371996
0.0066525387 0.0023257202 0.0067438851 0.059096839 -0.83146012 0.55243248 0.00098116999
0.009895537 0.0026022526 0.0066937078 0.089841023 -0.84278202 0.53070432 0.00048558743
0.013233148 0.0027250119 0.0062385667 0.10584294 -0.82703841 0.55209118 0.00031733775
-0.024428271 0.0059479615 0.0065467884 -0.27060142 -0.84430802 0.46251363 0.00030399341
-0.021850538 0.0054671853 0.0071167573 -0.24996012 -0.83517766 0.48989612 0.000724471
-0.019610545 0.0051449751 0.0076577873 -0.21689139 -0.84313673 0.49201494 0.00086625753
-0.016740536 0.0045246589 0.0077809361 -0.17417219 -0.84079802 0.51256484 0.00089410151
-0.013488767 0.0040033008 0.007965466 -0.16372807 -0.83438504 0.52630299 0.0014047916
-0.010535848 0.0033852663 0.0077754334 -0.1107493 -0.83971441 0.53161484 0.0014911584
-0.0074365283 0.00334928 0.0082613425 -0.048766855 -0.82503468 0.56297374 0.001911382
-0.0045064152 0.0031668404 0.0083198883 -0.06744542 -0.826922 0.55825716 0.0021504976
-0.0027704297 0.0030087756 0.0082196016 -0.025680864 -0.82469243 0.56499821 0.001221649
0.0020336432 0.0034254026 0.0088545177 0.021093097 -0.79743284 0.60303885 0.0015854974
0.0035914604 0.0031674865 0.0084487712 0.039288275 -0.81486076 0.57832384 0.00088921282
0.0075609162 0.0033845399 0.008381038 0.069631368 -0.82399517 0.56230181 0.00089067384
0.010810885 0.0036279147 0.0082453415 0.10197309 -0.80582839 0.58330268 0.0013941338
0.013602561 0.0038516612 0.007966524 0.11141675 -0.82443786 0.55487704 0.00035466868
0.016606363 0.0039573368 0.00739918 0.12450553 -0.81457603 0.56653696 0.00015412351
0.019618688 0.0046531209 0.0076170699 0.15743102 -0.78653121 0.59714663 0.00047743652
0.022397863 0.0049728295 0.0073795724 0.1629089 -0.77649426 0.60870141 0.00049415132
0.025174269 0.0053931759 0.0072294394 0.17559026 -0.77099901 0.61215079 0.00092545582
0.027677462 0.0055143167 0.0065859919 0.18630221 -0.75252932 0.63165736 0.00081876188
-0.031289343 0.0084464839 0.0068683871 -0.31214139 -0.82816738 0.46551746 0.00063935289
-0.028422998 0.0079938089 0.0079134926 -0.28336447 -0.82610822 0.48708299 0.00056958466
-0.025488127 0.0070373816 0.0079348078 -0.27704743 -0.83660269 0.47258925 0.00021993693
-0.023194745 0.0064768321 0.0082260007 -0.25350171 -0.83184695 0.49372819 0.00065248541
-0.019924341 0.0060131275 0.0089680981 -0.20852974 -0.81609374 0.53898627 0.00070942799
0.023126677 0.0063380506 0.0087518468 0.16245663 -0.75079709 0.64024335 0.00083609106
0.025560141 0.0064577903 0.0083387736 0.17760608 -0.74566227 0.64221799 0.00065873435
0.02851402 0.007028243 0.0081918081 0.19449268 -0.72437394 0.66140383 0.0010681931
0.0316565 0.0077390578 0.008005226 0.20390253 -0.72109449 0.66215295 0.0009909895
0.034199491 0.0081888894 0.0075274906 0.22693799 -0.7305485 0.64404821 0.0013414695
0.037008367 0.0084902002 0.0064404029 0.26041996 -0.7007603 0.66416591 0.0012858211
-0.039156575 0.011382943 0.006152702 -0.39568669 -0.81494832 0.42342797 0.00042019508
-0.037314337 0.011240234 0.007520929 -0.38259014 -0.80768698 0.44862726 0.0010623924
-0.034534499 0.010199424 0.0078036496 -0.34123287 -0.82951337 0.44211724 0.00033876739
-0.031574916 0.0094204526 0.0084602209 -0.30545947 -0.82188541 0.48083138 0.00093248102
0.035140056 0.0093890913 0.008657841 0.24100277 -0.684313 0.68821019 0.0019353231
0.037660748 0.0098897554 0.0080913464 0.26701528 -0.69495535 0.66763747 0.0014888743
0.040858824 0.011083171 0.007894665 0.28855047 -0.70110345 0.6520679 0.0015113867
0.043346092 0.01168667 0.0070951786 0.33500695 -0.69686192 0.63415599 0.0005281074
-0.045257472 0.014909544 0.006437127 -0.48092538 -0.76831287 0.42238149 0.00089030061
-0.043057468 0.014172737 0.0074586272 -0.45556316 -0.77186078 0.44350109 0.0012893023
-0.040537085 0.013058583 0.0079596844 -0.40794015 -0.77804893 0.47772866 0.0013559021
-0.038175147 0.012113294 0.0083965352 -0.3824577 -0.79604292 0.46908611 0.00071661174
0.043756034 0.012925506 0.0085241273 0.33519953 -0.67177516 0.66057509 0.00088917621
0.046406213 0.013784165 0.0077358983 0.38765201 -0.69061112 0.61055899 0.00086772331
0.048929766 0.0146169 0.0068317843 0.42133775 -0.67906666 0.60111815 0.001008135
-0.048758719 0.017589286 0.0070167053 -0.50618392 -0.72509456 0.46692154 0.00077230623
-0.046551388 0.016578414 0.0078340955 -0.48350903 -0.74067527 0.46649677 0.0013515204
-0.04467053 0.015415908 0.0080046002 -0.46410763 -0.75425446 0.46443972 0.0022996531
0.047864765 0.015300084 0.0086738719 0.38377482 -0.64983064 0.65607703 0.0017406333
0.050021768 0.016226145 0.0081385588 0.42479515 -0.65941417 0.6202597 0.0015191889
0.052695096 0.017210027 0.007025355 0.46416911 -0.66590989 0.5840472 0.00061572221
-0.052007377 0.020111132 0.0072355224 -0.53609443 -0.71637058 0.44656003 0.00081051438
-0.049895618 0.018954314 0.0078848349 -0.523871 -0.71654892 0.46056136 0.0011074862
0.0526108 0.018330673 0.0085913371 0.44626594 -0.63037467 0.63519639 0.0010533207
0.055401888 0.019759258 0.007731834 0.49429893 -0.61824769 0.61109602 0.0007448945
-0.057149861 0.02355776 0.0062016011 -0.6064201 -0.65366846 0.45273861 0.00065264729
-0.055207863 0.022832723 0.0076160659 -0.57051528 -0.66799486 0.4778026 0.001286504
-0.053067602 0.021494482 0.0082039144 -0.53494942 -0.69986612 0.47330379 0.00089902442
0.055694092 0.021100897 0.0089869583 0.4731409 -0.5553261 0.68392289 0.0011535148
0.058217511 0.022455195 0.0080674132 0.50633234 -0.539635 0.67262298 0.00088065717
-0.060283516 0.026741566 0.0063071833 -0.64702415 -0.59671944 0.4746426 0.00066782389
-0.058367167 0.025718793 0.0075922282 -0.61242038 -0.63251179 0.47420472 0.0011248008
-0.056327123 0.024427472 0.0085042985 -0.59733844 -0.64894301 0.47123212 0.0012987888
0.059916515 0.024171114 0.0081251431 0.55548286 -0.492576 0.66993105 0.0015055053
0.061509077 0.02578325 0.0079532778 0.58733821 -0.49040523 0.64384496 0.00096691609
0.063399434 0.026552979 0.0065157223 0.65422922 -0.46370986 0.59745896 0.0013632219
-0.061288651 0.02878174 0.0073591499 -0.68349797 -0.536511 0.49496111 0.0012268575
-0.059586097 0.027698353 0.0084009068 -0.64614922 -0.58100152 0.49490243 0.0012869341
0.0015122996 0.029858237 0.0089631621 0.052553043 0.8376506 0.54367238 0.0029482376
0.0034428507 0.029755849 0.0089934515 0.0088389618 0.83508921 0.55004352 0.0026362836
0.0076169497 0.029939005 0.0087501109 -0.017359471 0.77092719 0.63668668 0.00127057
0.009521191 0.029892646 0.0089570638 -0.081631817 0.77413297 0.62773752 0.00084730721
0.062520258 0.027415 0.0083366204 0.61835605 -0.44971353 0.64451033 0.00085077714
0.064102829 0.028834933 0.007654448 0.66384405 -0.43232512 0.61025089 0.0011182327
-0.063917406 0.03197667 0.0069943685 -0.69934082 -0.48694584 0.52326488 0.0013687055
-0.062392365 0.031050062 0.0081890346 -0.69568545 -0.47508228 0.5388121 0.0024419413
-0.013209063 0.032613423 0.0084481081 0.22020745 0.83869678 0.4980928 0.0018781306
-0.010383263 0.032271836 0.0078703854 0.18756033 0.84674168 0.49784496 0.0014883631
-0.0074067949 0.031802103 0.0076121022 0.15961201 0.86244386 0.48032761 0.0014253495
-0.0045432714 0.03137096 0.0075792531 0.12313317 0.85880262 0.49728885 0.002734516
-0.0014987778 0.031079846 0.00744888 0.09072651 0.85911483 0.50367689 0.0021279857
0.0015181717 0.030895773 0.0073578125 0.04997595 0.86123616 0.50574178 0.0025359825
0.0045078658 0.030713443 0.0075325556 0.0049355426 0.86272979 0.50564122 0.0022451852
0.0075548743 0.030863317 0.007317997 -0.025253521 0.85988164 0.50986838 0.0021674808
0.010530606 0.03092747 0.0075175064 -0.080285095 0.85282767 0.51598376 0.0022828833
0.013509011 0.031254161 0.0075562885 -0.13879731 0.8526628 0.50368774 0.0035127369
0.016467139 0.031775419 0.0075912504 -0.18300612 0.85101825 0.4922162 0.0015478744
0.019304493 0.032250173 0.0079718269 -0.21259344 0.82907021 0.51715225 0.0016980176
0.022075016 0.032684289 0.0084656812 -0.23017623 0.76275307 0.60433996 0.0011559497
0.065171234 0.031165171 0.0080916593 0.67169929 -0.36508802 0.64461678 0.0015039672
0.066534221 0.032193545 0.0071386877 0.70604694 -0.35403317 0.61331731 0.0011721926
-0.06658794 0.035679504 0.0064004287 -0.77281773 -0.39206201 0.49903938 0.0037728557
-0.064866565 0.034403976 0.0077472287 -0.70818079 -0.41042379 0.57448441 0.0020921966
-0.021972781 0.035572208 0.0081813978 0.30083439 0.82577711 0.47706464 0.0015540016
-0.019452851 0.034955904 0.0076823412 0.28639823 0.83944058 0.46186113 0.0016115495
-0.01647727 0.034054928 0.0075485706 0.25790638 0.84450889 0.46934944 0.0017261887
-0.01359857 0.033550225 0.0069885515 0.22140986 0.85732961 0.46471891 0.0018342619
-0.010719325 0.033169869 0.0063802018 0.19490544 0.86780906 0.45707688 0.0016036958
0.019717563 0.033232357 0.0065061869 -0.22404248 0.8503089 0.47621405 0.0015566029
0.02264709 0.033700962 0.0071006664 -0.23686855 0.83832341 0.49102667 0.0019112529
0.025500238 0.034253195 0.0076119769 -0.26037505 0.81805813 0.51282132 0.0023267029
0.028398633 0.035122272 0.0077475873 -0.27656433 0.81969547 0.50160885 0.0019615656
0.031077864 0.035675898 0.0083794547 -0.29312032 0.79847533 0.52584934 0.0026722886
0.065972991 0.033678558 0.0086368769 0.70635939 -0.30438864 0.63906485 0.0018847293
0.067138292 0.03463123 0.00776164 0.71051359 -0.30202937 0.63556963 0.0018114306
-0.066981055 0.037818663 0.007261002 -0.73146701 -0.32194427 0.60108894 0.0014331782
-0.065602437 0.037084628 0.0085337041 -0.73196435 -0.32156935 0.60068411 0.0013925853
-0.030486897 0.038933024 0.0085961223 0.3880156 0.79195535 0.47143453 0.0014659222
-0.028247712 0.038278315 0.0079820482 0.35377237 0.81054258 0.46676108 0.0016649938
-0.025482027 0.037304018 0.0075743725 0.33580476 0.81131083 0.47854966 0.0015753197
-0.02279201 0.036512647 0.00705502 0.31965566 0.83840674 0.44146842 0.0015908984
-0.020519298 0.036167644 0.0060307593 0.29685766 0.89817542 0.32427832 0.0022967055
0.029329069 0.036214042 0.0064458535 -0.30204335 0.83900839 0.45258668 0.0018159179
0.031813279 0.036718637 0.0071259621 -0.31402072 0.81798708 0.48196271 0.0020471686
0.034469906 0.037532154 0.0076180645 -0.35520557 0.80399728 0.47688293 0.0028635827
0.036985822 0.038432021 0.0081559736 -0.39481273 0.75619942 0.52180958 0.0027994963
0.068018891 0.037399966 0.0078556882 0.74431658 -0.2017847 0.63661265 0.0017683033
0.069442511 0.038074974 0.0063102762 0.76521391 -0.21480982 0.60688084 0.0009024496
-0.069279283 0.041557614 0.0062021422 -0.80772257 -0.27813262 0.51983309 0.004114863
-0.067701228 0.040553186 0.0076592872 -0.7312153 -0.24933062 0.63494754 0.0029069965
-0.036512628 0.041727372 0.0087460512 0.36774448 0.73740947 0.56656098 0.0013339141
-0.034330528 0.041203309 0.0078573823 0.38007116 0.79589456 0.47127241 0.0016560325
-0.031570625 0.04012648 0.007410361 0.384087 0.80679685 0.44894999 0.0019093023
-0.028921012 0.039276544 0.0067044478 0.37805238 0.82482302 0.42040846 0.0016369956
0.035885356 0.039111003 0.0061155013 -0.47889674 0.78803408 0.38685939 0.0037193417
0.037940085 0.039648551 0.0071448111 -0.42607495 0.76361352 0.48513347 0.0023858349
0.040389109 0.04073609 0.0076450841 -0.42164707 0.74859971 0.51167583 0.0022659325
0.042823073 0.041560359 0.0085063279 -0.41267049 0.67174363 0.6151939 0.001259794
0.068249002 0.040508609 0.0083663417 0.73157853 -0.1065065 0.67338628 0.0016069839
0.069558896 0.040590886 0.0068847719 0.77480775 -0.12293877 0.62012815 0.0019973423
-0.069500893 0.043875329 0.0067293709 -0.72947496 -0.18608581 0.65820843 0.0029402438
-0.068000697 0.04345753 0.0081681963 -0.70145309 -0.12221839 0.70215821 0.0030558282
-0.042377543 0.044748977 0.0086731231 0.39185077 0.72932404 0.56083816 0.0013999759
-0.040271401 0.044195771 0.0078719566 0.40260571 0.78259873 0.4748134 0.00092402397
-0.037639864 0.043076415 0.0074961889 0.38826728 0.78329432 0.48548782 0.0013694509
-0.03523491 0.042364664 0.0065899217 0.40944147 0.80713189 0.42531839 0.0014671254
0.04164755 0.042195696 0.0065964824 -0.43993935 0.7542544 0.48739481 0.0012535655
0.04371405 0.04300708 0.0072702323 -0.44015056 0.73440158 0.51664484 0.0025788595
0.046240646 0.044085052 0.0078767221 -0.40096262 0.72151792 0.56448287 0.0021581552
0.048436936 0.044664349 0.0087142568 -0.36811802 0.64855361 0.6662336 0.0017284125
0.068328984 0.043486416 0.0085635195 0.63094312 -0.014986944 0.77568436 0.0034014361
0.069820262 0.043621693 0.0069550723 0.76163912 -0.043200299 0.64655977 0.0019820654
-0.069803312 0.046703495 0.0069598132 -0.69784951 -0.096185498 0.70975655 0.0062646694
-0.067990027 0.046422426 0.008452395 -0.57915324 -0.013670947 0.81510407 0.0028459076
-0.048266288 0.047740132 0.008570238 0.35814637 0.7267946 0.58608943 0.0036043369
-0.046253312 0.047241069 0.0079082102 0.37812907 0.76083702 0.52739501 0.0027519055
-0.043570694 0.04615717 0.0074878535 0.39394653 0.77136374 0.49980396 0.0022706825
-0.041204005 0.045431048 0.0066435589 0.43120104 0.78021955 0.45312595 0.0015832464
0.047016848 0.045456398 0.0066618337 -0.46163455 0.73425221 0.49776229 0.0015738212
0.049573459 0.046314284 0.0075182719 -0.38773987 0.72308302 0.57167196 0.0020572031
0.052209374 0.047228113 0.0082365628 -0.36390838 0.68798804 0.62788785 0.002426648
0.054512698 0.047875952 0.0088570518 -0.32708403 0.6626178 0.67376089 0.0014281138
0.068216987 0.046384562 0.0085746013 0.57630563 0.079830095 0.81332582 0.00439429
0.069717877 0.046433736 0.0071255118 0.72394806 0.033246063 0.68905282 0.0042184009
-0.070171863 0.049516067 0.0068738093 -0.58275443 -0.0027105007 0.81264377 0.010133258
-0.067720868 0.049649965 0.0083597852 -0.45782945 0.10813821 0.88243884 0.0052733026
-0.065622322 0.050762787 0.008890925 -0.21606861 0.28442335 0.93403304 0.005254664
-0.057156574 0.050966065 0.0088761188 0.18108559 0.70883691 0.68173188 0.0027700171
-0.055201791 0.050577313 0.0086721769 0.22210477 0.69005346 0.68883646 0.0016639436
-0.052334283 0.050124213 0.0078716241 0.32081351 0.74711853 0.58214474 0.0028971969
-0.049580984 0.049147248 0.0075357887 0.33310688 0.76635462 0.54930902 0.0018752582
-0.04721145 0.048544332 0.0067260494 0.39230061 0.77469766 0.49592721 0.0017912794
0.052832738 0.048731446 0.0069653927 -0.41174242 0.6995104 0.58408332 0.0024895868
0.055460133 0.049546864 0.007682879 -0.32770291 0.65897059 0.67702925 0.0015565775
0.058299627 0.050280612 0.0083135329 -0.26909962 0.64786458 0.71264076 0.0032123607
0.061179612 0.050831515 0.0087495251 -0.14675027 0.57716864 0.80333096 0.0048897555
0.064372741 0.050893456 0.008940368 0.0800381 0.41750672 0.90514195 0.0077603236
0.067631595 0.049641982 0.0083802799 0.45160878 0.19321533 0.8710438 0.0080863368
0.069661938 0.049522914 0.0069293496 0.64988905 0.11282134 0.75160867 0.004768406
-0.070311129 0.052540101 0.0067226803 -0.43831867 0.11831672 0.89099824 0.0095959948
-0.067452103 0.052596595 0.0077457153 -0.23982109 0.29689291 0.92430544 0.015027809
-0.064497404 0.052535821 0.0081513263 -0.1079872 0.51284939 0.85165972 0.012791043
-0.061488789 0.052773569 0.0078513203 0.093726248 0.65979576 0.74557698 0.0038785257
-0.05847957 0.052467626 0.0076376796 0.14279206 0.73551005 0.66229546 0.0023096125
-0.05560872 0.05200538 0.0072165541 0.2427703 0.73406005 0.63420695 0.0013451531
-0.053096119 0.051464882 0.006617181 0.35414681 0.76197183 0.54219824 0.0014989764
0.05633755 0.05127725 0.0063216966 -0.40319431 0.70286572 0.58601546 0.0027432425
0.058752347 0.052015282 0.0068984735 -0.34165519 0.68696046 0.64137113 0.002933403
0.061538734 0.052619841 0.0075152246 -0.1915907 0.59665418 0.77929258 0.0028934013
0.064517148 0.052697111 0.0080250213 0.018771499 0.43325806 0.90107447 0.010112775
0.067449138 0.052503366 0.0076555917 0.29595023 0.32266888 0.89905411 0.010397626
0.069588333 0.052433383 0.0064919651 0.65567905 0.16684565 0.73637456 0.010375166
-0.070074663 0.055286635 0.0063648154 -0.22250398 0.34636134 0.91133189 0.014900615
-0.067500904 0.055317905 0.0066607981 -0.046273239 0.45053577 0.89155835 0.011673876
-0.064686365 0.054890655 0.0066284654 0.12752323 0.59463161 0.7938205 0.0095477784
-0.061845586 0.054371748 0.0063807839 0.17964207 0.67570877 0.71494508 0.0061459774
0.062322322 0.054581754 0.0062899156 -0.33121169 0.61157227 0.71852499 0.0067729694
0.06463518 0.055276457 0.0066006486 -0.1574609 0.48536807 0.8600139 0.012246454
0.067435622 0.055437982 0.0065894709 0.15199918 0.33239239 0.9308123 0.024386408
0.06943056 0.05467657 0.0061117979 0.44034168 0.26154438 0.85889101 0.010876642
0.066579439 0.057015542 0.0060287016 0.093988948 0.40359992 0.9100951 0.028030302
-0.015889833 0.0053998511 0.0094474759 -0.16967057 -0.78082007 0.60127521 0.00081545499
-0.013369508 0.0053342292 0.0099421879 -0.13112637 -0.77564043 0.6174041 0.0011046649
-0.010526319 0.0050297058 0.010093063 -0.099267416 -0.76681554 0.63414508 0.0011038143
-0.0075293561 0.0048763263 0.010293963 -0.069282494 -0.75801402 0.64854801 0.0013437293
-0.004443883 0.0049811136 0.010619557 -0.017697679 -0.73649991 0.67620611 0.001419107
-0.0014628689 0.0047855731 0.010494408 -0.014076585 -0.74329567 0.6688149 0.00086068915
0.0015201406 0.0048669945 0.010578921 0.0048792535 -0.74192792 0.67046189 0.0021221952
0.0045074327 0.0048304838 0.010424033 0.03674512 -0.73987979 0.67173487 0.0018578152
0.0076033818 0.0050057056 0.01039847 0.079806186 -0.71507424 0.69447809 0.0015115287
0.010408629 0.0050318413 0.010125457 0.090570398 -0.73761159 0.66912335 0.0013328957
0.013471622 0.0053692553 0.010055422 0.11942199 -0.74325567 0.65826237 0.0016958268
0.016405899 0.0055097095 0.009635739 0.14191149 -0.74971306 0.64636785 0.0012190344
0.018307585 0.0055100694 0.0091383569 0.15308022 -0.74753135 0.64634615 0.0014524914
-0.027666463 0.0088288309 0.009660325 -0.27173796 -0.79845589 0.53723973 0.0012905126
-0.025373967 0.0082343491 0.0098499972 -0.24288049 -0.79915899 0.54986709 0.0006069346
-0.02244086 0.0078968499 0.01054115 -0.21982248 -0.75735277 0.61489421 0.0011075228
-0.019407956 0.0071493285 0.010617286 -0.20032927 -0.77552569 0.59868866 0.0011524532
-0.016462531 0.006792923 0.01100037 -0.15652858 -0.75687331 0.63454038 0.00091583724
-0.013672034 0.0065695727 0.011354264 -0.11604862 -0.74635482 0.65535271 0.0011064835
-0.010399633 0.0062998249 0.011541973 -0.08130531 -0.70891815 0.7005887 0.00033728746
-0.0075127645 0.0061461739 0.011666049 -0.050370369 -0.72261381 0.68941438 0.0013395356
-0.0058091157 0.0060184901 0.011638337 -0.041572027 -0.73387355 0.67801279 0.001248196
0.0012190585 0.0061201379 0.011843143 0.012246502 -0.65553701 0.75506365 0.0025724487
0.005363503 0.0063721524 0.01191179 0.03693996 -0.6237098 0.78078258 0.0015138851
0.0074734762 0.0062406282 0.01166641 0.0548659 -0.69655836 0.71539932 0.0014251333
0.010830931 0.0065225121 0.011592654 0.080727652 -0.69845712 0.71108419 0.0014870686
0.013667938 0.0067667589 0.011455097 0.10331127 -0.71001923 0.69656259 0.0016077209
0.016479714 0.0069130454 0.011133174 0.13163924 -0.65393674 0.74500871 0.0021648067
0.019460395 0.0073253866 0.010895398 0.16566494 -0.69215357 0.70248038 0.0027977987
0.022377884 0.0076996828 0.010522895 0.17761967 -0.70051664 0.6911785 0.0013985098
0.025412941 0.0079253754 0.0098873042 0.187356 -0.70593035 0.68305212 0.00026894236
0.028252345 0.0084492154 0.0096530979 0.1906368 -0.67650181 0.71133882 0.00027948941
0.030715158 0.0086996397 0.0093014138 0.20184697 -0.67041224 0.71400648 0.00039539763
-0.0361517 0.011834145 0.0094077662 -0.3574349 -0.78014606 0.51343203 0.0015096581
-0.034059588 0.011413066 0.010031725 -0.31283554 -0.76082265 0.56857961 0.00094195723
-0.031390283 0.010847825 0.010610676 -0.28647244 -0.74861872 0.59791613 0.0010683145
-0.028718367 0.010168199 0.010959038 -0.25599322 -0.76359808 0.59277767 0.00080590899
-0.025636319 0.0094585605 0.011318222 -0.21638203 -0.75426054 0.6198951 0.0012259444
-0.023639457 0.0093481597 0.011853131 -0.2062992 -0.72344887 0.6588341 0.0021130985
0.023364695 0.0092037823 0.011771286 0.16219044 -0.65978044 0.73374653 0.0018810758
0.025679896 0.0095034093 0.011421775 0.18538934 -0.66618168 0.72237992 0.00070469338
0.028675811 0.010054423 0.011039431 0.19388165 -0.6602394 0.72559893 0.00025695749
0.031484082 0.010494323 0.010641108 0.20294693 -0.63620704 0.74434739 0.00056573201
0.034374461 0.01073171 0.010102765 0.22004081 -0.65393037 0.72384882 0.00075620611
0.037226725 0.011314739 0.0097962702 0.24991362 -0.63267553 0.73298359 0.001330377
0.039753065 0.011577561 0.0091205761 0.29889017 -0.66241968 0.68692422 0.0014348227
-0.040139768 0.014321352 0.01016221 -0.39194876 -0.72828937 0.56211269 0.00067979953
-0.037639547 0.01351354 0.010704586 -0.34621492 -0.74546009 0.56958276 0.00091185683
-0.034702096 0.012688706 0.011315034 -0.29255122 -0.74086744 0.60459018 0.0011198261
0.032524195 0.012177183 0.011732313 0.21145901 -0.61320359 0.76109552 0.00027173987
0.034715433 0.0126799 0.011521384 0.2071507 -0.60497355 0.7688275 0.00024881694
0.037626822 0.013185066 0.011150708 0.22181433 -0.57923251 0.78440303 0.00040547689
0.040397823 0.013579222 0.010606383 0.27091143 -0.607485 0.74670541 0.0016725786
0.04322945 0.014099777 0.0099830804 0.31607214 -0.64291662 0.6976794 0.0024364418
0.046221435 0.014791882 0.0091579612 0.37661973 -0.66253418 0.64746118 0.0016016994
-0.045576055 0.017544853 0.010145889 -0.46368554 -0.69022453 0.55550498 0.0010037521
-0.043463137 0.016519818 0.010506584 -0.42410532 -0.71166855 0.56005579 0.00088823994
-0.040925782 0.01574808 0.011383313 -0.36409521 -0.66545665 0.65161502 0.00044482856
0.041253276 0.015401008 0.011710299 0.25388953 -0.57994944 0.77407932 0.0013979938
0.043778632 0.016027223 0.0112843 0.28041863 -0.56726068 0.77432597 0.0019982813
0.046453767 0.016661363 0.010689267 0.33295944 -0.59413922 0.73221344 0.0024545619
0.048978701 0.017170342 0.0098593067 0.39394724 -0.63465124 0.66484839 0.0018981394
0.051220626 0.017796623 0.0090577323 0.43260208 -0.64989579 0.62489277 0.0014318009
-0.049249329 0.020132123 0.010164294 -0.49217713 -0.67098767 0.55456042 0.0011102288
-0.046833381 0.019088421 0.010948823 -0.45805654 -0.67225409 0.58160013 0.0013330495
-0.044447258 0.018179156 0.011720544 -0.40276092 -0.62567341 0.66806918 0.0008369821
0.046997644 0.018435167 0.011761442 0.30702713 -0.54997629 0.77669835 0.0018801262
0.049663842 0.019334944 0.011198383 0.37089568 -0.52710837 0.76458687 0.0017468139
0.05226139 0.019795537 0.010170622 0.43438455 -0.57768273 0.69108081 0.0033760392
0.054246277 0.020624243 0.0096282009 0.43404898 -0.55154002 0.71232378 0.0016591394
-0.054560438 0.023638288 0.0094265295 -0.55509228 -0.61540771 0.55959433 0.0014561315
-0.052296609 0.022718059 0.01046064 -0.51599193 -0.6130473 0.59826863 0.0012651613
-0.050114773 0.021697696 0.011205422 -0.47238174 -0.64432424 0.60141647 0.0015046404
0.052855898 0.022016959 0.011427207 0.38883948 -0.47015923 0.7923094 0.0014845156
0.055415224 0.02269653 0.0104242 0.45466396 -0.51575077 0.72614175 0.0026988054
0.057469822 0.02334938 0.0095390361 0.50626063 -0.53961968 0.67268926 0.00090845965
-0.057396155 0.026498253 0.0096403593 -0.57829356 -0.55683368 0.59624892 0.00056947634
-0.055432051 0.025612401 0.010608088 -0.53391844 -0.56991661 0.62460083 0.0022008792
-0.053130116 0.02449587 0.011549945 -0.51267898 -0.58230162 0.63093984 0.00058689003
0.0072249272 0.026965061 0.011943516 -0.007795712 0.65208888 0.75810248 0.003597175
0.056036524 0.024866227 0.011432655 0.41577044 -0.43055749 0.80109626 0.0019381571
0.058376726 0.025657285 0.010449039 0.50252509 -0.44825655 0.73927981 0.0022152306
0.060306262 0.026058799 0.009331991 0.56303334 -0.47732389 0.6746521 0.0017097145
-0.060329575 0.029712025 0.0094757574 -0.62275004 -0.51058149 0.59286499 0.0015776483
-0.05837895 0.028747402 0.010577146 -0.58152455 -0.46855789 0.66504341 0.0009350137
-0.056343153 0.027790394 0.011655883 -0.53093076 -0.45087779 0.71751076 0.0016723132
-0.012573947 0.029742001 0.011804235 0.19727783 0.68859237 0.69779789 0.0033402755
-0.010379887 0.029457763 0.011536492 0.16917172 0.66944873 0.72333902 0.001519736
-0.0073812045 0.029180411 0.011111395 0.14330462 0.7456935 0.65069574 0.0016920844
-0.0043825046 0.02893874 0.010810848 0.11604119 0.74888301 0.6524635 0.0012921075
-0.0014849856 0.028656941 0.010683998 0.091022402 0.72634614 0.68127549 0.0028087411
0.0014973101 0.028358769 0.010724642 0.065485619 0.72229463 0.68847823 0.0025179894
0.0045598205 0.028382812 0.010577337 0.017645769 0.71692348 0.6969285 0.0022543834
0.0074862582 0.028451491 0.010514976 -0.024292808 0.73356825 0.67918152 0.0031151092
0.010515085 0.028543403 0.010598944 -0.068831921 0.72334105 0.68705159 0.002337659
0.013436122 0.028797364 0.01069638 -0.1115571 0.70307124 0.70231467 0.00304267
0.016420804 0.028972026 0.011063681 -0.14534393 0.65390301 0.74248636 0.0018517048
0.01943047 0.029427363 0.011338324 -0.1750209 0.69787222 0.69450849 0.0017324196
0.02233245 0.029831491 0.011710692 -0.18676393 0.67082322 0.71771544 0.0017752503
0.058852367 0.028237872 0.011513791 0.45473477 -0.35781339 0.81558931 0.0010649724
0.061289463 0.028716832 0.010153979 0.55668378 -0.3982935 0.72901678 0.0011889201
0.063461669 0.029870365 0.0090412404 0.62716699 -0.4012343 0.66758722 0.0018153536
-0.061152648 0.031787593 0.010098663 -0.62971008 -0.41557077 0.65632778 0.0019440382
-0.059303783 0.031200444 0.011414101 -0.6054523 -0.3735745 0.70275861 0.0016347467
-0.021596374 0.032772645 0.011703685 0.26754141 0.6703763 0.69211072 0.0012168528
-0.019265691 0.032296229 0.011309062 0.24834017 0.74507946 0.61901838 0.0015012519
-0.016381873 0.031874344 0.010675161 0.2333294 0.76071292 0.60570061 0.00093771383
-0.01358917 0.031172357 0.010514505 0.20407984 0.76321352 0.61307138 0.0022206313
-0.01058947 0.030819058 0.010038162 0.18115327 0.75754237 0.62714672 0.0014706091
-0.0076622614 0.030500608 0.0096473219 0.14796793 0.76880449 0.6221295 0.001518282
-0.0048327064 0.030229587 0.0093798451 0.11609864 0.77420408 0.62219691 0.0013017743
-0.0018832324 0.030077983 0.0090388553 0.085426502 0.77370304 0.62776268 0.0013529698
0.013854515 0.030218758 0.0092047285 -0.1094529 0.75766426 0.64340109 0.0015042518
0.016751524 0.030514313 0.0094888518 -0.16311657 0.74220389 0.65002024 0.0017492459
0.019690026 0.030911285 0.0098830843 -0.19593546 0.765769 0.61254156 0.0012000244
0.022603963 0.031306472 0.01031552 -0.20714733 0.71641451 0.66621327 0.0027422693
0.025454167 0.031691939 0.010828682 -0.21601906 0.68729997 0.6935088 0.0031282818
0.028345782 0.032219656 0.011240945 -0.22818652 0.69619501 0.6806199 0.0019813564
0.031071555 0.032713182 0.011683987 -0.23073474 0.66085863 0.71416205 0.0023105983
