# .PCD v0.7 - Point Cloud Data file format
VERSION 0.7
FIELDS x y z normal_x normal_y normal_z curvature
SIZE 4 4 4 4 4 4 4
TYPE F F F F F F F
COUNT 1 1 1 1 1 1 1
WIDTH 557
HEIGHT 1
VIEWPOINT 0 0 0 1 0 0 0
POINTS 557
DATA ascii
0.051576972 0.020494748 -0.012581249 0.44888213 -0.57201934 -0.68651193 0.0014869798
-0.045834199 0.023209933 -0.012530154 -0.42239219 -0.55318648 -0.7180317 0.0012100915
-0.04341292 0.022616128 -0.01335203 -0.38453689 -0.4825173 -0.7869615 0.0013563803
-0.04066623 0.022111673 -0.014268296 -0.32105929 -0.46189073 -0.82678771 0.0013944982
-0.038224287 0.021444339 -0.014796721 -0.26782891 -0.45975044 -0.84669781 0.0013051316
-0.0036537282 0.02354344 -0.014886071 0.078334853 0.4319804 -0.89847469 0.0042780805
-0.0014354489 0.023612486 -0.014729463 0.041040894 0.502864 -0.86339062 0.0010520977
0.0014314278 0.023453735 -0.014719282 0.012236059 0.43924937 -0.89828187 0.002309372
0.0043462333 0.023308856 -0.014789565 -0.011561871 0.44165647 -0.89710975 0.0024734379
0.0075161215 0.023619939 -0.014723351 -0.043284837 0.52723664 -0.84861523 0.0011163855
0.010262838 0.023638193 -0.014882219 -0.068140462 0.43521115 -0.89774609 0.0025318931
0.012878068 0.023961091 -0.014936442 -0.096199438 0.52321142 -0.8467558 0.0014953024
0.047757939 0.021028142 -0.014887678 0.36395219 -0.48627707 -0.79440123 0.0014899848
0.049882177 0.022027072 -0.014476658 0.37147677 -0.42439842 -0.82576692 0.0014506869
0.052504092 0.022561379 -0.013439703 0.42852923 -0.45086658 -0.78299552 0.0012909614
0.054880131 0.023132754 -0.012420374 0.4831925 -0.501472 -0.7176705 0.001283264
-0.051452484 0.026975604 -0.012088352 -0.44832665 -0.55188745 -0.7031526 0.001745014
-0.049203131 0.026006287 -0.012688514 -0.41728333 -0.52817982 -0.73952734 0.0014717049
-0.046486702 0.025550155 -0.013723719 -0.37455338 -0.45926061 -0.8054747 0.0012785312
-0.043823201 0.024844047 -0.014519234 -0.34084243 -0.40004557 -0.85075843 0.0016302048
-0.041502357 0.024050189 -0.014995 -0.31889653 -0.45412415 -0.83191115 0.0014325638
-0.015644927 0.026594112 -0.014875135 0.16272013 0.4165833 -0.89441633 0.002686691
-0.013368375 0.02617343 -0.014668875 0.15420175 0.45915586 -0.87487006 0.0025478078
-0.01044193 0.025806302 -0.014388692 0.13514736 0.49163383 -0.86025071 0.0016924243
-0.0074610356 0.025348244 -0.014239457 0.11097344 0.50371075 -0.8567149 0.0012703378
-0.0045710956 0.025240976 -0.013997768 0.063033067 0.51098031 -0.85727817 0.0011444225
-0.0014567798 0.025625313 -0.013489103 0.058679968 0.56427699 -0.82349747 0.0032712519
0.0014979453 0.025553372 -0.013397951 0.025471132 0.57857239 -0.81523317 0.0027064986
0.0044895578 0.025325056 -0.013534202 -0.017742446 0.58285773 -0.81238043 0.0027852666
0.0075621088 0.025569268 -0.01345281 -0.044640511 0.5850805 -0.80974573 0.0029610503
0.010493568 0.025441965 -0.013736604 -0.067425542 0.55835915 -0.82685477 0.0011007502
0.013539191 0.025498984 -0.014026861 -0.1042593 0.55584258 -0.8247236 0.001213823
0.016393036 0.02570889 -0.014297834 -0.12997852 0.54307753 -0.82956159 0.0013233153
0.019282427 0.026287822 -0.014427309 -0.15728669 0.51611423 -0.84195429 0.002003463
0.022278843 0.026665863 -0.01480478 -0.1731769 0.56322408 -0.80795324 0.0011168621
0.052961662 0.025098324 -0.01455873 0.39048553 -0.35468796 -0.84953958 0.0012268777
0.055385444 0.025490927 -0.013477449 0.45539671 -0.39899889 -0.79587281 0.0021548977
0.057616834 0.02610662 -0.012472495 0.50639087 -0.43574166 -0.74410856 0.0016628245
-0.05400813 0.029589849 -0.012277698 -0.48815706 -0.47792667 -0.73026621 0.0018496263
-0.052088972 0.028822208 -0.012908982 -0.43778872 -0.46329153 -0.77052057 0.0024436461
-0.049484547 0.028489523 -0.013993696 -0.37030321 -0.3936294 -0.84138656 0.001371518
-0.047111627 0.027774125 -0.014653006 -0.31689507 -0.36336085 -0.87609726 0.0024402577
-0.022284426 0.029336322 -0.014693892 0.19905245 0.46590307 -0.86215568 0.0022438236
-0.019437278 0.028760577 -0.014367187 0.19288436 0.51653713 -0.83425713 0.0015789263
-0.016489942 0.028493907 -0.013844347 0.19568768 0.57705271 -0.79291642 0.0025731146
-0.013549527 0.028340261 -0.013266761 0.17980672 0.60679644 -0.77425289 0.0012534598
-0.010645031 0.028052071 -0.012878106 0.15358594 0.60450441 -0.78165579 0.0029679819
-0.0076910034 0.02767238 -0.012663656 0.12411983 0.64118987 -0.75727779 0.0019835606
-0.004569096 0.027394941 -0.012467869 0.093546152 0.65063745 -0.75360477 0.0015106659
-0.0021503579 0.027044812 -0.012480889 0.072694473 0.65422136 -0.75280136 0.0027500277
0.0057056639 0.027210612 -0.012073825 -0.014479594 0.62791765 -0.77814507 0.0015511058
0.0071745077 0.02707357 -0.012243084 -0.041003559 0.63998944 -0.76728886 0.0014074979
0.01076083 0.027360782 -0.012237339 -0.070465572 0.63733751 -0.76735622 0.0014644593
0.013306621 0.027447635 -0.012474205 -0.11190233 0.68112552 -0.72356468 0.0017003923
0.016567428 0.02774588 -0.012764449 -0.1495422 0.66915649 -0.72791946 0.0015093801
0.01966393 0.028210305 -0.013036238 -0.1846474 0.63038141 -0.75400573 0.0023091929
0.022556689 0.028425047 -0.013566073 -0.19262327 0.59348154 -0.7814576 0.00096355996
0.025448658 0.028682113 -0.014100504 -0.19587635 0.57014179 -0.79785389 0.0011411957
0.02816518 0.029193148 -0.014430733 -0.19845101 0.53597462 -0.82057816 0.0018511352
0.030634895 0.029660961 -0.014727257 -0.19947651 0.54324734 -0.81553137 0.00074231927
0.055839628 0.028308529 -0.014413579 0.40842822 -0.27730665 -0.86964786 0.0012844156
0.058491383 0.028564282 -0.013086546 0.48237112 -0.33408293 -0.80975717 0.0020054888
0.06045131 0.029502723 -0.012252033 0.54335225 -0.35099113 -0.76260966 0.0023353358
-0.057248794 0.032897629 -0.012040796 -0.51746553 -0.40415716 -0.75424558 0.0022027721
-0.055169266 0.031842198 -0.012767497 -0.44962355 -0.38139969 -0.80769604 0.0033779584
-0.052588031 0.031474672 -0.013909268 -0.3772589 -0.30603465 -0.87408155 0.0012150239
-0.05020779 0.030859528 -0.014706283 -0.32938048 -0.26446536 -0.90640312 0.0026521583
-0.030408334 0.032423023 -0.014925906 0.18198459 0.43817988 -0.88027269 0.0028027017
-0.028249804 0.032034043 -0.014562166 0.23018813 0.48573413 -0.84325308 0.0022764553
-0.025317665 0.031491306 -0.014077899 0.23563829 0.54547471 -0.80432075 0.0016026511
-0.022585297 0.031365961 -0.013358631 0.23263295 0.57311457 -0.78576183 0.0011492132
-0.019702835 0.030902866 -0.012886095 0.22553784 0.63723242 -0.73693109 0.0012768424
-0.016794747 0.030562183 -0.012311354 0.20371236 0.66653782 -0.7170974 0.0014638029
0.022907132 0.030109685 -0.012195832 -0.20749512 0.66384417 -0.71851003 0.0010793445
0.025621524 0.030597696 -0.012560728 -0.2201069 0.6849072 -0.69458991 0.0010257517
0.028732127 0.031020746 -0.013119328 -0.22163001 0.65301454 -0.72419065 0.0021893564
0.031644274 0.031533543 -0.013557544 -0.23558128 0.59771091 -0.76631796 0.00089953002
0.03442692 0.03182289 -0.014176467 -0.23816259 0.56124067 -0.79264587 0.0014531176
0.037266783 0.032392915 -0.014612392 -0.2340616 0.54759121 -0.8033424 0.0010388594
0.039048623 0.032665312 -0.014940214 -0.225935 0.52163094 -0.82271171 0.0028367003
0.056510761 0.031018542 -0.014799565 0.35773185 -0.13347563 -0.924236 0.0030873655
0.058467876 0.031497281 -0.014006656 0.41869614 -0.1725421 -0.89158446 0.0018324839
0.060933661 0.031684197 -0.012717184 0.50730163 -0.24558994 -0.826033 0.0034576079
-0.057779152 0.034821592 -0.012506647 -0.48091879 -0.29941565 -0.82405549 0.003900415
-0.055336617 0.03453527 -0.013657225 -0.39601687 -0.22953176 -0.88909274 0.0042533921
-0.052758854 0.034366999 -0.014665687 -0.3358348 -0.17682759 -0.925174 0.0023144758
-0.037099112 0.035776377 -0.01474756 0.20509107 0.5011493 -0.84070623 0.0018039965
-0.03439096 0.03500022 -0.014484142 0.25077373 0.51844519 -0.81751281 0.0032264551
-0.031393353 0.034386083 -0.013949025 0.26065981 0.54362285 -0.79782873 0.0012702714
-0.028657755 0.034208816 -0.013142488 0.28537342 0.59124959 -0.75431156 0.002234359
-0.025789218 0.033643212 -0.012589625 0.26463065 0.63201827 -0.72837043 0.0010538587
-0.02379242 0.033452973 -0.012019607 0.24922439 0.6724661 -0.69690508 0.00098699122
0.032638464 0.033483159 -0.012141103 -0.2577028 0.6836099 -0.68283737 0.0026819501
0.034687705 0.033721007 -0.012687372 -0.26731452 0.67071539 -0.69186974 0.001197222
0.037596188 0.034251522 -0.013308221 -0.28378141 0.61199492 -0.73819399 0.0018955679
0.040498968 0.034582701 -0.014082575 -0.24532478 0.54927474 -0.79881978 0.0013910015
0.043357093 0.035256889 -0.014542632 -0.22848704 0.48498428 -0.84414685 0.0023425906
0.04538713 0.035748832 -0.01478233 -0.1789493 0.49680653 -0.84921163 0.0035219572
0.056696966 0.034851879 -0.014966397 0.25169155 0.019139016 -0.96761817 0.0034768302
0.058426797 0.034399733 -0.014402589 0.35223815 -0.027064456 -0.93551898 0.004328453
0.061603628 0.034497574 -0.012956074 0.44829255 -0.13240381 -0.88402659 0.003237843
0.063293599 0.035813194 -0.012193349 0.55841178 -0.096936963 -0.82388079 0.0019551031
-0.060534019 0.038710933 -0.012071296 -0.50637692 -0.228403 -0.83151329 0.003111643
-0.058643248 0.037586469 -0.012811854 -0.44361782 -0.20395032 -0.87270123 0.0016126367
-0.055581987 0.037484463 -0.01408502 -0.31321266 -0.055115577 -0.94808233 0.0044374913
-0.052933611 0.037857845 -0.014832513 -0.21129009 0.017714677 -0.97726285 0.0057196291
-0.046025146 0.038955115 -0.014840281 0.09253259 0.41905931 -0.90323144 0.0029196357
-0.043360993 0.038477413 -0.014658532 0.1638598 0.42309755 -0.89114445 0.0032058789
-0.04047266 0.037868664 -0.014363511 0.20642851 0.48579425 -0.84934753 0.0017425771
-0.037499446 0.03753693 -0.013719975 0.25319201 0.54281354 -0.80077916 0.0014868397
-0.034556843 0.037124962 -0.013014769 0.29432118 0.59463179 -0.74818987 0.001974686
-0.031970419 0.036469743 -0.012553244 0.2921823 0.64759791 -0.7037375 0.0012619975
0.03882217 0.036016371 -0.012276289 -0.3354325 0.6211071 -0.70831561 0.0012299808
0.040851757 0.03672367 -0.012568499 -0.31160903 0.63575435 -0.70619839 0.0015941027
0.04349187 0.037309896 -0.013171093 -0.28676015 0.59561324 -0.75034231 0.0011733681
0.046534833 0.037482832 -0.014015542 -0.20340008 0.51470286 -0.83289224 0.0013692987
0.049445674 0.037852272 -0.014459461 -0.15440606 0.44400641 -0.88261944 0.0021655159
0.052400712 0.038206689 -0.014649775 -0.061154298 0.37351352 -0.92560673 0.0029580905
0.055584107 0.037807774 -0.014713006 0.068771906 0.26632231 -0.96142751 0.004259035
0.058630954 0.037351273 -0.014249206 0.29100645 0.073535874 -0.9538908 0.0026205464
0.061502796 0.037450582 -0.013238014 0.37606981 0.034347229 -0.92595446 0.0031566904
0.063438781 0.037793003 -0.012301064 0.51097953 -0.047680479 -0.85826945 0.0034421787
-0.060765546 0.040673781 -0.012246994 -0.43601844 -0.072874054 -0.89698231 0.004508907
-0.05859524 0.040529702 -0.013138935 -0.31549028 0.031948771 -0.94839084 0.0041102539
-0.055450443 0.040455449 -0.014068462 -0.21927446 0.13339294 -0.96650147 0.0069259652
-0.052478518 0.04049816 -0.014475415 -0.11004048 0.27285746 -0.95574051 0.0067749941
-0.049519017 0.040457029 -0.014515175 -0.0018534887 0.35760063 -0.93387276 0.0068832049
-0.04657007 0.040413458 -0.014188152 0.14774095 0.45904297 -0.87604344 0.0015304906
-0.043483891 0.040530801 -0.013453502 0.23789339 0.53007716 -0.81389487 0.0021927911
-0.040521886 0.040080018 -0.012856651 0.25033611 0.5947088 -0.76397198 0.0020879214
-0.037935752 0.039380658 -0.01246986 0.29060975 0.63958025 -0.7116763 0.0013940677
0.04451203 0.039166886 -0.012125713 -0.33383188 0.60013139 -0.72691035 0.0026841559
0.046845164 0.039784249 -0.01256761 -0.27662805 0.58491045 -0.7624675 0.0021129879
0.049665987 0.040361345 -0.013051096 -0.23059244 0.52561009 -0.81887794 0.0026026012
0.052404769 0.040518481 -0.013546212 -0.1665279 0.49991235 -0.84991533 0.0012459889
0.055491026 0.040447257 -0.013848557 0.007313211 0.35295036 -0.93561345 0.0042943009
0.058496375 0.040382437 -0.013692796 0.13791113 0.27771813 -0.95071191 0.0055476055
0.061442018 0.040531892 -0.012998527 0.27380994 0.15302859 -0.94953161 0.0051380224
0.063456081 0.040521368 -0.012236129 0.39909291 0.095844232 -0.91188747 0.0038386215
-0.060636476 0.043488394 -0.012289663 -0.35178649 0.083317958 -0.93236494 0.0036129206
-0.058417335 0.043442175 -0.012930318 -0.19696394 0.17412055 -0.96482503 0.0060174274
-0.055492003 0.043547984 -0.013339643 -0.094500206 0.3017714 -0.94868523 0.0056370958
-0.052481439 0.043468844 -0.013366542 0.019480873 0.40202355 -0.91542208 0.0037921369
-0.049567129 0.043257605 -0.013136336 0.15282965 0.47785166 -0.86504388 0.0039724261
-0.046717681 0.042889621 -0.0127507 0.2049522 0.56069946 -0.80225348 0.0032569699
-0.044285443 0.042392883 -0.012369656 0.26274711 0.61304462 -0.74507731 0.0021146832
0.050676748 0.042256854 -0.012061746 -0.26849875 0.59945983 -0.75402671 0.0017489302
0.052751217 0.042645346 -0.012363427 -0.1957556 0.5420413 -0.81723374 0.0031320967
0.055614538 0.043114997 -0.012616497 -0.095609009 0.46210295 -0.88165736 0.004048313
0.058511097 0.04345182 -0.012623696 0.026495339 0.35687917 -0.93377477 0.0032506057
0.061298035 0.043265887 -0.012404094 0.1737691 0.29021305 -0.94105291 0.0049970937
0.063237146 0.042400923 -0.012107844 0.32814285 0.18097876 -0.92712933 0.0048536733
-0.060309228 0.045397684 -0.012088727 -0.30994579 0.22381257 -0.92403543 0.0043860078
-0.058404777 0.045679118 -0.012323306 -0.11364032 0.3635776 -0.92460656 0.0035820042
-0.055369172 0.045745496 -0.012415635 0.0077299769 0.45132852 -0.89232445 0.0037310796
-0.05259794 0.045519516 -0.012303045 0.11931027 0.53191352 -0.83835143 0.0032163719
-0.050630558 0.045300245 -0.012070324 0.21359117 0.58378166 -0.78331208 0.0023563534
-0.013465635 0.0056670769 -0.0095168734 -0.17728461 -0.75701183 -0.62889045 0.0010101617
-0.010398516 0.0053591114 -0.0098937452 -0.14367959 -0.75495833 -0.63983911 0.0011482203
-0.0074736946 0.0050083646 -0.010033628 -0.11246278 -0.77805328 -0.61804956 0.00067627174
-0.0044572004 0.0049582673 -0.010406747 -0.084917113 -0.74126327 -0.66582119 0.0010406049
-0.0014514851 0.0047959965 -0.010523181 -0.056642637 -0.73728049 -0.673208 0.0011615325
0.0014804556 0.0046367599 -0.010526196 -0.030528961 -0.75465429 -0.65541196 0.0019557287
0.0044978759 0.0047409697 -0.010739787 -0.014763685 -0.74173129 -0.67053467 0.0019098327
0.0075177625 0.0046224934 -0.01059582 0.014230959 -0.7573182 -0.65289098 0.0013895147
0.010443179 0.0046792752 -0.010539993 0.042767704 -0.77026916 -0.63628322 0.0019693398
0.013483016 0.0048540477 -0.010492467 0.072717912 -0.76812971 -0.63615161 0.00099886372
0.01645196 0.0050609717 -0.01039346 0.10181961 -0.79535627 -0.59752923 0.0019163266
0.019414386 0.0052616387 -0.010111931 0.12901331 -0.79037684 -0.59888232 0.0012077837
0.022374185 0.0055480697 -0.009767496 0.16093659 -0.79795092 -0.58083874 0.0010483229
0.024909496 0.0058192695 -0.009389786 0.19801751 -0.80407941 -0.56057596 0.00082338433
-0.024515193 0.008961739 -0.0092133423 -0.28175616 -0.74709076 -0.60205382 0.00091532397
-0.022263778 0.0084634013 -0.0096492134 -0.27401951 -0.75492144 -0.59582448 0.00053889706
-0.019331828 0.0079564331 -0.010230413 -0.23047926 -0.73255044 -0.64050692 0.0017948888
-0.016475065 0.0074174288 -0.010583666 -0.20248994 -0.73534286 -0.64673704 0.00085413951
-0.013571614 0.0070405365 -0.010995967 -0.16569152 -0.7039364 -0.69066632 0.002772527
-0.010641179 0.0066680261 -0.011263462 -0.12998635 -0.72419327 -0.67723531 0.0013806941
-0.0075572152 0.0064310571 -0.011553063 -0.10196208 -0.71532255 -0.69131571 0.0011986383
-0.0045035114 0.0062787719 -0.01180395 -0.077686287 -0.70766348 -0.70226586 0.0012774359
-0.001439514 0.0061566918 -0.011970612 -0.054250799 -0.70364267 -0.70848 0.0012116802
0.011338825 0.0060167992 -0.011973542 0.020662548 -0.6964218 -0.71733516 0.0027123115
0.012032664 0.0060010604 -0.011903945 0.052467939 -0.71799099 -0.69407213 0.0032421954
0.016484445 0.0062827454 -0.011828084 0.078650728 -0.69481057 -0.71487933 0.0010753287
0.019691888 0.0064654946 -0.011573197 0.11436841 -0.70760655 -0.69728965 0.0013471779
0.022655111 0.0067187664 -0.011246844 0.14514181 -0.7719754 -0.61886013 0.0012835723
0.025627032 0.0070227333 -0.010784352 0.18228845 -0.78048325 -0.59801072 0.00091351027
0.028494218 0.0076211058 -0.010589113 0.20946984 -0.77304929 -0.59876299 0.0017578445
0.031295966 0.0081482241 -0.010227358 0.24948351 -0.77560115 -0.57982832 0.0012206362
0.034240052 0.0086002983 -0.009480767 0.29103202 -0.78359479 -0.5488894 0.0010080651
-0.03087387 0.011662669 -0.0094818398 -0.31859702 -0.74150163 -0.59048402 0.00083790312
-0.028307432 0.011137638 -0.010088092 -0.29603538 -0.726659 -0.61994332 0.0012929424
-0.025540804 0.010491733 -0.010555828 -0.26739985 -0.73048502 -0.62840194 0.0012681503
-0.022699572 0.0098941159 -0.011066954 -0.25623009 -0.69692981 -0.66980213 0.00083120982
-0.019857874 0.0094371848 -0.011623997 -0.21680562 -0.69330496 -0.68725801 0.0010452442
0.031949822 0.0093190419 -0.011460654 0.23127519 -0.70444518 -0.67102081 0.00098389166
0.034585156 0.0099175312 -0.011068294 0.27446991 -0.76183128 -0.58675331 0.0013111756
0.037499111 0.010609188 -0.010507847 0.3013657 -0.76912099 -0.5635882 0.00097562018
0.040175144 0.01138951 -0.010032157 0.35112706 -0.75371772 -0.55553526 0.0012126765
0.042350903 0.011884033 -0.0093197729 0.37532216 -0.7559458 -0.53635728 0.001226059
-0.036974847 0.014503869 -0.0096192462 -0.3802374 -0.71252704 -0.58968186 0.00085777254
-0.034400012 0.013910297 -0.010329581 -0.32436788 -0.72197354 -0.61117893 0.0016807405
-0.031687818 0.0131031 -0.010755328 -0.30001643 -0.720415 -0.62529385 0.0011221783
-0.028871249 0.012580615 -0.011443331 -0.26307124 -0.70496958 -0.6586436 0.0016210588
-0.026805693 0.01226993 -0.011968525 -0.24941494 -0.66074836 -0.70795757 0.0030293982
0.038712159 0.012304283 -0.011958974 0.31349328 -0.6765306 -0.66635448 0.0016113333
0.04086123 0.012680184 -0.011275936 0.32189968 -0.70570892 -0.63115412 0.00062699144
0.043568764 0.013468282 -0.010586551 0.38370794 -0.73796117 -0.55514109 0.0006132354
0.046149019 0.014336136 -0.0099231144 0.4209784 -0.71649563 -0.55624747 0.0012394598
0.04820874 0.014977037 -0.0091906562 0.43092757 -0.71596593 -0.54926693 0.00089778437
-0.042611435 0.017578656 -0.009381704 -0.46266162 -0.67407274 -0.57582122 0.0015060545
-0.040305607 0.016920229 -0.010248108 -0.40092126 -0.68516481 -0.60812104 0.0015595411
-0.037700113 0.016020339 -0.010847891 -0.36512494 -0.69000381 -0.62496281 0.0012546314
-0.035026986 0.015388303 -0.011610008 -0.30374405 -0.67695218 -0.67042917 0.0013694678
0.044791125 0.015327583 -0.011986033 0.38171095 -0.64454454 -0.66246438 0.0017678244
0.046840571 0.01572985 -0.011129758 0.39146638 -0.6670348 -0.6338917 0.00059690129
0.049341004 0.016687451 -0.010417013 0.433525 -0.69709951 -0.57105893 0.0012216804
0.051558129 0.017509034 -0.0096392091 0.48423102 -0.66580981 -0.56764221 0.0013792133
-0.045919403 0.020359093 -0.0098938812 -0.47613057 -0.64473265 -0.59801286 0.0012762953
-0.043540094 0.01936614 -0.010608277 -0.4277595 -0.65546352 -0.62240607 0.0012920203
-0.041191567 0.018670874 -0.011475236 -0.37702742 -0.61835444 -0.68955648 0.00054396025
0.050316904 0.018400209 -0.011571764 0.45340535 -0.63217956 -0.62830937 0.00043461332
0.052660365 0.01929594 -0.010719403 0.4646306 -0.64931232 -0.60208964 0.0014555942
0.054851044 0.02023619 -0.009915798 0.52079958 -0.62737858 -0.57893354 0.0015902387
-0.051206917 0.023757601 -0.009267875 -0.47580892 -0.63195586 -0.61174959 0.001348362
-0.049148206 0.023005644 -0.010112891 -0.47119159 -0.64611495 -0.60042816 0.0015099254
-0.046814505 0.022102308 -0.0109635 -0.45847559 -0.62999213 -0.62682539 0.0017838543
-0.044688057 0.021346418 -0.011755359 -0.42617071 -0.582142 -0.6924516 0.0029330032
0.053467922 0.021134082 -0.011858067 0.47152114 -0.58955717 -0.65581262 0.00095590274
0.055877775 0.022197591 -0.010946454 0.51466721 -0.54113781 -0.66504705 0.0015958905
0.058063626 0.023057519 -0.0098831644 0.56064308 -0.56691581 -0.60356086 0.0013409798
-0.054507595 0.026637979 -0.0095539372 -0.53837144 -0.58563787 -0.60595757 0.0015606277
-0.052301235 0.025664866 -0.010332179 -0.47896069 -0.60747236 -0.63369864 0.0023008361
-0.049952447 0.024814989 -0.011277512 -0.44147646 -0.60591584 -0.66178888 0.0017253162
0.058771264 0.025240382 -0.011057992 0.54577154 -0.47842062 -0.68792963 0.0015613259
0.060771372 0.025958354 -0.0098706996 0.59469473 -0.52119678 -0.61212105 0.0013900251
-0.057525136 0.029589154 -0.0096008005 -0.57508534 -0.52595353 -0.62661761 0.0015199035
-0.055398926 0.028601384 -0.010521579 -0.5176661 -0.51746124 -0.68136317 0.0012557645
-0.053160418 0.027738726 -0.011548778 -0.46139768 -0.50128621 -0.73200023 0.001957261
-0.012517626 0.029860944 -0.011751606 0.18698116 0.69222772 -0.69703579 0.0014080406
-0.010201752 0.029631093 -0.011413574 0.16486163 0.7219249 -0.67204547 0.0017808723
-0.0074073956 0.029250178 -0.011152052 0.13124122 0.74068183 -0.65891278 0.0019379802
-0.0045274058 0.028949056 -0.010979176 0.1080518 0.73989224 -0.66399115 0.0012485925
-0.001404169 0.028682737 -0.010808256 0.099956512 0.72941375 -0.67673051 0.0027608282
0.0015140809 0.028698497 -0.010550434 0.039415725 0.75168341 -0.65834522 0.0021043909
0.0044615893 0.028473206 -0.010731868 -0.01996679 0.74256337 -0.66947818 0.0025193945
0.0076215505 0.02855598 -0.010734079 -0.043191947 0.75856578 -0.65016329 0.0022715838
0.010423873 0.028779464 -0.010738419 -0.085151441 0.74377471 -0.66298449 0.0026434611
0.013519213 0.02890042 -0.011036489 -0.11785055 0.7311793 -0.67192864 0.0035084556
0.016554968 0.029248806 -0.011282455 -0.15730885 0.74806124 -0.64471567 0.0011662088
0.019433144 0.029731482 -0.011548024 -0.1897279 0.73798925 -0.64759189 0.0015838873
0.059767496 0.027449619 -0.011742468 0.57290721 -0.39408728 -0.7186603 0.0010741709
0.061646089 0.028373502 -0.010721728 0.58227563 -0.41770113 -0.69748181 0.0025954235
0.063461259 0.029294096 -0.0096552763 0.63923508 -0.43434522 -0.63460445 0.001986288
-0.060252987 0.032484867 -0.0094135478 -0.59342533 -0.48990566 -0.63862258 0.0015667022
-0.058340352 0.031535611 -0.010365711 -0.55155122 -0.47936401 -0.68264294 0.0028903352
-0.056251965 0.030895192 -0.011584627 -0.50170213 -0.41813061 -0.75727266 0.0022749589
-0.021864912 0.032903586 -0.011801969 0.27941102 0.7092604 -0.64720887 0.0016321245
-0.019311624 0.032298349 -0.011469523 0.2433259 0.66510344 -0.70599562 0.0016802053
-0.016389843 0.031968486 -0.010718498 0.2294492 0.7462064 -0.62492317 0.0011355267
-0.01362788 0.03127249 -0.01056408 0.20384781 0.74459749 -0.63562626 0.0025784832
-0.010612085 0.031054197 -0.0099138459 0.18681951 0.74563915 -0.63962537 0.001754239
-0.0073899617 0.030611683 -0.0095820054 0.13965897 0.76128674 -0.63319653 0.0017312297
-0.0039515067 0.03000221 -0.0096858144 0.13025589 0.7539615 -0.6438753 0.0013979648
-0.0025483731 0.030005731 -0.0094105043 0.088692799 0.79313308 -0.60255581 0.0031208156
0.013147372 0.030233003 -0.0093222437 -0.13637605 0.8052569 -0.57702941 0.003005225
0.016368786 0.030500678 -0.0097283218 -0.16382314 0.76981527 -0.61688447 0.0013185722
0.019518662 0.030908341 -0.010183542 -0.20117503 0.75743407 -0.6211459 0.0012361712
0.022537699 0.031381994 -0.010641527 -0.22186413 0.74560356 -0.62837225 0.0020447113
0.025456926 0.032056253 -0.010922945 -0.23618673 0.75078022 -0.61688316 0.00083865225
0.028352793 0.032547172 -0.011484832 -0.24547443 0.73731631 -0.62937033 0.0012855162
0.062360961 0.031136349 -0.011546413 0.59870923 -0.29602712 -0.74425483 0.0017491496
0.064251259 0.031623971 -0.010164054 0.64211112 -0.34558725 -0.68429732 0.0018022424
-0.061174806 0.034846634 -0.0101057 -0.59315807 -0.42140895 -0.68598688 0.0016988679
-0.059044249 0.034058224 -0.011355197 -0.53854281 -0.3598226 -0.76190507 0.0015190735
-0.028089216 0.035650097 -0.011643252 0.29986009 0.69769496 -0.65061945 0.0021151947
-0.025282022 0.035100214 -0.010898104 0.29301459 0.72997445 -0.61747861 0.0015399094
-0.02258789 0.0344312 -0.010388495 0.2752758 0.76431477 -0.58313489 0.00072804437
-0.019735375 0.033597481 -0.010142068 0.26739532 0.74800003 -0.60745025 0.0015674914
-0.017523885 0.033404667 -0.0094039189 0.24486941 0.76705402 -0.59301525 0.001068989
0.025906105 0.033213682 -0.0096611977 -0.24748504 0.77116603 -0.58656126 0.0007479242
0.028474811 0.033767264 -0.010024923 -0.24978733 0.76035756 -0.59955204 0.0011750869
0.031453181 0.034390878 -0.010567466 -0.27224177 0.74874777 -0.60436845 0.0018210207
0.034359958 0.035027649 -0.01116566 -0.30095857 0.72884679 -0.61498481 0.001267502
0.036864299 0.035680603 -0.011673133 -0.33443952 0.70411789 -0.62639302 0.0011116287
0.062867485 0.033161514 -0.011921773 0.5893777 -0.26820746 -0.76203585 0.0013034496
0.064628109 0.034385387 -0.010882104 0.58792889 -0.19657347 -0.78466463 0.00091872882
0.066381045 0.035021555 -0.0095852893 0.66200233 -0.25814077 -0.70364499 0.0018629198
-0.063687257 0.038047925 -0.0096466402 -0.60586971 -0.33919114 -0.7196328 0.002538454
-0.061558798 0.037338968 -0.010971967 -0.53437507 -0.26346129 -0.80313849 0.00089317409
-0.059432473 0.036108568 -0.011983764 -0.48675352 -0.31032395 -0.81655991 0.0049267388
-0.034105718 0.038626965 -0.011468125 0.31477019 0.69376814 -0.64776957 0.0019115051
-0.031319734 0.037821904 -0.010877429 0.32567894 0.72229189 -0.6101045 0.0014818941
-0.028705742 0.037094317 -0.010322494 0.32891268 0.72020841 -0.61083245 0.0016458586
-0.026168838 0.036544524 -0.009588087 0.32694459 0.74395728 -0.58278203 0.0010507456
0.035092827 0.036380183 -0.0098971948 -0.32447106 0.74094528 -0.58797836 0.0008807776
0.037664842 0.037114922 -0.01047645 -0.3461552 0.70800012 -0.61555868 0.0014522591
0.040235665 0.038021397 -0.010987607 -0.36761263 0.68804157 -0.62566739 0.001528039
0.042577889 0.038609143 -0.011703906 -0.34183297 0.61283326 -0.71245044 0.0013442339
0.064889833 0.03738232 -0.01133565 0.56260562 -0.092304282 -0.82155627 0.0018864657
0.066818811 0.037589449 -0.009837009 0.67065859 -0.1459824 -0.72725928 0.0022108741
-0.064178213 0.040644985 -0.010165534 -0.57351393 -0.22023085 -0.78903747 0.0035433657
-0.061929189 0.040299635 -0.011566824 -0.49318531 -0.13713928 -0.85904664 0.0030127624
-0.040210214 0.04157133 -0.011440588 0.30464566 0.67798531 -0.66897464 0.0016562818
-0.037358873 0.040726975 -0.010864745 0.34135997 0.70762211 -0.61866331 0.0017095428
-0.034654863 0.039975103 -0.010229993 0.33119822 0.71980423 -0.61007345 0.0014498372
-0.0322432 0.039304059 -0.0096382163 0.36012843 0.73786318 -0.57084632 0.0014584447
0.040967003 0.039654851 -0.0096123358 -0.39762622 0.70502669 -0.58722293 0.0011460745
0.043638494 0.040314484 -0.010541549 -0.3674635 0.67746139 -0.63719434 0.001733312
0.046308454 0.041153412 -0.011179797 -0.32785201 0.65733284 -0.67854738 0.0018787096
0.048765574 0.041734554 -0.011785241 -0.27034512 0.58790267 -0.76241982 0.0016813609
0.065019488 0.040486477 -0.011403181 0.51158857 0.01459022 -0.8591066 0.0023158728
0.067199826 0.040507648 -0.0098545523 0.62665969 -0.029384052 -0.77873886 0.0027792233
-0.06632378 0.043619186 -0.0092487801 -0.60608357 -0.13554195 -0.78376716 0.0029102778
-0.064338572 0.043534279 -0.010531044 -0.48871386 -0.017911525 -0.87226021 0.0040246556
-0.062103882 0.043528106 -0.011703111 -0.41297731 0.016495727 -0.91059196 0.0035015421
-0.048375022 0.044693287 -0.011912746 0.20037565 0.6188004 -0.75956285 0.0029641162
-0.046158444 0.0443849 -0.011392954 0.26672906 0.65254521 -0.70925343 0.0021563487
-0.043276008 0.043607179 -0.010843485 0.32203507 0.65309989 -0.68538588 0.0018713247
-0.040697891 0.043013282 -0.010156169 0.33478159 0.71512908 -0.61360544 0.0017062067
-0.038423769 0.042379141 -0.0095719276 0.36372957 0.72090846 -0.58990824 0.0011575125
0.044774644 0.042118259 -0.009279714 -0.39383966 0.67171818 -0.62744313 0.0013221888
0.046846677 0.042693805 -0.0099486792 -0.37871996 0.67116112 -0.63727069 0.0014643921
0.049415078 0.043422788 -0.010529412 -0.30222294 0.66257465 -0.6853146 0.0010154649
0.052363925 0.044069543 -0.011183808 -0.25445843 0.57596362 -0.77686346 0.0014552823
0.055312824 0.044554073 -0.011715778 -0.17746961 0.55075002 -0.81558508 0.0020515916
0.057513591 0.044828236 -0.011926629 -0.060434379 0.51035219 -0.85783935 0.0044962377
0.062281378 0.044431001 -0.011864634 0.15583402 0.29830849 -0.94166225 0.0062342323
0.064691983 0.0434331 -0.011259539 0.43366668 0.13639975 -0.89068985 0.0036335103
0.067203425 0.043444242 -0.0098089073 0.56827718 0.081837393 -0.81875736 0.0042699305
-0.06641411 0.046452727 -0.0093722856 -0.54334331 0.025301967 -0.83912927 0.005014556
-0.064534426 0.046519179 -0.010355865 -0.39245707 0.13776296 -0.90939474 0.0065234317
-0.061532132 0.046588924 -0.011421178 -0.27958673 0.29200274 -0.91463965 0.01013106
-0.058673706 0.047107473 -0.011711538 -0.03900823 0.42695871 -0.90342933 0.0036431949
-0.055647984 0.047042187 -0.011708588 0.077304095 0.51009619 -0.8566364 0.0027013686
-0.052430648 0.046819944 -0.011372993 0.17395438 0.57308751 -0.80081874 0.0018772024
-0.049495012 0.046487384 -0.010749599 0.24561235 0.63754064 -0.73021674 0.00077946781
-0.04670085 0.046014391 -0.010050584 0.33223602 0.68055987 -0.65303719 0.0020744917
-0.044207439 0.045358106 -0.0094800983 0.35613745 0.70156842 -0.61722589 0.0012828256
0.050530907 0.045207072 -0.0093732746 -0.36011761 0.66687804 -0.65237182 0.0016265422
0.052909132 0.045917265 -0.0098514939 -0.32612216 0.63009518 -0.70471585 0.0014383264
0.055625997 0.046397544 -0.010470834 -0.25323847 0.58463949 -0.7707575 0.0019660194
0.058508225 0.046498276 -0.011050294 -0.077578098 0.50128049 -0.86180013 0.0042541251
0.061475918 0.046301745 -0.011234035 0.094637848 0.42191347 -0.90168321 0.0068112151
0.064405188 0.046455618 -0.010632691 0.29301226 0.29101312 -0.91074431 0.0071961163
0.066881165 0.046284437 -0.0096030533 0.49654305 0.18947823 -0.8470791 0.0047088698
-0.066305682 0.049089361 -0.0091419201 -0.3848528 0.23011501 -0.89383191 0.0071906014
-0.0644859 0.049497437 -0.0096811261 -0.28804117 0.30437464 -0.90795827 0.0038763331
-0.061508227 0.04946135 -0.010308823 -0.16439277 0.40380636 -0.89995301 0.0047648409
-0.05848876 0.049517062 -0.010362368 0.023295403 0.53354996 -0.84544766 0.0045310836
-0.055570405 0.049234018 -0.010181118 0.14071916 0.61623359 -0.77488989 0.0035220943
-0.052651536 0.048684616 -0.0098733921 0.23546304 0.64296997 -0.72879821 0.0024345764
-0.050285451 0.048265483 -0.009414942 0.29961398 0.67993015 -0.66927314 0.0021554462
0.056100022 0.048252419 -0.0091520771 -0.30189905 0.64788806 -0.69935548 0.0031250664
0.058505092 0.048774567 -0.0095284693 -0.18050562 0.57797271 -0.79584253 0.0042044618
0.061656047 0.049091369 -0.0098036183 -0.038293935 0.49925098 -0.86561078 0.0042566629
0.064553313 0.049277741 -0.009545777 0.15749745 0.38610548 -0.9089098 0.0079880245
0.06644056 0.048602629 -0.0092607224 0.38689747 0.30334833 -0.87079859 0.0056214943
-0.063355885 0.051313952 -0.0091325957 -0.11101838 0.50133157 -0.85810351 0.0091660125
-0.061716694 0.051121671 -0.0093718544 -0.0081623625 0.52970332 -0.8481437 0.0064487844
-0.0093645724 0.0026804488 -0.0060988907 -0.16531074 -0.91074288 -0.37844411 0.002083462
-0.007428885 0.002699388 -0.0067246398 -0.12428088 -0.86522007 -0.48574525 0.0015818117
-0.004191108 0.0025005168 -0.0070230141 -0.086074881 -0.86450976 -0.49519092 0.0017759855
-0.0015173571 0.0023441336 -0.0071004885 -0.055132955 -0.86567694 -0.49755776 0.0016524403
0.0015651365 0.0022230656 -0.0071501951 -0.027434945 -0.86884439 -0.49432456 0.0015525081
0.0044306125 0.0022974038 -0.0073749186 0.0014605593 -0.87107652 -0.49114516 0.00195879
0.0075474447 0.002345786 -0.0073848264 0.028228745 -0.87619758 -0.48112461 0.0017202664
0.010377841 0.0023453659 -0.0071225786 0.056752983 -0.88041216 -0.47080103 0.0017501833
0.013391105 0.0024625675 -0.0068445494 0.088890322 -0.88124037 -0.46423468 0.0017705382
0.01635531 0.0026387319 -0.0065382635 0.11887936 -0.88309115 -0.45389169 0.0017519393
0.018624013 0.0028040188 -0.0062217736 0.16245134 -0.88657624 -0.43311927 0.0013843874
-0.019289585 0.0055043581 -0.0068060239 -0.28139749 -0.83623195 -0.4706713 0.0014141769
-0.016396224 0.0050548585 -0.0075289197 -0.23650974 -0.83409804 -0.49834099 0.0017172045
-0.013480039 0.0043440131 -0.0075690504 -0.1900658 -0.84162796 -0.50550699 0.0022707151
-0.010524423 0.0038234282 -0.0077193412 -0.16228986 -0.84043074 -0.51704758 0.0010339299
-0.0074915355 0.0035548673 -0.0081076361 -0.1162829 -0.83694887 -0.53478485 0.0015828251
-0.0046828063 0.0034384094 -0.0084385248 -0.081348665 -0.83491552 -0.54433298 0.0015521637
-0.0017198574 0.0033578018 -0.0087014623 -0.054075383 -0.79574072 -0.6032185 0.00071960501
0.0015501046 0.0031694851 -0.008689126 -0.031617831 -0.79665697 -0.60360426 0.00069375825
0.0046308697 0.0032682072 -0.0089235874 -0.0052773813 -0.84125096 -0.54061902 0.0019021883
0.0074491692 0.0031788778 -0.0087517751 0.019280091 -0.84717125 -0.5309701 0.0021291985
0.010764572 0.0032317475 -0.0086166672 0.051875018 -0.84976846 -0.52459759 0.00183052
0.013678716 0.0033186306 -0.0083946502 0.079873167 -0.85496563 -0.51249766 0.0017703281
0.016561434 0.0034658574 -0.0080732238 0.10789944 -0.85774857 -0.50261831 0.0015504498
0.019584039 0.0037430238 -0.0077423849 0.15105139 -0.86413419 -0.48005787 0.0013326076
0.022530112 0.0042246268 -0.0076125744 0.18241796 -0.87699968 -0.44451687 0.0013271857
0.025526987 0.0048772264 -0.0075658145 0.2104619 -0.86731327 -0.45108032 0.0015062764
0.028406588 0.0053653899 -0.0070521412 0.23806132 -0.87044859 -0.43086669 0.0017349875
0.030717788 0.0058260732 -0.0065826806 0.28135201 -0.86819994 -0.40874174 0.0016304464
-0.028082808 0.0086472919 -0.0064743636 -0.33858877 -0.84436136 -0.41522476 0.0005262185
-0.025445659 0.0081357649 -0.0074101645 -0.30512375 -0.8116343 -0.49814585 0.0013402657
-0.022506675 0.0070956815 -0.0075412327 -0.30125928 -0.82182854 -0.48357069 0.0014376204
-0.019701764 0.0065474836 -0.0082977731 -0.26244634 -0.79706448 -0.54388422 0.0029237075
-0.017490275 0.0062613375 -0.0088898484 -0.21580677 -0.76470888 -0.60716379 0.00097713305
0.028766081 0.0062822471 -0.0085945223 0.22966604 -0.84736109 -0.47878265 0.0015188848
0.031679954 0.0067429077 -0.0078091347 0.26318598 -0.84923375 -0.45775023 0.0016288531
0.034523383 0.0075974474 -0.0075661619 0.31150222 -0.84824079 -0.42831537 0.0019391583
0.037333455 0.0084164133 -0.0070816549 0.33398131 -0.84596336 -0.41569513 0.0015407742
0.039417028 0.0089590792 -0.0064584566 0.37858346 -0.83723593 -0.39460191 0.001131993
-0.034047421 0.011463151 -0.0070878132 -0.35483155 -0.80406612 -0.47704551 0.001812864
-0.031438511 0.010663188 -0.0076192636 -0.33064306 -0.79730129 -0.50496119 0.0011320739
-0.028630074 0.0097185131 -0.0079726009 -0.31215379 -0.8084358 -0.49899065 0.0016364635
-0.026130637 0.0091869486 -0.0086490186 -0.2979309 -0.77320558 -0.55981278 0.00066528522
0.037987981 0.0093506509 -0.0083755078 0.32250869 -0.82413572 -0.46560544 0.0014868083
0.040532015 0.010069966 -0.0076490603 0.36160237 -0.82603139 -0.43233767 0.0015347595
0.043244123 0.011208998 -0.0073820078 0.38638005 -0.81337422 -0.43489414 0.0013430888
0.045253139 0.011824678 -0.0066448334 0.42284501 -0.80080026 -0.42417082 0.0018290052
-0.039962787 0.01436275 -0.0070438972 -0.4494004 -0.76912022 -0.45441535 0.00122328
-0.037488848 0.013344912 -0.0075486773 -0.38846207 -0.78007889 -0.49048364 0.0016590095
-0.034922082 0.01257347 -0.0082745906 -0.35186166 -0.77707297 -0.52187258 0.0021594216
0.044302989 0.012319507 -0.0084592924 0.38758028 -0.77200496 -0.50377572 0.00046267096
0.046645861 0.013101379 -0.0075796768 0.45426178 -0.7931419 -0.40567508 0.00087781018
0.049129371 0.014342781 -0.0072195036 0.47200572 -0.77288085 -0.42410597 0.0013152901
-0.045483485 0.017542897 -0.0064240526 -0.50692379 -0.76362008 -0.3998909 0.0014243451
-0.043395743 0.016792657 -0.0075442684 -0.47190216 -0.74081391 -0.47802001 0.0018092802
-0.041022278 0.015548121 -0.0079977671 -0.44223723 -0.76091737 -0.4747957 0.0020475686
0.050171789 0.015543316 -0.0081796413 0.49385628 -0.74205768 -0.45327294 0.0026796749
0.05245468 0.016650023 -0.0074892649 0.50713164 -0.73890042 -0.44367087 0.0018148774
0.054366428 0.017543981 -0.0067629968 0.53159547 -0.72603858 -0.43620425 0.0011878612
-0.048853625 0.020392867 -0.0070640869 -0.54453915 -0.70967281 -0.44703659 0.0016278302
-0.046632271 0.019205729 -0.0077376547 -0.52973288 -0.72284895 -0.4437032 0.00080856436
-0.044547498 0.018249374 -0.0085300133 -0.49165797 -0.69578934 -0.52359301 0.0020565968
0.053668439 0.01833576 -0.0087748794 0.52438152 -0.66650504 -0.52990103 0.0018740414
0.055765931 0.019202553 -0.0076794028 0.5612042 -0.70411319 -0.43505698 0.00091641996
0.057799529 0.020476172 -0.00709956 0.58530325 -0.67370683 -0.45115313 0.0015950853
-0.052115422 0.023040699 -0.0073477798 -0.54477608 -0.69294053 -0.47228426 0.0014791689
-0.049904663 0.021793561 -0.0079545202 -0.52290106 -0.68727469 -0.50421029 0.0022988848
0.058953688 0.022089526 -0.0078858631 0.59121251 -0.64324403 -0.48652327 0.0017635364
0.060919549 0.023210365 -0.0068576415 0.63332039 -0.62402231 -0.45771328 0.002053238
-0.057254564 0.026666356 -0.0065300399 -0.59792531 -0.65124422 -0.46729672 0.0010852152
-0.055295799 0.025635511 -0.0074636769 -0.55600464 -0.67097002 -0.49056917 0.0024877933
-0.053345259 0.02465998 -0.008305409 -0.55011314 -0.69580108 -0.46177521 0.001235811
0.061891768 0.025230147 -0.0079906425 0.64756674 -0.54192472 -0.53570044 0.0019230159
0.063600324 0.026170446 -0.0068096425 0.67825967 -0.56990701 -0.46386397 0.0020059419
-0.060398612 0.029863255 -0.0066950447 -0.64184433 -0.59326041 -0.48587856 0.001235442
-0.058449436 0.028577698 -0.007533045 -0.62800407 -0.60344201 -0.49139443 0.0028441299
-0.056595795 0.027389349 -0.0082706679 -0.58654314 -0.63782448 -0.49914622 0.0016202555
0.062916003 0.02733303 -0.0088163195 0.64963168 -0.50278515 -0.57025063 0.0023545409
0.064588398 0.028424475 -0.0077006277 0.71408355 -0.45194641 -0.53462994 0.0019499572
0.066220209 0.02947033 -0.0064511169 0.72826797 -0.46654454 -0.50195813 0.0010723136
-0.063185595 0.032932717 -0.0064290552 -0.69029701 -0.56894815 -0.44697657 0.0028552359
-0.06126954 0.031615227 -0.0074735973 -0.64367872 -0.57577312 -0.50414586 0.0022970217
-0.059609123 0.030579647 -0.0084117129 -0.63172793 -0.55901349 -0.53705096 0.0011910875
-0.013709924 0.032691803 -0.0088133635 0.23306046 0.78861684 -0.56900465 0.0013692909
-0.010327269 0.032356996 -0.0079723075 0.19271226 0.83858502 -0.50954604 0.0010881829
-0.0077412226 0.032050468 -0.0075396048 0.17117685 0.83955216 -0.515607 0.0026754541
-0.0044700997 0.031338535 -0.0078497883 0.10985783 0.84453821 -0.52410531 0.0018770756
-0.0017155756 0.031168826 -0.0075342506 0.09610875 0.82432854 -0.55789387 0.0012987909
0.0015190592 0.030751621 -0.0078581488 0.053872414 0.83332396 -0.55015343 0.0012302635
0.0047790948 0.03083084 -0.0075274906 -0.016856208 0.83218265 -0.55424535 0.0010250537
0.0073517086 0.030647919 -0.0078953728 -0.04625953 0.80782121 -0.58760947 0.0016922114
0.010623759 0.03093723 -0.007792192 -0.077588506 0.81999576 -0.56708628 0.0024796678
0.013657787 0.03126232 -0.0078213289 -0.1236937 0.83441097 -0.53708297 0.001420384
0.016567038 0.031605471 -0.0081436457 -0.16826575 0.83819801 -0.51875883 0.0015549797
0.019430039 0.032402888 -0.0079738861 -0.22182743 0.83371741 -0.50567573 0.00096659129
0.022171615 0.032774396 -0.0086359875 -0.23741034 0.78397316 -0.57360476 0.00081789907
0.065586425 0.031071957 -0.0085289162 0.68097329 -0.3542138 -0.64094299 0.0012102774
0.066959262 0.031671967 -0.007148406 0.74098843 -0.39013806 -0.54656047 0.0023463401
-0.063927405 0.034810964 -0.0072642658 -0.67785949 -0.48173791 -0.55536932 0.002151496
-0.062275678 0.03371888 -0.0082955509 -0.67442024 -0.50582713 -0.53786278 0.0015351319
-0.021520678 0.035496205 -0.0083605964 0.299564 0.80902469 -0.50570804 0.0023160803
-0.01942767 0.035103355 -0.0077529107 0.29191265 0.8299908 -0.47529179 0.0013378937
-0.016442761 0.034121215 -0.0077399127 0.25933421 0.83124435 -0.49170989 0.0014317812
-0.013445199 0.033509884 -0.0073069241 0.22403572 0.84085745 -0.49271375 0.0014983141
-0.0115731 0.033529047 -0.0062914398 0.20295115 0.85845327 -0.47102937 0.0010558394
0.020982973 0.03335011 -0.0070626428 -0.23647662 0.82477123 -0.51364505 0.000911629
0.022899017 0.033541635 -0.0076631876 -0.23458143 0.83178443 -0.5030967 0.0010678716
0.025696985 0.034151655 -0.0080827903 -0.23797525 0.82864296 -0.50667411 0.0015450952
0.028722856 0.035145644 -0.008088531 -0.28395095 0.83429807 -0.47256595 0.00090790587
0.031292506 0.035679989 -0.0087136198 -0.30276319 0.81935942 -0.48681074 0.0014991489
0.067714177 0.034417983 -0.0078137005 0.75763887 -0.28675321 -0.58630711 0.0016770805
0.069128275 0.035341013 -0.0063782874 0.79150158 -0.31176478 -0.52566898 0.0020174219
-0.066531956 0.038253333 -0.0068314476 -0.70902461 -0.45157516 -0.54163086 0.0019201232
-0.064937301 0.037132889 -0.007901377 -0.6855827 -0.41100603 -0.60087466 0.0032200452
-0.030207081 0.038944639 -0.0087917438 0.38668093 0.79173827 -0.47289354 0.0018161904
-0.027963871 0.038361792 -0.0080671692 0.38415316 0.80749005 -0.44764513 0.0011984605
-0.025616711 0.037547834 -0.0076667657 0.35841584 0.80431092 -0.47394308 0.0017373683
-0.022889495 0.036580194 -0.0074229571 0.32122689 0.82660735 -0.46209705 0.0012117801
-0.019862348 0.036150064 -0.0060077216 0.29951319 0.83755887 -0.45693222 0.0011129926
0.031494882 0.036323469 -0.0077307583 -0.31353551 0.82437199 -0.47128165 0.00093910575
0.034595899 0.037263539 -0.0082601188 -0.33290178 0.79452538 -0.50784421 0.0020666255
0.037177678 0.038389895 -0.0084595764 -0.40324494 0.75219506 -0.52114886 0.0018699107
0.068360768 0.037494153 -0.0082682539 0.75799137 -0.18001541 -0.62693185 0.0019909705
0.069623627 0.037688173 -0.0067470497 0.79300654 -0.21273276 -0.57086378 0.0021839666
-0.067317106 0.040730085 -0.0073877182 -0.70429629 -0.32999739 -0.62854469 0.003330908
-0.065659866 0.039705306 -0.0086471057 -0.66162163 -0.26404771 -0.70180881 0.0030053351
-0.036295325 0.04187211 -0.0088403765 0.37011078 0.75292516 -0.54417062 0.0040067402
-0.034114208 0.041304395 -0.0080101434 0.38956457 0.78538197 -0.48105562 0.0018718418
-0.031661872 0.040372346 -0.0075585241 0.39799204 0.78181612 -0.47996449 0.0014290439
-0.029105654 0.039471116 -0.0069771274 0.37729505 0.81206393 -0.44519725 0.0011925852
0.038334988 0.039725617 -0.0072467029 -0.41283309 0.75556004 -0.50862354 0.0015720783
0.040669199 0.040723149 -0.0078743473 -0.41203201 0.7090115 -0.57230449 0.00057698908
0.042510603 0.041679099 -0.0080788853 -0.42219216 0.7018171 -0.57376534 0.00034138456
0.06870117 0.040390186 -0.0084815873 0.74383372 -0.075956166 -0.66403472 0.0024533682
0.069879539 0.040699456 -0.0071601612 0.78356946 -0.10680784 -0.61205477 0.0021560634
-0.06936574 0.04394497 -0.0064829211 -0.7295354 -0.24178986 -0.6397779 0.002700604
-0.067778625 0.043395009 -0.0079209562 -0.69369 -0.20483525 -0.69053364 0.0034025812
-0.040307753 0.044378441 -0.0081250956 0.39828685 0.76378888 -0.50793117 0.001857079
-0.037432067 0.04330707 -0.0074630566 0.39208877 0.78280485 -0.4832007 0.0019761203
-0.035415158 0.04226635 -0.0074919835 0.3762103 0.78980738 -0.4844276 0.0017174192
0.043742899 0.042808343 -0.0074814297 -0.40293276 0.70799094 -0.57999474 0.00038206496
0.046164416 0.043935556 -0.0079542063 -0.41535127 0.72752005 -0.54607493 0.002791875
0.048073187 0.044695485 -0.0084475083 -0.4050014 0.71993071 -0.5636254 0.0043487642
0.068554275 0.043729525 -0.0087479297 0.62938797 0.028494386 -0.77656859 0.00273468
0.069999777 0.043462984 -0.0072360625 0.77249426 -0.0060708253 -0.63499272 0.0032946051
-0.069644786 0.046486869 -0.0067826472 -0.7152732 -0.11254331 -0.68972325 0.0049498254
-0.067778796 0.046512671 -0.0084238211 -0.59553546 -0.045319438 -0.8020497 0.0027776351
-0.048145223 0.047803517 -0.008842364 0.36037853 0.72438526 -0.58770168 0.0040937406
-0.046241391 0.047393385 -0.0081640659 0.3630946 0.75861961 -0.54097921 0.0030635349
-0.04367717 0.046510559 -0.0075475103 0.39432272 0.77358967 -0.49605319 0.0013343982
-0.041266657 0.045588635 -0.0070296163 0.39856261 0.76529807 -0.5054372 0.0017608792
0.047477078 0.045445461 -0.0069073215 -0.41366297 0.74110335 -0.52881825 0.0020732209
0.049797423 0.046188477 -0.0077271541 -0.41391239 0.72268504 -0.55353659 0.0021612989
0.052378833 0.047293887 -0.0081770606 -0.35667682 0.68584174 -0.63435227 0.0015839047
0.068354137 0.0467683 -0.0085589727 0.56180835 0.12247705 -0.81815088 0.0040313196
0.07003101 0.046372537 -0.0070785466 0.73315603 0.046380255 -0.67847711 0.0036153996
-0.069922827 0.049605589 -0.0068461685 -0.62701046 -0.019980876 -0.77875453 0.0081151556
-0.067728586 0.049653981 -0.0082885502 -0.44281352 0.13613591 -0.88621843 0.011718567
-0.055469047 0.050930742 -0.008740237 0.20148966 0.67723554 -0.70763975 0.0032721034
-0.052162703 0.050274644 -0.0079973349 0.2900908 0.740668 -0.60601842 0.0027312068
-0.049451776 0.049350739 -0.0076359962 0.34570804 0.76136297 -0.54846352 0.0020575654
-0.046795148 0.048562486 -0.0068945526 0.38416353 0.76379508 -0.51868629 0.0014031518
0.053204 0.048677444 -0.0071338713 -0.41446352 0.70375204 -0.57702088 0.0019166103
0.055549081 0.049500808 -0.0076689678 -0.35889184 0.68866897 -0.63002515 0.0017172785
0.058269575 0.050190434 -0.0082766591 -0.27878216 0.66323924 -0.6945461 0.0044818143
0.060805295 0.050632123 -0.0086959591 -0.13005133 0.59530425 -0.79290575 0.0048163836
0.065144531 0.050839115 -0.0087969648 0.07540486 0.42696345 -0.90111947 0.0071157734
0.067673154 0.049671765 -0.0083118519 0.37519139 0.29508784 -0.87872326 0.0057167024
0.069873132 0.049390964 -0.006860456 0.67419934 0.13334654 -0.7264117 0.0056978278
-0.070183352 0.052572586 -0.006595144 -0.47790548 0.09266793 -0.87350959 0.011194912
-0.067546569 0.052491684 -0.007738648 -0.29284173 0.27935037 -0.91444355 0.012768106
-0.064614229 0.05249301 -0.0083005177 -0.15068455 0.47248399 -0.86836237 0.013030658
-0.061455056 0.052546371 -0.0082653016 0.062095024 0.57578409 -0.81524038 0.0078644045
-0.058466725 0.052477982 -0.0078971516 0.16065933 0.71230674 -0.68323326 0.0032890176
-0.055508092 0.052146513 -0.0073471479 0.2699171 0.75851804 -0.5931232 0.0027376376
-0.053060114 0.051573761 -0.0068842336 0.34086484 0.75831175 -0.55567467 0.0020444458
-0.050659306 0.051045291 -0.0060104714 0.3762168 0.78636783 -0.48998633 0.0016648379
0.058571327 0.051724181 -0.0069209444 -0.32787186 0.6779322 -0.65795743 0.0016797974
0.061694726 0.052438669 -0.0075216019 -0.21255642 0.60025185 -0.77104956 0.0060638371
0.064529948 0.052489694 -0.0080051292 0.040748101 0.44549733 -0.89435554 0.008968208
0.067603305 0.052547418 -0.0074841296 0.3420625 0.29762766 -0.89129734 0.013742813
0.069787376 0.052279178 -0.0064032758 0.59724689 0.18041028 -0.78150386 0.0077966764
-0.0698862 0.055195682 -0.0063298284 -0.26082429 0.25121537 -0.93212742 0.012291294
-0.067495041 0.055367876 -0.0066739498 -0.05710154 0.3753483 -0.92512327 0.0097248405
-0.064649694 0.054956242 -0.0067824721 0.084282607 0.57550889 -0.8134408 0.011229218
-0.061623357 0.054353166 -0.0066276053 0.17002508 0.67217565 -0.7206049 0.006139149
-0.059552118 0.054240242 -0.0061082365 0.21740194 0.78685606 -0.57757592 0.0028917112
0.062407747 0.054328389 -0.0063189138 -0.34538117 0.59867954 -0.72269946 0.0052511026
0.064787224 0.055023964 -0.0066139516 -0.13786432 0.4940635 -0.85842574 0.0091406461
0.067420386 0.055612411 -0.0064892913 0.078498192 0.35292894 -0.93235141 0.023600129
0.069174848 0.054715518 -0.0062629338 0.48995358 0.22167167 -0.84309375 0.0096673546
-0.013396031 0.0026645015 -0.0039985189 -0.21676785 -0.92751068 -0.30452538 0.00170506
-0.010610038 0.0023010827 -0.0046170396 -0.16536567 -0.93507671 -0.31350565 0.0018533088
-0.0074652336 0.0017777884 -0.004578528 -0.1208596 -0.93693769 -0.32793415 0.0021356582
-0.0046327468 0.0015063909 -0.0047626188 -0.087928228 -0.93667763 -0.33897448 0.0024906134
-0.0015313321 0.0012260077 -0.0047154753 -0.055162884 -0.93587959 -0.34797478 0.0027457655
0.0015160602 0.0010552454 -0.0046380302 -0.031832885 -0.93613869 -0.35018694 0.0025198921
0.0046229442 0.0010555852 -0.0047036675 0.0086639859 -0.93621963 -0.35130849 0.002763551
