# .PCD v0.7 - Point Cloud Data file format
VERSION 0.7
FIELDS x y z normal_x normal_y normal_z curvature
SIZE 4 4 4 4 4 4 4
TYPE F F F F F F F
COUNT 1 1 1 1 1 1 1
WIDTH 476
HEIGHT 1
VIEWPOINT 0 0 0 1 0 0 0
POINTS 476
DATA ascii
-0.010577331 0.020767288 -0.016047331 0.092732251 0.35058603 -0.93192816 0.0013648977
-0.0075123231 0.020355867 -0.015953653 0.06648843 0.30995873 -0.94842231 0.00020915305
-0.0045682499 0.020181421 -0.015860967 0.050836552 0.37647581 -0.92503065 0.001568205
-0.0017908521 0.020221822 -0.015770987 0.027391791 0.35014725 -0.93629408 0.00025893311
0.001738192 0.020575989 -0.015652969 0.00077642652 0.45824587 -0.88882512 0.0016296975
-0.021824557 0.023799421 -0.016372338 0.12831284 0.31995943 -0.93870223 0.00050901348
-0.019435467 0.023059441 -0.016304482 0.1333918 0.35121843 -0.92674285 0.0010292066
-0.01604687 0.022440461 -0.016101934 0.11226779 0.33943558 -0.93390542 0.00061761634
-0.013448087 0.02235177 -0.015868565 0.11500226 0.35414281 -0.92809337 0.0011799891
-0.010463778 0.022692349 -0.015519351 0.092726402 0.35056925 -0.93193507 0.0013690222
-0.0075387699 0.02221724 -0.015433729 0.070196107 0.36569721 -0.92808306 0.0017390628
-0.0048260936 0.02194404 -0.015352356 0.050836265 0.37649986 -0.92502087 0.0015633766
-0.0017517826 0.021826802 -0.015257806 0.024828136 0.41785464 -0.90817457 0.001949531
0.0011474516 0.02192007 -0.015166216 -0.0082975719 0.4499467 -0.89301693 0.0014070619
0.0047127614 0.021856228 -0.015217699 -0.0068784971 0.47810033 -0.87827826 0.0012423653
-0.03081461 0.025996312 -0.016634896 0.12292803 0.28566635 -0.95041227 0.001550859
-0.028070301 0.025611764 -0.016551219 0.12051379 0.27187905 -0.9547556 0.00092015782
-0.025197024 0.02542375 -0.016332652 0.11851906 0.30798993 -0.94397849 0.0011493501
-0.022932077 0.02557195 -0.016045131 0.16248852 0.34908658 -0.92289543 0.0011133503
-0.019586399 0.025758239 -0.015549648 0.15076472 0.37242937 -0.91573268 0.0020474973
-0.016795119 0.025095617 -0.015399233 0.1221921 0.38185853 -0.91610759 0.0016638832
-0.013549861 0.024737574 -0.015088335 0.11283798 0.36635414 -0.92360824 0.00097179873
-0.010947881 0.024114199 -0.015016936 0.085881792 0.36263588 -0.92796528 0.001263142
-0.033074632 0.029884517 -0.016139232 0.13762613 0.29267707 -0.94625533 0.0015382706
-0.031485889 0.029341476 -0.016096117 0.17279415 0.30666777 -0.93600053 0.0024837796
-0.028465228 0.028842425 -0.015786823 0.13543822 0.3082895 -0.94160181 0.0026313579
-0.025698228 0.028035784 -0.015637727 0.15204425 0.36536083 -0.91836482 0.0029698245
-0.022268483 0.02744958 -0.015320346 0.16582118 0.40303904 -0.9000349 0.0038206219
-0.037231058 0.031758942 -0.016037349 0.15331599 0.38126925 -0.91166216 0.00051571499
-0.034262963 0.031614345 -0.015693069 0.19097504 0.41908547 -0.88763505 0.001423738
-0.031399392 0.031334497 -0.015329162 0.19181085 0.43175039 -0.88136268 0.0012858182
-0.02942704 0.03006701 -0.015506335 0.1456835 0.31689665 -0.9372049 0.0028338688
-0.042819958 0.034311686 -0.015861832 0.13590899 0.37083298 -0.91870111 0.00032770017
-0.040521432 0.034761555 -0.01548674 0.16248056 0.40938938 -0.89777517 0.0011330304
-0.037822571 0.033991612 -0.015400608 0.20030354 0.44458291 -0.87305474 0.001730483
-0.035214704 0.033553109 -0.015119545 0.20477274 0.44150206 -0.87358123 0.0020511453
-0.046175227 0.036549978 -0.015406109 0.12013654 0.40266177 -0.90743077 0.0010470587
-0.043710846 0.03624339 -0.015337569 0.16874202 0.43653336 -0.88372207 0.0016890207
-0.0095499661 0.023845552 -0.01497782 0.11425589 0.37291756 -0.92080289 0.0018819754
-0.0076055382 0.023525944 -0.01492279 0.094859935 0.39622417 -0.91324043 0.0017115891
-0.0044205575 0.023164839 -0.01483078 0.057343032 0.40088654 -0.91433138 0.001359102
-0.0014355006 0.023008376 -0.014742419 0.037429705 0.43446431 -0.89991099 0.0014034273
0.00098808203 0.023347234 -0.014502245 0.011108205 0.47434935 -0.88026655 0.0010115015
0.0044899997 0.02324871 -0.014560714 -0.015381462 0.50239438 -0.86450177 0.001626385
0.0075501017 0.023167167 -0.014710367 -0.015381481 0.50239438 -0.86450171 0.0016263676
-0.016343677 0.026651077 -0.014645614 0.16012256 0.46120423 -0.87272638 0.0039044411
-0.0134683 0.026187044 -0.01435166 0.15294668 0.45816764 -0.87560821 0.0023600806
-0.010524834 0.025968172 -0.013984174 0.13359721 0.48834103 -0.86236584 0.0012108949
-0.0074861008 0.025699632 -0.013721303 0.10843468 0.4954735 -0.86182827 0.0010078311
-0.0045460435 0.025330622 -0.013643132 0.082772873 0.54220623 -0.83615845 0.0027524848
-0.0015441739 0.025660751 -0.013168619 0.061684184 0.55167049 -0.83177817 0.0028349035
0.0015011412 0.025644135 -0.013053012 0.010040473 0.59163773 -0.8061415 0.0022267634
0.0043057916 0.025573632 -0.013086028 -0.026224567 0.58514577 -0.8105039 0.0022634955
0.0067370413 0.025438484 -0.013262123 -0.026218925 0.58515614 -0.81049657 0.0022568838
-0.024922878 0.029482426 -0.014864477 0.19033441 0.42279491 -0.88601208 0.002748877
-0.022378545 0.02903815 -0.014540084 0.19805732 0.4689869 -0.86071163 0.0019339639
-0.01949005 0.028772216 -0.014011679 0.19285734 0.54791898 -0.81399685 0.0023622368
-0.016502433 0.028421322 -0.013554801 0.17721467 0.52636164 -0.83158785 0.0015133651
-0.013599619 0.028560443 -0.01277232 0.1729749 0.61001784 -0.7732774 0.0014407978
-0.010599529 0.027793942 -0.012754989 0.14774737 0.62366837 -0.76759911 0.0012665365
-0.0079822429 0.027502667 -0.012531057 0.1243457 0.64383686 -0.75499159 0.0015207365
-0.0048080813 0.027247829 -0.012329441 0.106706 0.62142622 -0.77617222 0.0030773783
0.0067731002 0.027005948 -0.01204031 -0.052824505 0.6075331 -0.79253584 0.0038971605
-0.030464247 0.032259244 -0.014650561 0.18998273 0.46118712 -0.86672544 0.0017410495
-0.028322652 0.031730682 -0.014380999 0.20320378 0.49010524 -0.84764677 0.0021314744
-0.025458073 0.031647515 -0.013633017 0.23852046 0.56105578 -0.79266912 0.0028808755
-0.022529084 0.03141981 -0.012939425 0.23351766 0.61083376 -0.75653917 0.0016327412
-0.019578811 0.030801138 -0.012566025 0.22019723 0.64054453 -0.73567373 0.0016171801
-0.01678152 0.030251864 -0.012224026 0.20061663 0.66897005 -0.71570396 0.0014042004
-0.037000958 0.035481937 -0.014523445 0.20963742 0.47574657 -0.85423499 0.0033708347
-0.034200415 0.034946121 -0.014082304 0.2450949 0.5115183 -0.82357609 0.0023249411
-0.031438846 0.03468696 -0.013359853 0.2675187 0.56198686 -0.78269058 0.0020373692
-0.028600039 0.033995014 -0.012906793 0.23977916 0.60905206 -0.75601685 0.0025733868
-0.025950413 0.033464469 -0.012417868 0.25695449 0.6529063 -0.71252215 0.0016478082
-0.049666643 0.038216699 -0.014955305 0.10588714 0.42046633 -0.90110815 0.00089133513
-0.046259224 0.03819599 -0.014859475 0.13034396 0.44926623 -0.88383842 0.0020243323
-0.043273579 0.038051356 -0.014513113 0.16875802 0.43651539 -0.88372791 0.0016952532
-0.0402922 0.037550185 -0.014129971 0.17514534 0.47372156 -0.86308289 0.0023080772
-0.03755803 0.037597876 -0.013315784 0.2669782 0.55414903 -0.78844243 0.0025459875
-0.034823757 0.036923148 -0.012888258 0.27968678 0.5729481 -0.77039325 0.0018219498
-0.03247001 0.036399722 -0.012420103 0.30765221 0.64687258 -0.69778657 0.0013285831
-0.051360361 0.040758394 -0.014173426 0.1206924 0.44222981 -0.88874412 0.0012984705
-0.049412131 0.040905278 -0.014031179 0.14641958 0.46607181 -0.87254709 0.002801571
-0.046524689 0.040687919 -0.01368444 0.14011154 0.47797671 -0.86712569 0.0028810974
-0.043497652 0.040547632 -0.013063086 0.22602504 0.54738003 -0.80578393 0.0022835156
-0.040637746 0.039967202 -0.012585021 0.25878325 0.62066776 -0.74013704 0.0023563674
-0.038421977 0.039353553 -0.012275539 0.2744486 0.63478792 -0.72230339 0.0013577048
-0.052322537 0.043719769 -0.012921472 0.16222787 0.51400006 -0.84230995 0.0017830333
-0.049342368 0.043339543 -0.012710641 0.16445497 0.52269518 -0.8365072 0.0022251897
-0.046656746 0.042788479 -0.01243937 0.22215867 0.57003444 -0.79101604 0.0023651479
-0.044588022 0.042331923 -0.012130708 0.2714279 0.61298454 -0.74200875 0.0013275224
-0.05483529 0.045282207 -0.012341872 0.13299669 0.55969155 -0.81795919 0.00081294542
-0.052834027 0.045050565 -0.012297593 0.16548006 0.53221756 -0.83027756 0.0025106333
-0.012811218 0.02982828 -0.011505552 0.18699859 0.69972122 -0.68950826 0.0016438076
-0.01048306 0.029223004 -0.011519523 0.16336712 0.65296161 -0.73956227 0.0013371591
-0.0077272602 0.029074427 -0.011052081 0.13175261 0.73094034 -0.66960257 0.0017004887
-0.0046583419 0.02881394 -0.010801216 0.12548044 0.70590609 -0.69710195 0.0028484487
-0.0015743363 0.028628767 -0.010594165 0.091209158 0.71209848 -0.69612974 0.0013848904
0.0014535156 0.028623154 -0.010363193 -0.0017466835 0.71105248 -0.70313686 0.001327359
0.0040926835 0.028167373 -0.010826111 -0.009390261 0.67166871 -0.74079216 0.0032796133
-0.021848354 0.03273977 -0.011562143 0.25526142 0.70010144 -0.6668579 0.0016791008
-0.01920596 0.032242097 -0.011084694 0.24258965 0.66765064 -0.70384151 0.0015585587
-0.016369091 0.031857535 -0.010452677 0.22852808 0.74763983 -0.623546 0.0012764963
-0.013696495 0.031221807 -0.010262761 0.20666048 0.74577409 -0.6333344 0.0022164364
-0.010537238 0.03063821 -0.010043719 0.17743073 0.74115098 -0.64746702 0.001712377
-0.0074898554 0.030356919 -0.0095968796 0.13856755 0.75275075 -0.64355665 0.0015953842
-0.0048299138 0.030133974 -0.0093496665 0.097518072 0.75140876 -0.65259105 0.0011748429
-0.0282261 0.035391305 -0.011528251 0.3010641 0.63787699 -0.70885348 0.001574678
-0.025325701 0.034925226 -0.010678018 0.29384977 0.7316221 -0.61512721 0.0014683004
-0.02268823 0.034276202 -0.010195469 0.27975008 0.73734498 -0.61486775 0.0022253408
-0.019738914 0.033662569 -0.0096516535 0.26737753 0.75051767 -0.60434467 0.0015789367
-0.01722643 0.033124309 -0.0092295185 0.25879243 0.78246862 -0.566365 0.0022669602
-0.036263775 0.038689747 -0.011970185 0.28154781 0.65024024 -0.70563328 0.0030898761
-0.034383833 0.038271774 -0.011515619 0.315642 0.64385182 -0.69701159 0.0013958055
-0.031513017 0.037673954 -0.010687214 0.33525598 0.68910098 -0.64245105 0.0019280794
-0.028654797 0.036901496 -0.010070296 0.3300983 0.7358101 -0.59128547 0.0024504687
-0.026267719 0.03632994 -0.0094589218 0.33147782 0.76067519 -0.55811805 0.0022380697
-0.040058274 0.041349672 -0.011145385 0.3155168 0.68077821 -0.66105241 0.0018004216
-0.037370265 0.040543038 -0.010615671 0.31716296 0.67334187 -0.66784602 0.0011099877
-0.034650128 0.039833978 -0.0099466573 0.34805891 0.73973697 -0.57588559 0.00097261777
-0.032244384 0.039196536 -0.0092915893 0.35431495 0.73313934 -0.58048916 0.0015854326
-0.049157605 0.044783399 -0.011683732 0.20741475 0.55864549 -0.80305308 0.0017735694
-0.046497308 0.044275746 -0.011206547 0.2730155 0.65380001 -0.70569688 0.0016482781
-0.043581255 0.043639887 -0.010518675 0.32443321 0.66039723 -0.67721379 0.0020159236
-0.040802501 0.042742025 -0.010058286 0.3558436 0.71050662 -0.60708791 0.001817225
-0.038674593 0.04228406 -0.0093867406 0.37154046 0.70061409 -0.60917783 0.0021773304
-0.058087952 0.046827622 -0.01159472 0.12534873 0.58228064 -0.80326641 0.00083151786
-0.055250406 0.047000688 -0.011371089 0.13432214 0.5728606 -0.80857176 0.0011214287
-0.052378047 0.046765566 -0.011027184 0.18691821 0.58419871 -0.78979331 0.001157556
-0.049552366 0.04663175 -0.010232616 0.29330909 0.67801553 -0.67399168 0.0009718315
-0.046753667 0.045741651 -0.0099320756 0.32113451 0.67379344 -0.66548854 0.0016700273
-0.044861823 0.045276515 -0.0094781294 0.35929143 0.67506766 -0.64435494 0.0024063503
-0.058442689 0.049873345 -0.009827137 0.13746643 0.63678378 -0.75868911 0.0025872272
-0.055490535 0.04927066 -0.0097775348 0.16991203 0.64221591 -0.74745476 0.0042412351
-0.052567463 0.048704244 -0.0094420072 0.24417466 0.66878408 -0.70221555 0.0023355696
-0.050415896 0.04827664 -0.0090269968 0.309358 0.69618368 -0.64778537 0.0015781017
-0.061049491 0.051009983 -0.0091911033 0.14397676 0.63426316 -0.75959259 0.001862355
0.0016430379 0.029955344 -0.0087415129 0.050802007 0.7256608 -0.68617457 0.0013719476
-0.012975009 0.032516256 -0.0083230194 0.21515377 0.81714839 -0.53476852 0.00078663864
-0.010356268 0.032183632 -0.0078571886 0.18581797 0.83435965 -0.51895624 0.0006580801
-0.0076279822 0.03172873 -0.0076619335 0.14752239 0.83478892 -0.53043813 0.00053165073
-0.0046216161 0.031245442 -0.0076900213 0.089490436 0.79863131 -0.59512979 0.00077115104
-0.0016447566 0.030591484 -0.0081612486 0.087390862 0.78109556 -0.61826587 0.00042795527
0.00043307184 0.030537501 -0.0080293491 0.062804751 0.73894787 -0.670829 0.0017919544
-0.022113284 0.035515245 -0.0082317255 0.30236548 0.80666482 -0.50780588 0.00097218819
-0.019480614 0.035083357 -0.0073447605 0.29255643 0.82679844 -0.48043221 0.00052221236
-0.016569357 0.034141716 -0.0073072989 0.24741417 0.82376826 -0.51009029 0.00093419669
-0.013908339 0.033596884 -0.0069570742 0.2211259 0.8289004 -0.51383603 0.00094587723
-0.01132531 0.033110499 -0.0066332393 0.19328722 0.83362353 -0.51740879 0.00085774605
-0.030398555 0.038723744 -0.0087468848 0.3558501 0.7338531 -0.57864529 0.0015416322
-0.028168172 0.038327221 -0.0077439793 0.36143467 0.77667457 -0.51588923 0.00063738768
-0.025569722 0.037376646 -0.0073978775 0.33763948 0.79090738 -0.51035768 0.00086467044
-0.022848554 0.036558613 -0.0069186026 0.31569493 0.81231081 -0.49039564 0.0007869621
-0.02099725 0.036257789 -0.0060720369 0.2998561 0.81531686 -0.49532285 0.00059471262
-0.03646734 0.041718092 -0.0086580543 0.37609461 0.75202298 -0.54130787 0.0028985387
-0.03429091 0.041142836 -0.0078720059 0.36525247 0.76674569 -0.52791256 0.002000235
-0.03160841 0.039976396 -0.0076518892 0.36353025 0.76504201 -0.53156042 0.00033093669
-0.029200858 0.039392572 -0.0066701267 0.36143568 0.77667379 -0.5158897 0.00063704333
-0.042519059 0.04472148 -0.0087403534 0.38671306 0.73906803 -0.55157185 0.00087322929
-0.040259834 0.04416012 -0.0078621041 0.38276896 0.77207875 -0.50732869 0.0021611718
-0.037669513 0.043127771 -0.0073909783 0.38503638 0.79603839 -0.46697947 0.0012279142
-0.035350639 0.042336501 -0.0067359498 0.39026436 0.79428136 -0.46562949 0.0008045006
-0.048672345 0.0479706 -0.0084697828 0.33954915 0.741063 -0.57925135 0.0014186343
-0.046327136 0.047172476 -0.0079936506 0.36221212 0.75482064 -0.54685289 0.0023049568
-0.04363722 0.046180163 -0.0074597844 0.37620237 0.7586931 -0.53184253 0.0015350427
-0.041262329 0.045373041 -0.0067981728 0.42170557 0.78282177 -0.4575527 0.0018464798
-0.054779835 0.050589807 -0.0084185712 0.21744156 0.69125074 -0.68912375 0.0034854191
-0.052212302 0.050192814 -0.007677455 0.31733927 0.74595541 -0.58553076 0.0029531377
-0.049521439 0.049260832 -0.007310505 0.33299777 0.76575327 -0.55021304 0.0021200168
-0.047041688 0.04846058 -0.0067073843 0.38958567 0.78419274 -0.48297474 0.0015055855
-0.064009257 0.052975833 -0.0077812448 0.16205949 0.66899222 -0.7253868 0.0020964616
-0.061318059 0.052892618 -0.0076172277 0.17442398 0.71391231 -0.67816341 0.0023464125
-0.058404554 0.052602742 -0.0073893941 0.18684107 0.73071116 -0.65662134 0.0028615051
-0.055693991 0.051870607 -0.0073367408 0.25272277 0.73107779 -0.63376373 0.0040295618
-0.053193163 0.051493615 -0.0066037374 0.32597676 0.75099474 -0.57423514 0.0036871333
-0.067513883 0.055660646 -0.0062711462 0.18458925 0.61385334 -0.76753563 0.00084015564
-0.06467028 0.054475032 -0.0067872144 0.20427427 0.67801851 -0.70608991 0.0034417354
-0.06227202 0.054301985 -0.0064873621 0.19743939 0.7069934 -0.67910093 0.0034378485
-0.0091964789 0.032999821 -0.0059445277 0.20006514 0.8446641 -0.49650443 0.00037129808
-0.0078059016 0.032715723 -0.0059290081 0.14751928 0.83479565 -0.53042847 0.00052325713
-0.018667962 0.035730436 -0.0055424422 0.29066408 0.82923508 -0.4773716 0.00055485463
-0.016272822 0.034972362 -0.0055191256 0.25469345 0.83905762 -0.48074269 0.00031572062
-0.013080594 0.033980727 -0.0057373545 0.21009088 0.82631779 -0.52255207 0.0008697696
-0.010863282 0.03345307 -0.005714003 0.19328551 0.83362108 -0.51741332 0.00085548084
-0.025061065 0.038086589 -0.0056032711 0.33976525 0.81131452 -0.47573981 0.00034876092
-0.022492094 0.037083153 -0.0055790693 0.31201288 0.81177515 -0.49362856 0.0008315767
-0.020247106 0.036249913 -0.0055577308 0.29064432 0.82926536 -0.47733092 0.00052172557
-0.039202299 0.044846021 -0.0057312772 0.41837177 0.79626048 -0.43696037 0.00093242375
-0.037216008 0.044283781 -0.004555739 0.45972714 0.83638203 -0.29852322 0.0017945106
-0.035413988 0.043189041 -0.0049842354 0.4580366 0.81965554 -0.34404546 0.0020777297
-0.045030892 0.047969211 -0.0057826117 0.43287495 0.79408455 -0.4266721 0.0045089968
-0.04303395 0.047360558 -0.0047157351 0.47026056 0.8204065 -0.32525095 0.0017045836
-0.040529076 0.046129487 -0.0043878253 0.45314372 0.8316583 -0.32094425 0.0024534261
-0.038472693 0.04525594 -0.0037277017 0.43587554 0.85677522 -0.27558798 0.00098372542
-0.048984107 0.050446812 -0.0049353228 0.41719079 0.81999713 -0.39186296 0.0031485676
-0.046452235 0.049348898 -0.0044080657 0.44831374 0.84067816 -0.30376807 0.0013809339
-0.044215783 0.048337616 -0.0039067459 0.44282633 0.83154458 -0.3353186 0.0016988689
-0.05781563 0.053789008 -0.0057210303 0.22870448 0.82091558 -0.52325124 0.0041533434
-0.055116735 0.05336605 -0.0048712809 0.31591213 0.842399 -0.43653566 0.0042155385
-0.052420154 0.052379966 -0.0045173434 0.39956445 0.83155692 -0.38582551 0.0023831115
-0.050079197 0.051499587 -0.0038826938 0.42378917 0.83205408 -0.35789487 0.0026436131
-0.066565603 0.056478951 -0.0057132021 0.25381467 0.63857508 -0.72649848 0.0019661803
-0.06434758 0.056181893 -0.0053600497 0.23809394 0.64860487 -0.7229268 0.0034321733
-0.061591137 0.05570855 -0.0045852782 0.3130008 0.74596 -0.58785546 0.0076575121
-0.05863433 0.054865681 -0.0042607943 0.26993909 0.84267873 -0.46585983 0.0037859112
-0.056147963 0.054352179 -0.0037412047 0.34166935 0.85352308 -0.3933959 0.0026083903
-0.069633052 0.058743753 -0.0046435595 0.27449796 0.69023305 -0.6694991 0.0082034143
-0.067409158 0.058550425 -0.0042450679 0.28175423 0.6745975 -0.68229967 0.0068144309
-0.064574689 0.057812262 -0.0038365771 0.35281834 0.73610103 -0.5776456 0.0054976838
-0.062675923 0.057258528 -0.0032392219 0.43668029 0.78897917 -0.43222937 0.016566254
-0.068712786 0.060109381 -0.0032690838 0.34735471 0.7653175 -0.54187989 0.017057877
-0.036667753 0.044758677 -0.0017501321 0.52189034 0.84634614 -0.10643643 0.0023351216
-0.035895117 0.044256635 -0.0023305714 0.47050235 0.87233424 -0.13289276 0.0043733022
-0.042187091 0.047739852 -0.0020916436 0.45257333 0.88083071 -0.13897717 0.0043104538
-0.040518828 0.046889622 -0.001564458 0.47406176 0.87324566 -0.11272756 0.002969024
-0.038026072 0.045540951 -0.0013509388 0.46718171 0.87614071 -0.11882203 0.0023603269
-0.04805927 0.050901853 -0.00263796 0.47635469 0.86367768 -0.16476388 0.0040785898
-0.046354461 0.050161887 -0.001602584 0.47366717 0.86300635 -0.17566839 0.0033907499
-0.043672681 0.048653968 -0.001572261 0.47705659 0.87092483 -0.11792761 0.0033093225
-0.052273873 0.053339917 -0.0016812509 0.43311051 0.88141686 -0.1884664 0.0039364742
-0.049592767 0.051949862 -0.0015141239 0.44996357 0.87278378 -0.18915939 0.0034097852
-0.047648497 0.051022805 -0.00079057366 0.47636768 0.86366796 -0.16477679 0.0041297809
-0.060665835 0.056696471 -0.0019220869 0.49437326 0.84498787 -0.20393778 0.0094507122
-0.058574423 0.055887852 -0.0016088395 0.36557636 0.91048479 -0.19331674 0.0086322837
-0.055484317 0.054754868 -0.0016303369 0.33084863 0.92445993 -0.18950738 0.0038652008
-0.053814616 0.054184545 -0.0010642136 0.39512715 0.89904064 -0.18868075 0.0039241118
-0.066709697 0.059799679 -0.0027147233 0.27552328 0.87299401 -0.40245298 0.02070133
-0.064422905 0.059121154 -0.0016487145 0.43970862 0.82973874 -0.34378776 0.013936695
-0.062005591 0.057670597 -0.0014587987 0.46830118 0.8532989 -0.22929256 0.010753852
-0.067268416 0.060591675 -0.0015806061 0.31025675 0.88455725 -0.34828028 0.027854241
-0.065872394 0.060300242 -0.00081278384 0.42228946 0.85050362 -0.3135525 0.019056434
-0.036492489 0.044746071 0.0015556216 0.51548529 0.8542223 0.067670032 0.0026811932
-0.035772186 0.044295572 0.0023303181 0.5582301 0.82403028 0.096712217 0.0045459634
-0.042102516 0.04776565 0.0023529902 0.48594499 0.87037355 0.079418451 0.0026218726
-0.04057372 0.047013558 0.0012770874 0.48175386 0.87256742 0.080866665 0.0029718396
-0.03792794 0.045556206 0.0011383177 0.46601734 0.88106167 0.080982603 0.0025886651
-0.046228066 0.050180294 0.0013966807 0.49238583 0.86200202 0.12045173 0.0032913359
-0.043560028 0.048687998 0.0013102517 0.47442269 0.8763299 0.083481163 0.0032527777
-0.052205719 0.053432725 0.0014335141 0.44761851 0.88643867 0.11774605 0.0034167317
-0.049535271 0.052037992 0.0012464219 0.47085994 0.87824619 0.083514296 0.005410153
-0.047610775 0.05103391 0.00079092756 0.47423032 0.87516052 0.095915467 0.0054746377
-0.06028251 0.056722376 0.001536728 0.50770664 0.8514238 0.1315732 0.011108615
-0.058513563 0.055987753 0.0013942495 0.37113935 0.91972464 0.12791452 0.0092797922
-0.055528879 0.054904103 0.0012855936 0.33033994 0.93369949 0.13813297 0.0046411431
-0.053709257 0.05421447 0.0010644272 0.39420262 0.90917403 0.1341899 0.0048464825
-0.064292915 0.059272617 0.0014065561 0.49607083 0.83765298 0.22858535 0.015586024
-0.061848927 0.057726055 0.001289114 0.46787465 0.87060404 0.15212461 0.012966735
-0.067078397 0.060699631 0.0015134396 0.42273089 0.89070582 0.16715762 0.027133781
-0.065781519 0.060324285 0.00081309304 0.4229216 0.89061207 0.16717516 0.027221471
-0.01878717 0.035955414 0.0055431947 0.30018929 0.84950018 0.43386173 0.00088760402
-0.016661454 0.035367537 0.0052712373 0.26346326 0.85919869 0.43859392 0.00057012792
-0.013385958 0.034288231 0.0057043359 0.21917902 0.86928678 0.44305879 0.00021992432
-0.010646905 0.033531222 0.0059599704 0.19919631 0.84525639 0.49584508 0.0012115304
-0.024800291 0.038174778 0.0056004003 0.34571677 0.83251107 0.43290308 0.00044657238
-0.022144696 0.037201863 0.0054062358 0.31784913 0.85177553 0.41647387 0.00031519553
-0.019785991 0.036409937 0.0052159107 0.30019233 0.84950936 0.43384162 0.00087229052
-0.03712051 0.044385515 0.0046468736 0.43904358 0.85062569 0.28926915 0.0027090383
-0.035432603 0.043499634 0.0046599782 0.4443745 0.84314603 0.30271444 0.0027411096
-0.042887677 0.047453713 0.0048191515 0.45329455 0.83260792 0.31825805 0.0032552322
-0.040474635 0.046280529 0.0043981904 0.47555006 0.83111334 0.28827542 0.0024931727
-0.03841297 0.045297287 0.0039659981 0.44393799 0.85610694 0.26457497 0.001921099
-0.048766017 0.050556764 0.0049773292 0.43514964 0.83683509 0.33219248 0.0041810628
-0.046418469 0.04952139 0.0044659791 0.43834543 0.83639741 0.32907867 0.0031845244
-0.044118822 0.048413768 0.0040362882 0.43125597 0.84140134 0.3256717 0.0024756922
-0.057037834 0.053823661 0.0058911815 0.23069601 0.7878055 0.57108825 0.0025157174
-0.055025611 0.053518672 0.0050702281 0.32921523 0.85981798 0.3902953 0.0047408822
-0.052454751 0.05264556 0.0045171767 0.37827402 0.84166121 0.38537669 0.002989088
-0.049995515 0.05156986 0.004102923 0.42116618 0.84028459 0.34138092 0.0038771001
-0.066157408 0.05687042 0.0059792623 0.27447578 0.65434015 0.70462888 0.0028114254
-0.064159155 0.056481991 0.0055979588 0.27090544 0.6759361 0.68536174 0.0034212021
-0.061480545 0.05596694 0.0046819779 0.33590746 0.79619569 0.50322825 0.011052677
-0.058569506 0.055026442 0.0044425335 0.25515589 0.86662942 0.42877612 0.0035214275
-0.055905949 0.054420788 0.0038467483 0.3524386 0.87205094 0.33957955 0.0030521499
-0.069833219 0.058971707 0.005054798 0.29171264 0.73252994 0.61506379 0.0093932608
-0.067230776 0.058896683 0.0044605499 0.2917192 0.73253697 0.6150524 0.0093795182
-0.064633399 0.058006972 0.0041742059 0.3512291 0.73119503 0.58480078 0.012195898
-0.062634371 0.05745548 0.0034188505 0.39880887 0.7513482 0.52576369 0.0083354926
-0.068252534 0.06023059 0.0035388023 0.33496472 0.79688346 0.50276762 0.016842529
-0.012906355 0.032717615 0.0085871983 0.21274233 0.84041828 0.49843541 0.00095271517
-0.010389425 0.03237946 0.0081274118 0.18831852 0.84323746 0.50347471 0.00076363375
-0.0075888308 0.032006271 0.0077325702 0.14191997 0.81800896 0.55742264 0.00097850396
-0.0045933621 0.031372234 0.0080136843 0.10274604 0.79617888 0.59627378 0.00039666996
-0.0018186733 0.030735103 0.0084732221 0.077379636 0.76251739 0.64232367 0.00084515341
0.00058766501 0.030335644 0.0087584034 0.060608931 0.75782424 0.64963758 0.0006435269
-0.021842837 0.03569781 0.0083671883 0.31803155 0.83309299 0.4525615 0.00090041914
-0.019381322 0.035268657 0.0075219213 0.30438286 0.8455621 0.43860671 0.00081050303
-0.01650393 0.034455255 0.0072595058 0.25567365 0.84408003 0.47133851 0.0012187116
-0.013768091 0.03365951 0.0073182085 0.22845992 0.84290284 0.48715591 0.00097133272
-0.010855176 0.033230137 0.0067451885 0.19920015 0.84524775 0.49585849 0.0012222232
-0.028016472 0.038528007 0.0078548295 0.37158951 0.78081554 0.5022434 0.00078620348
-0.025508618 0.037666492 0.0073957904 0.34537792 0.80969787 0.4744505 0.0010497656
-0.022736426 0.036677536 0.0071580498 0.32161117 0.83306849 0.45007023 0.0010281181
-0.020381022 0.036203582 0.0063179955 0.30019742 0.84950036 0.43385565 0.00088404119
-0.036360882 0.041933879 0.0088283047 0.39210263 0.78322059 0.48251545 0.0024745911
-0.03424954 0.041383006 0.0080029471 0.38237125 0.79941267 0.46339151 0.0015511782
-0.031497341 0.040085878 0.0079441443 0.36069006 0.77220678 0.52306724 0.00040174613
-0.028975859 0.039413378 0.0069754035 0.37228894 0.78958273 0.48781145 0.00045566855
-0.042402156 0.044940446 0.0089120492 0.37302256 0.72291297 0.58159333 0.0012308053
-0.040110439 0.044337183 0.008017431 0.39610764 0.77420187 0.49367014 0.0023247411
-0.037571862 0.043355927 0.0074673663 0.41919556 0.81556678 0.39890584 0.00086250808
-0.035180099 0.042461965 0.0068748086 0.3780807 0.80734348 0.45304695 0.0016808828
-0.048669621 0.047971413 0.0089995041 0.3230705 0.71261972 0.62273479 0.0013884295
-0.046130296 0.047362369 0.0081373593 0.36636877 0.75321776 0.54629374 0.0028799176
-0.043517008 0.046415318 0.0075365375 0.40770903 0.78311992 0.46957055 0.001856625
-0.041097835 0.045495208 0.0069384337 0.41981128 0.79374158 0.44015077 0.0017329934
-0.054194435 0.050759751 0.0085419491 0.24947369 0.71745139 0.65040475 0.0029423246
-0.052135315 0.05035549 0.0079796202 0.30679524 0.75588912 0.57836699 0.0020295077
-0.049417712 0.049533039 0.0073884684 0.35941261 0.78031874 0.5117864 0.0016141884
-0.046922851 0.0485962 0.0069043115 0.40554205 0.77829295 0.47937012 0.0018240371
-0.064112179 0.052946936 0.0083262892 0.20993857 0.66545379 0.71630788 0.0031310264
-0.061294369 0.053179074 0.007899018 0.15738288 0.71487665 0.68130904 0.002509424
-0.058353376 0.052988324 0.007476496 0.17396009 0.74967152 0.63853776 0.003261866
-0.055558957 0.052158773 0.0074549983 0.25638503 0.74479967 0.61606836 0.0012610212
-0.052796114 0.051535435 0.0068003112 0.36656359 0.77457154 0.51543194 0.0015116603
-0.067023411 0.055793185 0.0068106689 0.20702089 0.62319648 0.75416738 0.00090332603
-0.064624123 0.054968327 0.0069785854 0.22739331 0.6583147 0.71757507 0.00297793
-0.061999064 0.05454576 0.0066995723 0.20879076 0.70214736 0.68073159 0.0057384092
-0.059781574 0.054161698 0.0064583197 0.2348057 0.74895954 0.61961752 0.0053069941
-0.068407245 0.05738496 0.0060020164 0.25884941 0.69389099 0.67194664 0.0055326517
-0.012091861 0.029825799 0.011988841 0.15238643 0.71393394 0.68343014 0.002425388
-0.010160571 0.029581159 0.011745472 0.1752228 0.70877999 0.68332124 0.00038432848
-0.0075427261 0.029255077 0.011451086 0.15356669 0.71967286 0.67711759 0.00039331621
-0.0046285102 0.029178809 0.01098183 0.11470688 0.75148904 0.64969724 0.0010307941
-0.0015805083 0.028883765 0.010835037 0.087705791 0.75223708 0.65302908 0.00061150978
0.0014137905 0.028928427 0.010474131 0.040136624 0.72977269 0.68251079 0.0015734747
0.0038433312 0.02814891 0.011231838 0.035759468 0.6734966 0.73832482 0.0026240409
-0.019058848 0.032651905 0.011264947 0.25355905 0.75589901 0.60359305 0.0017037538
-0.016453112 0.032166678 0.010779737 0.23986527 0.77193844 0.58870691 0.0015984919
-0.013596904 0.031565685 0.010458271 0.21989657 0.77756727 0.58909655 0.0012164388
-0.010573735 0.030951625 0.010271781 0.17941293 0.75934553 0.62546408 0.001321536
-0.0077036917 0.030541647 0.0099962633 0.14722052 0.77113211 0.61942023 0.0015699227
-0.0046379189 0.030363206 0.0095415041 0.10875022 0.77559084 0.62179762 0.001100764
-0.0013583968 0.030124908 0.0092837242 0.085854486 0.76383322 0.63967794 0.00079261576
-0.027567199 0.035615981 0.011668306 0.30839279 0.67919153 0.66602761 0.0010036401
-0.025165832 0.035178576 0.010996157 0.30380809 0.75425953 0.58205944 0.0014521769
-0.022414342 0.034515299 0.010416887 0.28843206 0.77890605 0.55687726 0.0011437254
-0.019657221 0.033905514 0.0099098999 0.26894891 0.79000527 0.5509612 0.0022707011
-0.017040895 0.03336839 0.0094165215 0.25017136 0.7910496 0.5582605 0.0013050649
-0.014988426 0.033033244 0.0090219751 0.24660499 0.79777294 0.5502221 0.0026829201
-0.0341562 0.0385653 0.011750244 0.32507303 0.67784894 0.65943027 0.00074855192
-0.03130861 0.038046233 0.010781826 0.33907792 0.73885226 0.58234316 0.0011682643
-0.028608024 0.037108645 0.010407946 0.32329589 0.76242191 0.56052887 0.0017986668
-0.02580755 0.036487453 0.0096030189 0.32074341 0.76931918 0.55251402 0.0012004813
-0.039695609 0.041684471 0.01123957 0.34290847 0.71146709 0.61337465 0.00087175821
-0.037231855 0.040848285 0.010809253 0.35008827 0.71784323 0.60178012 0.0010840326
-0.034619715 0.040062279 0.010229578 0.35374069 0.74218994 0.56922895 0.0018540813
-0.032254323 0.039374366 0.0096352873 0.36405912 0.75129032 0.55047601 0.00094814034
-0.046264078 0.044568732 0.011445967 0.28389809 0.67753923 0.67848545 0.0013247707
-0.043367077 0.044000108 0.010628808 0.3426744 0.7030344 0.62315077 0.0017629273
-0.040675242 0.04295617 0.010320474 0.35514891 0.71711785 0.59967601 0.0015896148
-0.038268164 0.042414039 0.0095092133 0.37671092 0.74207062 0.5544548 0.0013038177
-0.057423886 0.04758494 0.011843495 0.11914191 0.57279015 0.81099743 0.00052628783
-0.05499908 0.04755893 0.011611638 0.16129537 0.59688401 0.78594738 0.0017967302
-0.052457023 0.047250945 0.011269884 0.22472534 0.63476139 0.73930812 0.0019949928
-0.049523331 0.046702206 0.01073304 0.25940114 0.64448392 0.71927148 0.00059455592
-0.046716344 0.046004981 0.010186421 0.32176411 0.69347984 0.64463449 0.001909
-0.044394955 0.045420837 0.0096006878 0.36565775 0.69932187 0.61420143 0.0023700933
-0.058376011 0.049892776 0.010364506 0.15439352 0.65153074 0.74274516 0.0016535263
-0.055309329 0.049546126 0.01006731 0.17986052 0.64454579 0.74310899 0.0013439235
-0.052526087 0.048977654 0.0096986666 0.26659712 0.69321722 0.66960877 0.0018290839
-0.050225269 0.048499353 0.009235044 0.3321203 0.68581504 0.64757532 0.0015271906
-0.061429795 0.051462073 0.0093752863 0.12159235 0.67546988 0.72729349 0.0010453139
-0.058531031 0.051452629 0.0091454908 0.16227235 0.70789731 0.6874221 0.0014835912
-0.056867156 0.051095683 0.0091193393 0.15850799 0.67732024 0.71840966 0.0030896899
-0.00093870854 0.023993449 0.014716439 0.063674726 0.49448538 0.86685044 0.0022630352
0.0013672701 0.023846701 0.0146485 0.049842298 0.46145892 0.88576031 0.0015191162
0.0045652455 0.02380044 0.014552459 0.023713036 0.45890847 0.88816708 0.0015438194
0.0075193024 0.023414718 0.014708936 -0.025995141 0.47107598 0.88170946 0.0026401971
-0.01261034 0.026966278 0.014533497 0.16904502 0.58395702 0.79398865 0.0012433667
-0.010282939 0.026237566 0.01454512 0.15261623 0.53225398 0.8327148 0.0011457789
-0.0075582205 0.025673052 0.014450148 0.13104381 0.52378261 0.84171212 0.0013523318
-0.0045826766 0.025617471 0.014067444 0.10664473 0.54075301 0.8343938 0.001003339
-0.001570012 0.025721505 0.013653408 0.076058559 0.58747113 0.80566293 0.0024731087
0.0015324146 0.025743801 0.01340349 0.055756249 0.59401029 0.8025229 0.00052155415
0.0046414481 0.02565355 0.013318457 0.024199536 0.57162684 0.82015681 0.0018834235
0.0071174889 0.025415972 0.013493069 0.02927438 0.55365831 0.83222926 0.0019772435
-0.021637771 0.029845638 0.014764905 0.21523023 0.58386362 0.78280222 0.0010944087
-0.019120481 0.029250603 0.014481029 0.21519934 0.55702055 0.8021329 0.0016372763
-0.016351033 0.0289232 0.013961867 0.19784428 0.58581984 0.78592163 0.001125328
-0.01349572 0.02850927 0.013539776 0.18804601 0.60537702 0.77340633 0.000924817
-0.010587458 0.028254032 0.013089277 0.17044581 0.65910196 0.73248404 0.0013313469
-0.0076120463 0.027774313 0.012891394 0.13969888 0.660034 0.7381323 0.001440534
-0.00458676 0.027595239 0.012567441 0.10658785 0.67370421 0.73127401 0.001509685
-0.0017006885 0.027378764 0.012373161 0.079407625 0.68713176 0.72218031 0.0014021668
0.0014925712 0.027295347 0.012170814 0.044683449 0.63781738 0.76889026 0.0015161459
0.0040113511 0.027227344 0.012108065 -0.010087128 0.65409601 0.75634438 0.0028200326
-0.028072119 0.032454554 0.014752366 0.25543067 0.59973091 0.75833893 0.0013566265
-0.025233928 0.031879973 0.014256849 0.23860604 0.57952523 0.77924174 0.0012089901
-0.02246343 0.031532977 0.013610709 0.24582836 0.61677247 0.74777019 0.0010280426
-0.019745603 0.031265896 0.012952453 0.25273484 0.65619117 0.71101213 0.0021082407
-0.01677247 0.030737739 0.012496871 0.22329554 0.70133471 0.67695558 0.0011491613
-0.013973765 0.030203041 0.012156289 0.19619404 0.69826996 0.68842351 0.0005437957
-0.034027264 0.035602335 0.014413361 0.2567597 0.598046 0.7592203 0.001053342
-0.031318817 0.034762911 0.014069895 0.28065595 0.58701527 0.75937164 0.001164646
-0.028782364 0.0344855 0.013324595 0.29258949 0.63241041 0.71725059 0.0018336592
-0.025967365 0.03381988 0.012842248 0.27254006 0.66937149 0.69113219 0.002283457
-0.023420325 0.033265799 0.012358315 0.27159816 0.68289959 0.67814642 0.00088474614
-0.04259688 0.038824141 0.014749892 0.18947881 0.51794106 0.83416712 0.0020698756
-0.040189851 0.038365223 0.014359616 0.23619941 0.54486829 0.80456728 0.0012211198
-0.03719094 0.037768044 0.013794428 0.26510662 0.61301994 0.74426138 0.0017519512
-0.034499474 0.037154041 0.013274595 0.28144875 0.64971578 0.7061559 0.0016735956
-0.031743579 0.036508184 0.012725208 0.31226391 0.66634387 0.67710936 0.0016186971
-0.051609557 0.040960122 0.01498092 0.11960348 0.46935844 0.87487006 0.0012306977
-0.049315125 0.041344754 0.01459273 0.13967699 0.47633731 0.86809742 0.0019446885
-0.046301831 0.040794261 0.01435672 0.1731898 0.5249334 0.83333683 0.0013765122
-0.043526862 0.040662028 0.013702878 0.22298661 0.58264852 0.78153545 0.0019391975
-0.040793866 0.040444363 0.012924059 0.2996181 0.61859334 0.72634101 0.001208013
-0.038177989 0.039707728 0.012527997 0.31227666 0.64878136 0.69394958 0.0015661358
-0.054465212 0.043995149 0.013687037 0.12322517 0.51668298 0.84726292 0.0004472385
-0.052163787 0.043502014 0.013747698 0.12830558 0.50763845 0.85196292 0.00062056031
-0.04945619 0.043766808 0.013117845 0.18389894 0.55277097 0.81278861 0.0020245868
-0.046684731 0.043240905 0.012745264 0.24635938 0.60514307 0.75703961 0.0015579674
-0.043858942 0.042561982 0.012287903 0.29500344 0.65248144 0.69802642 0.0020031389
-0.055517226 0.046139352 0.012565373 0.152659 0.57590252 0.80313855 0.0010779562
-0.052442331 0.045615323 0.01249782 0.16668124 0.58205396 0.79588348 0.0016701649
-0.050267518 0.045275591 0.012236558 0.22850536 0.61875182 0.75161922 0.0015762341
-0.0018430384 0.017542813 0.016793899 0.05572103 0.30990621 0.94913298 0.0015822696
-0.019475732 0.02031577 0.01787176 0.12303086 0.30429986 0.94459778 0.0018731642
-0.01042225 0.020558899 0.017048106 0.12005604 0.34447339 0.93108797 0.00055666995
-0.0075058169 0.019554518 0.016961407 0.097627066 0.29876792 0.94931901 0.00089475606
-0.0042834668 0.019067077 0.016758628 0.093918122 0.29667982 0.9503476 0.0013252564
-0.0016217617 0.020554595 0.016254397 0.048560072 0.35710937 0.93279946 0.0045853155
0.0015328241 0.020230131 0.016153725 0.030204594 0.32974362 0.94358718 0.0019009645
0.0046125273 0.020156892 0.016052336 0.013771142 0.37826014 0.92559689 0.00031673672
0.0075341919 0.020297261 0.015953511 0.015747175 0.42016578 0.90731066 0.0011176077
-0.022689849 0.022382446 0.017957199 0.13079521 0.28226361 0.95037884 0.0015491215
-0.019612651 0.022717975 0.017539008 0.14246629 0.31711552 0.93762529 0.0027144786
-0.01610294 0.022852685 0.017111553 0.11258631 0.33109999 0.9368549 0.0020814
-0.013345106 0.022391493 0.016872562 0.14249212 0.40358323 0.90377909 0.0012914131
-0.010312944 0.023017449 0.016261892 0.14144477 0.38356149 0.91261923 0.0016179216
-0.007436587 0.022456937 0.016112758 0.13885334 0.37239271 0.91762924 0.0017307587
-0.0046654628 0.022478713 0.015781518 0.079021789 0.37785721 0.92248547 0.0020820729
-0.0016825128 0.022647282 0.015443037 0.041251749 0.4063209 0.91279876 0.0019289898
0.001359136 0.022267209 0.015400496 0.050642893 0.42696527 0.9028489 0.0014470567
0.0044809999 0.02219923 0.015302323 0.026469089 0.42587343 0.90439552 0.0015783663
0.0072762705 0.021756899 0.015460417 0.01420162 0.44581705 0.89501148 0.00172242
0.0099008 0.022039117 0.015372403 -0.025992978 0.47107655 0.88170934 0.0026402371
-0.027771223 0.026818721 0.017560057 0.1399996 0.32976359 0.93362528 0.0036061506
-0.025852542 0.02614437 0.017503206 0.16178222 0.33329788 0.92883742 0.002632298
-0.022403009 0.02555562 0.017165668 0.16125646 0.35662949 0.92022377 0.0028398025
-0.019368092 0.025649419 0.016610155 0.14157096 0.38402089 0.9124065 0.0027520608
-0.016393369 0.025651652 0.016037716 0.15648033 0.42440248 0.89185005 0.0020629754
-0.013618246 0.025517041 0.015584872 0.14910747 0.45911554 0.87577391 0.001884609
-0.010952909 0.024826622 0.015509754 0.1286436 0.48464975 0.86519676 0.0019894377
-0.0079797944 0.024181057 0.015424483 0.11275475 0.46336022 0.87896746 0.0033703123
-0.037040558 0.02960784 0.017840834 0.15410013 0.37836042 0.91274124 0.00048753642
-0.034121547 0.028965494 0.017749347 0.15917176 0.34900543 0.92350394 0.0029345897
-0.03117615 0.028664213 0.017430173 0.14978324 0.33928794 0.92868119 0.0031195385
-0.028311869 0.028574666 0.016982423 0.17758831 0.38978931 0.90361869 0.0031781213
-0.025350854 0.028511791 0.016428532 0.19168529 0.45228234 0.87103236 0.001099785
-0.022518141 0.028445125 0.015827388 0.18522656 0.4826999 0.8559742 0.0016275196
-0.019619148 0.027873952 0.015489763 0.18349911 0.5186035 0.83509189 0.0020450016
-0.01706103 0.027463118 0.0151633 0.18104418 0.55291331 0.81333256 0.0013750142
-0.044010717 0.032237936 0.017514296 0.093295187 0.35118562 0.93164623 0.00079125451
-0.040487099 0.032314334 0.017396269 0.12200633 0.3682701 0.92167866 0.0015786651
-0.03713296 0.032125097 0.017078025 0.18372691 0.41130561 0.89278901 0.0016816825
-0.034173377 0.031651951 0.01677857 0.17303178 0.41999123 0.89088011 0.0017997149
-0.031390868 0.031572022 0.016196983 0.19468375 0.45395416 0.86949635 0.0016711946
-0.028688729 0.031056821 0.015817033 0.2096443 0.50109649 0.83961397 0.0018963189
-0.025826421 0.030521708 0.015392747 0.2117878 0.54556698 0.8108654 0.0015160051
-0.045092296 0.03467232 0.016988434 0.098068163 0.36477163 0.9259181 0.0013599346
-0.043011516 0.034989946 0.016741442 0.13685432 0.39203891 0.90971226 0.0030649824
-0.040437028 0.034898594 0.016441444 0.12189196 0.40138522 0.90776223 0.0028311813
-0.037446011 0.034633733 0.015958538 0.18802878 0.46580756 0.86467826 0.001943632
-0.034530099 0.034170724 0.015509775 0.22105166 0.51237452 0.82982445 0.0014067279
-0.032276362 0.033641264 0.01520617 0.24061292 0.55176985 0.7985332 0.0013128824
-0.048667349 0.037137106 0.016273372 0.096207343 0.40064165 0.91116971 0.00044399174
-0.046009373 0.037496012 0.016028158 0.13379669 0.43765938 0.88913035 0.0016305376
-0.043565717 0.03752511 0.01567181 0.15364206 0.45476517 0.87725866 0.0015737186
-0.040391244 0.036873642 0.015409306 0.19703972 0.51406437 0.83481336 0.0017397683
-0.037951246 0.036210395 0.015170187 0.2314564 0.5546996 0.79920977 0.0010485942
-0.049832739 0.039563015 0.015479676 0.13806956 0.46837255 0.87267625 0.0017202726
-0.047276996 0.039260838 0.015408412 0.13466763 0.45044109 0.88259131 0.0013685852
-0.02555838 0.023508642 0.018043108 0.11330058 0.26490346 0.95759547 0.00069805363
-0.031452257 0.024936652 0.018231548 0.13426796 0.31007072 0.94118452 0.0021793821
-0.028228186 0.024452286 0.018124459 0.1171155 0.2602936 0.95840037 0.00090782339
