# .PCD v0.7 - Point Cloud Data file format
VERSION 0.7
FIELDS x y z normal_x normal_y normal_z curvature
SIZE 4 4 4 4 4 4 4
TYPE F F F F F F F
COUNT 1 1 1 1 1 1 1
WIDTH 568
HEIGHT 1
VIEWPOINT 0 0 0 1 0 0 0
POINTS 568
DATA ascii
-0.038077652 0.045541506 0.0012984581 0.4616617 0.87797236 0.12662204 0.0015375569
0.072575375 0.046548929 0.0016872081 0.97590458 -0.064686447 0.20838886 0.0045688185
-0.04650354 0.050197758 0.0017478135 0.47062492 0.86801118 0.1583313 0.0018399169
-0.043739971 0.048651945 0.0016981724 0.4506146 0.87438732 0.17998128 0.0028724473
0.072658628 0.049538352 0.0015111183 0.95160145 -0.015161008 0.3069607 0.0039274688
-0.074454002 0.051062375 0.0029900807 -0.66597486 -0.15531056 0.72962743 0.0026462178
-0.052261077 0.05331618 0.0017645427 0.43988827 0.85863453 0.26314479 0.0033496269
-0.049441695 0.051838417 0.0016776357 0.47849208 0.85964966 0.17901883 0.0019006715
0.052758489 0.051295049 0.00252088 -0.47287267 0.76639867 0.43476945 0.00086214748
0.054935668 0.052633934 0.0026669032 -0.47658935 0.77042967 0.42343923 0.00068516738
0.057114132 0.053965546 0.0028496983 -0.46690163 0.74145103 0.48192653 0.001504714
0.072703943 0.052489541 0.0015017511 0.87175053 0.02366478 0.48937809 0.0047804317
-0.075773731 0.054170053 0.002719294 -0.57421303 -0.051912475 0.8170585 0.0073980754
-0.060732931 0.056697454 0.0022736646 0.46386343 0.84616596 0.26236194 0.0055487663
-0.058553703 0.055862486 0.0017896231 0.35273102 0.88480401 0.30447137 0.0073976461
-0.055369731 0.054727491 0.0015741325 0.37953445 0.90275371 0.20245788 0.0022941062
0.058743358 0.055088226 0.0027589153 -0.48091888 0.68503577 0.54721379 0.002787136
0.072731242 0.055526368 0.0017409227 0.87797809 0.050202452 0.47606108 0.0062337285
-0.064332113 0.059024818 0.0018730884 0.46854946 0.81362557 0.34420186 0.01116967
-0.061986011 0.057639413 0.0015347744 0.46239942 0.85024327 0.25154161 0.0063182227
0.061923314 0.057860781 0.0026231974 -0.53141725 0.53797072 0.65435708 0.004808268
0.063436091 0.059574701 0.0027475313 -0.45912659 0.49068469 0.74056149 0.010143759
0.072856449 0.058588929 0.0017094571 0.84894055 0.042763744 0.52675527 0.014063828
-0.069036655 0.060695421 0.0023133138 0.17804752 0.71348959 0.67766631 0.026259346
-0.067110695 0.060501285 0.00196894 0.38815492 0.78902143 0.47621518 0.025786394
-0.06576889 0.060194593 0.00091290864 0.42596966 0.82161063 0.37882155 0.010827808
0.064397126 0.06175483 0.0023659389 -0.52395868 0.33962199 0.78110451 0.0046623312
0.07305152 0.061520711 0.0017988982 0.85622448 -0.076205388 0.51095247 0.015921578
0.06537009 0.064584807 0.0022154406 -0.34430721 0.23096107 0.91000527 0.017422374
0.066276744 0.065209493 0.0029227664 -0.34432024 0.23093329 0.91000736 0.017426601
0.073375449 0.064587131 0.0019783159 0.79219389 -0.14403343 0.5930289 0.025891842
0.065666817 0.0670138 0.0016379078 -0.36839005 0.1536449 0.9168871 0.0080765635
0.0668329 0.067910261 0.0025631709 -0.37277168 0.15955317 0.91410285 0.0095051182
0.074055351 0.067463063 0.0019694357 0.80934095 -0.24629605 0.53320301 0.0081868814
0.075161003 0.068814762 0.00015874862 0.80978608 -0.26741189 0.52224267 0.0062124478
0.067656025 0.070557036 0.002455747 -0.39008263 0.0078134835 0.92074674 0.0073410915
0.074485332 0.069857232 0.0024909859 0.62380689 -0.2823624 0.72879112 0.045382742
0.075483255 0.070846669 0.0014629761 0.82400054 -0.31171083 0.4731378 0.0080975518
0.067790732 0.073338851 0.002263763 -0.55704379 0.01588184 0.83033121 0.012790691
0.076289617 0.07341864 0.0018908367 0.74629575 -0.25860181 0.61332512 0.020198606
0.068112448 0.076170489 0.0024157525 -0.46302664 0.021741005 0.88607764 0.01761023
0.069152191 0.077055924 0.0022932806 -0.39695403 0.016914472 0.91768259 0.023525283
-0.015677473 0.0026170742 0.0044498476 -0.18253779 -0.88770092 0.42269015 0.00029605092
-0.013392407 0.0023216836 0.0048444956 -0.1499474 -0.89278996 0.42478457 0.00035993356
-0.010441758 0.0019062447 0.0049725147 -0.13266093 -0.89018083 0.43586585 0.00054610544
-0.0075514927 0.0015663566 0.00499033 -0.086090207 -0.88876587 0.4502041 0.00033291581
-0.0044917772 0.0013009852 0.004815646 -0.033199918 -0.91670775 0.3981767 0.0014058987
-0.0016736493 0.0012563928 0.0050438694 -0.017132698 -0.9151876 0.40266389 0.0013975459
0.0016960254 0.00091378001 0.0040760068 0.0041156844 -0.91759998 0.39748394 0.0010537314
0.0044328938 0.0010077073 0.0042543183 0.0065380628 -0.90732044 0.42038876 0.0012666617
0.0075545469 0.0012873098 0.0045549134 0.093192577 -0.90670633 0.41133788 0.0014614933
0.01059954 0.0016220912 0.0049134218 0.10487482 -0.90649503 0.40898401 0.0021785502
0.013679173 0.0018382908 0.0046954472 0.11961848 -0.91018218 0.39655998 0.0024825593
0.016416112 0.0021855696 0.0047293361 0.13484411 -0.89499611 0.42520466 0.0027136344
0.01936247 0.0023960497 0.0041489173 0.14468642 -0.90690488 0.39571366 0.0039979424
0.021255225 0.0024965499 0.0033344342 0.19123751 -0.90117764 0.38898215 0.0042435247
-0.027069056 0.0059575122 0.0046957345 -0.29714239 -0.8620882 0.41050014 0.00040404071
-0.025349468 0.0053258804 0.0045280699 -0.28068155 -0.86897165 0.4075613 0.00027799117
-0.022521861 0.0044857142 0.0046450985 -0.26164523 -0.87631553 0.40449089 0.00024991491
-0.019293068 0.0035730607 0.0046940404 -0.22957452 -0.87426358 0.4277367 0.00026190357
-0.016835209 0.003256619 0.0054527959 -0.19565958 -0.8692463 0.45401332 0.00049721234
0.01953065 0.0030598969 0.0055991476 0.15186645 -0.86641705 0.47566593 0.003749257
0.022635432 0.0032987434 0.0047947499 0.20056091 -0.89492446 0.39860454 0.0036695711
0.025535405 0.0039991918 0.0048547927 0.21842927 -0.89248133 0.39467174 0.0047320644
0.028436376 0.0046656677 0.0045892522 0.24723038 -0.897623 0.36489737 0.0032215158
0.031137198 0.005432738 0.0044542691 0.29238623 -0.89867347 0.32695013 0.002464826
-0.034061946 0.0085552586 0.0048235399 -0.33497033 -0.85661155 0.39244285 0.0002653042
-0.031675763 0.0076008141 0.0046891617 -0.31434885 -0.8636812 0.3940047 0.00012459864
-0.028822055 0.0066779922 0.0049958592 -0.30037034 -0.85967171 0.41320953 0.00033932918
-0.026015734 0.0060297996 0.0058212709 -0.28068155 -0.86897165 0.4075613 0.00027799117
0.032288693 0.0062287049 0.0055605858 0.28276223 -0.87548018 0.39189288 0.0028326286
0.03457877 0.0066835834 0.0046545523 0.32158741 -0.88655359 0.33257222 0.0030643593
0.037494548 0.0078246901 0.0047144196 0.34951833 -0.87405425 0.33744046 0.0024335696
0.039787412 0.0085320212 0.0039866255 0.37891412 -0.86705846 0.32347131 0.0026066394
-0.040353835 0.011166727 0.0042837523 -0.41655388 -0.82592636 0.37990591 0.00038676526
-0.037675615 0.010249597 0.0052704327 -0.38060462 -0.84273577 0.38070533 0.00020670764
-0.035434503 0.0092978254 0.0053786752 -0.34437916 -0.84233952 0.41456863 0.00042267909
0.040720105 0.009312883 0.0050310353 0.39280909 -0.85292345 0.343835 0.0021524869
0.043507844 0.010479164 0.0045858929 0.4285717 -0.83666217 0.34106106 0.0024146396
0.045925424 0.011618503 0.0042905863 0.45628801 -0.83880502 0.29699734 0.0020161839
-0.043189298 0.012617329 0.0041360096 -0.45562547 -0.79689175 0.39669752 0.00043174461
-0.041289777 0.012198759 0.0057429359 -0.42994475 -0.8088755 0.40108338 0.00053468684
0.047334868 0.01263597 0.0049585942 0.47257224 -0.82584691 0.30765638 0.0015588187
0.049450621 0.013733949 0.0045873965 0.49109569 -0.80404192 0.33517393 0.0021742014
0.05125495 0.014620658 0.0040247906 0.51293302 -0.8088572 0.28748873 0.00459236
-0.049146518 0.01655533 0.0044560409 -0.51945013 -0.74496561 0.41856629 0.00039868811
-0.046606399 0.015098825 0.0050683506 -0.49409375 -0.76994938 0.40379354 0.00048197419
0.052685678 0.015850646 0.0047337799 0.52703321 -0.78583044 0.32358399 0.0023424181
0.054831311 0.017207479 0.0043865861 0.54270798 -0.76492155 0.34693384 0.0027684632
-0.052274447 0.019042145 0.0049040639 -0.5366801 -0.72899157 0.42490685 0.00063422538
0.056197751 0.018460499 0.0049534575 0.57567227 -0.74250734 0.34246796 0.0028524608
0.058198538 0.01988283 0.0045068101 0.61427146 -0.71449006 0.3349247 0.0021843703
-0.056353152 0.022540087 0.005704659 -0.56413585 -0.68184346 0.46566114 0.0015786609
0.059586726 0.021395959 0.00519147 0.64084071 -0.69963527 0.31596464 0.0020546487
0.061257664 0.022580365 0.0043016551 0.6666041 -0.67860925 0.308429 0.0021062887
0.062595472 0.024382154 0.0050727054 0.70292908 -0.63445163 0.32149923 0.0022890237
0.064090021 0.025790477 0.0045060311 0.71516496 -0.60411823 0.35153979 0.0032655499
0.065441683 0.027836759 0.0049289712 0.7621181 -0.54705709 0.34627238 0.0022502607
0.06664589 0.029171266 0.0043331492 0.78747284 -0.49854371 0.36240962 0.0023493865
-0.0070900158 0.032929961 0.0054759555 0.17134121 0.9231292 0.34420162 0.0021221321
-0.0041964133 0.032724906 0.004901581 0.13138285 0.92219031 0.36373562 0.0012572957
-0.0014034441 0.032519232 0.0045280056 0.079281017 0.94613403 0.31391865 0.0034846829
0.0015051053 0.032187734 0.0049126092 0.052833453 0.92063558 0.3868317 0.0022353306
0.0045198812 0.032181408 0.004727568 0.020737037 0.93203884 0.36176455 0.001497523
0.0075114071 0.0321512 0.0048856335 -0.027481498 0.92347568 0.38267145 0.0023316627
0.010509211 0.032405481 0.0046920553 -0.095768154 0.9234302 0.37162471 0.0011553657
0.013421193 0.032660142 0.0049167615 -0.14187604 0.91503078 0.37761056 0.001398297
0.016029635 0.032857612 0.0056282827 -0.19346324 0.9101752 0.36626902 0.0017723034
0.067919165 0.0315428 0.0045629526 0.82861209 -0.42569602 0.3635723 0.0031572799
-0.018722191 0.035892852 0.005387696 0.31271085 0.90057445 0.30195633 0.0020991145
-0.0164952 0.035403192 0.0047269845 0.27530476 0.91626561 0.29097185 0.0019184279
-0.013531754 0.034589894 0.0046945242 0.23369135 0.92052764 0.31307709 0.0021347471
-0.01058486 0.033883329 0.0047199917 0.19757766 0.93233269 0.30285114 0.0018745062
-0.0078159673 0.033535786 0.0041339351 0.1590109 0.94071966 0.29960316 0.0020148361
-0.0056432672 0.033428222 0.0032571554 0.13970524 0.94270635 0.30296391 0.0036081348
0.014715467 0.033356924 0.0033507776 -0.16697407 0.91732001 0.36144668 0.0028236797
0.016597867 0.033436086 0.0043895924 -0.20260487 0.91871077 0.33900109 0.001612574
0.0193875 0.033973984 0.0047915555 -0.23614864 0.90257233 0.35999575 0.0016285204
0.022572087 0.0347853 0.0049239965 -0.257229 0.90052491 0.35055411 0.0010124542
0.025307946 0.03550072 0.0052609951 -0.28655896 0.88601792 0.36449435 0.0011736117
0.068652742 0.03387804 0.0053947698 0.84403706 -0.36999902 0.38820365 0.0028328968
0.069574051 0.034804359 0.0042626536 0.86377543 -0.3468416 0.36550376 0.0029895792
-0.027016526 0.038871001 0.005985646 0.39596462 0.85066766 0.34579843 0.0034126493
-0.02522948 0.038543113 0.0047300118 0.38678703 0.88368469 0.26362312 0.0017633983
-0.022459839 0.037519135 0.0044826888 0.32314828 0.90101391 0.28939429 0.0020015379
-0.019794721 0.03658016 0.0043786466 0.3028253 0.90667433 0.29366398 0.0020828249
0.026331011 0.036136318 0.0043557668 -0.27633572 0.89378995 0.35323963 0.0012156498
0.028574117 0.036744822 0.0047430899 -0.28905606 0.88485992 0.36533478 0.0019429991
0.031680424 0.037735272 0.0050719455 -0.34955406 0.86661708 0.35607135 0.0026020764
0.03383087 0.038706712 0.0048600403 -0.40643632 0.84261239 0.35329026 0.0018900144
0.070347793 0.037509877 0.0046430626 0.88249207 -0.24486376 0.40155882 0.0036986072
-0.069286548 0.040715616 0.0059929332 -0.72366577 -0.21495599 0.6558215 0.00056677591
-0.033147134 0.041884199 0.0056041423 0.39680326 0.8639878 0.30995524 0.0025528211
-0.031367343 0.041335948 0.004693883 0.4317852 0.85995752 0.27209294 0.0015053253
-0.028476382 0.03998043 0.0046751364 0.39149731 0.87724096 0.27780947 0.0020007284
-0.026460432 0.039405923 0.0036634682 0.36276701 0.91044277 0.19873123 0.0020809805
0.035401486 0.039506752 0.004774902 -0.42767125 0.82970494 0.35872966 0.0027317654
0.037572522 0.040732086 0.0047734547 -0.47557777 0.78785294 0.39129725 0.0011761427
0.039745528 0.041616585 0.005748752 -0.45755103 0.75510854 0.46952972 0.00099206308
0.071002305 0.040458255 0.0046335091 0.90564179 -0.15729105 0.39379248 0.002652213
-0.070353806 0.043270122 0.0056295386 -0.72797102 -0.16177933 0.66624749 0.0012575544
-0.039093558 0.044911467 0.005736867 0.42857224 0.83292693 0.35008359 0.0023207397
-0.037359387 0.044366043 0.0047178245 0.4390898 0.8462019 0.30189812 0.002553429
-0.034641419 0.043009765 0.0045369524 0.43477014 0.85641223 0.27844742 0.0019788493
-0.032818101 0.042433344 0.0034152088 0.44512632 0.87221193 0.20275341 0.0024854611
0.040912576 0.042747531 0.0047904039 -0.45910862 0.77260047 0.4385291 0.00032266919
0.043411758 0.044313606 0.0048081805 -0.4676992 0.76408207 0.44433767 0.00035976031
0.071328118 0.04358276 0.0047994968 0.89163899 -0.060192715 0.44872782 0.002768094
0.072106853 0.044082779 0.0031124891 0.96042413 -0.084334999 0.26546779 0.0025017487
-0.07240878 0.046905961 0.0040363059 -0.73584968 -0.16252777 0.65735066 0.00088974129
-0.071195766 0.046577539 0.0056693461 -0.7216202 -0.14240059 0.67748529 0.0013369466
-0.045040615 0.047960602 0.005973387 0.44222543 0.78484678 0.43411073 0.0019515083
-0.043310139 0.047474962 0.0050061084 0.43569279 0.82771617 0.35363513 0.0022615574
-0.040653612 0.046170451 0.0046187467 0.45278284 0.8302536 0.32506415 0.0017639949
-0.038738258 0.045471761 0.0036420762 0.47703114 0.84901035 0.22720645 0.0030783261
0.044749368 0.045567133 0.0038735687 -0.46422461 0.75635862 0.46088743 0.0007687225
0.046794482 0.046458684 0.0047868658 -0.46761835 0.74972922 0.46822998 0.0007535172
0.04903242 0.047527723 0.0054868152 -0.44532806 0.72456217 0.52601576 0.00095089286
0.071365744 0.046524864 0.0049697752 0.87463677 -0.010830135 0.48465779 0.0026230211
0.072152533 0.046577033 0.0033215529 0.95851904 -0.028362453 0.28361404 0.0029343111
-0.072721973 0.049938954 0.0047602314 -0.69380653 -0.12372179 0.70945436 0.0034105601
-0.071762778 0.04937746 0.0056867376 -0.66081643 -0.10261973 0.74349904 0.0052697966
-0.048792511 0.05035755 0.0051482399 0.4392986 0.81282926 0.382525 0.0028223866
-0.04652895 0.049390975 0.004592034 0.45764151 0.82284838 0.33687514 0.0022704888
-0.043920547 0.048277739 0.0037793489 0.46178734 0.83311594 0.30441773 0.0017748225
0.050069004 0.048624393 0.0046326322 -0.46474123 0.74814653 0.47359514 0.0011095068
0.052311491 0.049931183 0.0049064402 -0.45289093 0.74366915 0.49177837 0.0018061437
0.054032139 0.050665632 0.0055489456 -0.45625192 0.7570045 0.46773756 0.0022026564
0.071354188 0.049475413 0.004917759 0.86234391 0.035168514 0.50510001 0.0037161512
0.072157629 0.049532712 0.0033448883 0.89918953 0.010003157 0.43744513 0.0034348383
-0.073156781 0.05278299 0.0050657257 -0.58606225 -0.051296566 0.80864066 0.0079600504
-0.055125546 0.053415067 0.005055645 0.32332757 0.84289402 0.43010351 0.0036570812
-0.052454919 0.0524875 0.0045560626 0.39369929 0.82162142 0.41223681 0.0029985763
-0.049958933 0.051355284 0.0042324835 0.42977551 0.83246082 0.34971705 0.0017655572
0.053850211 0.051436275 0.0039571524 -0.45635578 0.75704521 0.46757025 0.0022040629
0.055735186 0.05208334 0.0048375009 -0.45656893 0.74909592 0.48000002 0.0026324948
0.058229674 0.053313389 0.0052240477 -0.43032151 0.72055656 0.54371101 0.0055330591
0.071158901 0.052544028 0.0049298997 0.82679403 0.078091696 0.55705768 0.0053931307
0.072142832 0.052492987 0.0032771297 0.87181389 0.023727324 0.48926219 0.0046853446
-0.075205363 0.055643689 0.0037122883 -0.51458544 -0.01507928 0.85730654 0.01930465
-0.073163524 0.055423286 0.0053203506 -0.55565834 0.03021867 0.83086145 0.02229885
-0.071464896 0.056809265 0.0058732647 -0.32962048 0.31080484 0.89148796 0.02671626
-0.066509925 0.056876063 0.0058298525 0.1861143 0.60347158 0.77536029 0.011207513
-0.064135015 0.056447506 0.0053682528 0.26214686 0.70989162 0.65370703 0.0067603029
-0.061568499 0.055893641 0.0046030949 0.30964196 0.78639096 0.53451955 0.008046682
-0.058686055 0.054872043 0.0045618922 0.29646146 0.84262687 0.44954488 0.0039982293
-0.056230109 0.054388668 0.0039533149 0.31882694 0.84819072 0.42299154 0.0037616598
0.059284061 0.05460662 0.0042957063 -0.46989 0.68744391 0.55373675 0.0028868392
0.061459526 0.055635333 0.0048715109 -0.45437118 0.63273191 0.62705433 0.0052334606
0.063896976 0.056602173 0.0056478353 -0.29973835 0.60696721 0.73603517 0.012577695
0.070778213 0.05553975 0.0049108141 0.70421439 0.10624825 0.70199239 0.014814265
0.07212995 0.055453707 0.0032182003 0.81295258 0.030809937 0.58151442 0.0067027379
-0.072940454 0.057563107 0.0050672987 -0.41702819 0.39368293 0.81920773 0.047937766
-0.07042072 0.058477048 0.0051700505 -0.094021618 0.57700056 0.81131393 0.016940169
-0.067481726 0.058499333 0.004677101 0.20699556 0.67457855 0.70858777 0.0053041717
-0.064704672 0.057922255 0.0040753824 0.3533653 0.74849975 0.56114274 0.0056692697
-0.062771671 0.057446159 0.0032590143 0.48138022 0.79639757 0.36609292 0.012030698
0.062556759 0.057755403 0.0035640225 -0.53775322 0.51791787 0.66526878 0.0060017277
0.064647809 0.058350448 0.0047616614 -0.43195707 0.48172772 0.76246405 0.011896181
0.067659616 0.058704011 0.0054953964 -0.023541205 0.3745546 0.92690593 0.013510842
0.070545666 0.058564156 0.0045498819 0.56631702 0.13323055 0.81334782 0.01729323
0.072112896 0.058416601 0.0031401173 0.83915693 0.03230736 0.54292893 0.014184861
-0.069419198 0.060109116 0.0036991895 0.082058147 0.72154045 0.68749237 0.024220431
-0.068135321 0.060096346 0.003416854 0.29808044 0.74538136 0.59628409 0.0084027145
0.065354705 0.061118852 0.0037077495 -0.46195352 0.3144637 0.82928377 0.0060387547
0.067520335 0.061547011 0.0045003216 -0.1358209 0.26290625 0.95521355 0.023567904
0.070460774 0.061585404 0.0040058331 0.36981645 0.14044383 0.91842872 0.01934595
0.072101302 0.061378632 0.0030870687 0.76808667 0.0097915316 0.64027101 0.021544391
0.067603528 0.064409643 0.00370236 -0.20561981 0.2260901 0.95215738 0.01877299
0.070426837 0.064526886 0.003591158 0.091034077 0.045593474 0.99480355 0.023338102
0.072214171 0.06481003 0.0031352579 0.65618163 -0.048325039 0.75305408 0.028604785
0.068187997 0.067204736 0.0032775206 -0.2905466 0.11600368 0.94980305 0.013969641
0.070557028 0.067545883 0.0034059403 0.011566456 -0.033685803 0.99936551 0.027529299
0.072606519 0.067662597 0.0032929536 0.53145832 -0.14310038 0.8349098 0.038424991
0.068702869 0.069387056 0.0030403922 -0.24780948 -0.0052231709 0.9687947 0.01120884
0.070606433 0.070483468 0.0036298851 -0.028348494 -0.061420511 0.99770933 0.024058735
0.073248878 0.070563629 0.003620076 0.33334056 -0.22647223 0.91520178 0.02177524
0.068883732 0.074009418 0.0031569765 -0.5574035 0.015844014 0.83009052 0.012740748
0.07068409 0.073497511 0.0042515108 -0.34217992 -0.14047305 0.92907494 0.018576181
0.073564745 0.073483244 0.0043853484 0.3197895 -0.23475394 0.91794622 0.030479928
0.075404346 0.073954962 0.0035003184 0.60288626 -0.27553648 0.74873745 0.052445654
0.068965495 0.07579425 0.0035183742 -0.3969579 0.016904742 0.91768116 0.02352283
0.070503734 0.075806767 0.0044611953 -0.2436637 0.012379567 0.96978074 0.052361101
0.073120445 0.075447015 0.0046981098 0.074780449 0.1084967 0.9912802 0.07320381
-0.013009357 0.0028986849 0.0063647316 -0.16245793 -0.87015665 0.46522564 0.00079211174
-0.010544826 0.0026406168 0.0066043693 -0.11912987 -0.86856365 0.4810459 0.00099359034
-0.007263009 0.0023424188 0.0067468258 -0.079776622 -0.86762381 0.49077949 0.0014074665
-0.0045497189 0.0024009724 0.0072381832 -0.047791574 -0.86678749 0.49638218 0.001441096
-0.0013879185 0.0022876076 0.0072229039 -0.0079273675 -0.8721143 0.48923808 0.0021814953
0.0015578322 0.0023232203 0.007295581 0.017444357 -0.87227547 0.48870355 0.0022200414
0.0045194845 0.0023521378 0.0071770302 0.032492686 -0.8732301 0.48622355 0.0022061404
0.0074620666 0.0026058112 0.0073028309 0.057138439 -0.86564612 0.49738508 0.0015850427
0.010454207 0.0027052157 0.0069531514 0.085677728 -0.85943592 0.50401312 0.00091542251
0.012706134 0.0027671389 0.006594514 0.1071887 -0.84362108 0.52613121 0.0005165211
-0.024295406 0.0055831093 0.0060626301 -0.28655535 -0.85106617 0.43996853 0.00079286372
-0.021990735 0.0053673908 0.0070257997 -0.24659875 -0.87045974 0.42601523 0.00039956855
-0.019370524 0.0050257458 0.007733786 -0.22453319 -0.85129368 0.47421923 0.0011978725
-0.016540816 0.0042194203 0.0074985502 -0.18750682 -0.86203688 0.47088587 0.0008086891
-0.013539857 0.0039018232 0.0079939384 -0.15503988 -0.85122782 0.50137198 0.00081157306
-0.010550921 0.0034765187 0.0080814157 -0.10798449 -0.8445316 0.52450532 0.00094878388
-0.0076945969 0.0033613797 0.0084304046 -0.076899305 -0.84057254 0.53621286 0.0011397261
-0.0045384462 0.0031928008 0.0085397223 -0.042966507 -0.84006393 0.54078323 0.0017216391
-0.0013256408 0.003275411 0.0088322321 -0.013865928 -0.8329041 0.5532437 0.0016073645
0.0015401173 0.0033408895 0.0089421729 0.01342559 -0.84658587 0.53208286 0.003092374
0.0043404689 0.0033978706 0.0089207562 0.037947245 -0.84167677 0.5386467 0.0025753442
0.0073056049 0.0034472959 0.0086974092 0.063635372 -0.83864188 0.54095328 0.0017892049
0.01066857 0.0036083981 0.0084445672 0.091184609 -0.83173394 0.5476349 0.00083418255
0.0137445 0.0037047039 0.0079142237 0.12079229 -0.83410436 0.53821856 0.00042224524
0.016577048 0.0038698912 0.0074821268 0.12424704 -0.83101523 0.54219586 0.00043730836
0.019605204 0.0044468441 0.0075587002 0.16065733 -0.80830181 0.56642509 0.0011847485
0.022470292 0.0048386492 0.0073876716 0.17090608 -0.79639775 0.58012223 0.0012110223
0.025366217 0.0051979087 0.0071096197 0.18492246 -0.80463189 0.56424397 0.0023633935
0.028138667 0.0055357739 0.0066037481 0.22763759 -0.81083715 0.53918844 0.0022548682
-0.033362102 0.0088742431 0.0062973103 -0.33959669 -0.83967608 0.4238137 0.00062277843
-0.031450178 0.0085279616 0.007091614 -0.30698097 -0.84469187 0.43847269 0.00085005217
-0.028483063 0.0078563932 0.0077895508 -0.27814066 -0.84216648 0.46194509 0.00079751306
-0.025599265 0.0067861485 0.0075869467 -0.2827372 -0.84973955 0.44497466 0.00069728779
-0.022782886 0.0063734441 0.0084241731 -0.24943383 -0.82350403 0.50953305 0.00057291117
0.022863435 0.0061166035 0.0087828496 0.1684815 -0.73926169 0.65200162 0.0003074971
0.025576444 0.0063665593 0.0084414575 0.1758054 -0.77084184 0.61228704 0.0017261186
0.028634602 0.0067785741 0.0080787418 0.2020735 -0.75781983 0.62038332 0.0037740516
0.031542923 0.0072964546 0.0076804711 0.24423757 -0.80529064 0.54023612 0.0025292949
0.034368102 0.0080093769 0.0074020228 0.27690348 -0.78935695 0.54794163 0.0035313726
0.036906235 0.008468776 0.0066597532 0.3340624 -0.81149846 0.47945032 0.0020139285
-0.039957557 0.01173727 0.0062151034 -0.41229451 -0.81612504 0.40491128 0.00074806978
-0.037487507 0.011199151 0.0074891034 -0.36367658 -0.81032389 0.45947206 0.00065063772
-0.034552909 0.010016833 0.0076452694 -0.34792495 -0.8303526 0.43527317 0.00041705114
-0.031897154 0.0094792116 0.0085295606 -0.30443385 -0.80257833 0.51301867 0.00047598968
0.035238784 0.0092821652 0.008703527 0.23988381 -0.69031745 0.68258166 0.0017933258
0.037716135 0.0096389595 0.0079438789 0.30390164 -0.78218257 0.54390639 0.0037965144
0.040476039 0.010569208 0.0075870352 0.32377148 -0.78723866 0.52481174 0.0042663324
0.043263581 0.011498198 0.0070159463 0.39517054 -0.78292388 0.48048976 0.0023943668
0.045154206 0.011955151 0.0061385385 0.43534145 -0.80133879 0.41028515 0.0045379228
-0.043452937 0.014116679 0.0071193608 -0.46369874 -0.77558094 0.42831939 0.00079800206
-0.040739395 0.013150234 0.008108058 -0.40544036 -0.77362186 0.48695716 0.0006891425
-0.038948569 0.012315899 0.0082712257 -0.38969454 -0.79555178 0.46393472 0.00072703755
0.04163171 0.012006374 0.0088592609 0.35382912 -0.68423879 0.63766938 0.0029577287
0.043810494 0.012662859 0.0083445227 0.35705686 -0.72295558 0.59147751 0.0016572534
0.046553485 0.013617158 0.0075923023 0.43266746 -0.77225131 0.46521705 0.00093782606
0.048863646 0.014489996 0.0068845921 0.45941308 -0.75360155 0.47013217 0.0017131586
-0.04884541 0.017361069 0.0066782283 -0.5175125 -0.73880887 0.43167371 0.00068806141
-0.046625763 0.01658419 0.0079454845 -0.49649352 -0.7404927 0.45295113 0.00099701493
-0.044378679 0.015381281 0.0083864816 -0.46509412 -0.74009448 0.48574451 0.0013276679
0.047843512 0.015306646 0.0089052729 0.37297493 -0.6527248 0.65942407 0.0028127781
0.049897656 0.015880406 0.0079907058 0.47585639 -0.73956585 0.47602847 0.001140908
0.052240662 0.016930157 0.007282624 0.48918512 -0.72219336 0.48901397 0.0032164943
0.054206826 0.01759303 0.0062122438 0.5203321 -0.71145785 0.47231573 0.0011982227
-0.052297492 0.020082178 0.0070121926 -0.53832388 -0.70478255 0.46204874 0.0010056831
-0.049970727 0.019127231 0.0082714939 -0.51706612 -0.71341425 0.47295114 0.0010712353
0.053319633 0.018475708 0.0083444836 0.51877791 -0.68690771 0.50894731 0.0021743686
0.055536874 0.019544424 0.0075411592 0.55027592 -0.68997645 0.47024348 0.0011110295
0.057614677 0.020575402 0.0066601052 0.56097889 -0.66266662 0.49616086 0.0012453481
-0.055559553 0.023171714 0.0078407116 -0.56433439 -0.66102546 0.4945423 0.00081290503
-0.053305313 0.02159288 0.0082900515 -0.54156011 -0.68454355 0.48796818 0.0006180926
0.056601699 0.02147536 0.0087875612 0.50801194 -0.58010614 0.63671082 0.0017133815
0.058635145 0.022281632 0.0076408247 0.59474695 -0.64090914 0.48529536 0.0013764555
0.06054255 0.023308001 0.006683378 0.61977679 -0.59685117 0.50955415 0.0014623208
-0.057990175 0.025461674 0.0079173706 -0.59962469 -0.60879022 0.51944655 0.001553175
-0.056106903 0.02432739 0.0088133123 -0.57255173 -0.62466651 0.53101444 0.0017679861
0.05962614 0.024249209 0.008700016 0.54710501 -0.53032428 0.64763594 0.0012830894
0.061589323 0.025359014 0.0076681501 0.62539184 -0.55233967 0.55118591 0.0027096062
0.063492566 0.02648632 0.0065395436 0.67017198 -0.52314377 0.52648848 0.0015031263
-0.061075691 0.028394731 0.0074322517 -0.63580048 -0.51202506 0.57757092 0.00087962055
-0.059891805 0.02756119 0.0080511319 -0.62124437 -0.51825964 0.58776045 0.00076812133
0.062472355 0.027553869 0.0087000318 0.59566349 -0.45065489 0.66490239 0.0015476373
0.064360701 0.028694568 0.0074437177 0.70306736 -0.44804803 0.55222201 0.0018094854
0.066299826 0.029973419 0.0060053244 0.72628284 -0.47927466 0.49275655 0.0041537038
-0.063692838 0.032330774 0.0078329248 -0.67434359 -0.41797146 0.60873687 0.00140034
-0.062396366 0.030737327 0.0081277462 -0.6514014 -0.45697141 0.60568416 0.00091382052
-0.015039475 0.032926165 0.0089834556 0.24818493 0.77735585 0.57803297 0.0012583378
-0.013177643 0.032764211 0.0084306095 0.22025274 0.83985078 0.4961243 0.0020544708
-0.010409458 0.03241555 0.0078586061 0.19462088 0.84587228 0.4966113 0.0014744741
-0.007512772 0.03195278 0.0076128249 0.16219842 0.86296815 0.47851616 0.0015715645
-0.0044664945 0.031486776 0.0075808866 0.12921634 0.85316527 0.50538319 0.0019460177
-0.0016034484 0.031155651 0.0075493176 0.088092677 0.86162502 0.49984217 0.0022320822
0.0015253235 0.030809801 0.0077116634 0.042096477 0.85751283 0.51273733 0.0022977458
0.004441666 0.030722942 0.0077150436 0.026896307 0.84739828 0.53027612 0.0018729689
0.0074462821 0.030729176 0.0077262851 -0.038458858 0.84622234 0.5314402 0.0020347903
0.010501733 0.031012403 0.0075849481 -0.074305661 0.84564131 0.52855426 0.0025945236
0.013365271 0.031336617 0.0075954208 -0.1339796 0.84156197 0.52328092 0.0025167041
0.016480539 0.031897116 0.0076027228 -0.18761183 0.8493259 0.49340397 0.0016630341
0.019341754 0.032358017 0.0080291433 -0.21608159 0.82775503 0.51781297 0.0015178007
0.022061752 0.032721244 0.0086108679 -0.21737136 0.79821366 0.56178701 0.0031285898
0.065284424 0.031348102 0.0083179343 0.68026906 -0.3565248 0.64040935 0.001564212
0.066679746 0.031762879 0.0068763429 0.7331661 -0.40571177 0.54577053 0.0019413321
-0.064599879 0.034340672 0.0082495725 -0.66486895 -0.36654848 0.65083909 0.0010957157
-0.022088423 0.035725202 0.0082304701 0.31145146 0.8301965 0.46235463 0.0015921681
-0.019448498 0.03508421 0.0076704128 0.29292619 0.84747565 0.44269544 0.0015108151
-0.016578136 0.034207966 0.007551284 0.2462289 0.84860229 0.46823648 0.0018493852
-0.013802025 0.033682998 0.0070668873 0.22198552 0.8598488 0.45976344 0.0021041718
-0.011413687 0.033419643 0.0064083673 0.19436565 0.8917951 0.40856266 0.00031556704
0.020104522 0.033427373 0.0065353862 -0.21760271 0.89383423 0.39205787 0.0016362981
0.022539556 0.033646297 0.0073502609 -0.24069056 0.83647972 0.49231058 0.0017219922
0.025311299 0.034244053 0.007742289 -0.24817857 0.83261949 0.49512863 0.0026125729
0.028127555 0.035076551 0.0078734327 -0.29872832 0.83277392 0.46609974 0.0014911823
0.030696876 0.035463799 0.0086976942 -0.28458226 0.78292656 0.55320787 0.0032851861
0.065793648 0.033131212 0.0087540802 0.70369875 -0.34122255 0.62319756 0.0019953474
0.067400321 0.034523066 0.0075994148 0.73524207 -0.29016319 0.61255568 0.00082969916
0.069081061 0.035863984 0.0060623772 0.80160713 -0.30673817 0.51316446 0.0085897045
-0.06682539 0.037533484 0.0075258105 -0.68598866 -0.26813215 0.67640573 0.0011959745
-0.065770008 0.037355557 0.0087036639 -0.66796112 -0.30655351 0.67812455 0.001987061
-0.030277047 0.038839042 0.0088183563 0.37541857 0.77714574 0.50507951 0.003640254
-0.028217873 0.038434483 0.0079139648 0.35560754 0.81263155 0.46170676 0.0017469199
-0.025433404 0.037425168 0.00753592 0.34295815 0.82322252 0.45242065 0.0019621931
-0.022693763 0.036623482 0.0069859964 0.31933022 0.844396 0.43014362 0.0014707964
0.029268166 0.036242399 0.0065478235 -0.2928246 0.83832943 0.45984501 0.001409373
0.031569459 0.036525209 0.0075024245 -0.30978909 0.81887853 0.48318601 0.0021807717
0.034530476 0.037624702 0.0077284249 -0.38256076 0.77434367 0.50402302 0.0032453474
0.037050229 0.038531125 0.0082633747 -0.40028247 0.76530254 0.50406939 0.0031462298
0.068081692 0.037427656 0.0080213221 0.75516337 -0.19800577 0.62491757 0.0019807068
0.069361128 0.037621483 0.0064852023 0.8137908 -0.23164517 0.5329963 0.0016916853
-0.067575224 0.040541712 0.0080245864 -0.70281446 -0.21686278 0.67751187 0.00091813633
-0.03630374 0.041835666 0.0086642643 0.41408738 0.78044242 0.46844563 0.0015500439
-0.034204625 0.041322764 0.0077759228 0.41215125 0.8021735 0.43202898 0.0011515216
-0.03168552 0.04020394 0.007594801 0.36668354 0.80788893 0.46136615 0.0015358786
-0.029369576 0.039501429 0.0068905428 0.3923606 0.81909001 0.41850287 0.0015811813
0.037831362 0.039636251 0.007250241 -0.43765479 0.75672662 0.48561624 0.0019479395
0.040294725 0.04071708 0.0077956333 -0.45323503 0.75880629 0.46775106 0.0010913699
0.042815648 0.041597966 0.00865144 -0.41852495 0.69540823 0.5841611 0.0018985422
0.068430766 0.040232681 0.0083394228 0.75718796 -0.11026114 0.64382368 0.0023918208
0.069639303 0.040525034 0.0069624162 0.7964009 -0.12804297 0.59105891 0.0020280879
-0.069518313 0.043606203 0.0068582743 -0.68931329 -0.1460678 0.70958531 0.0025422038
-0.068133615 0.043674663 0.0083021615 -0.69727427 -0.13849385 0.70329797 0.002656101
-0.042303827 0.044856012 0.0086845644 0.42127752 0.73923719 0.52540809 0.0029256949
-0.040193334 0.044341005 0.007797583 0.4220244 0.78494579 0.4536027 0.0011391334
-0.037626401 0.043180551 0.0075337356 0.38731429 0.78796655 0.47864017 0.0014476582
-0.035316359 0.042537879 0.0065731569 0.42516822 0.80237466 0.41884002 0.0016715049
0.041439261 0.042194229 0.006579448 -0.45754927 0.75512028 0.46951261 0.0009755916
0.043731399 0.043030035 0.0074404255 -0.44714496 0.72560436 0.52302939 0.0021449237
0.046209034 0.04415923 0.0079456996 -0.41940877 0.72587484 0.54516232 0.0031710751
0.048299626 0.044653147 0.0088407993 -0.37976578 0.6761145 0.63138509 0.0027385734
0.068514951 0.043494944 0.0086065531 0.73626095 -0.020666352 0.67638212 0.0031583253
0.069794133 0.043525115 0.0071778474 0.78497708 -0.051624231 0.61737025 0.0023656727
-0.070017263 0.04676912 0.0069919708 -0.68981016 -0.089589141 0.71842599 0.0047396608
-0.068127371 0.046436295 0.0085677449 -0.58336723 -0.020268733 0.81195557 0.0029628794
-0.048383608 0.047906704 0.0086592976 0.35152498 0.75245792 0.55698943 0.0015706079
-0.04622826 0.04736001 0.0079500005 0.40396529 0.76985598 0.49409905 0.0011413447
-0.043599062 0.046281122 0.0075321165 0.38173538 0.76467651 0.51917994 0.0013126716
-0.041375317 0.045540482 0.006841884 0.43146446 0.78249598 0.44893032 0.0017704254
0.047126036 0.045527458 0.0068349824 -0.4446094 0.73673266 0.50945807 0.0023009726
0.049551781 0.046325866 0.0076853274 -0.40348995 0.73839515 0.54034108 0.0016253111
0.052152582 0.047369082 0.0082412325 -0.39222616 0.69957507 0.59728825 0.0038841914
0.06841702 0.046556491 0.0086077163 0.58567041 0.076077096 0.80697125 0.0040760315
0.069805391 0.046460543 0.0072278539 0.74786794 0.035590883 0.6628927 0.0039158822
-0.070264459 0.049698442 0.0070271469 -0.58182174 0.030547019 0.81274253 0.0061470284
-0.067928538 0.049678341 0.0084770964 -0.41824079 0.12828085 0.89923227 0.0093853688
-0.054480754 0.050484478 0.0087115504 0.21997844 0.67919225 0.70021957 0.0016006264
-0.052288204 0.05006237 0.0081625357 0.29870993 0.73459345 0.60921663 0.0029778443
-0.04957718 0.04935224 0.0074788481 0.35211635 0.77626318 0.52290499 0.0014570907
-0.047101907 0.048647173 0.0066922735 0.38388476 0.77096659 0.50817603 0.0010403601
0.052920118 0.048813529 0.0071113002 -0.43024418 0.6957978 0.57511324 0.0023209744
0.055473838 0.049585812 0.0078413645 -0.33397323 0.67376846 0.65916461 0.0021585145
0.058306605 0.050399799 0.0084054451 -0.26993924 0.64592558 0.71408194 0.0030770644
0.06073143 0.050842248 0.0088464925 -0.14897367 0.54648429 0.82411271 0.0039290283
0.067900971 0.049699333 0.0084157335 0.43730748 0.20076044 0.87661701 0.010182251
0.069834121 0.049323946 0.0069750692 0.6844275 0.10353661 0.72169191 0.005731856
-0.070334159 0.052704364 0.0069041564 -0.46021083 0.074306875 0.88469452 0.015057771
-0.067446887 0.052503258 0.0079895277 -0.23251991 0.29381648 0.92714965 0.012977312
-0.064557694 0.052721962 0.008243856 -0.025453871 0.47185639 0.8813079 0.009974313
-0.061481979 0.052913152 0.0079631945 0.090577014 0.63099033 0.77048492 0.0035690181
-0.05845182 0.052633636 0.0076729516 0.20583738 0.72286642 0.6596173 0.0033967753
-0.055584867 0.051916834 0.007519966 0.25839877 0.7700125 0.58336169 0.0023929607
-0.052755736 0.051361822 0.0067469189 0.35752708 0.76820725 0.53106672 0.0012963603
0.056165587 0.051192407 0.0065012202 -0.3975842 0.70042717 0.59272975 0.0021325601
0.058735948 0.052062631 0.0070240805 -0.35230848 0.68207628 0.64082032 0.0020177376
0.061517157 0.052449558 0.0078182314 -0.25950253 0.58847767 0.76573658 0.0055039884
0.064661533 0.052584831 0.0082818549 0.058026072 0.43834281 0.89693284 0.011269194
0.067596309 0.052549645 0.0077696727 0.30003947 0.30063057 0.90531629 0.011774835
0.069732808 0.052498858 0.0065559777 0.66879672 0.16136873 0.72572112 0.0093755405
-0.070260189 0.055600572 0.006440131 -0.16393217 0.25863343 0.95196378 0.027138351
-0.067545868 0.055505432 0.0067714667 -0.02483405 0.45782441 0.88869572 0.01103968
-0.06471654 0.055010948 0.0067619327 0.12610742 0.59702176 0.79225123 0.011245518
-0.061780348 0.054475695 0.0064847874 0.18757854 0.69359034 0.69551903 0.0056349738
-0.05952869 0.05419967 0.0061052456 0.23800489 0.73642021 0.63327646 0.0033096469
0.062201578 0.054398008 0.0065668593 -0.32268578 0.5638842 0.76020283 0.007091681
0.064607516 0.055242345 0.0068012704 -0.15309197 0.48515049 0.86092502 0.011990719
0.067465514 0.055533279 0.0067500593 0.1909145 0.35794654 0.91401637 0.021743167
0.069297567 0.055169784 0.0062560672 0.54572725 0.24314669 0.80191118 0.010548078
0.067253895 0.057207763 0.0061356309 0.1081465 0.31173468 0.94399464 0.024768492
-0.018842906 0.0058413409 0.0093241837 -0.20750986 -0.79580635 0.56888664 0.00085738575
-0.016323004 0.0056203217 0.0097799767 -0.16739284 -0.7857576 0.59545326 0.001089137
-0.01356058 0.0052484567 0.009978815 -0.13755403 -0.78328806 0.60624987 0.0010607836
-0.010406045 0.0049258857 0.010159575 -0.099439852 -0.76944488 0.63092488 0.0010099881
-0.0074179075 0.0048803356 0.010478845 -0.068405598 -0.77437949 0.6290127 0.0018748606
-0.0045041256 0.0047312225 0.010517872 -0.023232603 -0.7479955 0.66329706 0.0017748338
-0.0015522735 0.0048156413 0.010715495 -0.0098273233 -0.73381722 0.67927587 0.0018802428
0.0014904024 0.0048612491 0.010760474 0.015099538 -0.72595328 0.68757826 0.0020007619
0.0045254999 0.0049183099 0.010712459 0.04617954 -0.73332036 0.67831308 0.0021878947
0.0075022271 0.0049682749 0.010548709 0.062366046 -0.74503273 0.66410595 0.0020170521
0.010340853 0.004911121 0.010183619 0.084225714 -0.75167972 0.65412813 0.0025484012
0.013471807 0.0050795167 0.0099118967 0.11587429 -0.78515649 0.60836053 0.00084348995
0.016457368 0.0053723357 0.0096408343 0.14064233 -0.75373077 0.64195752 0.0012017916
0.019050617 0.005597367 0.0092277508 0.15900394 -0.75234014 0.63929826 0.0006106018
-0.027834762 0.0086041801 0.0094459122 -0.27255189 -0.79191095 0.54643619 0.00074832444
-0.025304077 0.0082679046 0.010102898 -0.24752055 -0.77971286 0.57513613 0.0010804171
-0.022443745 0.0077696727 0.010562596 -0.20812713 -0.75213248 0.62528378 0.00074140489
-0.01953112 0.0071782493 0.010804957 -0.19208841 -0.77088237 0.60732406 0.00096439512
-0.016594237 0.0068638576 0.011253268 -0.15074517 -0.7178002 0.67973429 0.00095033605
-0.013549921 0.0064736875 0.011456838 -0.11843579 -0.75144446 0.64907944 0.0010752729
-0.010778384 0.0062199691 0.011604715 -0.083483957 -0.69235194 0.71671414 0.0010245243
-0.0075535402 0.0061731595 0.011879253 -0.045051806 -0.7015807 0.71116441 0.0023019556
0.0087915147 0.0064784475 0.011954124 0.042550266 -0.65538132 0.75409859 0.0033502469
0.010624656 0.0063078874 0.011618088 0.07979653 -0.70031154 0.70936334 0.0014926458
0.013519906 0.0064870822 0.011412657 0.10542654 -0.71457148 0.69157273 0.001775494
0.016543387 0.0067450898 0.011151609 0.13097222 -0.72670949 0.67434376 0.0016572671
0.019545756 0.0070890975 0.01083166 0.17176048 -0.69424593 0.69894272 0.0023922634
0.022438532 0.0075147301 0.010506339 0.17404057 -0.69290453 0.69970936 0.0008751108
0.025443587 0.00781092 0.0099601205 0.1861058 -0.71119601 0.67791212 0.0003076875
0.028334007 0.0082038464 0.0096095949 0.19630802 -0.70544165 0.68103981 0.00060166663
0.030907547 0.0084818238 0.0092434734 0.21417846 -0.72732687 0.65201473 0.0021637066
-0.036464244 0.011898394 0.0094538871 -0.35189119 -0.76618654 0.53770876 0.0005833999
-0.034308333 0.011367861 0.0099886609 -0.3241201 -0.76617676 0.55490488 0.00091994763
-0.031435046 0.010631083 0.010496748 -0.27321571 -0.77087748 0.57541382 0.0016066182
-0.028701048 0.0098449457 0.010729017 -0.25638419 -0.76992303 0.58436781 0.00095734821
-0.02581175 0.0095109083 0.011505193 -0.22336099 -0.71902037 0.65811813 0.00091459748
-0.023771815 0.0092565082 0.011896047 -0.20356342 -0.72541046 0.65752691 0.0023090257
0.023417868 0.0090683596 0.011846939 0.16617723 -0.6625641 0.73033816 0.0015497089
0.025711365 0.009401734 0.011524698 0.18529963 -0.66703171 0.72161812 0.00068958814
0.028654423 0.009858652 0.011056866 0.19396834 -0.66266751 0.72335881 0.00031015923
0.031596366 0.010410814 0.01073589 0.20462097 -0.63041341 0.74880511 0.00033348237
0.034376062 0.01068213 0.010254542 0.22284213 -0.65140033 0.7252717 0.0013692999
0.037392557 0.011053614 0.0097058769 0.25379047 -0.6880365 0.67985016 0.0023692052
0.039829012 0.011533986 0.0092509789 0.30359247 -0.69491434 0.65186328 0.0017384436
-0.042200644 0.014776799 0.0094400002 -0.42271468 -0.73262364 0.53345567 0.00072053052
-0.040134467 0.014278799 0.010294716 -0.37488896 -0.72684669 0.57545829 0.00063706632
-0.037653327 0.013427439 0.010772095 -0.34442583 -0.74741685 0.56810111 0.00077379012
-0.034526642 0.012606145 0.011496769 -0.29815546 -0.7249192 0.62096328 0.00042684254
-0.032331664 0.01203873 0.011858521 -0.2755695 -0.72461951 0.63165492 0.001669623
0.034915116 0.012667838 0.011663378 0.21100162 -0.60907698 0.76452827 0.00029613849
0.037586562 0.01291272 0.011167363 0.22468418 -0.58301568 0.78077501 0.0004551608
0.040490754 0.013434605 0.010657274 0.25415477 -0.59515733 0.76236022 0.00073357928
0.04329906 0.014000002 0.010072138 0.34041291 -0.64498723 0.68418598 0.0030394085
0.045677364 0.01455164 0.0094319647 0.3776927 -0.67196196 0.63703638 0.0039239815
-0.045680631 0.017318795 0.0099475514 -0.4530026 -0.6911574 0.56310755 0.00057872297
-0.043373942 0.016465155 0.010713732 -0.41816011 -0.69466096 0.5853104 0.00051492371
-0.04100766 0.015631329 0.011390061 -0.36925817 -0.7071088 0.60303026 0.0010669284
0.041541908 0.015320708 0.011777899 0.25735426 -0.58853841 0.76641452 0.0007265071
0.043774921 0.015932156 0.011421639 0.2804361 -0.54630864 0.78924173 0.0013304622
0.04656687 0.01647119 0.010686335 0.32655889 -0.57509208 0.75008559 0.0010709923
0.049177229 0.017032573 0.0098290555 0.4107019 -0.6505211 0.63886333 0.002008904
0.051211949 0.017637318 0.0091160154 0.459526 -0.6524784 0.6025843 0.0013601395
-0.051130604 0.020627365 0.0092501836 -0.49733534 -0.66256899 0.56005347 0.0015075068
-0.048811045 0.019949725 0.010513311 -0.47766986 -0.6543414 0.58623266 0.00050892535
-0.04683337 0.018908888 0.010925142 -0.45817539 -0.67303753 0.58059961 0.0012606265
-0.044903267 0.018252533 0.011689705 -0.44091538 -0.68186456 0.58365601 0.0013586441
0.047323402 0.018304642 0.011757796 0.33056381 -0.56634611 0.75497001 0.0010907936
0.049684212 0.019040918 0.011195558 0.35799277 -0.52477813 0.7723012 0.0012545238
0.05230714 0.019747879 0.010302095 0.4208211 -0.57767242 0.6994313 0.0027886513
0.054643717 0.020512352 0.009451393 0.48618069 -0.62317109 0.61260599 0.0020619857
-0.054026935 0.023602325 0.010096479 -0.52601266 -0.60599029 0.59672982 0.0014610296
-0.052248463 0.022623755 0.010589094 -0.50027227 -0.61510897 0.60940027 0.0011151382
-0.050374139 0.021736389 0.011231345 -0.49076667 -0.64911807 0.58120036 0.00077011151
0.052972261 0.021895668 0.011506053 0.38258496 -0.46761292 0.79684806 0.0011442984
0.055427432 0.022533819 0.010507389 0.45451394 -0.52522647 0.71941257 0.0028388945
0.057745479 0.023283698 0.0094924411 0.53659952 -0.55654651 0.63428456 0.0020071724
-0.057571512 0.026573148 0.0097441515 -0.57615721 -0.56697923 0.58870828 0.0014050022
-0.055316351 0.025513759 0.010820712 -0.56294769 -0.56675988 0.60155892 0.001883039
-0.053187404 0.024488978 0.011681774 -0.49875191 -0.5698846 0.65305281 0.001284073
0.056137908 0.0247031 0.011497781 0.42169735 -0.43931317 0.79320574 0.0031061929
0.058451459 0.025544427 0.010541055 0.51482666 -0.43681684 0.73766154 0.0021449979
0.060650427 0.02634564 0.0094510755 0.58043414 -0.49018407 0.65024281 0.0021547019
-0.060765926 0.029564802 0.0090414565 -0.6315189 -0.48737457 0.60303384 0.00059288525
-0.0583901 0.028374912 0.010468244 -0.5956825 -0.52051777 0.6117382 0.001462757
-0.056532759 0.027742088 0.011675599 -0.54166251 -0.45629567 0.7059716 0.0014737486
-0.010202599 0.029423254 0.011736867 0.17323458 0.67187631 0.72011942 0.001350591
-0.0073746829 0.029124603 0.011379123 0.14302848 0.68100321 0.71817648 0.001581048
-0.0043772268 0.028920207 0.011047328 0.11161041 0.75629991 0.64463449 0.0014118159
-0.0013956362 0.028695647 0.010861075 0.085837267 0.76057094 0.64355552 0.0012729027
0.0014644337 0.028591001 0.01069436 0.055668663 0.73412102 0.6767329 0.0028238015
0.0045393561 0.028425541 0.010748478 0.025291899 0.74296921 0.66884768 0.0021240928
0.0074119493 0.028436149 0.010733852 -0.032706842 0.74101299 0.6706937 0.0024102461
0.010456506 0.028561978 0.010801316 -0.075187437 0.72502452 0.68460661 0.0031725871
0.013395825 0.028704014 0.011003767 -0.10682528 0.68168229 0.72380775 0.0014887229
0.016416769 0.028966298 0.011285137 -0.14504877 0.65562201 0.74102676 0.001777938
0.019382905 0.029423784 0.011531649 -0.17227426 0.70397496 0.68901438 0.0017589628
0.021986449 0.029918319 0.011738837 -0.18891168 0.67439342 0.71379685 0.001731985
0.059173319 0.028160769 0.01150174 0.46312833 -0.34812781 0.81505769 0.001430866
0.061392784 0.028743714 0.010299519 0.54961222 -0.37363675 0.74720949 0.0022925669
0.063391976 0.029855901 0.0093109952 0.63856858 -0.41539094 0.64782757 0.0022906817
-0.06112697 0.031510688 0.010137791 -0.63828188 -0.43256432 0.63677657 0.001457834
-0.059247252 0.031052934 0.011572629 -0.58424556 -0.38807392 0.7127803 0.0015205991
-0.021701401 0.032924037 0.011792098 0.26656622 0.69291824 0.66993046 0.00064187305
-0.019317981 0.032524098 0.011292348 0.24982554 0.74672121 0.61643702 0.0016867868
-0.016460689 0.032018673 0.01074355 0.23634177 0.75965232 0.60586381 0.0013512054
-0.013489169 0.031270612 0.010571751 0.2122476 0.74534899 0.63198566 0.0015547452
-0.010524612 0.030744115 0.010317002 0.18438177 0.76319581 0.61930245 0.0014314188
-0.0075981133 0.030441841 0.0099107958 0.14615551 0.77409369 0.61596882 0.0015440972
-0.0047535775 0.030238425 0.0095650414 0.1133292 0.78093219 0.61424863 0.0013058785
-0.0016487989 0.030019024 0.0093082404 0.084506951 0.78046113 0.61946672 0.0012909763
0.00031473022 0.03001797 0.0090812258 0.048166886 0.77425301 0.63104051 0.0010176568
0.010765622 0.030009776 0.0091599114 -0.081690907 0.76658386 0.63692677 0.0012294489
0.013753667 0.030183665 0.009425113 -0.11298243 0.76400948 0.63523579 0.0015437257
0.016602883 0.030411402 0.009769815 -0.16242035 0.74922287 0.64209396 0.0017122589
0.019568311 0.0308889 0.010071724 -0.19859885 0.72973746 0.65424895 0.0017352618
0.022616044 0.031432942 0.010380678 -0.20502141 0.72674429 0.6555981 0.00236077
0.025420915 0.031787723 0.01092075 -0.21930273 0.6928767 0.68689746 0.0029985046
0.028236665 0.032281552 0.011349124 -0.22888891 0.70562524 0.67059898 0.0018906342
0.030738847 0.032646745 0.011839217 -0.22600462 0.67316461 0.70411032 0.0018719209
0.061766248 0.031443857 0.011249514 0.50728136 -0.29143232 0.81100726 0.00087716436
0.063906834 0.031706344 0.0098134326 0.61978173 -0.33977741 0.70740509 0.0023126032
-0.063578673 0.03490464 0.0097547164 -0.6487956 -0.36910394 0.66545218 0.0011522232
-0.061818469 0.034228619 0.011021166 -0.63092041 -0.33058092 0.7018944 0.0022828914
-0.027979173 0.035673715 0.011573301 0.30750352 0.67882591 0.66681099 0.0010883352
-0.02539783 0.035133395 0.01092649 0.30672556 0.75025916 0.58568817 0.0012370565
-0.022546785 0.034375988 0.010436957 0.27658531 0.78402066 0.55570871 0.00078239734
-0.019714316 0.03380435 0.0098606832 0.27096489 0.76382267 0.58579248 0.0014822729
-0.017515283 0.033414185 0.0093416274 0.25183329 0.77693218 0.57702368 0.0012659336
0.026192809 0.033355247 0.0094489567 -0.23752618 0.7442469 0.62424171 0.0011889632
0.02874442 0.033801261 0.0099240821 -0.25483179 0.7230106 0.64211875 0.00147289
0.031566154 0.034243684 0.010534777 -0.27255237 0.70032668 0.65974063 0.0024493681
0.034428604 0.034853935 0.011076334 -0.29508215 0.66150087 0.68945122 0.0039405758
0.037162252 0.035630748 0.011540172 -0.305024 0.64471632 0.70092875 0.002802809
0.062454581 0.034066655 0.011653249 0.47869611 -0.19877061 0.85518438 0.0021410612
0.064447634 0.034551796 0.010423026 0.58744442 -0.247981 0.77033395 0.0022634121
0.066229269 0.035290968 0.0092351614 0.68045384 -0.26103243 0.6847223 0.002448828
-0.06426587 0.037417524 0.010193582 -0.64210516 -0.26815346 0.71818846 0.0015320597
-0.062492926 0.037250664 0.011622945 -0.57347363 -0.19476667 0.79573476 0.0024725066
-0.034116056 0.038548727 0.011507165 0.32087845 0.67022705 0.66920304 0.00098752393
-0.031441152 0.03789987 0.010794687 0.32884008 0.7386291 0.58846521 0.0011351139
-0.028696476 0.037057351 0.010292703 0.32115906 0.75404251 0.57295436 0.0016948716
-0.026148165 0.036544245 0.0094759623 0.32632661 0.77929395 0.53498763 0.001542374
0.034645595 0.036427431 0.0094956681 -0.31588367 0.70761698 0.63205677 0.0016480918
0.03766251 0.037283402 0.010180671 -0.36172694 0.67956108 0.63824004 0.0027380029
0.040281989 0.037792057 0.011080206 -0.34856427 0.60450214 0.7162962 0.0026476802
0.042713378 0.038372055 0.01171394 -0.30349141 0.60019755 0.74003768 0.0030677414
0.06266541 0.036261268 0.01199036 0.51753688 -0.10127892 0.84964585 0.0031812391
0.064562149 0.037572987 0.011043811 0.53464472 -0.13076496 0.83489859 0.001314007
0.066708259 0.037842672 0.0095230034 0.65703565 -0.17275299 0.73379874 0.0024919254
