# .PCD v0.7 - Point Cloud Data file format
VERSION 0.7
FIELDS x y z normal_x normal_y normal_z curvature
SIZE 4 4 4 4 4 4 4
TYPE F F F F F F F
COUNT 1 1 1 1 1 1 1
WIDTH 568
HEIGHT 1
VIEWPOINT 0 0 0 1 0 0 0
POINTS 568
DATA ascii
0.042133942 0.0088977329 0.00058423507 0.42473409 -0.90341955 0.05860066 0.0043377825
0.041836016 0.0090334276 0.0029516162 0.42187557 -0.90021515 0.10785954 0.0032828383
0.043562341 0.009699245 0.0016656808 0.44308859 -0.88706499 0.12956905 0.0020223104
0.046454161 0.011167306 0.0014594913 0.4753702 -0.87460423 0.095344938 0.0016223006
0.049453277 0.012876171 0.0016084872 0.4949474 -0.86366135 0.095478185 0.0016137301
0.051962022 0.01440523 0.00151806 0.52585274 -0.84563524 0.091542408 0.0020659969
0.053502593 0.015433207 0.001667383 0.55646372 -0.82606441 0.089251362 0.0021262227
0.055489819 0.016806228 0.0015265935 0.56470841 -0.81732917 0.11435661 0.0030774765
0.057107169 0.017876057 0.00054301578 0.59263086 -0.80465955 0.03621712 0.0035484799
0.056972913 0.01801265 0.0024536969 0.58887661 -0.79577911 0.14127967 0.0026980315
0.058572218 0.019180693 0.0015860287 0.64774835 -0.75730866 0.083100088 0.0020090498
0.060333405 0.020640768 0.0013907421 0.66923547 -0.73510987 0.10833889 0.0036857855
0.061874282 0.022137228 0.0015768983 0.68486601 -0.72087389 0.10629876 0.0033835904
0.063379519 0.023619933 0.0012343148 0.73015642 -0.67645186 0.09635549 0.0029394636
0.064865872 0.025398016 0.0016297388 0.76082492 -0.64291656 0.088338874 0.0021586535
0.066121005 0.026872471 0.0010926764 0.79558206 -0.59218282 0.12794054 0.005007945
0.065966286 0.027045529 0.002688179 0.78060114 -0.59590226 0.18857971 0.0019311062
0.067172118 0.028471177 0.0015494934 0.83730888 -0.53329277 0.12046826 0.0042211409
0.068555802 0.03072934 0.0016372747 0.85572797 -0.50759286 0.10039512 0.0029550402
0.069401383 0.032213401 0.0013721618 0.89633662 -0.42300227 0.13285244 0.0060276738
0.070397712 0.034484211 0.0015332382 0.91559333 -0.37060711 0.15601029 0.0041110739
-0.023682438 0.038577393 0.0025670277 0.36806843 0.88305044 0.2911146 0.0012101805
-0.020176254 0.037311468 0.0019336819 0.31685656 0.89258993 0.32075703 0.0017035145
0.071461953 0.037484292 0.0015262479 0.94949925 -0.28344262 0.13457869 0.004105249
-0.030416438 0.041763008 7.0871531e-05 0.42354998 0.89862812 0.11433768 0.0015262719
-0.029010162 0.040983904 0.0016703429 0.402006 0.90143669 0.1606335 0.0026097528
-0.026045596 0.039642725 0.0018533616 0.36190376 0.91508228 0.17790483 0.0015423545
0.0718624 0.039759628 0.0024407138 0.96096611 -0.17176503 0.21688916 0.0039619152
0.07221093 0.040753905 0.0012992894 0.98455834 -0.1555042 0.080394819 0.0053437073
-0.036231689 0.044690244 0.00081233255 0.47456655 0.87296999 0.11273851 0.0017591175
-0.034589697 0.04370917 0.0019256208 0.45169035 0.88314098 0.12664066 0.0015045021
-0.031831779 0.042305104 0.0019200923 0.45098951 0.88483006 0.11697949 0.001281623
0.072565496 0.043525703 0.0014411615 0.98720437 -0.092766844 0.12969963 0.0041566323
-0.040580906 0.046982933 0.0016787541 0.48327911 0.86637843 0.12581642 0.0015392555
-0.037931196 0.045519184 0.0015567157 0.47093168 0.87474841 0.11418645 0.0017746543
0.072762385 0.04648928 0.0014677868 0.99199861 -0.036292363 0.12092005 0.0057242191
-0.046468996 0.05027733 0.0017805547 0.48203874 0.85709274 0.1817434 0.0017253991
-0.043943476 0.048828065 0.0020268387 0.47659811 0.86353588 0.16480345 0.0009972332
0.072828099 0.049485143 0.0014693704 0.98940814 -0.017313769 0.14412418 0.0065343706
-0.052437823 0.053520143 0.0015939226 0.41903052 0.85032105 0.31838271 0.0042195898
-0.049538653 0.052016616 0.0015410961 0.45296043 0.85436505 0.2547299 0.0035150559
0.072884977 0.052532807 0.0013937439 0.98605311 -0.0096975518 0.16614799 0.0083064847
-0.060507223 0.056746379 0.0021285596 0.39197719 0.85979074 0.32728252 0.010127143
-0.056330908 0.055078231 0.0022229112 0.33466053 0.84556109 0.41596717 0.0017500996
0.072902657 0.055506185 0.0016012678 0.97606921 -0.014842216 0.21695304 0.013243434
-0.066102885 0.059790246 0.0028262709 0.43228319 0.77887601 0.45440444 0.013332506
-0.064274848 0.059192911 0.0018161581 0.50454247 0.82026327 0.26945323 0.0062329476
-0.061861824 0.057743531 0.0012776561 0.48430136 0.81022221 0.33013958 0.010683581
0.073075965 0.058534235 0.001525582 0.96057433 -0.057496894 0.27201295 0.021562105
-0.067076229 0.060937434 0.0012604231 0.3223204 0.8152442 0.48113033 0.021711949
-0.065275133 0.060114782 0.00011094515 0.50454396 0.82024753 0.26949814 0.0062860702
0.073286764 0.061551657 0.0017175673 0.93333393 -0.1034195 0.34379095 0.02727288
0.073730886 0.064587824 0.0017050543 0.84698981 -0.14794998 0.51060653 0.03868315
0.066883788 0.067826979 0.0026964475 -0.096369043 0.087233268 0.99151564 0.0073205926
0.074316315 0.067346439 0.0018410125 0.87247539 -0.26074505 0.41327798 0.021897009
0.07513833 0.068400964 0.00058358209 0.93339425 -0.26883703 0.23770119 0.055365037
0.068161123 0.070689984 0.0028637226 -0.21815969 -0.015278417 0.97579342 0.013061909
0.074667044 0.069749258 0.002538302 0.86792213 -0.32009542 0.37980285 0.020574234
0.075602263 0.070689932 0.0014413061 0.87500322 -0.32240051 0.36114717 0.021540478
0.068560846 0.072956346 0.0028496126 -0.33300984 -0.026600242 0.94254804 0.012318189
0.076573201 0.073254339 0.0015901395 0.8740589 -0.27782378 0.39854109 0.034379289
-0.016338456 0.0028024532 0.0046923282 -0.19493775 -0.90825927 0.37022212 0.0012249949
-0.013597233 0.0022968731 0.0048106946 -0.14972281 -0.93633491 0.31758469 0.0016760993
-0.010497098 0.0018341634 0.0048901243 -0.13491915 -0.92611265 0.35229555 0.0022882705
-0.0075599737 0.0014464326 0.0047244467 -0.084727921 -0.94915336 0.30319822 0.0031990078
-0.004497664 0.001215726 0.0047504851 -0.062495641 -0.94795799 0.31220183 0.0033793258
-0.0015700551 0.0010238683 0.0045315223 -0.025186533 -0.94276208 0.33251366 0.0028527044
0.0015056513 0.0010373362 0.0046445206 -0.0016099688 -0.93857503 0.34507149 0.0022446737
0.0045519974 0.0010896914 0.0046279901 0.027845593 -0.93365926 0.35707846 0.0020512207
0.0074853478 0.0011836529 0.0045597232 0.058545392 -0.92999268 0.36288574 0.0019111835
0.010511874 0.001442043 0.0046821237 0.081399411 -0.92844969 0.36242983 0.0021499714
0.013468466 0.001667178 0.0045653121 0.099992804 -0.92764705 0.35982272 0.0028489789
0.016510801 0.0020132945 0.0044973106 0.12215777 -0.92942238 0.34821185 0.0032050202
0.019427923 0.0024423371 0.0044424064 0.1536388 -0.92826051 0.3387146 0.0040402394
0.022259438 0.0027644923 0.0038388055 0.19756007 -0.92416906 0.32692757 0.004774028
0.02403599 0.0029318021 0.0030078611 0.21852739 -0.96852398 0.1191934 0.0042188992
-0.028179755 0.0059579518 0.0035544178 -0.30039501 -0.87887627 0.37059304 0.00017904272
-0.025241004 0.0052774497 0.0045226244 -0.28754327 -0.87516159 0.38911578 0.000464287
-0.022588653 0.004507951 0.0046997401 -0.26030916 -0.8791256 0.39922085 0.00017980234
-0.019487588 0.0037059241 0.0049829795 -0.22220789 -0.88627821 0.40636754 0.0011715725
-0.017202901 0.0031968807 0.0051635872 -0.19493784 -0.90825933 0.37022176 0.0012251283
0.019984972 0.0031488289 0.0058399886 0.15930721 -0.83888137 0.52047992 0.0015215784
0.022681655 0.003390877 0.0052774465 0.1844421 -0.89662188 0.40255484 0.0043467483
0.025531931 0.0038102493 0.004654042 0.25482395 -0.91516876 0.31229922 0.0022270977
0.028582994 0.0045647789 0.0044759526 0.25139895 -0.90481955 0.34365696 0.0039426414
0.031351656 0.0053618378 0.0043817405 0.29137117 -0.90333217 0.31479171 0.003721995
0.033636577 0.0058982023 0.0036610283 0.32136878 -0.90206206 0.28810784 0.0025766415
-0.033905257 0.0086050052 0.0051575541 -0.33941934 -0.84995317 0.40295684 0.00046158067
-0.031329043 0.0074242093 0.0046073347 -0.3144556 -0.87117517 0.37705627 0.00018572775
-0.028302738 0.006588303 0.0053034504 -0.30098456 -0.86427331 0.40303844 0.00073914189
-0.02684918 0.0060073039 0.0050843745 -0.29760733 -0.87887478 0.37283912 0.00020348179
0.03252551 0.0061343699 0.0054466701 0.31775889 -0.8912788 0.32349861 0.0038874052
0.034763154 0.0066729765 0.0047687287 0.35115129 -0.88959908 0.29207245 0.0022830709
0.037513852 0.0076650265 0.0045889444 0.34269732 -0.88311642 0.32041213 0.0027875251
0.039808277 0.008472871 0.0041630049 0.38189057 -0.88094306 0.2794618 0.0031105848
-0.037882131 0.0099957809 0.0043277452 -0.36902952 -0.8318646 0.41450995 0.00038391954
0.041055884 0.0092897769 0.0049155462 0.39836031 -0.8613354 0.31529397 0.002065415
0.043516394 0.010328903 0.0045301951 0.40882999 -0.85355091 0.32296884 0.0014520301
0.046004236 0.011516801 0.0042655324 0.45403349 -0.84557235 0.28082183 0.002063778
0.047242913 0.012456104 0.0050069201 0.46743587 -0.83216649 0.29833305 0.0020138908
0.049547575 0.013627877 0.0045411107 0.49449211 -0.80785888 0.32068908 0.0023019253
0.051619973 0.014670897 0.003912339 0.50343984 -0.80675876 0.30933568 0.0022792891
0.052842394 0.015800398 0.0047440138 0.52744067 -0.79180115 0.30798894 0.002564854
0.055143904 0.017247828 0.0043371175 0.54754096 -0.77696508 0.31068334 0.0021312763
0.056431852 0.018506316 0.0050827865 0.58421433 -0.75240552 0.30426902 0.0021104554
0.05833897 0.019793844 0.0044632722 0.61980182 -0.73438638 0.27662697 0.0011582351
0.060019076 0.020734662 0.0033372114 0.63783842 -0.72217375 0.26763257 0.0014220218
0.0597504 0.02134965 0.0052224481 0.64836884 -0.68690866 0.32829008 0.0027659461
0.061421566 0.022600509 0.0044569527 0.6786055 -0.68066782 0.27601799 0.0017267423
0.063155897 0.023869887 0.0033441961 0.70742297 -0.64141119 0.29689121 0.0019835616
0.062690534 0.024462014 0.0054559777 0.67427689 -0.59258622 0.44067246 0.0011636418
0.064281195 0.025724135 0.0044166306 0.74575824 -0.60507131 0.27880684 0.0014800767
0.06549459 0.027767682 0.0051560327 0.76012284 -0.56136709 0.32723114 0.003085077
0.066711463 0.02895225 0.0043094689 0.78893596 -0.5133794 0.33767092 0.003403862
-0.0064854342 0.032733761 0.0059263678 0.14310092 0.86658156 0.47807801 0.0011120458
0.068022788 0.031370718 0.004577456 0.82321131 -0.46568686 0.32474425 0.0020785516
0.069150254 0.03249773 0.0033093817 0.84521049 -0.41480896 0.33697584 0.0024349757
-0.016482832 0.035239257 0.0054624877 0.23061475 0.89060754 0.39196306 0.00155665
-0.01343962 0.034610756 0.0048755673 0.21794379 0.8803817 0.42122293 0.00023700224
-0.010415722 0.033872496 0.0049096565 0.19143909 0.86473107 0.46431825 0.0015619502
-0.0080768103 0.033219591 0.005380353 0.17736986 0.87367487 0.45302552 0.0010553108
0.068718567 0.033587243 0.0054398905 0.82048768 -0.39775401 0.41059911 0.0059407614
0.069706343 0.034720723 0.0043230564 0.86053038 -0.34967989 0.37042066 0.0034944071
-0.024933822 0.038413275 0.0050946563 0.37392247 0.87676215 0.30244026 0.0013979594
-0.022651657 0.037613157 0.0047017848 0.36207548 0.87514764 0.32096392 0.0011806489
-0.020336581 0.036971871 0.0039800936 0.32499102 0.88962156 0.32086492 0.0018987859
0.07061021 0.037552088 0.0045124921 0.87992281 -0.25999725 0.39766473 0.0037414804
-0.031718161 0.041518629 0.0050057229 0.41503695 0.86526757 0.28116947 0.0011785524
-0.028750263 0.040230975 0.0046430286 0.38924819 0.87582499 0.28533542 0.0016748168
-0.026907437 0.039680064 0.0037390406 0.36505765 0.88445944 0.29062754 0.0016036008
0.071207702 0.04055446 0.0046419078 0.89445347 -0.1454456 0.42284587 0.0027075533
0.072017342 0.041675773 0.0030442101 0.96099812 -0.17165956 0.21683067 0.0038490142
-0.037007548 0.044177525 0.0051165181 0.44909859 0.84595108 0.28753647 0.0028803423
-0.034743134 0.043250035 0.0043206718 0.43702081 0.85637414 0.27502024 0.00207622
0.07147745 0.043355681 0.0048572873 0.88851041 -0.067732923 0.4538298 0.0032944574
0.072157405 0.043591756 0.0033427787 0.94918084 -0.086316414 0.30266348 0.001415208
-0.042361271 0.047028273 0.0052161105 0.46190819 0.82534087 0.32473552 0.0017009253
-0.040601745 0.046398938 0.0042841993 0.45735094 0.83213317 0.31366307 0.0025925057
-0.03813621 0.045059849 0.0042436803 0.44494358 0.84813976 0.2875486 0.0027866564
0.071478873 0.046478517 0.0051378859 0.88177633 -0.011225106 0.47153416 0.0034269667
0.072219662 0.046612598 0.0035959533 0.91630471 -0.027948858 0.39950526 0.0039548939
-0.048552737 0.050178263 0.0056044585 0.41117817 0.82471621 0.38829851 0.0032435118
-0.046296205 0.04936384 0.0047016647 0.43909854 0.82422882 0.35754615 0.0023334885
-0.043843776 0.048077468 0.0045649535 0.44274142 0.83223408 0.33371612 0.0023535788
0.071440563 0.049422074 0.0051371846 0.86626065 0.033067692 0.49849674 0.0042088684
0.07225278 0.049549185 0.0035441844 0.90768874 0.0074804467 0.41957736 0.0038917563
-0.055471193 0.053747565 0.0049929107 0.32733512 0.82135379 0.46715054 0.0049663703
-0.052572057 0.052588429 0.0047619832 0.38213244 0.82535106 0.41565669 0.004562119
-0.049822312 0.051476683 0.0040951874 0.4148294 0.83469588 0.36221454 0.0027409466
0.071309321 0.052575964 0.0050416854 0.83675724 0.070349641 0.54303616 0.0059836581
0.072236285 0.052464753 0.0034801047 0.88281077 0.023918303 0.46911943 0.0047122859
-0.073033571 0.056426764 0.0054847272 -0.072710745 0.4628621 0.88344318 0.015740175
-0.066108562 0.056866013 0.0059671891 0.12515239 0.62010223 0.77447408 0.0074447696
-0.064126551 0.056600161 0.0054453481 0.27145696 0.71888787 0.63993067 0.0070397025
-0.061633911 0.055995498 0.0047659851 0.34323379 0.76111472 0.55035901 0.0088122422
-0.05845375 0.054974969 0.0044547729 0.27826354 0.80533659 0.52345228 0.0049539334
0.0709664 0.055692237 0.0049901009 0.67363513 0.10717621 0.73125172 0.018874556
0.072151095 0.055637076 0.0035132316 0.83209568 0.03291738 0.55365449 0.0075925183
-0.070361577 0.058280475 0.0055313734 -0.048506554 0.61599219 0.78625739 0.018244132
-0.067403823 0.058583934 0.0047983248 0.18828571 0.69545877 0.69345915 0.0070032794
-0.064473674 0.057947207 0.0041652182 0.3976298 0.71956462 0.56931311 0.0080457004
-0.062663577 0.057701506 0.0030261339 0.50611073 0.79857028 0.32578757 0.011475963
0.064974748 0.057757806 0.005446359 0.21436952 0.31133625 0.92580527 0.014108663
0.067729697 0.058776256 0.00561172 0.18675961 0.27425665 0.94334728 0.014526299
0.07061819 0.058527946 0.0047197496 0.54093182 0.15140937 0.82732582 0.02073309
0.072168112 0.05828936 0.0033699689 0.90465909 0.013374888 0.42592624 0.027688056
-0.067978129 0.060128875 0.0035909608 0.23924279 0.77339005 0.58705252 0.017806729
0.068018772 0.061538495 0.0047149379 0.27542195 0.17405368 0.94543535 0.015615911
0.070690371 0.061454345 0.0041003721 0.4037405 0.14058293 0.90400779 0.018546537
0.072316609 0.061540645 0.0031480279 0.8431201 -0.010747199 0.53761792 0.036528941
0.067898631 0.064513743 0.0038669417 0.11871336 0.1515345 0.98129737 0.011969912
0.070544317 0.064391896 0.0037265508 0.26725358 0.084777229 0.95988971 0.020362768
0.072288521 0.064694792 0.0032712417 0.3868416 -0.020976488 0.9219076 0.024100011
0.068326831 0.067530803 0.0033678452 -0.056823201 0.061866149 0.99646562 0.011021316
0.070576563 0.067420006 0.0035505858 0.099264428 0.069033921 0.99266356 0.028584097
0.07284341 0.067514896 0.0033530106 0.50564593 -0.12131106 0.85416961 0.028095238
0.068723954 0.069942594 0.0031043179 -0.21162575 -0.049317274 0.97610575 0.014062825
0.070695475 0.070419267 0.0037575779 -0.16874848 -0.043797374 0.9846856 0.015760329
0.073435776 0.070606001 0.0037148034 0.35343331 -0.24881567 0.90176255 0.025799714
0.075180158 0.071923874 0.0030272619 0.79110211 -0.26735783 0.55016106 0.039245766
0.068817325 0.073769905 0.0030542826 -0.23719075 -0.17935464 0.95476311 0.014726068
0.070989057 0.073582217 0.0045148414 -0.15546642 -0.17067708 0.97298485 0.02885255
0.073649973 0.073419794 0.0045323162 0.34952956 -0.26410538 0.89893126 0.028788095
0.075543746 0.07360696 0.0035287079 0.46614537 -0.2716448 0.84197241 0.03111303
0.071272224 0.07551568 0.005029106 -0.079537623 -0.18315373 0.97986144 0.039832857
0.073515713 0.075304322 0.0048325476 0.14699987 -0.33204123 0.93174016 0.072711661
0.075200967 0.075032331 0.0038136113 0.41324636 -0.26943323 0.8698467 0.033615489
-0.012895664 0.0028477435 0.0064278659 -0.16771463 -0.88701636 0.43020198 0.002396954
-0.010363197 0.0025911855 0.0066739256 -0.11831944 -0.9200635 0.37347507 0.0026197026
-0.0072501674 0.0025118135 0.0072078686 -0.082331218 -0.87510878 0.47687119 0.0014552517
-0.0044545559 0.0022818174 0.0071604303 -0.047801185 -0.87748861 0.47720936 0.0017197316
-0.0015037496 0.0022844963 0.0073675006 -0.019507123 -0.87819904 0.47789726 0.0017260513
0.0015704948 0.0022838339 0.0073922733 0.0073169218 -0.87696648 0.48049584 0.0019070895
0.0044689663 0.0022862076 0.0072516571 0.036094531 -0.87318194 0.48605588 0.0017130264
0.0075102244 0.0024091129 0.0071211057 0.060718171 -0.86965775 0.48990685 0.0013037259
0.010544715 0.002557239 0.0068598408 0.085765913 -0.8621366 0.49936435 0.0010016053
0.013632116 0.0026963835 0.0065054134 0.1056402 -0.85375905 0.50983882 0.00071994623
0.016441485 0.0028189425 0.0061567435 0.12203411 -0.84546894 0.51989424 0.00075327582
-0.024769993 0.0059257452 0.0065215775 -0.27793095 -0.85675085 0.43443343 0.00079601118
-0.022331074 0.0054015145 0.0070010563 -0.25229356 -0.85549659 0.45218754 0.0011389575
-0.019518837 0.0050201975 0.0077550993 -0.2262328 -0.85639071 0.46412674 0.00091649499
-0.016570026 0.0042086537 0.0075793439 -0.1904286 -0.86246532 0.4689247 0.00070810207
-0.013641126 0.003677815 0.0076939631 -0.17700374 -0.86396438 0.47141841 0.00065020076
-0.010817176 0.0035972951 0.0083506871 -0.11299068 -0.84698904 0.51946378 0.0011019201
-0.0079590967 0.003325498 0.0084807305 -0.079113714 -0.8480401 0.52399331 0.0015962737
-0.0047151172 0.0031795844 0.0086521087 -0.045578916 -0.84643358 0.53054005 0.0017169164
-0.0013512023 0.0031657207 0.0088387588 -0.015370921 -0.79975837 0.60012537 0.00087427755
0.0014241704 0.0031253516 0.0088157002 0.0070670904 -0.7978673 0.60279167 0.00086191646
0.0046104807 0.0031977724 0.0087673813 0.038498908 -0.84401965 0.53492874 0.0019691307
0.0077744159 0.0032677629 0.0085531529 0.068537295 -0.80080897 0.59498543 0.00098609913
0.010662321 0.0033889166 0.0082841367 0.091894723 -0.83806252 0.53777933 0.00094603881
0.013692165 0.0036736736 0.0080670388 0.11138509 -0.83316326 0.54169399 0.00064467615
0.016708614 0.0038889258 0.0076719937 0.13006495 -0.82450217 0.550708 0.00060393981
0.019562481 0.0043204227 0.0075868852 0.15881504 -0.8131184 0.56001455 0.00085083803
0.022468254 0.0047909603 0.0075142016 0.15724669 -0.78323507 0.60151178 0.00063580793
0.025343969 0.0051107933 0.0071796584 0.19177808 -0.80429089 0.56243879 0.0027541195
0.028251907 0.0055197943 0.0067419317 0.22169726 -0.817909 0.53091925 0.0032328647
0.030515963 0.0058213254 0.0061415127 0.28835016 -0.81965595 0.49499327 0.0027215269
-0.031235537 0.0084769381 0.0072121746 -0.30256435 -0.83855724 0.45307457 0.00098076754
-0.028613918 0.007836286 0.0077345129 -0.28783622 -0.84438825 0.45183927 0.00091828447
-0.025583889 0.0067657526 0.0076479665 -0.28625226 -0.84955269 0.44308001 0.00067571527
-0.022936709 0.0064687817 0.0085995989 -0.2448775 -0.83972502 0.48466161 0.0010202397
0.022717459 0.0060548931 0.0089262035 0.16733415 -0.75100017 0.63874716 0.00026218803
0.025650449 0.0063556358 0.0085974028 0.17586304 -0.73076147 0.65959066 0.00033027329
0.028699331 0.0066772704 0.0081478944 0.19970027 -0.78331709 0.58867151 0.0030261383
0.031581685 0.0071430299 0.007669623 0.23159122 -0.79816717 0.55614257 0.0030179827
0.034428034 0.0079083629 0.0074411356 0.25638041 -0.78866893 0.5588116 0.0030369279
0.037084434 0.0084999716 0.0068237646 0.32170966 -0.81159133 0.4876703 0.002418021
-0.037314214 0.011018193 0.0073302942 -0.35073406 -0.82004434 0.45223093 0.0013767902
-0.03462882 0.0099868001 0.0075668409 -0.34924063 -0.81896102 0.45533907 0.0014467384
-0.032162555 0.0094464468 0.0083800526 -0.30706108 -0.83478761 0.45699361 0.00097539346
0.035343666 0.0091753649 0.0087529104 0.24788029 -0.69554275 0.67437047 0.0023248638
0.037779901 0.0096317446 0.0081444979 0.29232392 -0.78060484 0.55245173 0.003455379
0.040478401 0.010401136 0.0075726067 0.34783906 -0.80391854 0.48241377 0.0021749733
0.043269109 0.011345686 0.0070188846 0.38364282 -0.78818852 0.48122457 0.0024162729
0.045165025 0.011872709 0.0062775849 0.39899096 -0.7820617 0.47873354 0.0025951918
-0.042051367 0.013272093 0.0071339482 -0.4080407 -0.76105618 0.504278 0.00030253312
-0.040307213 0.012535905 0.0074566933 -0.40356851 -0.79297858 0.45641813 0.0014932577
-0.038967866 0.012464552 0.0085470723 -0.38938627 -0.79641235 0.46271551 0.0016127089
0.043898754 0.012525347 0.0083497288 0.35228378 -0.76230282 0.54294628 0.0033051956
0.046557944 0.013450016 0.0076102349 0.41074666 -0.76945502 0.48910749 0.0021155069
0.048902847 0.01438914 0.0069721336 0.46525753 -0.75224966 0.4665361 0.001671001
-0.044225689 0.015339763 0.0085107917 -0.41235104 -0.72718579 0.54878724 0.00090325053
0.049921703 0.015728211 0.0080415811 0.44470397 -0.73520297 0.51158094 0.0028614118
0.052314632 0.016862173 0.0073943366 0.47333768 -0.73223555 0.48967594 0.0029252903
0.054418385 0.01771153 0.0064563998 0.52059996 -0.71493894 0.46673116 0.0013223201
0.053495891 0.018482234 0.008478458 0.50843686 -0.63894951 0.57726562 0.0040578409
0.055557512 0.019366171 0.0075788046 0.51485163 -0.694561 0.50250655 0.0024217488
0.057684176 0.020529706 0.0068181995 0.5646826 -0.66262686 0.4919951 0.0012634865
0.056678399 0.021225203 0.0087234322 0.50926584 -0.58047968 0.63536739 0.001525971
0.058798213 0.022300988 0.0077786264 0.60136616 -0.63758677 0.48149949 0.0013839419
0.060702641 0.023376865 0.0068789059 0.61460435 -0.60024571 0.51182675 0.0014866738
0.059817687 0.02426336 0.008802169 0.59338546 -0.5585174 0.57961363 0.0013176622
0.061727766 0.025320919 0.0077707111 0.62029374 -0.52685612 0.58108371 0.0016110422
0.063503005 0.026367592 0.0067151943 0.66996276 -0.52530938 0.52459508 0.0016433143
0.062677935 0.027391912 0.0086532971 0.60128874 -0.50026077 0.62304986 0.0035146771
0.064438321 0.028537259 0.0075228256 0.70563465 -0.44783786 0.5491094 0.0022032072
0.066125073 0.029719355 0.0063954485 0.72642797 -0.44540644 0.52336937 0.0015959897
-0.012974273 0.032792825 0.0085298819 0.20507532 0.82819128 0.52157766 0.0028299713
-0.010280383 0.032339059 0.0081754299 0.20032914 0.84790921 0.4908343 0.0017013801
-0.0078171426 0.031911246 0.0079766326 0.15981834 0.83539844 0.52589697 0.0020756787
-0.0044733384 0.031481061 0.0077816327 0.11380349 0.83661175 0.5358448 0.0013265063
-0.0014607372 0.031214079 0.007573728 0.062221542 0.81236142 0.57982534 0.00062465994
0.0010431 0.030658031 0.0082116565 0.059883393 0.77713907 0.62647337 0.00095380528
0.0042023575 0.030449834 0.0083553446 0.019036528 0.76334357 0.64571214 0.00053070119
0.008099366 0.030508798 0.0082854936 -0.038357273 0.76160604 0.64690411 0.00098635908
0.010162055 0.03079064 0.0080540497 -0.03952219 0.76228279 0.64603633 0.00090140488
0.065386452 0.031066505 0.0083231609 0.67468309 -0.35573959 0.64672405 0.0013780848
0.066816919 0.031812035 0.0070373914 0.73502326 -0.41015768 0.53991801 0.0022439093
-0.021643881 0.035337679 0.0088644717 0.28229845 0.78817016 0.54689604 0.00067036564
-0.019350478 0.035312891 0.0074124052 0.28069481 0.85625839 0.43362656 0.0015157544
-0.01636572 0.033991512 0.0080541875 0.24960589 0.83858478 0.48422363 0.0018204179
-0.013854506 0.033619184 0.0074308091 0.22952951 0.85519248 0.46471721 0.0018003656
-0.011306565 0.033187822 0.0069971588 0.18912184 0.85702151 0.47931939 0.0019837618
0.06595365 0.033037245 0.0088132033 0.70018357 -0.34166843 0.62690157 0.0019566871
0.067632817 0.034512926 0.0075991801 0.76019484 -0.29079047 0.5809859 0.0019997684
0.069214135 0.035858229 0.0061950292 0.7753076 -0.31827691 0.54552537 0.0041539101
-0.02826474 0.038483813 0.0081383185 0.36491981 0.80041152 0.47557858 0.00216838
-0.025511635 0.037559785 0.0076046423 0.35650375 0.8252784 0.43797344 0.0022450963
-0.022622477 0.036564697 0.0072888839 0.32035699 0.8394376 0.4389942 0.0021749255
0.068250537 0.037354454 0.0080971522 0.76000994 -0.19750929 0.61917275 0.0023776991
0.069475867 0.037751913 0.006678273 0.80009598 -0.22257349 0.55705249 0.0026513503
-0.03394495 0.041468602 0.0075589619 0.38848352 0.80516177 0.4481017 0.0016172432
-0.031488668 0.040194143 0.0077200974 0.39126366 0.80065089 0.45372993 0.0016549325
-0.029123319 0.039699569 0.0065452321 0.379592 0.82796556 0.41277465 0.0016004902
0.068561047 0.040448498 0.0085179154 0.68252504 -0.10833957 0.72278774 0.0022504569
0.069796331 0.040566247 0.007065603 0.79879177 -0.13225901 0.58688956 0.0022534106
-0.040102933 0.044275846 0.0080887321 0.39999321 0.77478617 0.48960358 0.0023367186
-0.037582729 0.043268502 0.0076195365 0.39728492 0.79369837 0.46065989 0.0019046571
-0.035483301 0.042425118 0.0072296732 0.39550319 0.8018806 0.44784459 0.0016884607
0.068625532 0.043321334 0.0087485146 0.63847917 -0.019053169 0.76940328 0.0033055269
0.070001341 0.043691106 0.0072174384 0.7833811 -0.05108162 0.61943895 0.0026989286
-0.048173588 0.047777046 0.0089397794 0.33627647 0.74731231 0.57309902 0.00090113195
-0.046245769 0.047321916 0.0083062155 0.36338171 0.7622745 0.53562242 0.0023844149
-0.04356407 0.046407353 0.0075853951 0.39732087 0.77006102 0.49914148 0.001558293
-0.040987439 0.045442991 0.0069332188 0.41685161 0.79184288 0.44634014 0.0014240167
0.068527855 0.04656636 0.0087396763 0.58028132 0.07602901 0.81085956 0.0044841296
0.069934964 0.046535615 0.0073375995 0.74922681 0.025230417 0.66183275 0.0037148553
-0.067695372 0.050466921 0.0086130351 -0.17233312 0.38025129 0.9086861 0.0034066434
-0.054197311 0.05041752 0.0088950405 0.24916662 0.68477511 0.68483508 0.001240194
-0.052179251 0.050360821 0.0079848981 0.32200521 0.75281042 0.57409847 0.0022770402
-0.049565192 0.049446851 0.0076065264 0.35590926 0.77714604 0.51901108 0.0015861534
-0.046865139 0.048513029 0.0069881887 0.40065584 0.77145326 0.4943023 0.0016810122
0.056745291 0.049138349 0.0089788903 -0.13462016 0.49506336 0.85836452 0.00097225601
0.068181232 0.049658079 0.0084786043 0.45575798 0.19606991 0.8682403 0.0086131254
0.070011012 0.049417756 0.0070332978 0.67979026 0.10448805 0.72592527 0.0060024885
-0.070446827 0.053177323 0.0069887298 -0.12402536 0.34599149 0.93000412 0.0052166632
-0.06743817 0.052616872 0.00811389 -0.14788671 0.38696426 0.91015834 0.0047381758
-0.064703442 0.052903738 0.0083300583 -0.093768917 0.5019539 0.85979635 0.0095834928
-0.061514691 0.052989397 0.0081121195 0.082595356 0.6504932 0.75500768 0.0045319255
-0.058391165 0.052938998 0.0075503476 0.19609666 0.73875123 0.64481986 0.0042972374
-0.055559061 0.052167598 0.0074372962 0.27434769 0.75971538 0.58954722 0.0020731024
-0.052913815 0.051501315 0.0069082347 0.33656463 0.77253628 0.53843462 0.0024192824
0.062216967 0.052308057 0.0082282191 0.040733609 0.40875205 0.91173595 0.0036514786
0.064765036 0.052644208 0.0083680367 0.11454216 0.37070569 0.92166013 0.006353959
0.067642227 0.052508041 0.0079455301 0.3251617 0.29758346 0.89761573 0.010910113
0.069882847 0.052255675 0.0067000487 0.66853642 0.15694718 0.72692961 0.0087179961
-0.072011895 0.055471912 0.0060895337 -0.088774681 0.40427408 0.91031945 0.010485445
-0.070181243 0.055679362 0.0065928777 -0.088820815 0.4042353 0.9103322 0.010492797
-0.067465961 0.055700779 0.0068628802 0.030398253 0.41637322 0.90868545 0.011311147
-0.064723372 0.05506485 0.0069145462 0.12383325 0.60027707 0.7901473 0.011720128
-0.062013865 0.054694392 0.0065705618 0.2249184 0.68186915 0.69603604 0.006028818
0.065167099 0.055506431 0.0068582068 0.048533779 0.40962774 0.91096085 0.0059270612
0.067759231 0.055490289 0.0068627628 0.23301831 0.35225284 0.90643281 0.016829001
0.069542065 0.054975372 0.0063549881 0.54994953 0.23451026 0.80159867 0.0082093319
-0.070000358 0.05726438 0.0061120973 -0.072795495 0.46289155 0.88342071 0.015737545
0.067994736 0.057326417 0.0061755599 0.2746647 0.30269754 0.91265196 0.02294188
-0.018686904 0.0058645648 0.0095404405 -0.21302442 -0.80091739 0.5595997 0.00082716084
-0.016105175 0.0054100035 0.0096824253 -0.16835053 -0.79383671 0.58436412 0.0010751205
-0.013454876 0.0052096122 0.010071293 -0.13929594 -0.78503269 0.60358948 0.0012280509
-0.010477894 0.005055679 0.010445744 -0.10966883 -0.77498978 0.62238544 0.0012924786
-0.0074596629 0.0047680661 0.010474979 -0.060839694 -0.77002305 0.63510871 0.001633447
-0.0045333118 0.0046343985 0.010545483 -0.040672317 -0.76515275 0.64256293 0.0015998593
-0.0015717095 0.00453735 0.010550347 -0.016887249 -0.75437707 0.65622413 0.0016125838
0.0015602796 0.0045852307 0.010601126 0.030715402 -0.73780704 0.67431253 0.0020719417
0.004518366 0.0046668216 0.010594227 0.043648679 -0.73899776 0.67229241 0.0021023722
0.0074556191 0.0046889572 0.010404048 0.063868821 -0.75605977 0.65137881 0.0021058046
0.01048725 0.0049046744 0.010327676 0.089949206 -0.74679238 0.65894639 0.0013625418
0.013487738 0.0051025222 0.010101939 0.11780632 -0.75308442 0.64729083 0.0015082365
0.016465755 0.0053541977 0.0097945416 0.13984339 -0.75683725 0.63846773 0.0010686362
0.019294262 0.005680962 0.0094556827 0.16042814 -0.76752967 0.62061346 0.00026209606
0.021358872 0.0058464506 0.0090265246 0.15476005 -0.75905722 0.63236183 0.00082019938
-0.027686739 0.0087268697 0.00978754 -0.26362571 -0.78476351 0.56093466 0.0014242512
-0.025333555 0.008295252 0.010230752 -0.24934481 -0.79457361 0.55360621 0.0015888239
-0.022532495 0.0077730827 0.010633764 -0.22184613 -0.77999687 0.58514023 0.0017216455
-0.019735143 0.006984605 0.010617872 -0.19841348 -0.77347779 0.60196698 0.00086354214
-0.016689416 0.0066363905 0.011089675 -0.15333162 -0.76803976 0.62177509 0.0012474802
-0.013576088 0.0063867019 0.011502505 -0.12006405 -0.70916802 0.69474131 0.00095708692
-0.010434711 0.0062009376 0.011767646 -0.085511848 -0.74147016 0.66551459 0.001229097
-0.0086590825 0.0060927379 0.011843182 -0.050102085 -0.70457077 0.70786285 0.0028636854
-0.0059696934 0.0060395305 0.011991238 -0.0034014492 -0.68242669 0.73094606 0.0023061023
0.0077620433 0.0060981545 0.011853469 0.045630585 -0.66801494 0.74274755 0.0032825402
0.011057324 0.0062591261 0.011694261 0.078872085 -0.71186161 0.69787699 0.0015120819
0.013674808 0.0065013939 0.011584512 0.10493694 -0.71968311 0.68632674 0.0016674279
0.016644442 0.0066968887 0.011269494 0.13301383 -0.72809154 0.67245078 0.0015233881
0.019628631 0.0070142583 0.010929803 0.16427097 -0.71590358 0.67859942 0.00047090792
0.02254477 0.0074028741 0.010545598 0.17079292 -0.71997112 0.67265993 0.00023104796
0.025376031 0.0078711463 0.010235609 0.18255788 -0.69271255 0.69772625 0.00050624472
0.028336141 0.0081642428 0.0097496323 0.1977015 -0.70626551 0.67978173 0.00056947186
0.031232806 0.0086110681 0.0094628073 0.20640828 -0.68293726 0.70070839 0.0009234568
0.03353098 0.0088900933 0.0091122873 0.23880424 -0.71630442 0.65565276 0.0016642459
-0.036844328 0.011935479 0.0093371412 -0.35661468 -0.76936305 0.53000605 0.00090877531
-0.034460682 0.011373992 0.010003815 -0.31464973 -0.77158409 0.55285937 0.0010503667
-0.031587232 0.010801393 0.010733106 -0.2853854 -0.77306187 0.56650728 0.0014468974
-0.028803332 0.0098579032 0.010805218 -0.26312962 -0.77235293 0.57812941 0.0010546311
-0.025728691 0.0094473604 0.011569446 -0.22405027 -0.72043723 0.6563319 0.00060103246
0.023719195 0.0091183204 0.011996052 0.1824777 -0.68052965 0.7096346 0.0010982162
0.025954206 0.0093614897 0.011607563 0.18282378 -0.670138 0.71936822 0.00064486766
0.02859606 0.0097949272 0.011207099 0.19518495 -0.66568339 0.72025585 0.00027747851
0.031604238 0.010393106 0.010900678 0.1999395 -0.62937927 0.75093669 0.00035300635
0.034459084 0.010558169 0.010314981 0.23074068 -0.66803992 0.70744711 0.0012152098
0.037345432 0.011032262 0.0098849647 0.26124141 -0.66728628 0.69748253 0.0033056401
0.039993234 0.011655295 0.009506315 0.30341366 -0.67366397 0.67388207 0.0023643693
-0.040403996 0.014326552 0.010229537 -0.39521566 -0.73291963 0.55374485 0.0010295087
-0.0378149 0.013371782 0.010681508 -0.36707899 -0.75815791 0.53893387 0.00072890962
-0.034868024 0.012679705 0.011513544 -0.30167431 -0.71387833 0.63195747 0.00061112206
0.034737587 0.012438788 0.011716135 0.21058677 -0.61206353 0.76225412 0.00030216426
0.037714712 0.012893273 0.011306662 0.22184765 -0.58150667 0.78270912 0.0004670757
0.040600684 0.013423538 0.010809542 0.244353 -0.58635503 0.77232087 0.00043271936
0.043356091 0.013833542 0.010095311 0.34264106 -0.64908653 0.67917877 0.0028733984
0.045780428 0.01444889 0.0094797201 0.37733081 -0.67372072 0.63539106 0.00315555
-0.043929439 0.016703449 0.010635165 -0.41057414 -0.67236882 0.61591315 0.00095908251
-0.040977452 0.015575122 0.011405389 -0.38907093 -0.68526447 0.6156593 0.0010776611
0.041357748 0.015199283 0.011942398 0.23975578 -0.5549072 0.79661483 0.00048469289
0.04368908 0.015689952 0.011472152 0.2827169 -0.54748738 0.78760952 0.001401786
0.046558604 0.016344288 0.010786241 0.31703258 -0.56869477 0.75899714 0.00063807936
0.049255237 0.017015684 0.0099803181 0.39861262 -0.64108795 0.65583086 0.0027776696
0.051546212 0.017768731 0.0092585823 0.46021381 -0.65387702 0.60053974 0.0014234254
-0.048212279 0.020671539 0.011887315 -0.42185125 -0.57412714 0.70172608 0.00037169716
-0.046321232 0.019010078 0.011529421 -0.4229067 -0.64848578 0.63294244 0.0016808723
0.047592264 0.018253995 0.011812508 0.30066949 -0.52254277 0.79783893 0.001162596
0.049840897 0.019016761 0.011316587 0.35700816 -0.52358449 0.77356607 0.0014152902
0.052436087 0.019590337 0.010315709 0.42047256 -0.57882589 0.69868684 0.0029228579
0.054729428 0.020420857 0.009545289 0.49200174 -0.59290886 0.63748986 0.0033644359
-0.051416833 0.022964787 0.011745104 -0.45705667 -0.52581817 0.71736634 0.00069627032
-0.04969532 0.02177966 0.011888614 -0.4516865 -0.57202208 0.68466777 0.00041162616
0.052949026 0.021687286 0.011599293 0.38165635 -0.46833298 0.79687059 0.0016472521
0.055518422 0.022455739 0.010613445 0.44499639 -0.50315553 0.74081886 0.0010765865
0.05786458 0.02321085 0.0095774913 0.53202844 -0.56086135 0.63433462 0.0017154868
-0.053593647 0.024076285 0.011008808 -0.46610868 -0.52090937 0.71511966 0.00066345226
0.056317132 0.024653388 0.011585915 0.41301218 -0.41380936 0.81128472 0.0022036277
0.058535978 0.025425823 0.010639925 0.48280621 -0.44263905 0.75562477 0.001037696
0.060694419 0.02625441 0.0095996354 0.57978123 -0.49309945 0.648619 0.0018762788
-0.010105718 0.02958231 0.011720008 0.16451672 0.71181506 0.68282753 0.0027534729
-0.0072796731 0.029229399 0.011415879 0.14062864 0.74838614 0.64818347 0.0014751287
-0.0045627789 0.029170126 0.010973461 0.11529095 0.75662386 0.64360577 0.0011649904
-0.0017716899 0.028828045 0.010912989 0.092338689 0.76666349 0.63537437 0.0011083595
0.0016433374 0.028673274 0.010722085 0.051924098 0.73222345 0.67908227 0.0020774445
0.0046954551 0.028570382 0.010745912 0.01465759 0.73373628 0.67927629 0.0018667803
0.0072592585 0.028591841 0.010687837 -0.012437624 0.73441291 0.67858893 0.0022834807
0.010209997 0.028440198 0.011041244 -0.082857713 0.71636963 0.69278353 0.002824886
0.013604358 0.028907331 0.010943533 -0.11118829 0.67710173 0.72744095 0.0031293926
0.017421788 0.029085387 0.011488773 -0.14226142 0.60606784 0.78258771 0.0017249529
0.021267384 0.029767985 0.011798636 -0.17561935 0.5897615 0.78825074 0.0013391548
0.059269939 0.027898323 0.011543035 0.46087506 -0.34926 0.8158502 0.0014589099
0.061461207 0.02854629 0.010373876 0.55199254 -0.37770855 0.74339789 0.0022238027
0.063342936 0.029501518 0.0094007337 0.63131154 -0.42122909 0.65116191 0.0018575345
-0.019066811 0.032519266 0.011408766 0.26149896 0.71618998 0.64706272 0.0020114377
-0.016424354 0.032123301 0.010814887 0.23747621 0.75950128 0.60560954 0.00082423293
-0.013549106 0.031273145 0.010772697 0.20676614 0.76289803 0.61256379 0.0021210646
-0.010745442 0.030894782 0.010385817 0.17450109 0.77355278 0.60923356 0.002366859
-0.0077412724 0.030602166 0.0099215442 0.14956014 0.76929569 0.62114084 0.0014283906
-0.0043854816 0.03039524 0.0094356965 0.11987548 0.78022391 0.61390603 0.001080877
-0.0014712823 0.03014889 0.0092565175 0.092609473 0.77539903 0.62464368 0.0011418922
0.016728479 0.030257786 0.010080953 -0.15184028 0.63299942 0.7591154 0.0010630818
0.021417025 0.030305568 0.011329169 -0.17562327 0.58976191 0.78824961 0.0013381862
0.026999034 0.032333553 0.01098613 -0.18357193 0.57487273 0.79738492 0.00071034872
0.027149796 0.031673957 0.011689468 -0.19309634 0.5433861 0.81697327 0.0013906303
0.061960343 0.031266615 0.011277499 0.50768775 -0.296298 0.8089875 0.00093364943
0.064065441 0.031708553 0.0099156667 0.6206457 -0.34286055 0.70515645 0.0021213624
-0.027894497 0.035815384 0.011598912 0.32374921 0.73239625 0.59898442 0.001133509
-0.025251757 0.03519446 0.011002338 0.30234054 0.74883759 0.5897733 0.0013825701
-0.022573667 0.034446038 0.01057847 0.28857657 0.7496987 0.59554636 0.0022736194
-0.01960597 0.033803053 0.010009165 0.27047285 0.76700073 0.58185422 0.0013541863
-0.017594213 0.033461228 0.0095245354 0.28866988 0.79382855 0.53526253 0.0023278419
0.062574714 0.033960741 0.011772756 0.47695047 -0.19719261 0.85652393 0.0017674158
0.064513519 0.034425184 0.010558703 0.5793196 -0.25613302 0.77381176 0.0013913101
0.06636513 0.035320669 0.0093697896 0.67958534 -0.26410934 0.68440497 0.0021350242
-0.033618823 0.038545638 0.011478795 0.32012135 0.6805324 0.65908867 0.0010592391
-0.031376284 0.037971061 0.010926396 0.32739025 0.73947662 0.58820915 0.0011626844
-0.028747473 0.037140418 0.010439038 0.3252801 0.730591 0.60035795 0.0011302319
-0.026308676 0.03648638 0.0098851621 0.32887325 0.76511508 0.55357134 0.00079386082
0.064705469 0.037368074 0.011138851 0.53296053 -0.1311228 0.83591855 0.0011217751
0.066819914 0.037728235 0.0096381623 0.65789229 -0.1756012 0.73235375 0.0024286392
-0.039803382 0.041535374 0.011451965 0.308862 0.68074858 0.66421807 0.0022836849
-0.037364498 0.040970664 0.010735837 0.34904951 0.73557776 0.58059436 0.0017141403
-0.034640711 0.039959583 0.010346807 0.34388551 0.74673176 0.56932801 0.0014818523
-0.031696975 0.03926187 0.009409165 0.36188972 0.76118308 0.53817862 0.001098181
0.046849728 0.04059428 0.011795426 -0.20966792 0.45549282 0.86519694 0.00031541672
0.064917371 0.04046642 0.011342505 0.50163621 -0.039534267 0.86417484 0.0019663856
0.067095585 0.040531568 0.0098600071 0.6225931 -0.074855037 0.77895737 0.0032156566
-0.06348756 0.044353057 0.011661896 -0.27819428 0.24130888 0.92971933 0.0025903725
-0.046345565 0.04443419 0.011594932 0.28116038 0.66985118 0.68720329 0.0012901996
-0.043410465 0.043874882 0.01077217 0.33345068 0.70678735 0.623909 0.0015691383
-0.040759873 0.04301497 0.010285848 0.34078762 0.73214573 0.58976817 0.001616983
-0.038273893 0.042490445 0.0093958937 0.37183127 0.74313217 0.55632365 0.00084757723
0.0499673 0.042591956 0.011470619 -0.19892704 0.4540934 0.8684625 0.00031334691
0.052745193 0.043891143 0.011470795 -0.14964911 0.43851012 0.88617945 0.0010889452
0.055366695 0.044438396 0.011806885 -0.12005561 0.42668423 0.89639682 0.00064126047
0.062414303 0.044698101 0.011869102 0.14869452 0.23306574 0.96102566 0.0063286377
0.064653121 0.043468256 0.011345937 0.42989546 0.085061915 0.89886278 0.0033223834
0.067171387 0.043496989 0.009933833 0.57430387 0.031590465 0.81803244 0.0043387315
-0.064319953 0.046379589 0.010896689 -0.27664548 0.29284781 0.91526359 0.00098461378
-0.061554607 0.047054078 0.01169686 -0.19177715 0.34493065 0.91882777 0.0057265856
-0.058522001 0.047792226 0.011734609 -0.0073246742 0.51882404 0.8548497 0.0032129248
-0.055126537 0.047566235 0.011613286 0.12321955 0.59518778 0.79408342 0.0024920728
-0.052309204 0.047193766 0.011266569 0.19618976 0.62154251 0.75841576 0.0012205271
-0.049453776 0.046560448 0.010830153 0.26268181 0.64078236 0.72138494 0.00082565745
-0.046672344 0.046085112 0.010063324 0.35000297 0.72146183 0.59748703 0.00073682738
-0.044486865 0.045441445 0.0096167903 0.37104523 0.71273506 0.59525973 0.0011842472
0.055878371 0.046131387 0.010909212 -0.14015253 0.48915687 0.86086166 0.0012178844
0.058531038 0.046323102 0.01131153 -0.055713035 0.4619188 0.8851707 0.0050204047
0.061570484 0.046502601 0.011351015 0.081203461 0.35942936 0.92963243 0.007794953
0.064547658 0.046388917 0.010851581 0.28146374 0.25095642 0.9261744 0.0072964234
0.067137763 0.046412781 0.0097102234 0.49975851 0.13785218 0.85512471 0.0054600518
-0.066305049 0.049398318 0.0094437171 -0.1968675 0.37130341 0.9074012 0.0026287793
-0.064273193 0.049484599 0.01007856 -0.19686195 0.37131274 0.90739864 0.0026244237
-0.061582033 0.049497541 0.01057606 -0.10261776 0.44906843 0.88758498 0.0072665778
-0.05847986 0.04953884 0.010614549 0.029101677 0.53837788 0.84220088 0.0026247168
-0.055357881 0.049472172 0.01015096 0.19219075 0.63770342 0.7459203 0.0031879984
-0.052368246 0.048892807 0.0097112088 0.25948483 0.69199044 0.67365927 0.0017281832
-0.050111573 0.048142821 0.0095747644 0.30125085 0.68854171 0.65966523 0.00088495284
0.059100609 0.049087662 0.0097551597 -0.11061091 0.48932326 0.86505949 0.0017857651
0.06166923 0.049369857 0.0099914605 0.0016072289 0.4191716 0.90790558 0.0024015328
0.064567871 0.049375731 0.0098852757 0.17010935 0.36358449 0.91589797 0.0089376932
0.066758804 0.049112439 0.0093515599 0.39491889 0.27602658 0.87626964 0.0066542248
-0.064335197 0.051516317 0.0091533083 -0.13557756 0.4655827 0.87455785 0.0051148003
-0.061349411 0.051371351 0.0094371662 0.013250588 0.59611493 0.80278975 0.0041966671
-0.058317762 0.051414505 0.0091383718 0.1204472 0.64315373 0.75620478 0.0030027865
-0.056760751 0.051014364 0.0091677904 0.20408624 0.65184081 0.73037815 0.0043224595
0.062223379 0.051170636 0.0090388069 0.038211741 0.40635273 0.91291696 0.0045974548
0.064616457 0.051210426 0.0091130463 0.13068995 0.39087051 0.91112041 0.0061619561
-0.00022687094 0.0058874465 0.012018308 0.0027637153 -0.68792254 0.72577888 0.0022749635
-0.021449173 0.0089913281 0.012446953 -0.17295618 -0.68883753 0.70398068 0.0010254566
-0.019375581 0.0084474534 0.012417293 -0.16817027 -0.71322531 0.68046188 0.00080653944
-0.016512649 0.0081721833 0.012772376 -0.13839634 -0.70035189 0.70025259 0.00099276728
-0.013482444 0.0079037277 0.013004197 -0.10385464 -0.68223757 0.72371686 0.00093316898
-0.010541389 0.0076842476 0.013144069 -0.066193737 -0.66075593 0.74767631 0.00092159159
-0.0074815806 0.0075667528 0.013259355 -0.035084765 -0.6468358 0.76182181 0.0010458094
-0.0044845538 0.0074637798 0.013287402 -0.012334361 -0.61762673 0.78637475 0.0017705582
-0.0015201321 0.0074862307 0.013321679 0.003846504 -0.60310525 0.79765224 0.0018258443
0.0014832737 0.0074829254 0.013269764 0.042427566 -0.59964973 0.79913712 0.0019864675
0.0045292876 0.0075136097 0.01317706 0.02171943 -0.59521282 0.80327451 0.002197965
0.0075344089 0.0075630676 0.013044146 0.054347452 -0.57645607 0.81531882 0.002412471
0.010420642 0.0076969489 0.012922348 0.074842513 -0.59218895 0.80231601 0.0015434095
0.013509355 0.0079991659 0.012835947 0.093954131 -0.59874076 0.79541314 0.0017717421
0.016445773 0.0081669036 0.012590038 0.11372648 -0.61390573 0.78114396 0.0020994036
0.019214479 0.0085084653 0.012418017 0.1400028 -0.63900119 0.75635749 0.002191588
0.021719053 0.0088067241 0.012178312 0.16333655 -0.63904232 0.75162899 0.0010673971
-0.030369198 0.011758284 0.012442003 -0.24328364 -0.68308711 0.68862551 0.0010163951
-0.028267071 0.011355492 0.012793834 -0.23718138 -0.68629825 0.68756068 0.0010207839
-0.025384581 0.010849566 0.013166881 -0.20728067 -0.68868935 0.69479609 0.0016048119
-0.022506522 0.010558239 0.013650544 -0.17399199 -0.64413702 0.74485856 0.0010370526
-0.019523142 0.010224756 0.014015402 -0.13304523 -0.61028969 0.78092599 0.00088845007
-0.016510643 0.0099393278 0.014295193 -0.11280748 -0.58630788 0.80219543 0.001453712
-0.013456834 0.0097441301 0.014519316 -0.079824455 -0.55917025 0.82520097 0.0018092075
-0.010632421 0.0095708817 0.014612246 -0.047619987 -0.59691781 0.80088794 0.00090584182
-0.0076054642 0.0095600607 0.014714833 -0.021008063 -0.51363111 0.85775387 0.0020696826
-0.0044962219 0.0095251417 0.014726701 -0.0016451 -0.49345279 0.86977106 0.0021700407
-0.001474196 0.0095690973 0.014717627 0.015078598 -0.47807822 0.87818784 0.0022538616
0.0014650407 0.0096971989 0.014706371 0.031230738 -0.46786153 0.88324988 0.0021515321
0.0045656413 0.0097645894 0.014616285 0.044084113 -0.46129629 0.88615024 0.002047092
0.0075785941 0.0099420156 0.014537303 0.054258317 -0.46173716 0.88535583 0.0017849019
0.010591023 0.010115478 0.014421052 0.067686751 -0.46484056 0.88280332 0.0015029853
0.013531326 0.010482027 0.014359545 0.083043024 -0.46896449 0.87930435 0.0011777277
0.016505811 0.01045821 0.014046501 0.096035108 -0.47110474 0.87683374 0.0010880668
0.019488811 0.010466333 0.013679854 0.11525293 -0.48152605 0.86882073 0.0010662157
0.022438023 0.010508697 0.013255085 0.1449203 -0.55470723 0.81932777 0.0025785652
0.025421303 0.010763009 0.012870467 0.17257899 -0.56867731 0.80425274 0.0025542183
0.028430622 0.011265233 0.012557772 0.18174441 -0.59510446 0.78282797 0.0016583361
0.030778198 0.011680376 0.012244863 0.197882 -0.60455006 0.77159697 0.00055312505
-0.036937203 0.014734591 0.012769713 -0.33455831 -0.67100549 0.66168147 0.00063160958
-0.034253892 0.013923601 0.013130563 -0.27916279 -0.67800063 0.67998767 0.00151101
-0.03149534 0.013453654 0.013703097 -0.25689539 -0.65247858 0.71293509 0.0013967119
-0.028590314 0.012956988 0.014199222 -0.20421588 -0.60978043 0.76580912 0.0012907189
-0.025891054 0.0125866 0.014604265 -0.17999372 -0.64128804 0.74589002 0.0011920492
-0.023346703 0.012050199 0.014776914 -0.14316733 -0.60354084 0.7843734 0.00092475244
0.016875001 0.012315017 0.014913131 0.08568117 -0.33273044 0.93912154 0.0018844925
0.019769218 0.012636648 0.01474994 0.10204139 -0.36710331 0.92456615 0.0021771954
0.022597723 0.013025438 0.014591054 0.12134001 -0.39961445 0.90861702 0.0020339168
0.025547216 0.013350592 0.014345455 0.1332842 -0.43282646 0.89156973 0.0017872237
0.028533872 0.013514872 0.013953899 0.15623944 -0.45903376 0.87457263 0.001494262
0.03150928 0.013423055 0.013299237 0.18411337 -0.52851051 0.82872123 0.0013845855
0.034432657 0.013879819 0.012883897 0.19811819 -0.54568183 0.81423616 0.0007521091
0.037191525 0.014299162 0.012419323 0.21259139 -0.55642754 0.80323929 0.00050208665
0.039408404 0.014766644 0.01216792 0.23753785 -0.57111734 0.78574854 0.00070569187
-0.042757086 0.017378356 0.012266879 -0.38610876 -0.6445545 0.6599012 0.0007570443
-0.040213227 0.017002877 0.013302867 -0.35240531 -0.63641906 0.68613499 0.0011363054
-0.037750266 0.016349854 0.013903274 -0.31528923 -0.60627878 0.73008138 0.0013087965
-0.034957435 0.015716335 0.014494065 -0.25809628 -0.6341781 0.72883773 0.0007743382
0.026757706 0.01501051 0.014898566 0.1024445 -0.32571316 0.93990213 0.00069560163
0.028809415 0.015543954 0.014838323 0.12276838 -0.32527632 0.93761569 0.0030957852
0.031549145 0.015879832 0.014607465 0.1451228 -0.38205081 0.91267544 0.0028071504
0.034610473 0.016352529 0.014317754 0.16565433 -0.44005436 0.88255924 0.002149123
0.037531462 0.016484566 0.013739709 0.19970173 -0.45602423 0.8672722 0.0010288458
0.040465515 0.016577156 0.013011896 0.22306281 -0.50450253 0.8340984 0.00060124899
0.043346044 0.017066766 0.012506137 0.25851244 -0.51610845 0.8165803 0.0011375705
0.04560528 0.0178115 0.012258708 0.30132598 -0.54399616 0.7831161 0.0016320511
-0.045897532 0.020276893 0.013056651 -0.4108026 -0.58317363 0.70082074 0.0003642044
-0.04363706 0.019550258 0.01369988 -0.3845394 -0.59451312 0.70617539 0.0018073403
-0.040956452 0.018585945 0.014313495 -0.33214265 -0.60056931 0.72732234 0.0012617159
0.035560511 0.018104168 0.014932826 0.12075145 -0.26078346 0.95781583 0.0038260412
0.037823807 0.018631609 0.014762641 0.16976647 -0.34096918 0.92461848 0.0037639276
0.04066737 0.019264486 0.014428519 0.20703547 -0.39961779 0.89299601 0.0013612189
0.043510452 0.019476591 0.013765308 0.23183225 -0.41713732 0.87877774 0.00053986703
0.046441358 0.019565001 0.012949122 0.27614567 -0.46050155 0.84361237 0.0010791529
0.049054861 0.020219048 0.012428503 0.33332461 -0.48122233 0.81075263 0.0017194194
-0.049180143 0.023049012 0.01332591 -0.42920437 -0.53833163 0.72524667 0.00040287251
