# .PCD v0.7 - Point Cloud Data file format
VERSION 0.7
FIELDS x y z normal_x normal_y normal_z curvature
SIZE 4 4 4 4 4 4 4
TYPE F F F F F F F
COUNT 1 1 1 1 1 1 1
WIDTH 564
HEIGHT 1
VIEWPOINT 0 0 0 1 0 0 0
POINTS 564
DATA ascii
0.022443399 0.035564262 -0.0014372248 -0.27315366 0.96194637 0.006809582 0.00089372299
-0.069499031 0.038114078 -0.001221483 -0.84892851 -0.51715922 -0.10893489 0.0030322343
-0.06847655 0.036651745 -0.0015276993 -0.81628257 -0.56586313 -0.11611126 0.0021781744
0.023836853 0.036069952 -0.00073521119 -0.27316752 0.96194249 0.0067996974 0.00088791159
0.025090849 0.036421001 -0.0011085523 -0.28486595 0.95835531 -0.020163948 0.0011360419
0.028092401 0.037377745 -0.0012625169 -0.30544478 0.95155245 -0.035374597 0.0013063068
0.031063864 0.038421765 -0.0011130805 -0.36034918 0.93088168 -0.060064327 0.0020138479
-0.070759438 0.040332384 -0.0012936294 -0.89293087 -0.44105014 -0.090273254 0.0035331878
0.032866765 0.039194629 -0.00044364776 -0.43823585 0.89637196 -0.066833824 0.002438941
0.034478653 0.039885908 -0.0013503318 -0.42965055 0.89974242 -0.076576985 0.0023483983
0.037221394 0.041365851 -0.0014743854 -0.49790788 0.8618921 -0.096071362 0.0023369412
-0.072371185 0.043968216 -0.0011949494 -0.94038373 -0.32104492 -0.11228786 0.0050735753
-0.071753554 0.042512394 -0.0015957636 -0.91851813 -0.37751898 -0.11748963 0.0056043961
0.03875947 0.042355139 -0.0010867771 -0.54455072 0.83401209 -0.088816382 0.0021837386
0.040557988 0.043422297 -0.0014747712 -0.53497314 0.83680308 -0.11646612 0.0026768974
0.042474676 0.044687502 -0.0012414505 -0.52173132 0.84876323 -0.086008511 0.0027764146
-0.073156327 0.046269681 -0.0012696952 -0.93291003 -0.33117178 -0.14143606 0.0049982374
0.043905657 0.045611195 -0.0014192058 -0.53371757 0.84083074 -0.090272576 0.0028738272
0.046273246 0.047151424 -0.001440265 -0.55583012 0.82502609 -0.10190587 0.0029635439
-0.075043574 0.050594274 -0.00051142293 -0.92154795 -0.38171858 0.070994712 0.013487525
-0.074199155 0.049127687 -0.0012328606 -0.9138481 -0.4052918 -0.024902808 0.0099173719
0.047827572 0.048216995 -0.0011773359 -0.56874591 0.81607062 -0.10274687 0.003261891
0.049563695 0.04938205 -0.0010293029 -0.54192019 0.83562863 -0.089707151 0.0037117566
0.051646702 0.050793543 -0.0013420641 -0.5779798 0.81323522 -0.06773299 0.0028536504
-0.075816616 0.052418809 -0.00090861687 -0.93284702 -0.32230625 0.16098219 0.0056462185
0.053050607 0.05174515 -0.0012735702 -0.54116476 0.83859849 -0.062396709 0.0025772224
0.055055141 0.05304075 -0.0013222984 -0.56460559 0.82271123 -0.066081926 0.0026548523
-0.076537564 0.055365875 -0.00093462697 -0.97904414 0.18842202 0.077263854 0.052243114
0.056827039 0.054221481 -0.0013416073 -0.57287675 0.81947172 -0.016687218 0.0020209332
0.058475573 0.055418432 -0.00098086905 -0.60745507 0.79428476 -0.010487842 0.0042256117
0.060301807 0.05680047 -0.0014448374 -0.67219436 0.7399177 -0.026009472 0.010312373
-0.075785264 0.057278112 -0.0013313707 -0.87808335 0.46560511 -0.11037024 0.05342371
-0.073688634 0.058526643 -0.0010520151 -0.55687183 0.8296507 -0.03966656 0.011861453
-0.071371838 0.059660304 -0.0014931472 -0.40566391 0.91328692 0.036656018 0.0025405991
0.06188428 0.058556128 -0.0011181408 -0.80710256 0.59038293 -0.0057815551 0.017574141
0.063130774 0.059255678 -0.0027250694 -0.82166022 0.56991768 0.0082704863 0.017457256
-0.069891885 0.060381062 -0.001407008 -0.41161737 0.91002989 0.049160331 0.0023017086
-0.068944596 0.060833711 -0.00088680646 -0.16899288 0.98499161 0.03511215 0.017243559
0.062910266 0.060189903 -0.00031626938 -0.82168329 0.56988418 0.008286695 0.017468192
0.063820221 0.061597589 -0.0012976172 -0.90636742 0.41943598 0.050709486 0.011685775
0.064731419 0.064409897 -0.0011556692 -0.90847719 0.34745306 0.23226181 0.0077947029
0.065372132 0.067252517 -0.00091752812 -0.9324801 0.24303447 0.26723608 0.018690119
0.066174686 0.068905495 -0.0019909691 -0.93612355 0.2319259 0.26435396 0.015491202
0.065858372 0.069752358 -0.00051880156 -0.94017816 0.2249995 0.255813 0.01716676
0.066417709 0.070707545 -0.0014924509 -0.94022161 0.22491111 0.25573099 0.017078502
0.066813059 0.073481724 -0.0011822975 -0.9458769 0.20189473 0.25407779 0.0098737525
0.067265086 0.075997517 -0.0014245593 -0.85720783 0.15046538 0.49249858 0.020904435
-0.01824012 0.0028463006 0.0024270273 -0.2357322 -0.96913713 0.072135597 0.0080819791
-0.016162565 0.0022967048 0.0024689543 -0.21892732 -0.97311169 0.071585461 0.0076357005
-0.012846103 0.0017108507 0.0028739937 -0.11775247 -0.97592074 0.18361132 0.0043483051
-0.011616598 0.0015547667 0.00063643011 -0.13432083 -0.97964019 0.14920779 0.0025557512
-0.0076516061 0.00097220612 0.0018086361 -0.10083579 -0.97429782 0.20143434 0.0052391021
0.0024331955 0.00060639443 0.0029105823 0.019253409 -0.91763335 0.39696157 0.0002484615
0.0044302237 0.00050171599 0.0024589954 0.035534423 -0.92473459 0.37895021 0.00038738939
0.010172106 0.00073902687 0.0021976237 0.07762938 -0.92459297 0.37296307 0.00058621127
0.014109864 0.0010526925 0.0018385344 0.10087962 -0.90586984 0.41136757 0.0013584518
-0.027214741 0.0055290498 0.0028987406 -0.30853501 -0.91133147 0.27254558 0.00010255273
-0.02490399 0.004737298 0.002573913 -0.28767762 -0.90730983 0.30664408 0.00034190505
-0.022368729 0.0039530806 0.002732743 -0.27043533 -0.91502774 0.29931435 0.00052991032
-0.020588424 0.0034194514 0.0027400402 -0.25257266 -0.92980939 0.26769671 0.0005095863
-0.034738459 0.0083082374 0.0029066983 -0.35468078 -0.86894864 0.34515178 0.00058198307
-0.031524636 0.007051242 0.0027125252 -0.31732991 -0.88834238 0.33188793 0.00038555727
-0.028734719 0.0060319211 0.0026019092 -0.31250793 -0.89162362 0.32763737 0.00059378485
-0.04242716 0.011926308 0.0026107242 -0.47576714 -0.8308 0.28882003 0.0010174777
-0.040604144 0.010974444 0.0026703964 -0.43985325 -0.85190099 0.28424233 0.00050460763
-0.037589967 0.0095350379 0.0029150292 -0.39989462 -0.85911757 0.31937635 0.00038514574
-0.046601295 0.014502697 0.0026303947 -0.53042805 -0.81268066 0.24123874 0.00062119798
-0.044007439 0.012871888 0.0027411927 -0.49032983 -0.82942122 0.26765096 0.00054175965
-0.051391173 0.01795158 0.0028275463 -0.55784667 -0.78584391 0.26693919 0.00060317916
-0.050147828 0.017033743 0.0026093547 -0.56278193 -0.78287381 0.26530173 0.00069896469
-0.047631767 0.015204615 0.002914316 -0.53879404 -0.79744691 0.27162388 0.00068734406
-0.052001849 0.01840831 0.002924179 -0.55897987 -0.77518409 0.2943317 0.0013372952
-0.060782984 0.026868926 0.0013295313 -0.71408778 -0.69087243 -0.11302111 0.00083454599
-0.059149444 0.025539923 0.00087202259 -0.68755829 -0.71125782 -0.14620507 0.00056377013
-0.063397825 0.02979313 0.0017030779 -0.76333845 -0.64267749 -0.06542214 0.00087260769
-0.061921109 0.028405553 0.0008090628 -0.72777289 -0.67843944 -0.10033269 0.00066620111
-0.06489893 0.031720329 0.0013966748 -0.7861672 -0.61588508 -0.051250767 0.00035285417
-0.00067438069 0.032906368 0.0028254911 0.079697885 0.92817193 0.3635177 0.0018803715
0.0016460466 0.032924969 0.0019780141 0.064159885 0.93164957 0.3576487 0.0011679608
0.0044499189 0.032944981 0.0013312809 0.018709576 0.94450498 0.32796377 0.0021454387
0.0076290439 0.032962497 0.0013903839 -0.021868458 0.95083773 0.30891648 0.0024494759
0.010530989 0.032971408 0.0025290572 -0.082816124 0.94567293 0.31439489 0.0047479253
-0.067052536 0.034568373 0.0015014386 -0.80966824 -0.58645409 0.022557728 0.0017951042
-0.0039897244 0.033369601 0.002279239 0.11830676 0.91958094 0.37466583 0.0014222474
0.013741034 0.033487558 0.0015133703 -0.17338075 0.96757329 0.18368791 0.0026875176
0.016388314 0.033924837 0.0018343293 -0.20555998 0.96258897 0.17654343 0.0016343739
0.019481996 0.034740344 0.0015281528 -0.24587972 0.95880336 0.14226495 0.0017582169
0.022368221 0.035457335 0.0019021966 -0.28175169 0.95077306 0.12902185 0.0021363629
-0.069449008 0.038101345 0.0014599243 -0.86035985 -0.49558422 0.11906797 0.003207285
-0.06850142 0.036637254 0.0014766506 -0.83684701 -0.54237467 0.07427489 0.001686456
0.023854913 0.036053553 0.00071615493 -0.2904439 0.94959986 0.11790863 0.0024237984
0.025467046 0.036389008 0.0019137615 -0.28037 0.94869441 0.14618996 0.0022087179
0.028242335 0.03734209 0.0015135553 -0.30337408 0.94423181 0.12802528 0.0014327541
0.031217655 0.038381938 0.001657331 -0.36660001 0.91792059 0.15174422 0.0021485758
-0.070712961 0.040424868 0.0016332911 -0.88550079 -0.44977728 0.11657079 0.0022086005
0.032926656 0.039172582 0.0009592587 -0.43476474 0.88823587 0.1483801 0.003146583
0.034441538 0.039764937 0.0017639666 -0.42983994 0.88979948 0.15327911 0.0029074305
0.037128977 0.041253444 0.0015755742 -0.5006175 0.85454059 0.13835666 0.0027426318
-0.072319396 0.044044886 0.0013897212 -0.92699236 -0.33085299 0.17669609 0.0056037228
-0.071716517 0.042747036 0.0019031228 -0.90099472 -0.397394 0.17403001 0.0047362209
0.038736273 0.042307604 0.0011340331 -0.54067624 0.82972288 0.13866933 0.0028474894
0.040451005 0.043295577 0.0015215822 -0.51258069 0.84643209 0.14427017 0.0026670892
0.042652026 0.044697061 0.0017455133 -0.55973834 0.81950724 0.1228855 0.0021686866
-0.073123135 0.04659269 0.001604659 -0.92164725 -0.30130839 0.24449889 0.0085037611
0.044232089 0.045728695 0.0017209155 -0.53341913 0.83092266 0.15821345 0.0041149212
0.046240795 0.047066167 0.0015152429 -0.54857588 0.82811981 0.11524762 0.002497908
-0.075216979 0.050974213 0.0005563756 -0.84558219 -0.50502396 0.17303607 0.018198561
-0.074193753 0.049599502 0.0016978432 -0.88956869 -0.38452441 0.24659389 0.0077648903
0.047789708 0.048148699 0.0010524386 -0.52318442 0.83540279 0.16846417 0.0034922652
0.049633354 0.049266681 0.0017582513 -0.53030133 0.82839644 0.18038803 0.0034096583
0.051652774 0.050617687 0.0019339303 -0.56776917 0.80782861 0.15827562 0.0030820032
-0.075698428 0.052773379 0.0015112463 -0.93510813 -0.25807473 0.24283789 0.0048445701
-0.074778788 0.05175975 0.0026322643 -0.86883408 -0.31362668 0.38310003 0.010650074
0.053079117 0.051643454 0.0016157465 -0.52353972 0.83564931 0.16612162 0.0039416323
0.055260088 0.053043567 0.0015887019 -0.54842716 0.82373911 0.14381073 0.0038617926
-0.076186672 0.055562504 0.0016305456 -0.89280766 0.23986824 0.3812581 0.03793551
-0.058947995 0.055632479 0.0028996635 0.27285901 0.78722239 0.55301791 0.0017622557
0.056697566 0.054126423 0.00097392756 -0.5438152 0.83133835 0.11463638 0.0098687811
0.058628161 0.055310804 0.0016728236 -0.53420067 0.80855501 0.24671538 0.0071817748
0.060519785 0.056712933 0.0018031781 -0.67083043 0.70252472 0.23758259 0.0096836584
-0.075458869 0.057481755 0.0014450495 -0.75166535 0.60219538 0.268998 0.036320686
-0.073559433 0.058553752 0.0019483737 -0.62179196 0.72224677 0.3028768 0.034920767
-0.071262345 0.05970943 0.0014964025 -0.38583061 0.90479946 0.1802022 0.0099857775
-0.066512555 0.059890158 0.0024746435 0.31819597 0.88770711 0.33275732 0.019586571
-0.06457483 0.059148118 0.0019033012 0.31168836 0.70871562 0.63290805 0.0023867942
-0.062686764 0.057433631 0.002976377 0.32384151 0.70333683 0.63280654 0.0024795132
0.061971921 0.058386236 0.0014291949 -0.77014613 0.5430612 0.33460328 0.018933468
0.063282579 0.059277229 0.0025935834 -0.73247743 0.57226372 0.36876974 0.017807012
-0.069783464 0.060413308 0.0013001309 -0.26399189 0.94364011 0.19962859 0.024491359
-0.068168007 0.060578663 0.0022483664 0.10629652 0.96544051 0.23796144 0.038195603
0.062926218 0.060156245 0.00039680841 -0.8124969 0.5576002 0.17009039 0.023304248
0.064126365 0.061534643 0.0016875631 -0.73936015 0.48202524 0.47010452 0.030131321
0.065053746 0.064355947 0.0014997727 -0.86685181 0.266489 0.42136866 0.020171605
0.066274337 0.065036282 0.0027146081 -0.75298226 0.2703124 0.59995747 0.025815243
0.072875254 0.06578555 0.002594467 0.049722448 0.01500958 0.99865025 0.012811783
0.065544739 0.067255266 0.0010067773 -0.87027311 0.25124824 0.42367306 0.037182368
0.067029789 0.067622557 0.0024569421 -0.56876647 0.26824784 0.77752668 0.047576789
0.069429375 0.068512 0.0029215193 -0.15169193 0.011009477 0.98836648 0.018503996
0.072926484 0.067196801 0.0027877567 0.011280915 -0.052831098 0.99853975 0.010054479
0.06584572 0.069528356 0.00051297515 -0.80376285 0.27328613 0.52846938 0.055454656
0.067270294 0.070628084 0.001810913 -0.66045481 0.22515215 0.71631414 0.048098214
0.069441698 0.070631318 0.0029099553 -0.27972645 -0.0085460348 0.9600417 0.016499273
0.06761089 0.073515676 0.0017406455 -0.85028589 0.056132641 0.52331924 0.024993958
0.067722514 0.076044895 0.0015644345 -0.76573354 0.13032034 0.62981659 0.038839094
-0.018086333 0.002882544 0.0033529506 -0.23070534 -0.91066337 0.34273505 0.0014139309
-0.016280362 0.0027046078 0.0040976321 -0.20028326 -0.9177919 0.34284791 0.0013859976
-0.013501463 0.0023948215 0.0047242851 -0.1658145 -0.9087441 0.38300085 0.001512044
-0.010467886 0.001940892 0.0048084562 -0.11908464 -0.9508931 0.28569427 0.005264699
-0.0075795013 0.0015803581 0.0046771145 -0.093297452 -0.92406589 0.37067208 0.0024036285
-0.0047456105 0.0012078524 0.0042727259 -0.071240507 -0.92124873 0.38239437 0.0023316192
-0.0016175403 0.0010798055 0.0042889738 -0.0071480996 -0.89957356 0.43671063 0.00076870393
0.001538672 0.0012672679 0.0047922083 0.0067198039 -0.90598994 0.42324579 0.00099879492
0.0046116374 0.0013309165 0.0048161685 0.037831917 -0.90597069 0.4216466 0.00096278609
0.0076805013 0.0013753709 0.0045391368 0.054045044 -0.90748215 0.41659978 0.0010896818
0.01058398 0.0017636325 0.0049342741 0.090959616 -0.90266919 0.42061213 0.0013853882
0.013352688 0.0019522915 0.0047764098 0.10179961 -0.89963818 0.42460316 0.0018869247
0.016025214 0.0022536817 0.0047176233 0.10997796 -0.88383734 0.45468277 0.0025016603
0.018933501 0.0024482873 0.0042150854 0.11810873 -0.87703335 0.46568531 0.0028702316
0.021261808 0.0028555077 0.0042414134 0.15724568 -0.84074241 0.51809841 0.00039978506
-0.025383478 0.0053564534 0.0042993301 -0.29172662 -0.89475369 0.3380996 0.00078313617
-0.02252919 0.0045258841 0.0045050811 -0.26312974 -0.89395636 0.36277378 0.00089847384
-0.019525122 0.0037466222 0.004735603 -0.24975188 -0.90436006 0.34605899 0.0010432774
-0.016858926 0.0034008347 0.0055431081 -0.2054814 -0.90348434 0.37615615 0.0018179368
0.017756723 0.0030559804 0.0058533172 0.13295895 -0.83530462 0.53346801 0.00076372467
0.019651584 0.0032213703 0.005614799 0.14526252 -0.82886273 0.54026407 0.00074135611
0.022865612 0.0035734233 0.0050591086 0.15997736 -0.81938171 0.55047327 0.00076709251
0.025455287 0.0042304369 0.0051974189 0.1606023 -0.80600786 0.56970018 0.00064916263
0.027485473 0.0049214149 0.0055817459 0.18127343 -0.7921474 0.58278853 0.00049409905
-0.033938456 0.0083944239 0.0042448319 -0.34480372 -0.87055594 0.35105941 0.00072726241
-0.031536259 0.0076066884 0.0046040714 -0.31781471 -0.88183337 0.34837309 0.00066075783
-0.028592225 0.0065406179 0.0045782956 -0.30930081 -0.88463479 0.34893322 0.00071447331
-0.026266541 0.0060598808 0.0054168925 -0.30102307 -0.88685632 0.35052973 0.00074740819
0.036657043 0.0078810696 0.00544143 0.27169487 -0.75054419 0.60238302 0.0014282698
-0.042208221 0.011946464 0.0034497208 -0.46294633 -0.82817221 0.31592944 0.00086569646
-0.040369362 0.011354143 0.0044690762 -0.42901859 -0.84345233 0.32331288 0.00085176196
-0.037558299 0.010092038 0.004698283 -0.3890861 -0.85729933 0.33711997 0.00063973479
-0.0352543 0.0092228735 0.0050834836 -0.35571837 -0.85974115 0.36648268 0.00050576456
-0.045812067 0.014417958 0.0043412852 -0.50857532 -0.79940468 0.31984895 0.00092496158
-0.043576363 0.013186629 0.0046852781 -0.49232435 -0.81670123 0.30102462 0.00079641741
-0.041618347 0.012448487 0.005666221 -0.45795289 -0.82562876 0.32956976 0.0012441903
-0.051244855 0.017968155 0.0037663542 -0.55898881 -0.77518529 0.2943117 0.0013228729
-0.049413104 0.016927268 0.0045012813 -0.56639558 -0.76579255 0.30456161 0.0014731538
-0.047230661 0.015553557 0.0048687411 -0.54088122 -0.78490502 0.30227739 0.0010270195
-0.054484267 0.020514913 0.0041484437 -0.56397557 -0.75314128 0.33868846 0.00082322437
-0.052599642 0.019350775 0.0047015045 -0.56297624 -0.7732653 0.29175091 0.0010612524
-0.050777394 0.018443316 0.0057684351 -0.56047606 -0.76709706 0.31213576 0.0019252136
-0.057751376 0.023311121 0.0043655578 -0.68984783 -0.6944381 0.20461105 0.016284252
-0.055843841 0.021843506 0.0047502932 -0.58510846 -0.71389014 0.38471934 0.00040488449
-0.060749035 0.02633569 0.0045215613 -0.71990138 -0.68341881 0.12116467 0.014884848
-0.059177343 0.024869166 0.0048709828 -0.66970748 -0.73061401 0.13302232 0.017463276
-0.063468061 0.029529903 0.0044048396 -0.79405785 -0.58048886 0.18029127 0.015508141
-0.062173262 0.028126389 0.0048868209 -0.71730077 -0.68143088 0.14536758 0.014889396
-0.066056907 0.032965705 0.0037313602 -0.82266158 -0.5143106 0.24230668 0.011119289
-0.064845227 0.031628229 0.0047998265 -0.75862312 -0.59486496 0.26575664 0.013275922
-0.0074447012 0.032850016 0.0056181448 0.18877506 0.87929958 0.43725991 0.0023260601
-0.0044708303 0.032713592 0.0048072957 0.13449003 0.89848107 0.41790465 0.0022725374
-0.0014978581 0.032290611 0.0049735312 0.092739895 0.91140753 0.40091848 0.0022769587
0.0015343553 0.032186553 0.0046767294 0.082104586 0.9274596 0.36479813 0.0018580796
0.0044763666 0.032228574 0.0043611061 0.025185889 0.935274 0.35302708 0.0019236297
0.0076311873 0.032193143 0.0045541185 -0.06686791 0.93247354 0.35499537 0.0024168503
0.010608373 0.032226384 0.0049980516 -0.074625827 0.92121458 0.38183072 0.002978286
0.01332405 0.03267362 0.0045629493 -0.13928255 0.9233824 0.35772237 0.0024726933
0.016136602 0.03287581 0.0053631496 -0.21806076 0.9095825 0.35370785 0.0023498326
-0.066934504 0.034833726 0.0045744465 -0.8448925 -0.4426592 0.300349 0.0068355468
-0.065786712 0.033601455 0.0056426125 -0.83876705 -0.41457447 0.35298428 0.0084908083
-0.016519507 0.035296191 0.0048840009 0.24865173 0.86322474 0.43933523 0.0010269125
-0.01319408 0.034227822 0.0052656927 0.21361022 0.87260777 0.43923384 0.00031693035
-0.010361863 0.033783488 0.0046815127 0.20724729 0.86302537 0.46069047 0.0013108525
-0.007391396 0.03345485 0.0039031131 0.18849686 0.89842314 0.39661673 0.00077607029
0.016969509 0.033600107 0.003888448 -0.21283837 0.93929285 0.26912582 0.0051895431
0.019563632 0.033995267 0.0046215649 -0.2247429 0.91735649 0.32855394 0.0020053701
0.022449663 0.034772817 0.0046300455 -0.25766632 0.91620642 0.30687749 0.0026059065
0.025117338 0.035369698 0.0051935255 -0.29247963 0.88909101 0.35209769 0.0018197967
-0.069304429 0.038711045 0.0037773985 -0.84699941 -0.4175657 0.3289845 0.0045582494
-0.068294019 0.037481122 0.004768271 -0.84165013 -0.4007639 0.36195767 0.0077906293
-0.018197726 0.036065694 0.0042318455 0.28296673 0.8554433 0.43375868 0.0010238879
0.026032599 0.036109824 0.0039118933 -0.29195747 0.9106158 0.29247171 0.0022509396
0.028446017 0.036679648 0.004571531 -0.29435882 0.89966327 0.32242659 0.0022347001
0.031453632 0.037785817 0.0044782967 -0.34364709 0.89007795 0.29944587 0.0026338631
0.033774439 0.03848793 0.0051603378 -0.42800882 0.8522051 0.30092335 0.0029002537
-0.06990587 0.040794346 0.0045136642 -0.84149861 -0.3130216 0.44033805 0.0031489115
-0.068793811 0.039527025 0.0056508556 -0.8506549 -0.33442003 0.40564692 0.0060785729
0.035004027 0.039419945 0.0042523677 -0.42020941 0.85612351 0.30079329 0.0029905771
0.037501838 0.04065327 0.0046075047 -0.46898577 0.82734758 0.30910882 0.0024849409
0.039486915 0.04162835 0.0051510027 -0.48321795 0.8205514 0.30527985 0.0022274
-0.072056115 0.044750027 0.0031135329 -0.86569893 -0.30805516 0.39454702 0.01560074
-0.0708469 0.043652892 0.0046556992 -0.84033966 -0.25251624 0.47965074 0.0037981998
-0.039069686 0.044846244 0.0056330501 0.39175951 0.77261788 0.49958602 0.00028042309
0.040852994 0.042759188 0.004395789 -0.49206585 0.8095538 0.32014659 0.0025932374
0.043228235 0.044185527 0.0046118572 -0.5257237 0.78901976 0.3179031 0.0017095314
0.045213304 0.044877812 0.0057946551 -0.48110116 0.77104861 0.41716391 0.0041995798
-0.072386719 0.046980053 0.0037339102 -0.83091205 -0.24800059 0.49807715 0.0039300881
-0.071341917 0.04649451 0.0051086564 -0.80593044 -0.1828516 0.56306434 0.0050336374
-0.044459473 0.047852166 0.0053721378 0.3839491 0.76770788 0.5130378 0.00050174602
0.044640854 0.045425881 0.0038466062 -0.50054306 0.79013216 0.35376224 0.0031005277
0.046587165 0.046355054 0.0044989036 -0.50916749 0.78277254 0.35779274 0.0029004356
0.048767362 0.047409348 0.0051444764 -0.47898075 0.78533709 0.39220273 0.0048384992
-0.072866455 0.049765449 0.0041755452 -0.76770431 -0.23295717 0.59695989 0.0073764869
-0.071584262 0.049498398 0.0055838167 -0.74755597 -0.13235331 0.65087831 0.0075385789
-0.049370632 0.050846163 0.0045682467 0.38177633 0.77780169 0.49927083 0.00025008825
-0.047133941 0.049336486 0.0052587772 0.38197777 0.76949883 0.51182479 0.0004260338
0.049900055 0.048533574 0.0043468112 -0.50077307 0.78195453 0.37117845 0.0032204879
0.052347161 0.049952798 0.0047066431 -0.51369053 0.76913536 0.38020104 0.0018347339
0.054538477 0.050771281 0.0056016059 -0.45406324 0.76001322 0.46498007 0.0036499016
-0.075092405 0.053437423 0.0031221379 -0.80369437 -0.20575392 0.55833739 0.011370709
-0.073433109 0.05260478 0.0045063035 -0.68228817 -0.15533632 0.71439028 0.005340273
-0.071799703 0.052588109 0.0058311629 -0.57336634 -0.017951885 0.81910241 0.0061627533
-0.057293523 0.053585999 0.0058703474 0.21064325 0.7841984 0.58366287 0.0024699208
-0.055385035 0.053343285 0.0051263478 0.26747757 0.79913068 0.53837341 0.0015566101
-0.052242678 0.051896561 0.0052936934 0.34137544 0.78044242 0.52380568 0.00084317062
-0.050942812 0.051682267 0.0044840388 0.36489525 0.78094965 0.50692123 0.00024843053
0.053600181 0.051328588 0.0036382216 -0.48049411 0.78193134 0.3971256 0.0019619341
0.055563755 0.052106522 0.0043888991 -0.44764578 0.77751935 0.44167513 0.0042489357
0.058023132 0.053108931 0.0051079034 -0.39064062 0.72449148 0.56790137 0.0047192001
-0.075344868 0.055636629 0.0032311669 -0.7677936 0.14587361 0.62387007 0.038551979
-0.073600501 0.055560067 0.004715194 -0.59108758 0.063161254 0.80413061 0.0078727547
-0.071095608 0.056110043 0.005817791 -0.19554558 0.31735373 0.92792696 0.013396683
-0.066930801 0.056657992 0.0058105271 0.060173932 0.50391167 0.86165655 0.0062300069
-0.064293317 0.056288563 0.0053515639 0.24559349 0.693744 0.67705476 0.0061169732
-0.061764255 0.05563572 0.0048293639 0.27055329 0.73008966 0.62751096 0.0049774959
-0.058778744 0.0545942 0.0048722904 0.21603373 0.79019946 0.57351059 0.0028967061
-0.056603666 0.054352842 0.0041193576 0.27655554 0.80740571 0.52116495 0.001082761
0.05909387 0.054468431 0.0040789586 -0.44842184 0.73443413 0.50943536 0.0075049815
0.061475955 0.055644959 0.0046524005 -0.51107514 0.61909723 0.59625566 0.0072247465
0.064092413 0.056500427 0.0055663181 -0.28581741 0.57491755 0.76666695 0.0085085463
0.067412198 0.056924354 0.0058868001 0.018198051 0.35130501 0.93608415 0.014157992
0.06979958 0.056240931 0.0054503707 0.16056323 0.31013349 0.93703616 0.0029997886
-0.075045183 0.057292014 0.0030484053 -0.81772578 0.47436205 0.32604462 0.055258062
-0.073268101 0.057955012 0.0042019957 -0.45519686 0.65598267 0.60206521 0.020854447
-0.070537694 0.058447372 0.0048931353 -0.13146321 0.64719278 0.75090545 0.022356426
-0.06755235 0.058237884 0.0046808072 0.18050559 0.64550704 0.74211746 0.0029857073
-0.065035164 0.057843227 0.0041403016 0.31734562 0.68851656 0.65210176 0.0021541563
0.062549584 0.057579715 0.0035088297 -0.53643936 0.60587591 0.58749223 0.0078646094
0.064508416 0.058404855 0.0043934095 -0.42663881 0.53575534 0.72866017 0.020916842
0.067394443 0.058606964 0.0052939272 -0.04934638 0.36143845 0.93108922 0.012680903
0.069744028 0.05890825 0.0047855526 -0.050131582 0.36137834 0.93107057 0.011893367
-0.06961526 0.060119856 0.0032781952 -0.15352619 0.89099461 0.42726839 0.028309511
-0.068573035 0.060174234 0.0032518234 0.08345665 0.89098489 0.44629708 0.040205084
0.065369911 0.06105493 0.0035216636 -0.62832057 0.30723527 0.71471655 0.015745766
0.067317814 0.061500978 0.0042349556 -0.22796667 0.31075621 0.92274684 0.025278186
0.070199214 0.061613966 0.0038835395 -0.012522016 0.27199247 0.96221793 0.0087353261
0.067528374 0.064350098 0.0034607498 -0.25972694 0.25320122 0.93189651 0.026910618
0.070606202 0.064475775 0.0033094299 -0.00073489704 0.11152822 0.99376106 0.0094466982
0.068108134 0.066731758 0.0031306737 -0.30667675 0.14617518 0.94052219 0.019937087
0.070494346 0.067457706 0.0031807772 -0.027338058 -0.032598924 0.99909455 0.012388962
0.072452188 0.068124346 0.0031676854 0.011299352 -0.052824866 0.99853981 0.010053592
0.070768304 0.070668347 0.0034730432 -0.23295602 -0.15377066 0.96025324 0.011678677
0.072920173 0.070716329 0.0035441425 -0.11680637 -0.18974364 0.97486085 0.0042673722
0.070385613 0.073536254 0.0038296296 -0.44402733 -0.1268134 0.88699383 0.020275978
0.073167592 0.073471852 0.0042592706 -0.36723056 -0.18136543 0.91227639 0.0097182486
0.068979889 0.07586652 0.0033424525 -0.6647833 0.0019738341 0.7470336 0.055135883
0.070212536 0.075655602 0.0040705944 -0.44414395 -0.1269092 0.88692176 0.020251092
0.072461411 0.075449675 0.0047763516 -0.44416985 -0.12698264 0.88689828 0.020245418
-0.012466533 0.0027865898 0.00610168 -0.16098069 -0.89809364 0.40928358 0.00084282993
-0.01065885 0.0027337065 0.0065039638 -0.11575102 -0.86726892 0.48419654 0.0012421462
-0.007402854 0.0024353049 0.0066653099 -0.077409267 -0.87144268 0.48435065 0.0013734486
-0.0045223376 0.0023359095 0.0068704677 -0.043657947 -0.87196022 0.48762631 0.0018015939
-0.0014958287 0.002366083 0.0071188328 -0.02368306 -0.86834395 0.49539673 0.002210014
0.0014104685 0.0024882997 0.0073657138 0.0038376765 -0.86680681 0.49862942 0.0018358167
0.0045691896 0.002398273 0.007045195 0.038183823 -0.86405045 0.50195491 0.0015795694
0.0072337934 0.002321745 0.0065859398 0.065490343 -0.85974914 0.50650012 0.00120297
0.01017733 0.002733791 0.0068066623 0.087795861 -0.85011852 0.51922089 0.0010328337
0.013060577 0.0027624229 0.00627671 0.10584729 -0.84293652 0.52749819 0.00042421086
-0.022324599 0.0053689913 0.0066070878 -0.24608113 -0.87937224 0.40761328 0.00097598252
-0.019603414 0.0051618572 0.007616607 -0.22553863 -0.84608746 0.48297864 0.0011328567
-0.016523076 0.0043874099 0.0075583723 -0.18515922 -0.84868979 0.49542072 0.0016699545
-0.013528652 0.0038853814 0.0077225566 -0.15276086 -0.84695411 0.50924742 0.00080637587
-0.010733972 0.0036274467 0.0080509689 -0.10965694 -0.84247625 0.52745533 0.00091527548
-0.0075236172 0.00339676 0.0082626175 -0.075812988 -0.84222239 0.53377306 0.0013198523
-0.0043972144 0.0033130262 0.0084846457 -0.045067161 -0.80208057 0.59551305 0.00077943847
-0.0014193937 0.0034235786 0.0087898131 -0.017056672 -0.8403843 0.54172242 0.0023874186
0.0015471688 0.0033049486 0.0086568007 0.0078678736 -0.83249688 0.55397385 0.0018945064
0.0049765771 0.0033280973 0.0085130641 0.039055586 -0.83259404 0.55250514 0.001610486
0.0075922301 0.0033323688 0.0082500922 0.068951145 -0.83420354 0.54712898 0.0015572457
0.010554704 0.003672675 0.0083123865 0.092825554 -0.82881093 0.55177522 0.00072722131
0.013625343 0.0038846098 0.0079665743 0.1189824 -0.82764304 0.54849809 0.00044914603
0.016599994 0.0039668744 0.0073641576 0.13209926 -0.82530481 0.5490188 0.00063120649
0.019681485 0.0045223259 0.0073840893 0.15882432 -0.81636387 0.55527008 0.0008897956
0.022498254 0.0050690919 0.0074189785 0.16454525 -0.80487245 0.57018 0.00074507517
0.02539807 0.0053603905 0.0070592514 0.16567536 -0.77823591 0.60572314 0.0011674275
0.028323982 0.0056756586 0.0065035815 0.18130131 -0.7588709 0.62549573 0.0010897531
-0.031267192 0.0084015168 0.0067404327 -0.31661224 -0.8681953 0.38209096 0.00067698734
-0.028482804 0.0078203874 0.0074852388 -0.29381698 -0.84213316 0.45219833 0.00118489
-0.025479177 0.006905172 0.0076242606 -0.26877928 -0.84454894 0.46313581 0.0013081833
-0.022823093 0.0062925396 0.008021892 -0.24665481 -0.83459413 0.49255866 0.0011189234
0.020889642 0.0060159285 0.008962702 0.16231768 -0.75311077 0.63755566 0.00098817574
0.023495782 0.0064122993 0.0087060481 0.17431456 -0.74827307 0.6400795 0.0011485227
0.025897151 0.0065674805 0.0083271768 0.18437867 -0.7605024 0.62260795 0.0012233985
0.02838793 0.0070047411 0.0081496881 0.18588939 -0.72892141 0.65887684 0.0012523643
0.031432517 0.007507998 0.0077320198 0.20092854 -0.70260453 0.68262327 0.00057339063
0.034520719 0.0081319381 0.0072677555 0.24789703 -0.73701346 0.62877512 0.0026151957
0.037399236 0.0089145415 0.0068396982 0.27169997 -0.75054479 0.60237998 0.0014274087
-0.03951044 0.01182161 0.0065917727 -0.39713988 -0.83812368 0.37393674 0.0013949216
-0.037409436 0.011282731 0.0074529145 -0.36000651 -0.8143658 0.45519647 0.00088746106
-0.034553107 0.010153851 0.0076314448 -0.33536598 -0.8306917 0.44438842 0.00096438744
-0.031783689 0.0093616406 0.0081558237 -0.30447066 -0.82474625 0.47654086 0.0011175142
-0.029644879 0.0090522245 0.0089585567 -0.27894118 -0.77990466 0.56030393 0.0011348589
0.034714669 0.0091696363 0.0085003627 0.24788947 -0.73702049 0.62876987 0.0026169529
0.036984444 0.0099847969 0.0085110459 0.26648444 -0.71992183 0.6408577 0.003762776
0.040104717 0.010896589 0.0080404505 0.29756686 -0.69052869 0.65926027 0.0016080305
0.043709338 0.01178864 0.0069342358 0.33461234 -0.67344409 0.65917188 0.00090922636
-0.045121461 0.014788623 0.0062716189 -0.4765659 -0.80296493 0.35795587 0.0018472716
-0.043257665 0.014217687 0.0072549488 -0.46794927 -0.76863307 0.43614975 0.0011115426
-0.040750179 0.013113021 0.007786375 -0.42805272 -0.79537797 0.4291209 0.00069336686
-0.03850605 0.012456231 0.0086081112 -0.39671257 -0.76475996 0.50770205 0.0010976666
0.043606255 0.012846974 0.0084635625 0.33460009 -0.67344803 0.65917408 0.00090998778
0.046915073 0.014289722 0.008042587 0.3471722 -0.64647681 0.67936677 0.001782962
-0.048949264 0.017542014 0.0065937177 -0.54225528 -0.763735 0.3502399 0.0016266842
-0.046522517 0.016411727 0.0075091235 -0.50154597 -0.75734669 0.4181838 0.00041434984
-0.044299494 0.01549221 0.0083732782 -0.45154247 -0.73235774 0.50966811 0.00059504114
0.047566913 0.015313799 0.0088257687 0.35510582 -0.6136362 0.70523089 0.00068271073
-0.052018937 0.020166017 0.0072266017 -0.55628175 -0.70534855 0.43935627 0.0010845681
-0.049739715 0.018861311 0.0078341132 -0.50919831 -0.73010117 0.45570749 0.0012238354
-0.047758162 0.018008206 0.0087383781 -0.50568777 -0.71710116 0.47963092 0.00047003894
0.054794792 0.020321488 0.0089198649 0.43429345 -0.50761795 0.74411917 0.00070518622
-0.057307683 0.023814026 0.006270492 -0.6065309 -0.66343564 0.4381476 0.0010179435
-0.055357043 0.022856291 0.0073664496 -0.58042508 -0.6830799 0.44329286 0.002031829
-0.053240865 0.021602176 0.0080747176 -0.55778581 -0.7091164 0.43131071 0.0010209053
-0.060142118 0.026742181 0.0064177164 -0.65859151 -0.59711021 0.45794836 0.00094978808
-0.058351211 0.025700061 0.0074991207 -0.63408309 -0.63964945 0.43449655 0.00089752662
-0.056415524 0.024506092 0.00840367 -0.58109963 -0.64839095 0.49184588 0.0020487404
0.05934529 0.024406467 0.0088398866 0.48179722 -0.42319435 0.76731873 0.00087415765
0.06178724 0.026986854 0.0086631738 0.51499748 -0.39860198 0.75887686 0.00065607775
-0.061262239 0.028851304 0.0073812869 -0.69498277 -0.53954446 0.47527978 0.001901106
-0.059540067 0.027722061 0.0083996337 -0.63730872 -0.5706799 0.5178436 0.0021927885
-0.063780829 0.032003343 0.007109304 -0.72612292 -0.47893497 0.49332219 0.0026972415
-0.062348139 0.031094516 0.008205899 -0.71022493 -0.48513025 0.51012671 0.0015289555
-0.013539807 0.032680254 0.0084840227 0.2175677 0.81472135 0.53748798 0.0019498015
-0.010516517 0.032231238 0.0079752933 0.1958897 0.84293681 0.50108361 0.0012467147
-0.0074078189 0.03178573 0.0076224976 0.16672835 0.86161977 0.47938818 0.0015701569
-0.0045775683 0.031365618 0.007570962 0.12545136 0.84342027 0.52240241 0.001814928
-0.0016801588 0.03096747 0.0076414691 0.087111935 0.84464186 0.52819657 0.0021136445
0.0014515942 0.030699795 0.0076614674 0.06440831 0.84263819 0.53461426 0.0018927047
0.0044534761 0.030788222 0.0073658535 -0.015403989 0.84373128 0.53654468 0.0022363949
0.0074343211 0.030753022 0.0074461973 -0.04844578 0.84079009 0.53918922 0.0020740314
0.01036483 0.030797783 0.0076684332 -0.094410904 0.84303039 0.52951515 0.0021720768
0.013611049 0.031222431 0.0076032113 -0.13086447 0.83780885 0.53004795 0.0027669
0.016626548 0.031751893 0.0076538138 -0.18497939 0.82948703 0.52700472 0.0039120861
0.01947017 0.032431278 0.0077089132 -0.21467027 0.82258052 0.52657205 0.0017523743
0.021994013 0.03260377 0.0085057635 -0.23484369 0.76144117 0.6041984 0.0011436233
-0.066394344 0.035636034 0.006545499 -0.75506961 -0.43089643 0.49416408 0.0027245986
-0.064893156 0.03454648 0.0077176285 -0.72403538 -0.41163835 0.55346787 0.0033145079
-0.022214524 0.035628162 0.0082692988 0.3107011 0.78404552 0.53734297 0.00090047665
-0.019486632 0.034951486 0.0077087134 0.29656577 0.8334533 0.46626645 0.0015314982
-0.01659864 0.033947185 0.0077929311 0.24606417 0.84865481 0.46822789 0.0018186599
-0.013885583 0.03358354 0.0070750215 0.22670473 0.84962875 0.47616789 0.0013098193
-0.011085901 0.033295259 0.006280642 0.20723605 0.86303985 0.46066853 0.0012915325
0.020359116 0.033494361 0.0062974473 -0.22979061 0.84663534 0.48000509 0.0019791715
0.02277283 0.03355718 0.0073606265 -0.24310322 0.82870656 0.50412929 0.0021406794
0.025497174 0.034271833 0.007547332 -0.25915241 0.8425492 0.47217667 0.0016413248
0.028402826 0.03497621 0.0079412134 -0.27688372 0.81457907 0.50970221 0.0018049148
0.031015277 0.035436265 0.0086521357 -0.29579639 0.74376607 0.59943014 0.0013102206
-0.066944882 0.037850484 0.007230259 -0.74379879 -0.33235687 0.57991588 0.0032686058
-0.065560892 0.037174631 0.008543428 -0.68160886 -0.28141928 0.67543501 0.0013051293
-0.030102257 0.038611799 0.0088050524 0.34928468 0.75232804 0.55857223 0.0011667063
-0.027999252 0.037965957 0.0083450312 0.3395296 0.77143174 0.53815675 0.00060353737
-0.025381148 0.037260413 0.0075718029 0.32999393 0.77665323 0.53657591 0.00069458463
-0.022639148 0.03660306 0.0067768409 0.32491902 0.80891389 0.48998573 0.0012261921
-0.020549865 0.036014378 0.0063953204 0.29656455 0.83345413 0.46626571 0.0015319113
0.029152572 0.036140315 0.0064287572 -0.29192927 0.83561516 0.46532199 0.0017958109
0.031705279 0.036604472 0.0072114794 -0.31390861 0.81341296 0.48971498 0.0022395547
0.034518123 0.037526309 0.0076282416 -0.35261378 0.80089337 0.48397657 0.0026938787
0.037011951 0.038334742 0.0082725473 -0.38862213 0.75292844 0.53110421 0.0027394691
-0.069169134 0.041618261 0.0062803803 -0.76656741 -0.27894065 0.5784173 0.0031140971
-0.067650564 0.040608022 0.0076486776 -0.73131657 -0.22867154 0.64256161 0.002089499
-0.036277611 0.041676041 0.0086493297 0.3657881 0.74313563 0.56031114 0.00018310592
-0.033862591 0.0408311 0.0081010694 0.36187547 0.74730164 0.55730283 0.00024235285
-0.031123398 0.039752804 0.0077143982 0.35595027 0.76669562 0.53430068 0.00062158279
-0.028939504 0.039352439 0.0065898579 0.35228047 0.77636057 0.52264959 0.0004707629
0.035980556 0.039131153 0.0061330413 -0.4755525 0.78700632 0.39302778 0.0035284716
0.037836097 0.039582703 0.0071125352 -0.42445862 0.76251036 0.48827532 0.0023521669
0.04035268 0.040684793 0.0076406808 -0.45349959 0.75876242 0.46756566 0.0012084568
0.04281909 0.041576724 0.008432352 -0.39878342 0.66922939 0.62697989 0.001297435
-0.069500864 0.043843828 0.0066377651 -0.73216492 -0.18677619 0.65501845 0.0031319831
-0.068025209 0.043585323 0.0080857687 -0.65085518 -0.11377863 0.75062776 0.0020811935
-0.040330552 0.044118531 0.0080527989 0.38405725 0.74540961 0.54485273 0.0011596541
-0.037284348 0.04275772 0.0077460944 0.37730429 0.76505911 0.52184862 0.00046994624
0.04165924 0.042247728 0.0064788237 -0.45972717 0.74880368 0.47743481 0.0011226542
0.04380998 0.043023366 0.0072839847 -0.44535509 0.72748756 0.52193934 0.0025230974
0.046375219 0.044143111 0.0078620492 -0.403934 0.72104031 0.56297266 0.0023326916
0.048505593 0.044750821 0.0086179506 -0.41212898 0.70061934 0.58247936 0.0015298511
-0.069920249 0.04665868 0.0067713223 -0.69815636 -0.093758307 0.70977968 0.0062252185
-0.068093382 0.046624474 0.0083090914 -0.58006293 -0.01555884 0.81442314 0.0029306735
-0.046496205 0.047190089 0.0081405779 0.35411754 0.74255109 0.56852323 0.0019863124
-0.043828491 0.046066947 0.0078359684 0.36765122 0.73808646 0.56573927 0.0013831187
-0.04130986 0.045432173 0.0067488295 0.38060957 0.76280415 0.52274865 0.00074676884
0.047245849 0.045581881 0.0066462941 -0.45571271 0.73345262 0.5043543 0.0019476819
0.049550142 0.046344083 0.0074247401 -0.39034408 0.73053366 0.5603143 0.0016083245
0.052115928 0.047050592 0.0083291102 -0.35381678 0.65979278 0.6629383 0.0013570226
0.054086115 0.04756226 0.0088906875 -0.33545107 0.61284071 0.71547109 0.0043664961
0.067916885 0.047658965 0.0086193345 0.36203492 0.22943692 0.90348738 0.0037974422
-0.070160709 0.049611144 0.0068141259 -0.59050536 -0.011306685 0.8069545 0.0093057761
-0.067730635 0.04971163 0.0082859891 -0.45428684 0.19281791 0.86973828 0.012708089
-0.06546288 0.050835934 0.0088551054 -0.14906414 0.31472388 0.93740529 0.011324703
-0.05538135 0.050729029 0.0085571008 0.20930192 0.7118783 0.67038941 0.0020559533
-0.052348342 0.049911167 0.0081184572 0.32262105 0.71978623 0.61467344 0.0029894421
-0.049393758 0.04898984 0.0076162172 0.35008153 0.75194609 0.55858749 0.0014740268
-0.046655275 0.048180819 0.0068601915 0.34905413 0.76050073 0.54753977 0.0014258779
0.050904829 0.048072249 0.0062728515 -0.42056558 0.70663112 0.56903166 0.0022649204
0.05283466 0.04864182 0.0070275296 -0.42167464 0.68803549 0.59059095 0.002533173
0.055437993 0.049582589 0.007591649 -0.33621851 0.64753604 0.68385237 0.0014241688
0.058243092 0.050239686 0.0082893651 -0.26697281 0.64294636 0.71787566 0.0029881988
0.061029926 0.050681349 0.0087858411 -0.14411651 0.54199076 0.8279351 0.0039549447
0.064196423 0.050944224 0.0088878153 0.061657235 0.47906786 0.8756097 0.0089014191
0.067330852 0.049794607 0.0084533291 0.31961319 0.28877023 0.90247393 0.0048210351
0.069114335 0.049034651 0.0075121932 0.31942955 0.28871378 0.90255702 0.0048713605
-0.070312455 0.052608762 0.0066593802 -0.44829306 0.10644865 0.8875258 0.0099053951
-0.067566171 0.052551664 0.0076985997 -0.24650325 0.29221258 0.92403895 0.014383458
-0.064561971 0.052441135 0.0081663169 -0.11066339 0.5108338 0.85252714 0.012446783
-0.06157022 0.052653026 0.007938792 0.072759584 0.64289469 0.76249087 0.0038945701
-0.058557529 0.052444544 0.007652719 0.15778759 0.7079125 0.68844968 0.0019631963
-0.055530809 0.052013483 0.0071529383 0.27091494 0.75058496 0.60268342 0.001994069
-0.053239916 0.051277537 0.0069450801 0.31126639 0.7426883 0.59289736 0.0024756924
0.056421734 0.051320992 0.0062892418 -0.40120545 0.70052075 0.59017348 0.0025721004
0.058648899 0.051941406 0.0068817963 -0.32979736 0.67929858 0.65558147 0.002788424
0.061452586 0.052529357 0.0075051705 -0.2550706 0.58205444 0.77210855 0.0057434705
0.064384602 0.05257136 0.0080580665 0.0027817397 0.43663606 0.89963394 0.008511316
0.067205861 0.052458797 0.0077071064 0.24593438 0.32198519 0.91424382 0.0076375329
0.069254041 0.052748669 0.0066707917 0.22227736 0.2945551 0.92942464 0.0061441916
-0.070144199 0.055216812 0.0063226325 -0.2167425 0.34277204 0.91407329 0.014299381
-0.067574129 0.055255041 0.006651564 -0.055919215 0.447932 0.89231718 0.0106134
-0.064741246 0.054811411 0.0066642119 0.10603278 0.57971507 0.80789077 0.0091158459
-0.061941389 0.054393206 0.0063647875 0.16974625 0.6958614 0.6978274 0.004775933
0.06223616 0.05427264 0.0064609651 -0.33267078 0.61277711 0.71682233 0.0047417353
0.064545915 0.055085558 0.0066405311 -0.15719089 0.50418019 0.84917217 0.0096868491
0.067293465 0.055501319 0.0065632705 0.10820228 0.37446856 0.92090476 0.010659639
0.069161922 0.055402622 0.0060424451 0.075721025 0.34364057 0.93604356 0.0093022352
-0.018722046 0.0059518255 0.0092776427 -0.2117835 -0.79299945 0.57122636 0.00092240755
-0.016323499 0.0056967745 0.0096454034 -0.16556403 -0.78416318 0.59806079 0.00096963049
-0.013394757 0.0053517036 0.0099110678 -0.13441972 -0.77687687 0.6151371 0.0010160883
-0.010425408 0.0050695832 0.010101498 -0.10131115 -0.76500368 0.63600737 0.0011290618
-0.0075964089 0.0048599844 0.010206063 -0.068933666 -0.75420415 0.65301168 0.0010538148
-0.0044751358 0.0048457962 0.010429143 -0.039374594 -0.75983524 0.64892226 0.0019874449
-0.0014994601 0.0049669058 0.010649833 -0.0083254036 -0.74814272 0.66348559 0.0016122399
0.0015388672 0.0048105149 0.010462234 0.011652629 -0.73952067 0.67303294 0.0016868383
0.0043932335 0.0047783093 0.010331193 0.036713447 -0.74430782 0.66682684 0.0020560548
0.0074049272 0.0048282472 0.01017559 0.064280935 -0.72915834 0.68131936 0.001205076
0.010396469 0.0052083344 0.010278527 0.090004377 -0.7340343 0.67312175 0.0014778516
0.013316179 0.0052451026 0.009887279 0.12028044 -0.74174541 0.65980792 0.0015575618
0.01636778 0.0055421661 0.0096305665 0.14284478 -0.74778783 0.64838934 0.0011778952
0.01877336 0.0056013949 0.009073901 0.14768898 -0.77862734 0.60985857 0.00041643123
-0.027558826 0.0085422574 0.0092565166 -0.27781203 -0.78395408 0.5551905 0.00099796546
-0.025144797 0.0083498834 0.010045084 -0.24575213 -0.77662385 0.58005285 0.0011194639
-0.022425814 0.0079060718 0.010497806 -0.21954986 -0.76525366 0.60513198 0.0013721669
-0.019629117 0.0073067867 0.01069144 -0.19518271 -0.76971614 0.6078164 0.00098010257
-0.016593324 0.0069687469 0.01112793 -0.1495593 -0.76072621 0.63160712 0.0010570176
-0.013667653 0.0066727181 0.011410312 -0.11476125 -0.69945794 0.70539951 0.0010772983
-0.01055074 0.0064373533 0.01161356 -0.080956534 -0.685826 0.72324878 0.0010589443
-0.0075562522 0.0062022605 0.011666481 -0.052815676 -0.72258949 0.68925685 0.0011722834
-0.0048587881 0.0060309717 0.011656144 -0.017394265 -0.679555 0.73341829 0.0026363544
0.0018280848 0.0062856111 0.011924607 0.0084989639 -0.65886283 0.75221503 0.0029229554
0.004533051 0.0061876015 0.011755855 0.037546307 -0.69392353 0.71906912 0.0011813713
0.0076821088 0.0062813694 0.011628991 0.058982994 -0.69787389 0.71378773 0.0014515658
0.010539077 0.006622517 0.011667646 0.080605499 -0.69615835 0.71334863 0.0013509019
0.013481215 0.0067414818 0.011412993 0.10440273 -0.70694989 0.69951558 0.0015885603
0.01650754 0.0069358381 0.01109234 0.13170725 -0.65522802 0.7438612 0.002127181
0.01951831 0.007352849 0.010855087 0.15412959 -0.67808539 0.71864057 0.0013373212
0.022455255 0.0077390163 0.010515218 0.1774205 -0.69980621 0.69194889 0.0012364731
0.025364028 0.008027913 0.0099548353 0.18820982 -0.70526099 0.68350863 0.00029175435
0.028487431 0.0084492238 0.0095538041 0.19509536 -0.70146585 0.68548042 0.00050250703
0.030932717 0.0086751953 0.009164582 0.20578265 -0.67603701 0.70755029 0.00046980809
-0.03651043 0.011976079 0.0093211327 -0.35569912 -0.76717013 0.53378659 0.00096783502
-0.034281839 0.011531502 0.010003676 -0.31801695 -0.76516801 0.55980629 0.00094408501
-0.031430256 0.010796937 0.010471459 -0.27162749 -0.74890524 0.60444963 0.00078632991
-0.028553056 0.0099740485 0.010717983 -0.24890888 -0.76462215 0.59447229 0.0010735733
-0.025881751 0.0096403835 0.011378703 -0.22121237 -0.71411675 0.6641553 0.0010054237
-0.023549413 0.009426197 0.011913193 -0.19957629 -0.69430339 0.6914565 0.00099983602
0.022854041 0.0092437789 0.011870258 0.1715422 -0.65846145 0.73280412 0.0013401476
0.02568751 0.0095920237 0.011463811 0.18751229 -0.66259241 0.72512794 0.00066165847
0.02860198 0.010081149 0.011032735 0.19188817 -0.6605013 0.72589046 0.00028333924
0.031568453 0.010354761 0.010447454 0.20711553 -0.65223038 0.7291767 0.00038776573
0.034350291 0.010716585 0.010046424 0.21571226 -0.65356207 0.72548252 0.00084702554
0.037267577 0.011304243 0.0097247707 0.24696086 -0.64979041 0.71887606 0.002569373
0.039593935 0.011700077 0.0092636701 0.27319223 -0.66373181 0.69629461 0.0016010819
-0.042276282 0.014799781 0.009153909 -0.43439266 -0.75487143 0.49139813 0.00069947686
-0.040283266 0.014310136 0.0099840453 -0.40190059 -0.72396266 0.56067276 0.0011228673
-0.037613224 0.013488172 0.010633505 -0.35568124 -0.74645466 0.56240213 0.00047900583
-0.034784619 0.012816573 0.01137003 -0.29618821 -0.70436239 0.64509398 0.00085277157
-0.032563828 0.012401842 0.011933468 -0.26439855 -0.69027698 0.67350662 0.00090336066
0.032672394 0.012183381 0.011641495 0.21210289 -0.61433977 0.75999933 0.00028256222
0.034690931 0.012571146 0.011402613 0.20602362 -0.60932225 0.76568973 0.00031777917
0.037581861 0.013321147 0.011209318 0.22109123 -0.57906502 0.78473079 0.0002599805
0.040531989 0.013506711 0.010454664 0.26504183 -0.60388303 0.75171691 0.0015582993
0.043185055 0.014288936 0.010123912 0.31369889 -0.64194691 0.69964081 0.0026972422
0.045133624 0.014874624 0.0097954301 0.31823149 -0.64327598 0.69636548 0.0025099472
-0.045757651 0.017281514 0.009594948 -0.46620309 -0.70189118 0.5385198 0.0014002906
-0.0434273 0.016532749 0.01049773 -0.41490388 -0.70948297 0.56963903 0.0011146581
-0.040907372 0.015690103 0.011262085 -0.37296844 -0.68429393 0.626607 0.0005443212
-0.038840182 0.015242216 0.011986568 -0.36250818 -0.68088198 0.63638639 0.0020177525
0.040847741 0.015406166 0.011765985 0.23398337 -0.52291906 0.81963867 0.0005845339
0.043823354 0.016168632 0.011320018 0.27562812 -0.56187916 0.77994937 0.0019685521
0.046439115 0.016899742 0.010830707 0.33920527 -0.57372648 0.74550498 0.0020101077
0.04911153 0.017000126 0.0095650498 0.34516394 -0.57399327 0.74255884 0.0016576964
-0.051067498 0.020712771 0.0091752494 -0.52105653 -0.67822927 0.51817489 0.0016191973
-0.049136814 0.020032825 0.010079499 -0.48876303 -0.65988499 0.57066846 0.0012863823
-0.046739586 0.018982207 0.010830193 -0.45927307 -0.67283183 0.57997036 0.0016367335
-0.044422727 0.018156111 0.011644926 -0.43724397 -0.67086828 0.59896034 0.00083801046
0.04745622 0.018801646 0.011762301 0.29607368 -0.49273792 0.81826019 0.0016550682
0.049695197 0.019652959 0.011353882 0.3416785 -0.51250178 0.78778028 0.0011041131
0.052321829 0.019790867 0.010056228 0.37920022 -0.51692599 0.76745999 0.0013590888
-0.054421544 0.023646403 0.0095008612 -0.53659701 -0.61305588 0.57985014 0.00096690428
-0.052357502 0.022762958 0.010385511 -0.50061071 -0.63510114 0.58824772 0.0021094077
-0.050032273 0.021683043 0.011180165 -0.46264479 -0.64120507 0.61222208 0.0013371707
0.050916821 0.021427946 0.011935878 0.36274293 -0.45286718 0.81445009 0.0010562672
0.052627634 0.022120278 0.011561446 0.38932288 -0.47023773 0.79202533 0.00188568
0.055075709 0.022714393 0.010597035 0.42135492 -0.48647884 0.7653746 0.00066422299
0.057311907 0.023913158 0.010058906 0.45417503 -0.45446053 0.76628363 0.0014532902
-0.05748206 0.026564492 0.0095380433 -0.59240121 -0.56217051 0.57708323 0.0010232908
-0.055464681 0.025647603 0.010538138 -0.55820215 -0.54554725 0.62513089 0.0015905702
-0.053352118 0.024583863 0.011386099 -0.52333999 -0.57820398 0.62593561 0.00048150381
0.055843584 0.025064487 0.011592889 0.40098122 -0.39357695 0.82723105 0.00062404713
0.058098853 0.025870431 0.010725775 0.47228107 -0.39996701 0.78547883 0.0017600144
-0.060283281 0.029670468 0.009397232 -0.62270492 -0.50747752 0.59557122 0.0015318475
-0.058401652 0.028728412 0.010466732 -0.58459467 -0.46530882 0.6646328 0.00093589682
-0.056469832 0.02776265 0.011473879 -0.56788117 -0.50179482 0.65246677 0.00066029088
-0.012802883 0.029993655 0.011585371 0.19513567 0.71260482 0.67388159 0.0014903324
-0.010303231 0.029582931 0.011359384 0.16846679 0.7324512 0.65964711 0.0015190581
-0.0072833844 0.029025728 0.011229503 0.14043467 0.67719305 0.72227955 0.0015175873
-0.0044685216 0.028760428 0.01099707 0.11483529 0.69126195 0.71342117 0.0014225144
-0.0015613525 0.028592233 0.010750161 0.10895301 0.72824007 0.676606 0.0025196874
0.0014920505 0.028361548 0.01068747 0.07089372 0.71984464 0.69050539 0.0021933848
0.0045123431 0.028332336 0.010604263 -0.013590305 0.73064214 0.68262529 0.0024640472
0.0075687235 0.028354459 0.010579503 -0.035160389 0.71987236 0.69321537 0.002569074
0.010509679 0.028429205 0.010689522 -0.088888898 0.71093833 0.69761419 0.0023201194
