# .PCD v0.7 - Point Cloud Data file format
VERSION 0.7
FIELDS x y z normal_x normal_y normal_z curvature
SIZE 4 4 4 4 4 4 4
TYPE F F F F F F F
COUNT 1 1 1 1 1 1 1
WIDTH 557
HEIGHT 1
VIEWPOINT 0 0 0 1 0 0 0
POINTS 557
DATA ascii
-0.04903559 0.031870399 -0.015309046 -0.25728837 -0.20043693 -0.94531882 0.0029865075
-0.046476886 0.03163597 -0.015874356 -0.17352256 -0.11509258 -0.97808158 0.0046934867
-0.043538615 0.031604204 -0.016325757 -0.090876289 0.040265206 -0.99504787 0.0063003669
-0.04053935 0.031514887 -0.016481299 -0.019865651 0.13069193 -0.99122399 0.0065166461
-0.037535369 0.031480826 -0.01640333 0.054260824 0.22104345 -0.97375333 0.0045856582
-0.034491777 0.031571295 -0.016042629 0.15471652 0.3316209 -0.9306398 0.0015762992
-0.031565037 0.03132882 -0.01563682 0.16638459 0.3541635 -0.92026317 0.0032837212
-0.028656472 0.030701211 -0.015340455 0.17551149 0.44506156 -0.87813205 0.0031166975
-0.02655229 0.030219566 -0.015125816 0.19168942 0.4986183 -0.84536088 0.0021221989
0.035072092 0.030501986 -0.015210938 -0.19293457 0.53124583 -0.82495701 0.0019192876
0.037644163 0.031014053 -0.015500255 -0.17272118 0.4722963 -0.86435157 0.0029869494
0.040619269 0.031628087 -0.015793772 -0.16239578 0.38191742 -0.9098168 0.0032345918
0.043458179 0.031624854 -0.016237698 -0.11587501 0.30242863 -0.9461025 0.0036753167
0.046333302 0.031566199 -0.01646553 -0.010797464 0.2350152 -0.97193176 0.0045759515
0.049262833 0.031539351 -0.016408728 0.076017536 0.15386677 -0.98516309 0.0066281706
0.052418392 0.031489208 -0.015982496 0.17809069 0.032853659 -0.98346549 0.0032910686
0.054963827 0.031666361 -0.015362931 0.27394047 -0.057513703 -0.96002543 0.003492082
-0.051501092 0.034993328 -0.015102803 -0.26933342 -0.10340001 -0.95748007 0.0039152279
-0.049550433 0.03458368 -0.015502138 -0.16184793 -0.018999724 -0.98663276 0.004612667
-0.046461482 0.034493186 -0.015944634 -0.084917866 0.10532112 -0.99080592 0.0042440286
-0.043454632 0.034593098 -0.016010452 -0.0037114767 0.19615078 -0.98056674 0.0047287825
-0.040523175 0.034395743 -0.015876265 0.08139044 0.28534561 -0.95496255 0.0038975091
-0.037638117 0.034322046 -0.015512563 0.13585137 0.36741719 -0.92008096 0.0035861677
-0.034952369 0.033622019 -0.015321602 0.18381652 0.44589597 -0.87600702 0.0033859662
-0.032995213 0.03324965 -0.015070472 0.2348088 0.50134349 -0.83277816 0.0021670384
0.041729767 0.033418842 -0.015142682 -0.21814352 0.50262207 -0.83653122 0.0019989349
0.043792147 0.033866297 -0.015364005 -0.16849089 0.44581404 -0.87912488 0.0032806874
0.046566315 0.03444089 -0.015556204 -0.11472922 0.33950844 -0.9335798 0.0032928942
0.049459223 0.034506541 -0.01576571 -0.031280298 0.2459103 -0.96878773 0.0039610555
0.052351654 0.03455231 -0.015680039 0.095517904 0.1662723 -0.98144275 0.003129933
0.055224355 0.034408003 -0.015284942 0.1961281 0.082403578 -0.97710967 0.0025402268
-0.051641624 0.037103049 -0.015098811 -0.16464357 0.11158149 -0.98002148 0.0049415343
-0.049406592 0.037498221 -0.015302022 -0.083631992 0.1677452 -0.9822765 0.0025458944
-0.046489965 0.037256677 -0.015418314 0.006760329 0.25338507 -0.96734184 0.0043641319
-0.043720465 0.036876682 -0.015359141 0.090575486 0.36195725 -0.92778385 0.0038130465
-0.040810559 0.036401972 -0.015170353 0.15719278 0.44364095 -0.88231122 0.0025924849
0.047840927 0.036032412 -0.015047026 -0.13342027 0.46613058 -0.87459779 0.0017106796
0.049726453 0.036356851 -0.015151316 -0.088927485 0.36876956 -0.92525727 0.002317298
0.05247888 0.036565777 -0.015190889 0.016772641 0.30888322 -0.95095217 0.0031679382
0.054888319 0.036371827 -0.015097355 0.15686157 0.20142312 -0.9668625 0.0032927105
-0.015792403 0.0089518931 -0.012233968 -0.18092489 -0.62021261 -0.76328409 0.0010313833
-0.013318353 0.008640347 -0.012474921 -0.14442874 -0.6398176 -0.75483358 0.0011574338
-0.010451874 0.0083068684 -0.01268282 -0.11735308 -0.62336779 -0.77307242 0.0011922233
-0.0075519979 0.0081673469 -0.012948789 -0.093056403 -0.60600102 -0.79000205 0.00098100503
-0.00440261 0.0077151395 -0.012914239 -0.060864009 -0.59128326 -0.80416387 0.0022042152
-0.0014842447 0.0074275779 -0.01290876 -0.050897211 -0.60697412 -0.79309005 0.0023110267
0.0015982197 0.0075118849 -0.013137554 -0.039255355 -0.6132794 -0.78889 0.0021922835
0.0044426299 0.0076338435 -0.013339891 0.004246843 -0.59362698 -0.80472916 0.0025595918
0.0075318497 0.0074844998 -0.013274367 -0.014481492 -0.60923183 -0.79285991 0.0019228061
0.010489649 0.0076442799 -0.013351545 0.021324482 -0.61101776 -0.79132962 0.0019073733
0.013446269 0.0076209549 -0.013224985 0.037560869 -0.63947284 -0.76789564 0.0010155775
0.016544938 0.0078272335 -0.01319191 0.062081993 -0.65281463 -0.75496942 0.0011165197
0.019373599 0.0079818359 -0.013034887 0.095873773 -0.67408043 -0.73240954 0.0013616693
0.022363821 0.0081630023 -0.012759846 0.1305594 -0.69130862 -0.71066636 0.0013571988
0.025644137 0.008579514 -0.012506208 0.16391544 -0.68723899 -0.70769638 0.0022482185
-0.024114076 0.011479598 -0.012088212 -0.23507689 -0.66141427 -0.71222883 0.0013858519
-0.022307033 0.011287929 -0.0124552 -0.21783927 -0.6336934 -0.74227947 0.0012658116
-0.019399134 0.010857197 -0.0128883 -0.19617766 -0.6120913 -0.76606697 0.0010087148
-0.016494676 0.010641906 -0.013377071 -0.15567739 -0.5694356 -0.80716014 0.0016811789
-0.013514664 0.010719556 -0.013961592 -0.10585698 -0.51789409 -0.8488698 0.0013702686
-0.010462054 0.010537069 -0.014243058 -0.083280332 -0.49363258 -0.86567384 0.0016376615
-0.0075676199 0.010377508 -0.014426439 -0.085438862 -0.48691109 -0.86926281 0.0014219676
-0.0045929193 0.0099971583 -0.01443735 -0.063093171 -0.50118446 -0.86303735 0.0025046738
-0.0015429506 0.0098492177 -0.014529179 -0.043189555 -0.47594225 -0.87841541 0.0022018738
0.0014192177 0.0097531658 -0.014607685 -0.038480952 -0.46734875 -0.88323522 0.0023616985
0.0045559849 0.0097255716 -0.014697529 -0.023430234 -0.46176979 -0.88669032 0.0023955679
0.0074891509 0.0095031457 -0.014629587 -0.0087647364 -0.46400037 -0.8857916 0.0023782912
0.010403243 0.0095789982 -0.014681317 0.0061552199 -0.47663125 -0.87908179 0.0025023266
0.01333746 0.0096316328 -0.014671005 0.02403876 -0.49409378 -0.86907613 0.0023511092
0.016410803 0.0097895926 -0.014651177 0.045993272 -0.51275933 -0.85729957 0.0022039206
0.019615786 0.0098249065 -0.014445318 0.073973209 -0.53540206 -0.84135157 0.001988712
0.022473142 0.010070615 -0.014302261 0.1050113 -0.56584483 -0.81779718 0.0015487081
0.025524722 0.010448427 -0.014118307 0.1361717 -0.61148787 -0.77944845 0.0022508344
0.028538765 0.010546342 -0.013584421 0.16998723 -0.63831609 -0.75077087 0.0017220553
0.031417105 0.010905197 -0.013169438 0.20813978 -0.6559124 -0.72557342 0.0017673393
0.034299593 0.011353543 -0.012647592 0.24351884 -0.68593323 -0.68570703 0.0010512979
0.036463499 0.011502769 -0.012008644 0.28311419 -0.70956928 -0.64525801 0.0015308437
-0.031052865 0.014447913 -0.012326062 -0.26292846 -0.64126831 -0.72086304 0.00094159466
-0.028283888 0.014050102 -0.012900789 -0.23974812 -0.61893177 -0.74796003 0.0012161168
-0.025446527 0.013519997 -0.013303887 -0.22237141 -0.59372211 -0.77333373 0.0010344376
-0.022565767 0.01354667 -0.014056148 -0.1804097 -0.53590775 -0.82477593 0.0011462406
-0.019582234 0.013070583 -0.014393372 -0.16434306 -0.49951309 -0.85057509 0.001676412
-0.016694684 0.012718771 -0.0146882 -0.13565129 -0.45719564 -0.87896013 0.0021832474
-0.01353226 0.012260015 -0.014859634 -0.095901467 -0.44661829 -0.88957024 0.0038435243
0.028905692 0.012314486 -0.014874618 0.14564401 -0.49577105 -0.85615355 0.0025095006
0.031650003 0.012700778 -0.014550709 0.18552168 -0.54118145 -0.82018548 0.0021073241
0.034603357 0.013224225 -0.014165912 0.21383999 -0.57605493 -0.78894436 0.001334122
0.037439682 0.0135932 -0.013584803 0.24664593 -0.62264788 -0.74261391 0.0014165634
0.040301248 0.014025364 -0.012881505 0.30643436 -0.63951874 -0.70506293 0.0014838711
0.042828348 0.014596552 -0.012253609 0.34651485 -0.65315133 -0.67329103 0.00072608911
-0.037140261 0.017366964 -0.012382196 -0.33059305 -0.61698216 -0.71417171 0.00094071712
-0.034373999 0.016763333 -0.012996863 -0.2889812 -0.6004833 -0.74559343 0.00078881293
-0.031524386 0.016589954 -0.01381379 -0.23799735 -0.54664689 -0.80282903 0.001188146
-0.028647712 0.016198708 -0.01434457 -0.2051591 -0.50980425 -0.83546954 0.0015656201
-0.025767665 0.015717296 -0.014715739 -0.17832687 -0.46607471 -0.86658752 0.0023859777
-0.023960767 0.015482133 -0.014951607 -0.14997819 -0.40639481 -0.90130442 0.0032866027
0.038393307 0.015360078 -0.014666134 0.22162969 -0.49806824 -0.83833665 0.0022520034
0.040603578 0.015941104 -0.014330572 0.27424443 -0.54097569 -0.7950694 0.0014292781
0.043459646 0.016625287 -0.013696088 0.31447899 -0.56437862 -0.76326907 0.00065200269
0.046286516 0.017057756 -0.012714964 0.37519538 -0.61393017 -0.69449139 0.00098104205
0.04881962 0.017900886 -0.012034968 0.41753191 -0.61222082 -0.67145568 0.00098060747
-0.042674951 0.02059748 -0.012263376 -0.39873883 -0.58750856 -0.7041598 0.0014218251
-0.040365592 0.01990545 -0.012874067 -0.3602351 -0.55095905 -0.75277805 0.0014160249
-0.037416197 0.019459829 -0.013809175 -0.28726536 -0.51135594 -0.80993444 0.00062405551
-0.034673095 0.018949114 -0.014443113 -0.25395495 -0.48758268 -0.83532631 0.0018607401
-0.032358382 0.018459581 -0.014809794 -0.20611691 -0.48614541 -0.8492223 0.0011055742
0.044241711 0.018590938 -0.01479243 0.29180899 -0.46350995 -0.8366636 0.0023326681
0.046704341 0.019348031 -0.014233378 0.34764066 -0.50171262 -0.79210496 0.0010618503
0.049368635 0.019714097 -0.013177633 0.40442315 -0.53616637 -0.7409234 0.0019800283
0.05163734 0.020410089 -0.012427893 0.45251521 -0.56523997 -0.68973458 0.0012783223
-0.045861971 0.023175808 -0.012451467 -0.42071432 -0.54935044 -0.72195125 0.0012937034
-0.043461282 0.022673054 -0.013327809 -0.37592536 -0.51567018 -0.76991194 0.0020289219
-0.040770575 0.022343118 -0.014320144 -0.32053578 -0.46019325 -0.82793659 0.0011779589
-0.038273435 0.021440374 -0.014736054 -0.26910397 -0.45795363 -0.84726709 0.0014094618
-0.0067899306 0.02381698 -0.014958137 0.089100383 0.37040493 -0.92458713 0.002421598
-0.0044481466 0.023698034 -0.01481907 0.0673391 0.40015471 -0.91397023 0.0025398978
-0.0014283357 0.023447331 -0.014761971 0.042730939 0.42310882 -0.90507072 0.0024012337
0.0014997912 0.023299301 -0.014746688 0.015091125 0.43587971 -0.89987838 0.0024982025
0.0045254207 0.023512609 -0.014637434 -0.013398952 0.446468 -0.89469922 0.0023291553
0.0072518312 0.023477824 -0.014738495 -0.039229181 0.44731832 -0.89351404 0.0024580453
0.010219557 0.02358463 -0.014860354 -0.071673542 0.43680972 -0.89669406 0.0024430635
0.049887393 0.022169234 -0.014496421 0.36443916 -0.42423278 -0.8289817 0.0011050465
0.05246729 0.022604451 -0.013435218 0.42285416 -0.47465611 -0.77194303 0.0018997452
0.054795068 0.023205513 -0.012474348 0.47448996 -0.50954026 -0.71779382 0.0011530378
-0.049158808 0.026079513 -0.012722515 -0.41733864 -0.52573252 -0.74123806 0.0011669432
-0.046455584 0.025441019 -0.013642004 -0.38176501 -0.47013751 -0.79575509 0.0020214969
-0.043935984 0.025117591 -0.014570641 -0.32099399 -0.40992424 -0.85377103 0.0016225887
-0.016035035 0.026672209 -0.014852609 0.16453339 0.41865486 -0.89311641 0.0027783141
-0.013336925 0.026252219 -0.014564933 0.1554563 0.46466514 -0.87173373 0.0021960416
-0.010405885 0.025765358 -0.01435391 0.12776925 0.49342883 -0.86035055 0.001567959
-0.0074811596 0.02557829 -0.014054131 0.10440544 0.5121693 -0.85251522 0.0011739511
-0.0044574118 0.025535436 -0.013744457 0.077945925 0.52244937 -0.84910017 0.0010587194
-0.0015091037 0.025507368 -0.013524099 0.0606406 0.56404859 -0.8235119 0.0028223144
0.0014921569 0.025464401 -0.013409104 0.022229573 0.57335228 -0.81900734 0.002956569
0.004505686 0.025565045 -0.013323227 -0.020272084 0.58711874 -0.8092469 0.0028357627
0.0075031887 0.025476886 -0.013470725 -0.0369405 0.55442345 -0.83141452 0.0010640678
0.010489447 0.025574073 -0.013587085 -0.065788046 0.58810186 -0.80610675 0.0029676564
0.013455728 0.02551298 -0.013951493 -0.10438047 0.55640596 -0.82432824 0.0010868425
0.016419392 0.025838345 -0.014164699 -0.13804945 0.54219621 -0.82883388 0.0014174355
0.019364325 0.026242254 -0.014425286 -0.15749517 0.52260429 -0.83790213 0.0017959136
0.02207 0.026632311 -0.014734074 -0.16834339 0.56458318 -0.80802619 0.00098044425
0.024043206 0.026916871 -0.014954624 -0.1700121 0.57215488 -0.80233079 0.0011189774
0.052855685 0.025156464 -0.014586566 0.38676909 -0.3491171 -0.85353786 0.001248181
0.055413462 0.025544487 -0.013447698 0.45415875 -0.39473638 -0.79870075 0.0021658901
0.057542633 0.026088284 -0.012465753 0.50021428 -0.44552478 -0.74249125 0.0020358146
-0.054066252 0.029752456 -0.01231121 -0.48473129 -0.47854662 -0.73213977 0.0020324646
-0.052333649 0.028893625 -0.012781725 -0.43183368 -0.46439603 -0.77321142 0.0021558478
-0.049630728 0.028542044 -0.013913387 -0.37355119 -0.3959575 -0.83885467 0.0012570224
-0.047039997 0.027804947 -0.014652291 -0.32579041 -0.34131724 -0.88168204 0.001723055
-0.024424687 0.029772308 -0.014880709 0.19456962 0.52331871 -0.82962656 0.0024079289
-0.022226233 0.029404968 -0.014585731 0.19831364 0.47419894 -0.85779196 0.0023112786
-0.019389478 0.028782565 -0.01428512 0.1908167 0.51294047 -0.83694744 0.0015950613
-0.016460251 0.028548764 -0.013752262 0.19323818 0.57316732 -0.79632801 0.0026328422
-0.013554981 0.028453112 -0.013134474 0.18144639 0.58146173 -0.79308218 0.0026348319
-0.010586431 0.028020982 -0.012842525 0.15009744 0.62373298 -0.7670905 0.0015038368
-0.0076556713 0.027665514 -0.012614203 0.12342303 0.64317691 -0.75570512 0.0018533639
-0.004789745 0.027465206 -0.012386674 0.091413684 0.65927392 -0.74632525 0.0014961313
-0.001700453 0.027172005 -0.012294064 0.080168366 0.64634043 -0.75882614 0.0029406694
0.0047829296 0.027148325 -0.012064169 -0.0086120004 0.63081735 -0.77588362 0.0015865046
0.0074079093 0.027045319 -0.012231761 -0.037498284 0.64080423 -0.76678807 0.001720404
0.010563182 0.027342867 -0.012188936 -0.071025535 0.64044654 -0.76471144 0.0016486458
0.013694173 0.02757982 -0.01236834 -0.10979135 0.68497574 -0.72024584 0.0016319605
0.016615637 0.027815508 -0.012666728 -0.14876007 0.67266655 -0.72483802 0.0014814404
0.01956741 0.028153023 -0.013019872 -0.16957617 0.63774043 -0.75135273 0.0021683751
0.022501618 0.0285518 -0.013410914 -0.19413428 0.6183629 -0.76153737 0.0022749258
0.025403131 0.028648311 -0.014069127 -0.19493993 0.5728302 -0.79615569 0.0011883052
0.028386801 0.029203221 -0.014432193 -0.20253229 0.53819698 -0.81812263 0.001753587
0.031183122 0.029739846 -0.014767009 -0.2080075 0.57578152 -0.79070139 0.0013265151
0.055754196 0.028377399 -0.01442535 0.40584365 -0.27073538 -0.8729223 0.0012906205
0.058431659 0.028605964 -0.013096687 0.47144744 -0.32616043 -0.81936359 0.0022157473
0.060702045 0.029683432 -0.012117269 0.5470137 -0.31865788 -0.7741015 0.0015723181
-0.057141956 0.032740261 -0.012002571 -0.52187794 -0.40611732 -0.75014138 0.0020704281
-0.055171035 0.031755276 -0.012687413 -0.45717397 -0.36985791 -0.80882448 0.003428682
-0.052454494 0.03153903 -0.013964313 -0.37482095 -0.30174202 -0.8766191 0.0013600878
-0.050390635 0.031142814 -0.014678597 -0.3420032 -0.28062379 -0.89681894 0.0029217401
-0.030554321 0.032714032 -0.014736684 0.22012703 0.47792491 -0.8503716 0.0013815992
-0.028357586 0.032128666 -0.014474516 0.23268293 0.48933113 -0.8404842 0.0020503402
-0.025470946 0.03155959 -0.014024004 0.22438645 0.54265749 -0.80942798 0.0013702736
-0.022550732 0.03147329 -0.013212396 0.23902263 0.61376035 -0.75244027 0.0016116117
-0.019672373 0.030939069 -0.012793076 0.22386804 0.64295268 -0.73245823 0.001411731
-0.016848363 0.030423528 -0.012397674 0.20480908 0.66729754 -0.71607763 0.001395875
0.023181798 0.030109435 -0.012234323 -0.20046261 0.66184115 -0.7223441 0.0012717735
0.025709638 0.030566189 -0.012572443 -0.21565993 0.64664668 -0.73166853 0.0012503604
0.028667778 0.031133326 -0.012956592 -0.22977149 0.64700407 -0.72704244 0.0022602954
0.031515755 0.031459484 -0.013541415 -0.22841848 0.60599798 -0.76196539 0.0010775978
0.034404662 0.031812735 -0.014128949 -0.22656699 0.56650156 -0.79230267 0.0012057301
0.037322924 0.032420114 -0.014561298 -0.23122162 0.51491648 -0.82546812 0.0021491747
0.039477009 0.032850776 -0.014897327 -0.21968986 0.53377491 -0.81659091 0.0031082514
0.056400068 0.031458482 -0.014858712 0.35428572 -0.13475505 -0.92537707 0.0028936926
0.058448583 0.031526659 -0.013977952 0.41827676 -0.17393437 -0.89151073 0.0016326245
0.060971841 0.031660862 -0.012644652 0.50405926 -0.23978446 -0.82971537 0.0032385285
-0.057712786 0.034972493 -0.012559602 -0.4627423 -0.2978847 -0.83494568 0.0030874466
-0.055313762 0.034430735 -0.013606045 -0.40126312 -0.20512252 -0.8926996 0.0023560019
-0.052777909 0.034426529 -0.014627296 -0.33691394 -0.17858872 -0.92444313 0.0024878888
-0.037029866 0.035550591 -0.014803066 0.20138663 0.43038243 -0.8798945 0.0029600083
-0.034349252 0.035035543 -0.014389602 0.24084863 0.49508944 -0.83479244 0.0018761314
-0.031542916 0.034483392 -0.013872479 0.25654069 0.54603058 -0.79751962 0.0014673172
-0.028579939 0.034248576 -0.013028796 0.2770533 0.62017137 -0.73391348 0.0012394945
-0.02568705 0.033611584 -0.012525734 0.2674244 0.65367621 -0.7079488 0.0017267921
-0.023762863 0.033268511 -0.012119072 0.22702481 0.644916 -0.72975552 0.001941842
0.032355759 0.033243824 -0.012235238 -0.2515344 0.68759006 -0.68113899 0.0007546526
0.034756619 0.033750411 -0.012634818 -0.26479429 0.67729336 -0.68640929 0.0013891613
0.037575848 0.034354705 -0.013163273 -0.28606832 0.61205322 -0.73726231 0.001907728
0.040416095 0.034720205 -0.013909503 -0.24787709 0.55523491 -0.7938962 0.0012191439
0.043217566 0.035155527 -0.014511562 -0.23377919 0.48933089 -0.84018004 0.0019621938
0.045682549 0.035605341 -0.014878943 -0.17303318 0.46266949 -0.86948055 0.00212886
0.056781787 0.034859192 -0.014905225 0.24987222 0.022492874 -0.96801752 0.0034582203
0.058508962 0.03453289 -0.01433465 0.34388584 -0.0047128866 -0.93899959 0.0056726667
0.061364632 0.034579005 -0.01305113 0.44035435 -0.13126631 -0.88817632 0.003674346
0.063208252 0.035608642 -0.01216987 0.55765027 -0.16992703 -0.81249678 0.0028229416
-0.06022929 0.038359858 -0.012125729 -0.50660837 -0.22362271 -0.83267087 0.0034136947
-0.058335789 0.037675891 -0.012934046 -0.40005186 -0.16493635 -0.90152895 0.004262229
-0.055497363 0.037359506 -0.014067141 -0.30680415 -0.052005183 -0.95035082 0.0043201586
-0.053020034 0.03758812 -0.014772237 -0.22637716 0.011115264 -0.97397625 0.004865984
-0.049817715 0.038985033 -0.014981117 -0.036686357 0.19707046 -0.97970271 0.0062037283
-0.046627522 0.038787264 -0.014915675 0.090959534 0.33746505 -0.93693316 0.0036898667
-0.043243993 0.038317852 -0.014662935 0.1591717 0.42743003 -0.88992584 0.0026313339
-0.040312272 0.037857354 -0.014265308 0.20413572 0.48621485 -0.84966099 0.0016832193
-0.037483744 0.037499286 -0.01367669 0.25238651 0.54185879 -0.80167955 0.0013493069
-0.034653906 0.037178148 -0.012948259 0.28602654 0.61577678 -0.73417157 0.0013248725
-0.031807609 0.0364566 -0.012439025 0.29188022 0.6509214 -0.70079046 0.0013313685
0.038808033 0.036163647 -0.012089387 -0.33939251 0.62143785 -0.70613581 0.0014277155
0.040882397 0.036685992 -0.012565168 -0.31353512 0.63404179 -0.70688516 0.0015566102
0.043649476 0.037423119 -0.013096328 -0.30083805 0.57889527 -0.75787652 0.001581837
0.046409354 0.037420206 -0.013969556 -0.20537052 0.51632494 -0.83140332 0.0011728768
0.049414869 0.037773781 -0.014445793 -0.15096417 0.44552484 -0.88244969 0.0019960364
0.052626166 0.037958723 -0.014708824 -0.056468152 0.3724677 -0.92632562 0.0028180869
0.055661503 0.03779088 -0.014663304 0.06900306 0.26044938 -0.96301854 0.0037850544
0.058456834 0.037461028 -0.014241395 0.25130653 0.12751652 -0.95947099 0.0056172991
0.061414819 0.037621722 -0.013215646 0.37153795 0.042066664 -0.92746425 0.0034147631
0.063413039 0.037503831 -0.012257723 0.50881839 -0.0441797 -0.85973954 0.0029368429
-0.060512934 0.040593166 -0.012316233 -0.41588369 -0.080123 -0.90588135 0.0041711652
-0.058452949 0.040549003 -0.013158304 -0.31171966 0.037513524 -0.94943327 0.004306139
-0.055573266 0.040470686 -0.013989139 -0.2147751 0.13468803 -0.96733183 0.0063552312
-0.052456822 0.040401246 -0.014439273 -0.11148635 0.27820006 -0.95403117 0.0073509016
-0.049493261 0.040547308 -0.014410906 0.047428332 0.36013669 -0.9316932 0.0051435279
-0.046485577 0.040482193 -0.014079767 0.11127912 0.44685727 -0.88765734 0.0036896626
-0.043546159 0.040513474 -0.013414288 0.22513661 0.54552168 -0.80729151 0.0022767461
-0.040675815 0.040038809 -0.012875788 0.27571255 0.59172469 -0.75752527 0.0020888976
-0.038058039 0.039437436 -0.012408065 0.29119867 0.64022058 -0.7108593 0.0013406714
0.044665642 0.039309382 -0.012022997 -0.34435597 0.63505137 -0.6914686 0.0028191514
0.046866126 0.039686233 -0.012599097 -0.27744392 0.58625573 -0.76113671 0.0023205513
0.049575347 0.040240306 -0.013061549 -0.22243309 0.52171457 -0.82361251 0.0031580024
0.052444819 0.040334117 -0.0135997 -0.097404301 0.42547476 -0.89971304 0.0020012697
0.05552531 0.040513813 -0.013776526 0.0039619603 0.35011819 -0.93669719 0.0035246776
0.058419593 0.040594194 -0.013598518 0.13955224 0.26737177 -0.95343453 0.004590902
0.061522543 0.040541898 -0.012923399 0.29174921 0.16963626 -0.94133198 0.0039671152
0.063497238 0.04060068 -0.012172234 0.4341484 0.10434999 -0.89477718 0.0037361102
-0.06077043 0.043408249 -0.012200213 -0.35201755 0.089190155 -0.93173432 0.0038633088
-0.058580983 0.043589611 -0.012808966 -0.19579743 0.18106258 -0.96378404 0.0051898183
-0.055439938 0.043556608 -0.013283333 -0.092614539 0.30376834 -0.94823384 0.0049054758
-0.052469324 0.043449145 -0.01331016 0.020457949 0.40251362 -0.91518539 0.0041340352
-0.049625248 0.043429349 -0.012977295 0.15092666 0.4766776 -0.86602515 0.004124051
-0.046700206 0.042897031 -0.012679343 0.20665663 0.56133425 -0.80137193 0.0030697547
-0.044000078 0.042329192 -0.012254786 0.26470786 0.5967235 -0.75752938 0.0020058495
0.050716717 0.04201955 -0.012202405 -0.25304869 0.59354877 -0.76398057 0.0014498224
0.052838538 0.042520504 -0.012419595 -0.1962688 0.52738374 -0.8266468 0.0028918772
0.055554487 0.043041363 -0.012600427 -0.10020487 0.47212613 -0.8758173 0.0031566068
0.058533963 0.043423425 -0.012588595 0.041505825 0.37473884 -0.92620093 0.00401199
0.061297588 0.043158438 -0.012394605 0.24658893 0.25585482 -0.93473643 0.0046900311
-0.060277402 0.0453634 -0.012056497 -0.20274301 0.21540226 -0.95524716 0.0063982583
-0.058344446 0.045740183 -0.012252417 -0.11576487 0.36293864 -0.92459399 0.0040912861
-0.05553012 0.045681842 -0.012395178 0.010163304 0.45590675 -0.88996959 0.0039683646
-0.052821897 0.045459706 -0.012310625 0.12237445 0.53639346 -0.83504891 0.0032517568
-0.050744798 0.045324355 -0.012018348 0.21145575 0.5844872 -0.78336531 0.0023064774
-0.015093439 0.0056972303 -0.0090150265 -0.21590504 -0.77801681 -0.58997869 0.0031983352
-0.013490745 0.0058140163 -0.0096350657 -0.17645194 -0.75072271 -0.63661617 0.0012709602
-0.010501159 0.0054900255 -0.0099583725 -0.14484476 -0.74494189 -0.65121549 0.0010852809
-0.0074429112 0.0054249861 -0.010463645 -0.11294454 -0.75094986 -0.65062886 0.0018412493
-0.004517254 0.0049124709 -0.010264275 -0.053447213 -0.73881364 -0.67178702 0.0010434529
-0.0015257827 0.0047072708 -0.010342727 -0.044821732 -0.73586464 -0.67564356 0.0011792626
0.001508954 0.0045158314 -0.010319994 -0.031589448 -0.75262046 -0.65769631 0.0019583881
0.0045050862 0.0049040434 -0.010870958 -0.01331999 -0.73355305 -0.67950159 0.0013644134
0.007502242 0.0047446047 -0.010670478 0.019811766 -0.74248236 -0.66957265 0.0011483715
0.010607841 0.004839337 -0.010669906 0.042162441 -0.76611364 -0.64132077 0.0015767256
0.013443096 0.0049876417 -0.010611583 0.064570293 -0.76140434 -0.64505363 0.0010161567
0.016569069 0.0051678536 -0.010457437 0.098455489 -0.77074444 -0.62949151 0.0011242877
0.019733829 0.0052706515 -0.0099948375 0.12213106 -0.77805918 -0.61620438 0.00080173288
0.022557192 0.0055276947 -0.0096287234 0.1550263 -0.78655595 -0.59774292 0.00066864974
0.025270391 0.00584953 -0.009236427 0.1921715 -0.78799701 -0.58491951 0.00031657764
-0.02426468 0.0089851068 -0.0093299747 -0.26498759 -0.75948286 -0.59411061 0.0028905307
-0.021930043 0.008477726 -0.0097688818 -0.27312064 -0.73599577 -0.61944759 0.0010827787
-0.019343907 0.0080281552 -0.010252589 -0.23700036 -0.71901649 -0.65333462 0.0013135091
-0.016512427 0.0076462706 -0.010765346 -0.19305834 -0.6911571 -0.69644129 0.00068452227
-0.013635642 0.0071903639 -0.011082917 -0.1600554 -0.72358489 -0.67142171 0.0012658939
-0.010779011 0.0069042719 -0.011422125 -0.13231468 -0.65534043 -0.74365425 0.0012126075
-0.0075306017 0.0067011048 -0.01178629 -0.10029867 -0.70258069 -0.7045002 0.00097111118
-0.0056204288 0.0066342996 -0.011962866 -0.076804504 -0.67182553 -0.73671669 0.0024851032
0.01075914 0.0060155243 -0.011947465 0.019753696 -0.69442302 -0.71929586 0.0024410118
0.014713693 0.0062357411 -0.011885819 0.051840413 -0.70054775 -0.71172011 0.0028483109
0.016219975 0.0062637976 -0.011774653 0.081273079 -0.74214053 -0.66529852 0.0011994513
0.019481322 0.0064822081 -0.011571486 0.11169204 -0.75654548 -0.64433199 0.0011399317
0.022584047 0.0066944291 -0.011180567 0.14592092 -0.76044774 -0.63279241 0.00074947166
0.025418431 0.0072005368 -0.011012385 0.18438445 -0.77698904 -0.60190576 0.00072062231
0.02838731 0.0077036563 -0.01067061 0.21076491 -0.76108569 -0.61345482 0.001095547
0.031135684 0.0081376685 -0.010228062 0.22452691 -0.75467509 -0.61648452 0.0014078971
0.033645138 0.0085371584 -0.0096361665 0.28484783 -0.76847756 -0.57297814 0.00063397759
-0.030235333 0.01151102 -0.0096124839 -0.32726592 -0.7477057 -0.57778305 0.0020106861
-0.028169004 0.011240575 -0.010223137 -0.29240733 -0.72098351 -0.62823623 0.0013187458
-0.025525676 0.010650161 -0.010691422 -0.26683775 -0.71290326 -0.64851099 0.0022640976
-0.022641113 0.0098025445 -0.010939908 -0.24214737 -0.71526825 -0.65555775 0.0014212371
-0.020011993 0.0095148683 -0.011598935 -0.21270157 -0.6405353 -0.73788387 0.0010052553
0.031628188 0.0093520842 -0.01156534 0.22010709 -0.72171968 -0.65625715 0.0020118465
0.034613322 0.0099352701 -0.011003783 0.27636021 -0.75267124 -0.59758765 0.0011987514
0.037490629 0.010818833 -0.010729863 0.29999429 -0.74096763 -0.60080802 0.0014127984
0.039910544 0.01157458 -0.010388822 0.33348736 -0.74871761 -0.57289445 0.00074764568
-0.036962423 0.01441595 -0.0094588315 -0.38610661 -0.72477794 -0.57062995 0.0015492268
-0.034348369 0.014075503 -0.010494068 -0.32459316 -0.71810341 -0.61560285 0.001468502
-0.031529456 0.013092899 -0.01077225 -0.29984766 -0.71256995 -0.63429916 0.0010319179
-0.028983099 0.012757747 -0.011538915 -0.25869855 -0.6453259 -0.71876949 0.001232149
-0.026451372 0.012044874 -0.01182451 -0.25976062 -0.69075066 -0.67482442 0.0010393457
0.040667392 0.012578624 -0.011201478 0.32896823 -0.7226851 -0.6078701 0.001221835
0.04349675 0.013473492 -0.010588984 0.36548623 -0.72572547 -0.58287424 0.00049584295
0.046118189 0.014526223 -0.010134454 0.41238886 -0.69703305 -0.58658361 0.00049637881
-0.042504601 0.017672131 -0.0095263161 -0.46330693 -0.67329538 -0.57621181 0.0013025813
-0.040151391 0.017006448 -0.010397739 -0.40687862 -0.66742384 -0.62369484 0.0010899139
-0.037692316 0.016052511 -0.010849013 -0.36321616 -0.68774277 -0.62855697 0.0011260095
-0.03489228 0.015428786 -0.011673592 -0.30368948 -0.67528325 -0.67213476 0.0014212622
0.044436596 0.01504022 -0.011847625 0.36928603 -0.68224508 -0.63100678 0.0010036716
0.046738554 0.015658749 -0.011069308 0.41957423 -0.69459736 -0.58437324 0.00043555326
0.049333781 0.016877718 -0.010593046 0.4398993 -0.66581589 -0.60264242 0.0012479743
0.051848657 0.017651051 -0.0095161935 0.46727261 -0.65849447 -0.58995026 0.00048682943
-0.045961037 0.020469893 -0.0099274525 -0.47555825 -0.64328229 -0.60002685 0.0011701415
-0.043610625 0.019491801 -0.010650044 -0.43361577 -0.65920496 -0.6143502 0.0014785331
-0.041156907 0.018632796 -0.011416623 -0.40403149 -0.64169544 -0.65190905 0.00054278021
0.050155289 0.018478392 -0.011710636 0.44119662 -0.65616405 -0.61220443 0.0011194515
0.052520525 0.019464415 -0.010946297 0.48141599 -0.59603775 -0.64263338 0.0011612958
0.054702897 0.02025562 -0.010002269 0.48623025 -0.59621972 -0.63882881 0.00096414873
-0.049142856 0.023024263 -0.010109697 -0.48324674 -0.63380104 -0.60396093 0.0013393598
-0.046777971 0.022180896 -0.0110319 -0.4545688 -0.58560222 -0.67114615 0.0017155879
-0.044360492 0.021145567 -0.011743813 -0.42551994 -0.61261678 -0.66605818 0.0010522545
0.055820953 0.022240987 -0.010975834 0.49938062 -0.54636854 -0.67238408 0.0013266408
0.057819359 0.022866176 -0.0098693892 0.55090344 -0.56500995 -0.61422241 0.00098448817
-0.054458346 0.026615029 -0.0095457099 -0.52920032 -0.58999091 -0.60980129 0.0013718794
-0.05239537 0.025746765 -0.010301728 -0.48686138 -0.60977781 -0.62540942 0.0017661274
-0.050011247 0.024884891 -0.011265079 -0.44705558 -0.57413971 -0.68593359 0.0023548403
0.058779676 0.02535424 -0.01107545 0.54309672 -0.47578034 -0.69186628 0.0014164645
0.060624182 0.025646759 -0.009711653 0.58939409 -0.50556916 -0.63009077 0.00072182063
-0.057575729 0.029552549 -0.0094902506 -0.57076561 -0.55963463 -0.60086256 0.00068599795
-0.05529258 0.028568069 -0.010546678 -0.51094991 -0.52330941 -0.68196583 0.001070932
-0.052998737 0.027694391 -0.011588058 -0.45705277 -0.52380002 -0.71884364 0.00073152961
-0.012574871 0.029743819 -0.011809532 0.18999958 0.69991142 -0.68849415 0.0016326909
-0.010385374 0.029468616 -0.01156989 0.16432537 0.72291476 -0.67111218 0.0016430533
-0.0073994328 0.029166616 -0.011186391 0.1356537 0.73903143 -0.65987164 0.0018605099
-0.004424009 0.029000394 -0.010850387 0.10548484 0.74600548 -0.65753233 0.0013302969
-0.0014581407 0.028649649 -0.010808027 0.10678797 0.72957188 -0.67551553 0.0027408816
0.0015050238 0.028629715 -0.010582559 0.040443841 0.75078058 -0.65931243 0.0024259142
0.0044768676 0.028605053 -0.010545087 -0.0091700982 0.75636005 -0.65409118 0.0022065036
0.0075368071 0.028587192 -0.010636401 -0.047378935 0.75174659 -0.65774781 0.0026952971
0.010503649 0.028875224 -0.0105851 -0.079344735 0.74050045 -0.6673556 0.0025622612
0.013439677 0.029052565 -0.010791578 -0.1262441 0.77133185 -0.62378645 0.001234489
0.016399669 0.02926519 -0.011176193 -0.15761185 0.7582162 -0.63266635 0.0017434659
0.01911176 0.029622825 -0.011507957 -0.19252408 0.73856843 -0.64610457 0.0014177307
0.059658717 0.027345296 -0.0117313 0.56149751 -0.39305091 -0.72817004 0.00092795031
0.061381262 0.028314916 -0.010868851 0.58291835 -0.41102791 -0.70090103 0.0020356558
0.063328505 0.029014593 -0.0095586777 0.62227923 -0.42695263 -0.65610981 0.00070376741
-0.060359437 0.032384962 -0.0092154713 -0.58989018 -0.48448917 -0.64598739 0.0011612748
-0.058387835 0.031600766 -0.01034047 -0.5548467 -0.47178805 -0.68524534 0.0028864529
-0.056213673 0.030702114 -0.01146226 -0.51683676 -0.45661831 -0.72414047 0.0043459246
-0.02136098 0.032758996 -0.011702972 0.26412082 0.67826545 -0.68570858 0.003997819
-0.019275088 0.032317307 -0.011375723 0.24361992 0.66613114 -0.70492458 0.0016703621
-0.016392445 0.031896956 -0.01074671 0.24569237 0.71110606 -0.658759 0.0026390681
-0.01357496 0.031271122 -0.010485293 0.20043355 0.7496056 -0.63080722 0.0023184356
-0.010531117 0.030834654 -0.010099326 0.18009871 0.74631983 -0.64075822 0.0016386003
-0.0075121233 0.030580707 -0.0096132085 0.14598571 0.76079077 -0.63236499 0.0016540595
-0.0048486912 0.030258659 -0.0094709052 0.11047213 0.77051169 -0.62777996 0.0012927534
-0.0016600034 0.030095594 -0.0091377068 0.096636415 0.81191587 -0.57572049 0.0043111537
0.013714626 0.030313376 -0.0092832288 -0.13268919 0.81888354 -0.55841148 0.0038772698
0.016705433 0.030622192 -0.009616795 -0.16804597 0.77620369 -0.6076746 0.0015176777
0.019727141 0.030883197 -0.010232188 -0.20637952 0.76111805 -0.61490387 0.0013642928
0.022540612 0.031378541 -0.010595378 -0.22436531 0.75360769 -0.61784768 0.0020644208
0.02543439 0.032051891 -0.010885082 -0.24027663 0.75785756 -0.60656327 0.0010886912
0.028261827 0.032515652 -0.011437255 -0.24733612 0.71458918 -0.65436006 0.00053728768
0.030057803 0.032634154 -0.011986669 -0.24068053 0.66692913 -0.70517969 0.0012667901
0.062305093 0.030981563 -0.011479796 0.56874579 -0.29701024 -0.7670157 0.0017300359
0.064208783 0.031729966 -0.010202576 0.63885438 -0.33916605 -0.69052982 0.0011115519
-0.061156578 0.034720205 -0.010025289 -0.6064505 -0.41893056 -0.67580694 0.001452369
-0.058993526 0.03421573 -0.011436967 -0.52003866 -0.35215986 -0.77816659 0.0022330494
-0.028171184 0.035629034 -0.011642728 0.2987307 0.6978941 -0.65092534 0.0019355167
-0.025370512 0.035046365 -0.010945274 0.30299503 0.7292071 -0.61355603 0.0014527945
-0.022570428 0.034300093 -0.010473719 0.27121699 0.74449444 -0.61005694 0.0024150987
-0.019696411 0.033726685 -0.0099050766 0.26812342 0.74937004 -0.6054374 0.0015123062
-0.01733941 0.033265177 -0.0094449092 0.24424484 0.76606822 -0.59454507 0.0012109498
0.025871798 0.033346631 -0.0094021689 -0.2488014 0.77793264 -0.57699102 0.0009962318
0.028647661 0.033826567 -0.0099868532 -0.26314247 0.76316452 -0.59020001 0.0013373505
0.031478733 0.034384482 -0.010545463 -0.27708822 0.76644599 -0.57946754 0.0011273198
0.03431559 0.035100341 -0.011011535 -0.30159017 0.74077523 -0.60024613 0.0015543599
0.0365864 0.035627943 -0.011540932 -0.32692054 0.68071324 -0.65555507 0.0033639385
0.062892735 0.033281911 -0.011896103 0.56197947 -0.21135566 -0.79969233 0.0010190288
0.064579003 0.034513336 -0.010920562 0.58806539 -0.19886988 -0.78398335 0.00094623584
0.066483878 0.034880329 -0.0093853986 0.67907518 -0.244479 -0.69216096 0.00232165
-0.063650027 0.037937477 -0.0096008917 -0.60601693 -0.33568048 -0.72115326 0.0024325782
-0.061602067 0.037415393 -0.01094145 -0.52918011 -0.25917616 -0.80795807 0.001168194
-0.059725709 0.036464624 -0.01189127 -0.48841676 -0.23318446 -0.84087694 0.003223842
-0.034074489 0.038521305 -0.011494809 0.31473851 0.69389671 -0.64764726 0.0018951918
-0.031428341 0.037832495 -0.010861563 0.32662529 0.72297972 -0.60878259 0.0014102317
-0.028647354 0.037035882 -0.010294143 0.32941061 0.72114122 -0.60946208 0.0014840375
-0.025933634 0.03643309 -0.0095400568 0.32253826 0.74610293 -0.5824942 0.0010732069
0.034824293 0.036468595 -0.0095629897 -0.32580817 0.75208449 -0.5729031 0.0012892206
0.037627503 0.037115559 -0.010406185 -0.33484802 0.73116046 -0.59437454 0.0017424427
0.04026356 0.038025938 -0.010946658 -0.37144071 0.69386649 -0.61691254 0.0017851703
0.042867903 0.038664196 -0.011745823 -0.35298118 0.6641227 -0.6590488 0.00087945443
0.064868242 0.037449066 -0.0113081 0.56146729 -0.092998907 -0.82225645 0.0021966267
0.066855237 0.037733041 -0.0097881304 0.66305876 -0.14121976 -0.7351259 0.0021613014
-0.064242922 0.040633135 -0.010081693 -0.58090717 -0.20724039 -0.78714567 0.003743297
-0.062013138 0.040375918 -0.011496824 -0.49285996 -0.13681795 -0.85928458 0.0026956119
-0.042138796 0.041961204 -0.011877765 0.30926424 0.65592253 -0.68856466 0.0012329151
-0.040171947 0.041499961 -0.011420417 0.30448002 0.64797324 -0.6981566 0.0010694447
-0.037416834 0.040721964 -0.010835844 0.32757375 0.70814013 -0.6254862 0.0014775166
-0.034704443 0.039964408 -0.010207787 0.33389097 0.72730881 -0.59961545 0.0019042314
-0.03221919 0.03935533 -0.009485607 0.36135879 0.7380054 -0.56988406 0.0013251568
0.041070595 0.03962671 -0.0096649742 -0.39524806 0.70223302 -0.59215522 0.0013983615
0.043600455 0.040346563 -0.010442943 -0.36683309 0.65114754 -0.66440976 0.00094698026
0.046304096 0.041095272 -0.011183779 -0.31837481 0.63214952 -0.70641661 0.00085670035
0.048844442 0.041722421 -0.011771575 -0.26863733 0.58770388 -0.76317638 0.0019361492
0.0649371 0.040631488 -0.011404284 0.47137514 0.049938761 -0.88051778 0.0051180064
0.067099459 0.040479254 -0.0099035045 0.62517667 -0.031099703 -0.77986348 0.003276105
-0.066279732 0.043901827 -0.0092845354 -0.60325009 -0.13498992 -0.78604525 0.0029985071
-0.064424045 0.043415729 -0.010435478 -0.52887732 -0.10066673 -0.84270698 0.0024455923
-0.062116202 0.043702915 -0.011640848 -0.41611314 0.019276898 -0.90910852 0.0035540336
-0.048473906 0.04468894 -0.011876998 0.19876318 0.61746067 -0.76107532 0.0027897009
-0.046228267 0.04432027 -0.011411814 0.26920998 0.65665931 -0.70450306 0.0020548608
-0.043435045 0.043673072 -0.010789399 0.30291006 0.66632956 -0.68135923 0.00072335079
-0.040659808 0.042996794 -0.010081065 0.34234101 0.71261781 -0.61235487 0.0012930104
-0.038203318 0.042275578 -0.0095067704 0.36895615 0.72450942 -0.58220053 0.001471444
0.044847436 0.042042457 -0.0093737626 -0.41982225 0.67427504 -0.60753798 0.0029481214
0.046811443 0.042763531 -0.0098032169 -0.38089001 0.67069972 -0.63646263 0.0017506732
0.049546268 0.043537531 -0.010436819 -0.31304395 0.6495207 -0.69291151 0.0017487444
0.052311733 0.043996923 -0.011180077 -0.25102431 0.59885997 -0.7604956 0.0012442331
0.055227064 0.044449333 -0.011713364 -0.16934684 0.51844513 -0.8381744 0.0024696391
0.058897797 0.044876002 -0.011937002 -0.036225803 0.43780473 -0.89833993 0.0037100019
0.062077463 0.044365946 -0.011853251 0.15596099 0.30407625 -0.93979454 0.0057345652
0.06464269 0.043553732 -0.01121731 0.38286135 0.18238842 -0.90562224 0.0065286965
0.067181364 0.043508183 -0.0097864373 0.56276375 0.081964277 -0.8225441 0.004054579
-0.06653592 0.046516351 -0.0092615774 -0.53466719 0.033043623 -0.84441644 0.0055279769
-0.064573579 0.046576045 -0.010280764 -0.38747573 0.15055527 -0.90950298 0.006597627
-0.061570402 0.046679806 -0.011334799 -0.20164144 0.31133348 -0.92866147 0.0048266845
-0.058549378 0.047166947 -0.011632132 -0.036727209 0.42873421 -0.90268379 0.0036899361
-0.055544831 0.047149263 -0.011572153 0.085485727 0.5143314 -0.85332024 0.0027789194
-0.052414071 0.046945266 -0.011204001 0.1743376 0.57173598 -0.80170095 0.0018772653
-0.049468148 0.046528608 -0.010631606 0.23693094 0.6246686 -0.74407852 0.0011555722
-0.046682589 0.045937147 -0.010045473 0.32250935 0.67461318 -0.66399157 0.0017351211
-0.044034775 0.045338754 -0.0093332203 0.35754681 0.71970069 -0.59513962 0.00098040758
0.050592739 0.045348626 -0.0092016356 -0.3641811 0.66491818 -0.65211648 0.0021124554
0.052751418 0.045929149 -0.009725187 -0.31852609 0.64973307 -0.69020861 0.0020485537
0.055553645 0.046457551 -0.010352757 -0.21947518 0.57774651 -0.78615493 0.0021294877
0.058455076 0.046563987 -0.010951642 -0.084904119 0.49544379 -0.86448061 0.0037668911
0.061427593 0.046676584 -0.011023013 0.079285741 0.40222198 -0.91210264 0.00675698
0.064433865 0.046427213 -0.010577492 0.30044693 0.292694 -0.9077785 0.0081223464
0.066926554 0.046571158 -0.0094705494 0.4897795 0.19223255 -0.85038966 0.0051730839
-0.066414438 0.048750408 -0.0091100316 -0.34936672 0.22386357 -0.90985054 0.0089686643
-0.064423464 0.049556099 -0.0096197585 -0.25372404 0.28490844 -0.92436534 0.0059620077
-0.061452694 0.049584292 -0.010205932 -0.13288359 0.43318278 -0.89145648 0.0073061758
-0.058531411 0.049580261 -0.010277195 0.066918671 0.55597526 -0.82850075 0.0024388377
-0.055538986 0.04923011 -0.010118891 0.15410417 0.61845434 -0.77056223 0.003368645
-0.05263621 0.048812073 -0.0096913222 0.23687829 0.66806209 -0.70539469 0.0025156615
-0.050445408 0.048314575 -0.0093569113 0.30119136 0.67983967 -0.66865665 0.0021411884
0.056403369 0.048352994 -0.0091401264 -0.28937063 0.63949525 -0.71225733 0.0025755083
0.05862857 0.048804551 -0.009488943 -0.18969756 0.58368886 -0.78950757 0.0035181963
0.061577182 0.049257305 -0.0096545015 -0.0381134 0.49908733 -0.86571306 0.0050965734
0.064348243 0.049291544 -0.0095267929 0.16659598 0.38672015 -0.90702444 0.006326938
0.066334203 0.048783317 -0.0092083523 0.37292144 0.31293961 -0.87349784 0.0060794419
-0.063271381 0.051324602 -0.0090780146 -0.13790822 0.50167376 -0.85399348 0.011445687
-0.061470676 0.051270083 -0.0092110829 -0.027189044 0.56010884 -0.82797271 0.0049804207
-0.058528867 0.051109694 -0.0091594234 0.10260905 0.65844488 -0.74560159 0.0024573696
-0.0074684317 0.0028776706 -0.006981256 -0.12060603 -0.81762546 -0.56297672 0.00053821062
-0.0044000563 0.0029331921 -0.0077084773 -0.098594546 -0.80302006 -0.58773965 0.0011540919
-0.0014731133 0.0027803027 -0.007846239 -0.055199262 -0.81727791 -0.57359385 0.00038012155
0.0015208955 0.0025026337 -0.0076596178 -0.010703217 -0.83225876 -0.55428392 0.0012727502
0.0041759238 0.0019701459 -0.0067210337 0.0064190086 -0.83770001 -0.54609299 0.0014976264
0.0076373452 0.0027265502 -0.0080148242 0.032914605 -0.85544616 -0.51684481 0.0011663054
0.0097006913 0.0020036257 -0.0064442321 0.048910409 -0.8811745 -0.47025439 0.00018789835
0.012477574 0.0027001919 -0.00744532 0.058445688 -0.8465268 -0.52912807 0.00095506548
0.015833419 0.0027978611 -0.0069260546 0.082503743 -0.8491931 -0.5215978 0.00081389403
-0.019290626 0.0054983892 -0.0067511778 -0.26933545 -0.81909293 -0.50650305 0.00098273891
-0.016331131 0.0050630071 -0.0075198389 -0.22394641 -0.84039205 -0.49354747 0.00040001021
-0.013297683 0.004423189 -0.0077000158 -0.18503331 -0.82471037 -0.53443003 0.0016452766
-0.010546519 0.0039338875 -0.0078650629 -0.15959083 -0.81224698 -0.56105757 0.001471312
-0.0075148377 0.004047886 -0.0087443208 -0.11659407 -0.79157132 -0.59985059 0.0016494334
0.0047607813 0.0032096514 -0.0087826103 0.0027957598 -0.83265841 -0.55377984 0.0015903051
0.0060575516 0.003005954 -0.0084746573 0.022612296 -0.83782715 -0.54546714 0.0014136083
0.010749592 0.0032256846 -0.0085487226 0.051288065 -0.83951062 -0.54091716 0.0012499993
0.013953667 0.0035625689 -0.0086580021 0.081186466 -0.82097811 -0.56515819 0.0013207997
0.016495001 0.0036882716 -0.0084174946 0.088536359 -0.82518429 -0.55788201 0.0009438644
0.019185416 0.0039052882 -0.0080966242 0.11400255 -0.80991805 -0.57535732 0.00044529041
0.022330837 0.0046011764 -0.0083398866 0.1640054 -0.80430496 -0.57113552 0.00029417375
0.024892977 0.0050234138 -0.0080749923 0.1851403 -0.80089396 -0.56946635 0.00013472924
0.02703134 0.0056137219 -0.0081915222 0.20850042 -0.80509859 -0.55528724 0.00013476596
-0.028231783 0.008737688 -0.0064850934 -0.31618378 -0.81474519 -0.48602262 0.00077700696
-0.025339659 0.0082035242 -0.0075260596 -0.3085995 -0.80941337 -0.49961621 0.0014906763
-0.022375038 0.0072299228 -0.0077758147 -0.29202068 -0.79323369 -0.53432596 0.0011590113
-0.019565977 0.0064728814 -0.0081992904 -0.26711109 -0.7977767 -0.54055899 0.0015581242
-0.017721679 0.0063156644 -0.0088142874 -0.23842324 -0.80740023 -0.53968436 0.0015574786
0.028486267 0.0060992213 -0.0083703594 0.20830964 -0.78528309 -0.58304167 0.00036394701
0.031354055 0.0068986644 -0.0082398066 0.24121591 -0.7948339 -0.55682486 0.00019265072
0.034489367 0.0080328593 -0.0083663389 0.28918791 -0.7785762 -0.55694658 0.00027741372
0.037620664 0.0089620035 -0.0079035619 0.31004089 -0.7701382 -0.55746013 0.00017328205
-0.034014661 0.011542903 -0.007213986 -0.36360192 -0.79446983 -0.48642704 0.00097980117
-0.031581439 0.010970968 -0.0079852995 -0.33302382 -0.78873146 -0.51671827 0.00082985248
-0.028593566 0.0097705396 -0.0080216955 -0.31087354 -0.79721427 -0.51750064 0.001064703
-0.02657244 0.0094141876 -0.0086792624 -0.3034237 -0.77886796 -0.54890686 0.0020313691
0.03847352 0.0096106278 -0.0084345471 0.32132483 -0.77136195 -0.54931867 0.00035695042
0.040417235 0.010588679 -0.0086304452 0.33347547 -0.74872583 -0.57289076 0.0007495968
0.043040939 0.011566298 -0.008200204 0.36669171 -0.74506968 -0.55714297 0.000252978
-0.039952323 0.014332697 -0.0069814916 -0.42487195 -0.7711798 -0.47409442 0.0013019235
-0.037542731 0.013479119 -0.0076807691 -0.38997129 -0.77679324 -0.49448428 0.0013482904
-0.03485734 0.012570861 -0.0082807671 -0.35826418 -0.78713667 -0.50205839 0.0015892597
0.045876704 0.013380729 -0.0087391706 0.40445423 -0.72511411 -0.55733865 0.00040434694
0.048475355 0.014649001 -0.0083877407 0.43368685 -0.6996792 -0.56777185 0.00025200401
-0.045646518 0.017701346 -0.0064672893 -0.50527799 -0.72144145 -0.47351491 0.00070210837
-0.043323457 0.016761238 -0.0075462833 -0.49116439 -0.72367644 -0.48481941 0.0011928426
-0.040996976 0.015641926 -0.008110729 -0.43794665 -0.74975216 -0.49605891 0.0016557188
0.04992513 0.015639553 -0.0085306866 0.44937864 -0.68887699 -0.56877697 0.00016330193
0.051521458 0.01646238 -0.0081967367 0.46927768 -0.67824191 -0.56547898 0.00041821814
-0.048600018 0.020270603 -0.0071187424 -0.52671677 -0.70271385 -0.47829136 0.00084350153
-0.046534415 0.01927473 -0.0079295989 -0.5005939 -0.70599663 -0.50097358 0.00084690232
-0.044407565 0.018292693 -0.0086782547 -0.48238799 -0.6881519 -0.54198593 0.002116065
0.05337533 0.0180346 -0.008617159 0.47642055 -0.65717554 -0.58407515 0.00052196876
0.055712692 0.019585088 -0.0082775876 0.51891369 -0.62493521 -0.58325338 0.0010319774
-0.052072775 0.023123221 -0.0074894005 -0.53182757 -0.69037378 -0.49045223 0.00099193805
-0.049825836 0.021851774 -0.0081059113 -0.53110325 -0.67656493 -0.51008749 0.0019640352
0.059305046 0.021831473 -0.0071149282 0.57850492 -0.58013815 -0.57338625 0.00046360664
0.060698826 0.023373695 -0.0073654302 0.58692914 -0.53513372 -0.60757399 0.00080149737
-0.057069708 0.026746443 -0.0069265827 -0.58870459 -0.6553672 -0.47320256 0.0010986467
-0.055449449 0.025819529 -0.0075177071 -0.56616092 -0.65567136 -0.49955669 0.0018430661
-0.053352203 0.024504999 -0.00804896 -0.54399842 -0.68776435 -0.48067224 0.0009572744
0.062134601 0.025719818 -0.0081643835 0.60212034 -0.52585101 -0.60077596 0.00094899442
0.063511096 0.026908675 -0.0077017052 0.66951567 -0.49474999 -0.55404991 0.0013499825
-0.060193282 0.029916074 -0.007057989 -0.62731844 -0.58326286 -0.51601934 0.0021709807
-0.058278814 0.028521823 -0.0076515749 -0.61556673 -0.6303668 -0.47298566 0.00078131672
-0.056441437 0.027453069 -0.008481103 -0.5797208 -0.62660432 -0.52085578 0.0013008962
0.0078254333 0.029978869 -0.0089190481 -0.024785319 0.81837082 -0.57415575 0.0039037957
0.064368069 0.028485259 -0.0080002686 0.68059987 -0.43627754 -0.5885964 0.0012500861
0.06602782 0.028819656 -0.0060145222 0.69968408 -0.41893229 -0.57873815 0.0012928821
-0.061467219 0.031707026 -0.0072912346 -0.66276664 -0.53579146 -0.52313268 0.0018951725
-0.059619468 0.030404573 -0.0082028536 -0.62727433 -0.58328784 -0.51604474 0.0022022258
-0.013032824 0.032649696 -0.0085100541 0.22875023 0.78319871 -0.57816356 0.0010757759
-0.010387423 0.032315489 -0.0079927007 0.18898204 0.84264547 -0.50421673 0.0016793783
-0.0074981297 0.03193574 -0.0076071611 0.15957044 0.85608929 -0.49157751 0.0013479666
-0.0045593348 0.031461142 -0.0076013636 0.12135955 0.85743964 -0.5000692 0.0030167985
-0.0015192411 0.031115301 -0.0075612674 0.093944147 0.84642857 -0.52414995 0.0024135599
0.0014953369 0.030933877 -0.0074784178 0.050649229 0.85176176 -0.52147532 0.002101891
0.0044865129 0.030747782 -0.0076409848 -0.0035727397 0.85592681 -0.5170846 0.0019390828
0.0075161201 0.030860486 -0.007498906 -0.036325753 0.85755587 -0.51310658 0.0019540142
0.010570426 0.031013312 -0.0076072724 -0.07085754 0.86385268 -0.49873617 0.0019250358
0.013515574 0.031370845 -0.0075378763 -0.1314202 0.87111229 -0.47317243 0.0031010599
0.016477805 0.031888779 -0.0075467746 -0.18079594 0.86734223 -0.46371356 0.0015300736
0.019355588 0.032327618 -0.0080109993 -0.21699169 0.845806 -0.48736718 0.001552555
0.021839172 0.032779373 -0.0084172888 -0.23825686 0.83559436 -0.49499071 0.0018856075
0.065628797 0.030470589 -0.0080442689 0.71044302 -0.3897551 -0.58597076 0.0010680094
0.0668336 0.031976163 -0.0074955551 0.71405554 -0.35581151 -0.60292852 0.0018256843
-0.06398344 0.034952894 -0.0073192059 -0.6869086 -0.478219 -0.54723239 0.0017134496
-0.06234296 0.033902749 -0.0083503397 -0.66434383 -0.45226294 -0.59506756 0.0030586598
-0.021958489 0.035626851 -0.0083687175 0.30831945 0.81771839 -0.48608208 0.0019281709
-0.019402541 0.035099454 -0.0076775211 0.30720642 0.83878517 -0.44951499 0.0012313359
-0.016488278 0.034159545 -0.0076299836 0.26012343 0.83819389 -0.47933996 0.0019084113
-0.013661914 0.033612318 -0.0071695582 0.22637998 0.85313815 -0.47000787 0.0019192268
