# .PCD v0.7 - Point Cloud Data file format
VERSION 0.7
FIELDS x y z normal_x normal_y normal_z curvature
SIZE 4 4 4 4 4 4 4
TYPE F F F F F F F
COUNT 1 1 1 1 1 1 1
WIDTH 552
HEIGHT 1
VIEWPOINT 0 0 0 1 0 0 0
POINTS 552
DATA ascii
0.017015137 0.0061658374 -0.011839538 0.080172017 -0.70101023 -0.70863044 0.0012978626
0.019488607 0.0064427955 -0.011755308 0.11716119 -0.71581888 -0.68838704 0.0014978059
0.022662953 0.0064650988 -0.011093667 0.14922503 -0.77788329 -0.61043388 0.0012314308
0.025642909 0.0070826379 -0.011002466 0.18779904 -0.75129217 -0.63268596 0.0011879014
0.028626382 0.0075740237 -0.010630674 0.21005547 -0.77212399 -0.59975094 0.001853492
0.031635907 0.0081307245 -0.010181735 0.24999988 -0.78224176 -0.57061189 0.0011328827
0.034222338 0.0085494779 -0.0095335748 0.29326883 -0.78708786 -0.54266566 0.0011788682
-0.030928833 0.011580897 -0.0096414406 -0.31831264 -0.7456153 -0.58543569 0.00088340382
-0.028398534 0.011030131 -0.010189917 -0.29582635 -0.74592912 -0.59672159 0.0018753044
-0.025606873 0.01027491 -0.010556292 -0.26764181 -0.73541474 -0.62252146 0.0011606092
-0.022657225 0.0097720204 -0.011218945 -0.24787182 -0.72174627 -0.64625221 0.0014434122
-0.020165179 0.0093116732 -0.011646329 -0.21710154 -0.69848287 -0.68190074 0.0012459576
0.032053024 0.009359302 -0.011617321 0.23336738 -0.70905006 -0.66542292 0.0010489995
0.034746855 0.0098501556 -0.011035264 0.2799319 -0.76118672 -0.58500677 0.0011736602
0.037718371 0.010717209 -0.010644045 0.31210068 -0.74058813 -0.59508175 0.0012876696
0.04044535 0.011469393 -0.010088413 0.35326463 -0.75013971 -0.55901206 0.00089129596
-0.037168365 0.014421117 -0.0096957395 -0.37959757 -0.71681285 -0.58488029 0.00091536867
-0.034389142 0.013729793 -0.01040972 -0.31670183 -0.72307843 -0.61388731 0.0016773331
-0.0317127 0.012966859 -0.010870558 -0.30098489 -0.72775638 -0.6162619 0.0012875235
-0.028997758 0.012461652 -0.011536189 -0.26387069 -0.65773046 -0.70552313 0.00095634814
0.041116007 0.012497907 -0.011025742 0.33235523 -0.74089491 -0.58362204 0.0017803668
0.043552518 0.013595229 -0.010867571 0.36949638 -0.73320431 -0.57086235 0.00073285803
0.046362679 0.01424491 -0.0097272554 0.41922581 -0.7329638 -0.5357368 0.0014349055
-0.042637814 0.017513802 -0.0096110366 -0.45956069 -0.67231196 -0.58034527 0.0012859844
-0.040392127 0.016751081 -0.010316834 -0.39882547 -0.68280983 -0.61213481 0.0018068351
-0.037772376 0.015936302 -0.011024104 -0.35944015 -0.67896932 -0.64015895 0.00095360825
-0.035475899 0.015293203 -0.011572153 -0.32391402 -0.69298023 -0.64409488 0.00092554925
0.044994853 0.015223642 -0.011863711 0.34629148 -0.6633476 -0.66336429 0.002846716
0.047110539 0.015762042 -0.011101364 0.40652147 -0.69554561 -0.59241587 0.0015485159
0.049472589 0.016842023 -0.010563118 0.43053836 -0.65872902 -0.61701924 0.00050877169
0.051226642 0.017765025 -0.010304428 0.44173169 -0.64550734 -0.62305164 0.00055993634
-0.046163179 0.020211915 -0.0098696547 -0.48033357 -0.64866692 -0.59034806 0.0012080749
-0.043692045 0.019266568 -0.010719039 -0.42799827 -0.63774121 -0.64039338 0.00058665843
-0.04122233 0.018452911 -0.011549861 -0.37853205 -0.62074357 -0.68657911 0.0009209711
0.052257523 0.018727807 -0.010581343 0.41823581 -0.61387277 -0.66950655 0.0021781679
0.054144494 0.019952156 -0.010316967 0.46515626 -0.58331949 -0.66585886 0.0008046279
-0.051495954 0.023824243 -0.0094436156 -0.51118946 -0.64852136 -0.5640083 0.0014763237
-0.049256343 0.02281018 -0.010160328 -0.48034099 -0.63693982 -0.60297614 0.0017842151
-0.046884965 0.021961957 -0.011108804 -0.45685288 -0.61918777 -0.63866425 0.0015934106
-0.04479764 0.021117359 -0.011781121 -0.43549863 -0.61842346 -0.65413558 0.00097040099
0.053617008 0.021195354 -0.011917268 0.43692797 -0.55026984 -0.71154553 0.0015775894
0.055840962 0.023019988 -0.011773678 0.47413966 -0.50586957 -0.7206161 0.001081082
0.057934549 0.023398258 -0.010447036 0.49151385 -0.48397252 -0.724006 0.0015958539
-0.05459775 0.026337175 -0.0095001878 -0.54081935 -0.63588601 -0.55060273 0.0011485636
-0.052497882 0.025636403 -0.010487447 -0.4810442 -0.58504182 -0.65293384 0.0010313432
-0.050165296 0.024670662 -0.011320237 -0.47993883 -0.60535944 -0.63497931 0.00044132504
-0.057680957 0.029378226 -0.0096224984 -0.56500351 -0.5526346 -0.61267126 0.0019545858
-0.055541649 0.028373661 -0.010562885 -0.50898391 -0.52768099 -0.68006492 0.0011318543
-0.053437188 0.027589919 -0.011568328 -0.50534731 -0.56896448 -0.64877069 0.001089484
-0.0092670787 0.029519454 -0.011473629 0.14074825 0.65610087 -0.74143219 0.0011820369
-0.0064967214 0.028980661 -0.011443252 0.12569351 0.64904499 -0.75029445 0.0016048261
-0.0042566699 0.028827785 -0.011238935 0.11190243 0.66701108 -0.73659623 0.0013322043
-0.0014538717 0.028775161 -0.010926245 0.070773318 0.67360926 -0.73569137 0.00090700231
0.0014924858 0.028745366 -0.010723665 0.046249691 0.70902377 -0.70366633 0.0026804421
0.0045055533 0.028836753 -0.010543177 -0.0097431997 0.74219394 -0.67011434 0.0024887873
0.0076128012 0.028561659 -0.010958814 -0.03234138 0.74721718 -0.66379255 0.0026961917
0.010690955 0.028873887 -0.01091274 -0.084526718 0.77138287 -0.63073272 0.00076992676
0.013567425 0.029142259 -0.011016331 -0.11091358 0.76868987 -0.62993175 0.0016169986
0.016245654 0.029484168 -0.011215989 -0.16267687 0.76379323 -0.62462485 0.0021588572
0.019077675 0.029822642 -0.011625637 -0.19496033 0.68759215 -0.69943368 0.0012101298
-0.060443055 0.032338575 -0.009487655 -0.62052983 -0.49978799 -0.60428035 0.0015312843
-0.058542762 0.031545315 -0.010547308 -0.57562184 -0.44833794 -0.68385136 0.0019462398
-0.056385662 0.030568754 -0.011608634 -0.53964347 -0.50663257 -0.67239004 0.00092138164
-0.012547783 0.030141877 -0.011618244 0.17152748 0.59647566 -0.78408879 0.00062170817
-0.005281331 0.030355312 -0.0096511319 0.11849308 0.67267954 -0.73038447 0.0013022517
0.0097074071 0.030054774 -0.0093096178 -0.084317952 0.784495 -0.61437619 0.00090759806
0.01393466 0.030562222 -0.0092741558 -0.10754108 0.78895277 -0.60496968 0.0015544514
0.016539259 0.030656619 -0.0098236818 -0.17208964 0.78298604 -0.59776092 0.0017202809
0.019624075 0.03116543 -0.010152409 -0.19787222 0.79236937 -0.57705933 0.0025058626
0.022630814 0.031605765 -0.010675325 -0.23338298 0.75561374 -0.61202961 0.0023211783
0.025546202 0.032222468 -0.011080937 -0.24299508 0.73276043 -0.63562214 0.0024108076
0.02808954 0.03259977 -0.011606575 -0.24478213 0.74091625 -0.62539977 0.0014096529
-0.063276522 0.035804182 -0.0091794152 -0.64392865 -0.43175545 -0.63161945 0.0016688685
-0.06135549 0.034672279 -0.010197458 -0.59073406 -0.38374764 -0.7097683 0.0020836922
-0.059273958 0.034074556 -0.011526479 -0.52195269 -0.34756738 -0.7789495 0.0016952455
0.025695557 0.033272423 -0.0097850496 -0.26539782 0.77255243 -0.57682467 0.0008616441
0.028721137 0.033847805 -0.010328301 -0.26264903 0.75981498 -0.594724 0.0011629814
0.031455453 0.034513932 -0.010733386 -0.28211537 0.75568467 -0.59105974 0.00061020697
0.034458101 0.035381299 -0.011128617 -0.29804569 0.74656135 -0.59482336 0.0016642996
-0.063873656 0.037746698 -0.0096858805 -0.62505066 -0.34504575 -0.7001822 0.0028146845
-0.061768416 0.037335295 -0.011149426 -0.54123616 -0.2790961 -0.79320157 0.0011828792
0.032511707 0.036076471 -0.0091044549 -0.31589034 0.77904028 -0.54158056 0.0012428371
0.034650475 0.036654215 -0.0095845517 -0.32962754 0.75914192 -0.56129253 0.0018366321
0.03757358 0.037220862 -0.010631851 -0.35697889 0.71730667 -0.59836221 0.0021855033
0.040230896 0.038235527 -0.011092454 -0.37072545 0.69872302 -0.61184055 0.0019501777
0.042006757 0.038370084 -0.011961767 -0.32965142 0.62586409 -0.70684093 0.0018089161
-0.066182539 0.041418158 -0.0091774045 -0.65085906 -0.25938335 -0.71351433 0.0030550568
-0.064437672 0.040507119 -0.010250959 -0.57745177 -0.22375505 -0.78516442 0.0044466923
-0.062356718 0.040272687 -0.011606679 -0.49723214 -0.14678071 -0.85511154 0.0027682595
0.040614307 0.039712112 -0.0096409898 -0.40493172 0.70506901 -0.58215809 0.0011827854
0.043336328 0.040309623 -0.010708592 -0.35881931 0.66712058 -0.65283906 0.0010392017
0.046135072 0.041191589 -0.011383668 -0.32828322 0.63896763 -0.6956656 0.002328234
0.064330809 0.04153686 -0.011923366 0.31835973 0.14727773 -0.93645954 0.0059869015
-0.066536225 0.043605559 -0.0093948422 -0.58687896 -0.1323553 -0.79878354 0.0038702916
-0.064553075 0.043471094 -0.010689497 -0.47546342 -0.026846327 -0.87932587 0.0038545136
-0.062547863 0.043604981 -0.011760473 -0.41481218 0.012168487 -0.90982568 0.0039980267
0.044291299 0.042110968 -0.0093058646 -0.4331075 0.6963926 -0.57223707 0.0016455796
0.046816465 0.042937957 -0.0099934451 -0.404199 0.67960161 -0.61218041 0.0016333179
0.049331613 0.043489516 -0.010750348 -0.32696354 0.64234346 -0.69317371 0.0020311561
0.051989317 0.044184871 -0.01126218 -0.26427308 0.61478037 -0.74310482 0.0016871389
0.054508299 0.044723056 -0.01170446 -0.18206236 0.55108792 -0.81434351 0.0016136754
0.063947298 0.044278916 -0.011625138 0.21106426 0.29445374 -0.93206704 0.0046935119
-0.066635713 0.046455506 -0.0095174108 -0.53917837 0.025057564 -0.84181881 0.0045509464
-0.064451762 0.046449505 -0.010659435 -0.38543335 0.13851009 -0.91228074 0.006385616
-0.061735988 0.046616126 -0.011584461 -0.20545293 0.29471546 -0.93323731 0.0049257264
-0.058759999 0.047330894 -0.011794188 -0.031357467 0.42663825 -0.90387857 0.0041617774
-0.055718642 0.047378037 -0.01166221 0.071911469 0.49561602 -0.86555964 0.0015929411
-0.05244004 0.047128588 -0.011262727 0.11696192 0.51623511 -0.84842277 0.0018672633
-0.04959419 0.04635914 -0.0110421 0.14935902 0.52565628 -0.83748269 0.00055404293
0.050149679 0.045145176 -0.0095599107 -0.37194288 0.67432141 -0.63792568 0.0019571676
0.052723613 0.046039 -0.0099648647 -0.3386268 0.63922071 -0.69045544 0.0014556232
0.055556152 0.046548754 -0.01062371 -0.23756912 0.58963835 -0.77193755 0.0032240613
0.058399145 0.046721961 -0.011167367 -0.10117315 0.4912461 -0.86512494 0.0033760427
0.061560683 0.046468522 -0.01138117 0.082492553 0.43301612 -0.89760345 0.0046793199
0.06448938 0.046698026 -0.010732067 0.19896488 0.3184748 -0.92681539 0.0029645541
-0.06656263 0.049207211 -0.0092398552 -0.41183016 0.22147101 -0.88393801 0.0066768155
-0.064579874 0.049340032 -0.0099278577 -0.28460637 0.31332609 -0.90599447 0.0051702159
-0.061559647 0.049392991 -0.010531088 -0.059500054 0.49699566 -0.86571068 0.0030316375
-0.05867324 0.049273707 -0.010697322 -0.0098164007 0.49953449 -0.86623836 0.0028108328
-0.055688374 0.049357995 -0.010242485 0.07111498 0.53585768 -0.841308 0.001282405
-0.053512484 0.048312232 -0.010598971 0.12327737 0.53781897 -0.83399844 0.00097552402
0.055874262 0.048267383 -0.0093622245 -0.30001381 0.63691288 -0.71016461 0.0020992476
0.058497146 0.048996091 -0.0096486043 -0.24268711 0.62805825 -0.73935503 0.0020776258
0.061616424 0.049272303 -0.0099542141 -0.043238472 0.49288946 -0.86901689 0.0052027823
0.064557038 0.049651314 -0.0096249357 0.022738906 0.42500824 -0.90490389 0.0041558458
-0.064404175 0.051310886 -0.0091808233 -0.19734393 0.41409382 -0.88858402 0.0069842301
-0.061787814 0.051461976 -0.0092863003 -0.027829237 0.57064819 -0.82072294 0.0045976276
-0.059063446 0.051324259 -0.0092883715 0.032313488 0.58645618 -0.80933607 0.0016789325
0.064367227 0.051025826 -0.0090486966 -0.044828426 0.4791337 -0.87659639 0.0055561769
-0.010040182 0.0027784258 -0.00632049 -0.16579165 -0.87129349 -0.46190992 0.0013648199
-0.0073579703 0.0025785924 -0.0067513208 -0.11870128 -0.870857 -0.47698858 0.0018569933
-0.0044753794 0.0024648432 -0.0071342192 -0.082121335 -0.87357944 -0.47970313 0.0018240128
-0.0014986146 0.0023003293 -0.0072422111 -0.056645922 -0.87333691 -0.48381174 0.0018849503
0.0014933918 0.0022636664 -0.0074411929 -0.029981274 -0.87646073 -0.48053899 0.0018982892
0.0044068289 0.0022449663 -0.0074788961 0.0050796866 -0.88077289 -0.4735117 0.0016916067
0.0074186074 0.0022390552 -0.0073738853 0.031540792 -0.88484895 -0.46480906 0.0014827363
0.010427242 0.0023235364 -0.0072378661 0.057204019 -0.8868435 -0.45851529 0.0015256309
0.013441078 0.0025385306 -0.0071517285 0.086895287 -0.88575518 -0.45594639 0.0017953463
0.016435292 0.0025994997 -0.0065844902 0.12103108 -0.88960832 -0.44039586 0.0017665512
0.018871862 0.0028379145 -0.0063350694 0.16034652 -0.88889849 -0.42912531 0.0014464238
-0.021571085 0.005832789 -0.0062223263 -0.32819074 -0.8360061 -0.43975514 0.0013981824
-0.019172432 0.0054322355 -0.0070347385 -0.27799049 -0.84042275 -0.46519989 0.0018063138
-0.016456291 0.0048993952 -0.0075273272 -0.22301781 -0.83355713 -0.5054161 0.0015378095
-0.013430735 0.0041824174 -0.0075884252 -0.18719076 -0.8381108 -0.51237684 0.0021738242
-0.010540348 0.0036907189 -0.0077713225 -0.15900734 -0.84588164 -0.50911766 0.0013838354
-0.0076040858 0.0035367662 -0.0082923546 -0.11415349 -0.84254485 -0.52639055 0.001674419
-0.0045811799 0.0033780714 -0.0085975416 -0.082797989 -0.80042744 -0.59368384 0.00074587308
-0.0015231586 0.0032291464 -0.008755235 -0.05562377 -0.84528089 -0.53141898 0.0021618067
0.0012767536 0.0030915921 -0.0087774657 -0.032869905 -0.7978698 -0.601933 0.00079843181
0.0039070514 0.0030962387 -0.0088868365 -0.0024646865 -0.80117154 -0.59842956 0.00078986917
0.0071100169 0.003072029 -0.0087939491 0.026094548 -0.80704433 -0.58991396 0.00078298681
0.010585436 0.0031705787 -0.0087257875 0.05324721 -0.81426525 -0.57804579 0.00077488762
0.013868927 0.0033520085 -0.0086002173 0.084666602 -0.82338583 -0.56113046 0.00097348087
0.016744738 0.0034260794 -0.0081550656 0.11007774 -0.86202163 -0.49477428 0.0016666121
0.01962526 0.0035878222 -0.0075969067 0.17395009 -0.87943453 -0.44309849 0.0012550438
0.022510856 0.0041537466 -0.0076130927 0.17214194 -0.86476797 -0.47174513 0.0013849395
0.02549368 0.0047343788 -0.0074234814 0.21224609 -0.86886209 -0.44724742 0.0015931941
0.028386533 0.0054102363 -0.0072521446 0.24323402 -0.87290281 -0.42293954 0.0016017471
0.030616745 0.0057476824 -0.0065304115 0.28908855 -0.8719874 -0.39505163 0.0012343534
-0.027829256 0.0085566696 -0.006838494 -0.33670458 -0.82920623 -0.44614688 0.001370621
-0.025439592 0.0079481062 -0.0074074715 -0.30486348 -0.81542367 -0.49207988 0.0014210065
-0.022625495 0.0070452373 -0.0076951096 -0.29085124 -0.82116467 -0.49101347 0.001589578
-0.020111043 0.0064603346 -0.0082462383 -0.28286514 -0.82164919 -0.49485356 0.0012576429
-0.017314689 0.0060463706 -0.0089461505 -0.22707035 -0.75833285 -0.61104041 0.0011371627
0.028903909 0.0062707034 -0.0086237025 0.23304445 -0.84930599 -0.47367683 0.0015020104
0.031805005 0.00659107 -0.0075344839 0.29966646 -0.86403155 -0.40453616 0.0011369514
0.034552358 0.007754216 -0.0079392847 0.29894963 -0.8529017 -0.42800447 0.0018094968
0.037432164 0.0084047895 -0.0070533096 0.3474389 -0.83233792 -0.43185619 0.0017729454
-0.03617857 0.011768023 -0.0061832592 -0.38626918 -0.81972051 -0.4229117 0.00083525572
-0.034177653 0.011402046 -0.007215119 -0.36132416 -0.81517267 -0.45270118 0.0016466004
-0.03154498 0.010480472 -0.0075699724 -0.3337343 -0.81217939 -0.47852495 0.0018641388
-0.028850669 0.0095678484 -0.0078941351 -0.31760406 -0.81081742 -0.49163288 0.0016130825
-0.026623217 0.0092620524 -0.0087836068 -0.29671034 -0.75456125 -0.58532077 0.0012148197
0.038191777 0.009389786 -0.0083773658 0.31874409 -0.80952364 -0.49302509 0.0020604965
0.04062466 0.010258819 -0.0079726968 0.38037601 -0.81009942 -0.44615352 0.0017375363
0.043128788 0.011293836 -0.007739645 0.38701645 -0.809623 -0.44128099 0.0015566665
0.045714285 0.011981529 -0.0064377165 0.41559651 -0.79486126 -0.44212577 0.0018018025
-0.042192396 0.01497562 -0.0062752785 -0.48760304 -0.76337135 -0.42368323 0.0010264504
-0.040216833 0.014307004 -0.0070875818 -0.4370144 -0.77726525 -0.45263356 0.0016617393
-0.037681557 0.013228881 -0.0075499588 -0.41178834 -0.8051734 -0.4267624 0.00072650332
-0.035234552 0.012487596 -0.0082678199 -0.34455717 -0.78522378 -0.51449394 0.0023129615
0.04393601 0.012330395 -0.0088491701 0.40011495 -0.76331782 -0.50720215 0.00059829961
0.047137097 0.013388947 -0.0076690884 0.42287692 -0.74924356 -0.50971466 0.00055397733
-0.04559236 0.017527774 -0.0066984296 -0.51883507 -0.73031485 -0.44435385 0.0010772742
-0.043445069 0.016554186 -0.0075140619 -0.49654353 -0.75340313 -0.43107799 0.00073878083
-0.04093311 0.015424154 -0.0082688257 -0.4218061 -0.75737309 -0.49846324 0.0016412918
0.049988542 0.015656043 -0.0086062783 0.43609652 -0.69183451 -0.57548648 0.00090118905
-0.048911445 0.020231053 -0.0071416716 -0.5450868 -0.71206093 -0.4425489 0.0014863625
-0.04671004 0.018964268 -0.0077045839 -0.52250832 -0.71624023 -0.46258512 0.0020448857
-0.044725984 0.018179862 -0.008642178 -0.49530011 -0.68325073 -0.53651303 0.0021143707
-0.054205101 0.023768231 -0.0063650147 -0.55317193 -0.71066368 -0.43469292 0.00083674642
-0.052237775 0.022879459 -0.0073736166 -0.53886825 -0.70384616 -0.46284086 0.0019662853
-0.050046295 0.021660743 -0.0080217244 -0.51883918 -0.71076608 -0.47499207 0.001838353
-0.057489429 0.026708579 -0.0067258077 -0.5986501 -0.65524602 -0.46072832 0.00095935672
-0.055501468 0.025534309 -0.0075051198 -0.58169937 -0.66836399 -0.46358964 0.0025439332
-0.053417195 0.024539316 -0.008468057 -0.51677823 -0.65039653 -0.55670881 0.0011443847
-0.060521364 0.02961868 -0.0066243163 -0.64336503 -0.59879166 -0.4770011 0.0011925802
-0.058640491 0.028469218 -0.0075990455 -0.62882984 -0.62991655 -0.45582709 0.0010207338
-0.056535959 0.027422827 -0.0087679783 -0.55261528 -0.59404439 -0.58457476 0.0011855895
-0.063232839 0.032569695 -0.0063818623 -0.68532592 -0.53482407 -0.49425879 0.0012443444
-0.061468426 0.031515453 -0.0075455368 -0.67304683 -0.53121555 -0.51460463 0.0023126078
-0.059674084 0.030443354 -0.0086118095 -0.59649378 -0.54209304 -0.59188706 0.00073293486
0.0042964942 0.030782141 -0.00787789 -0.014974635 0.77448457 -0.63241553 0.00065387029
0.0077516665 0.030522697 -0.0083375117 -0.042223107 0.77823043 -0.62655771 0.00065392297
0.010339356 0.030960273 -0.0079601277 -0.066321239 0.78483444 -0.61614633 0.0008167288
0.013712563 0.031522624 -0.0076366803 -0.10678395 0.82256287 -0.55855829 0.0005822957
0.016770737 0.032166731 -0.0074645928 -0.16548747 0.82728595 -0.53685367 0.0012641224
0.019734953 0.032712821 -0.0078882221 -0.22191322 0.82033122 -0.52707803 0.00083773793
-0.064140275 0.034644317 -0.0072750812 -0.69802421 -0.48714319 -0.52483678 0.0026605863
-0.062510304 0.033695623 -0.0084179286 -0.64956611 -0.47194216 -0.59609938 0.00071344106
0.017639095 0.033063732 -0.0060442518 -0.18758963 0.86413443 -0.46699223 0.0012002895
0.019520709 0.033482302 -0.0062268004 -0.18720013 0.87822068 -0.44009602 0.0024724295
0.022594687 0.033746213 -0.007400251 -0.23539026 0.85498071 -0.46216804 0.0021763339
0.025464792 0.034371741 -0.0079018874 -0.26239321 0.82451171 -0.50132865 0.0014539832
0.02847161 0.035184402 -0.0081988936 -0.27917805 0.80613071 -0.5217402 0.00093315612
0.031197861 0.035820942 -0.0087760501 -0.30775636 0.80348319 -0.50960851 0.00062161614
-0.066691369 0.037925314 -0.0068043852 -0.71165878 -0.42383522 -0.56027269 0.0028850585
-0.065184981 0.037183974 -0.0080630044 -0.69041216 -0.39360073 -0.60696757 0.0026239534
0.028859369 0.036218069 -0.0064148558 -0.28496459 0.89211291 -0.35061342 0.0014878316
0.031788524 0.036954779 -0.0070760576 -0.32004789 0.85723644 -0.40337935 0.00085318519
0.034604564 0.037892554 -0.0075196396 -0.35659355 0.80674773 -0.47116774 0.0028052561
0.03665103 0.038412698 -0.0083274487 -0.40419894 0.79102492 -0.45924163 0.0017611292
-0.069172889 0.041844752 -0.0061920756 -0.73065746 -0.3380475 -0.59318089 0.0048890603
-0.067489035 0.040518083 -0.0074824323 -0.72103328 -0.30060539 -0.6242975 0.0024393366
-0.065868303 0.039664723 -0.0088094706 -0.68607122 -0.30284014 -0.6615091 0.0016318747
0.037922725 0.039653566 -0.0073869415 -0.42263588 0.77844059 -0.46412191 0.0021825358
0.04049027 0.041027743 -0.0076093767 -0.45924461 0.76215613 -0.45630309 0.0024211823
0.042647161 0.041716684 -0.0085324906 -0.41947767 0.74578065 -0.517542 0.0026280389
-0.069529407 0.043869466 -0.006635902 -0.73800898 -0.23477149 -0.63263345 0.0030171233
-0.068011515 0.043375228 -0.0080757709 -0.65183556 -0.17026642 -0.73899919 0.0020342933
0.041720096 0.042626433 -0.0060671265 -0.48931843 0.7916736 -0.36581463 0.0043574423
0.043749653 0.043270834 -0.0071641249 -0.44022357 0.78294677 -0.43954244 0.0015051001
0.046151124 0.044137657 -0.0080625797 -0.41384163 0.74288136 -0.52617729 0.0020993149
0.048395008 0.0448463 -0.0088339932 -0.34619701 0.71826476 -0.60352582 0.0029813622
-0.069935746 0.046668731 -0.0068803742 -0.72639543 -0.12538235 -0.67574334 0.00501063
-0.068187065 0.046460647 -0.008436989 -0.5908941 -0.045719214 -0.80545259 0.0030058066
0.047216203 0.045654748 -0.0067329737 -0.45348012 0.75265735 -0.47734973 0.0023222554
0.049661465 0.046491552 -0.0076102316 -0.41937372 0.73163515 -0.53743422 0.0023980632
0.052366488 0.047413487 -0.008393066 -0.3622568 0.6702407 -0.64772481 0.0012995789
-0.070228294 0.049589109 -0.0069097541 -0.62829274 -0.024997646 -0.77757531 0.0092267068
-0.068081178 0.049548708 -0.0083760414 -0.45593894 0.10570994 -0.88371092 0.008050615
0.050861929 0.048136 -0.0063476912 -0.42329347 0.72766173 -0.53975099 0.0020592266
0.052780185 0.048788179 -0.0070472243 -0.41935584 0.71423018 -0.56037134 0.0026113535
0.05541379 0.049687084 -0.0077280388 -0.37363869 0.6957891 -0.61340982 0.0029662463
0.058296941 0.050415821 -0.0083979676 -0.26185724 0.66356587 -0.70079327 0.003428987
0.061028372 0.050761387 -0.0089536617 -0.14119284 0.56462461 -0.8131811 0.0040318989
-0.070407562 0.052485488 -0.0067474409 -0.4842526 0.088028975 -0.87048858 0.010074
-0.067646243 0.052378658 -0.0079804212 -0.28815612 0.26960403 -0.91884685 0.011912026
-0.064814232 0.052652143 -0.0083780363 -0.034849912 0.45760015 -0.88847488 0.0099492073
-0.061880723 0.052768353 -0.0082680909 -0.0047616251 0.54287332 -0.83980107 0.0052825348
-0.059275433 0.052129153 -0.0085835513 0.036044251 0.60174114 -0.79787749 0.0014298166
0.056304108 0.051126439 -0.0066392985 -0.35826638 0.70097709 -0.61666548 0.0025038489
0.05867504 0.052041203 -0.0069708996 -0.35725176 0.67911083 -0.64123291 0.0037895844
0.061523989 0.052492294 -0.007736539 -0.21401632 0.59159368 -0.77731204 0.0037128187
0.064442582 0.052822661 -0.0080746692 -0.09650071 0.50270051 -0.85905755 0.0031369638
0.066805467 0.052603383 -0.0079744225 -0.13960198 0.47765675 -0.86738414 0.0030620131
-0.070406631 0.055157442 -0.0063957213 -0.27374408 0.28269321 -0.91931975 0.013634113
-0.06773676 0.05532882 -0.0068435995 -0.14959343 0.35428572 -0.92309451 0.0055321874
-0.064955801 0.05486609 -0.0070418958 0.016980913 0.50555247 -0.8626287 0.004295751
-0.060967959 0.054120656 -0.0068297884 0.030400215 0.58942616 -0.80725008 0.0019605483
0.061883565 0.054452669 -0.0062890369 -0.35735497 0.62115753 -0.69746739 0.0066227745
0.064514324 0.055262066 -0.0066842567 -0.26529565 0.50420707 -0.82182324 0.011536744
0.067177005 0.055584092 -0.0067652357 -0.17366001 0.45591557 -0.87291646 0.0040393197
0.067237489 0.057244036 -0.0061358702 -0.19701213 0.40537059 -0.89267063 0.0059499084
-0.015494246 0.0028875032 -0.0034613062 -0.26697558 -0.94342309 -0.19666471 0.0012427556
-0.013231779 0.002577533 -0.0041885385 -0.20063567 -0.9342075 -0.29496032 0.0020845614
-0.010449115 0.0021423339 -0.0045278426 -0.16368438 -0.93935645 -0.30135843 0.001801024
-0.0074423342 0.001664406 -0.0045421482 -0.12291039 -0.93988967 -0.31859118 0.0024309843
-0.004492783 0.0013431485 -0.0046049845 -0.086338833 -0.93863416 -0.3339335 0.0025316442
-0.0016154535 0.0011037437 -0.0045361365 -0.052275624 -0.9396649 -0.33807862 0.0026755908
0.0014104999 0.0010377344 -0.0047513843 -0.024472022 -0.94043088 -0.3391031 0.0024729976
0.0044135121 0.00099106622 -0.0047078957 -0.00037656678 -0.94135839 -0.33740807 0.0025384231
0.0074674147 0.00098750927 -0.0044811252 0.034246113 -0.94254941 -0.33230683 0.0023801136
0.010629595 0.001208266 -0.0045738937 0.070118107 -0.94434029 -0.32141069 0.0022290619
0.01338825 0.0015119836 -0.0047121202 0.094626166 -0.94669807 -0.30791014 0.0021387059
0.016381321 0.0018443393 -0.0046278136 0.12820017 -0.94902736 -0.28794384 0.0018368219
0.019419393 0.0023079701 -0.0045088008 0.15955935 -0.95035958 -0.26712835 0.0012447967
0.022045992 0.0028020465 -0.0045234915 0.19022425 -0.94316143 -0.27250904 0.0019437441
-0.024441468 0.0058896188 -0.0035843039 -0.34545636 -0.89493561 -0.2824007 0.001914614
-0.022383429 0.0053995973 -0.004391199 -0.32203308 -0.89665991 -0.30380207 0.0023881432
-0.019544402 0.0044680065 -0.0045978627 -0.29400769 -0.90128779 -0.31818187 0.0023078655
-0.01680224 0.0036708862 -0.0047242097 -0.28424773 -0.90910465 -0.30451933 0.0016258637
-0.014217485 0.0032323257 -0.0053791683 -0.22713739 -0.91714829 -0.32748678 0.0021893331
0.022839695 0.0032136915 -0.0053164843 0.20883808 -0.93338001 -0.2918705 0.0018120523
0.025531301 0.0036563016 -0.0046671294 0.23279797 -0.92941362 -0.28634846 0.0014234515
0.028229594 0.0043903007 -0.004729527 0.26417795 -0.91623116 -0.30121484 0.001358949
0.031441674 0.0053125629 -0.0045617698 0.26930147 -0.91350222 -0.30494338 0.0012461537
0.034006443 0.0059845685 -0.0038877572 0.30938306 -0.90109587 -0.30382288 0.00079802464
-0.030973038 0.0087323999 -0.0041753845 -0.36232173 -0.88193405 -0.30152175 0.0019241497
-0.028484905 0.0078572799 -0.0045979773 -0.347087 -0.88697481 -0.30464134 0.0018241755
-0.025622245 0.0067067267 -0.0046131019 -0.36915913 -0.8830868 -0.28961891 0.0016293776
-0.023515362 0.006326233 -0.0057416302 -0.34883597 -0.85919738 -0.37429047 0.0035223132
0.034316063 0.0065830331 -0.0055074599 0.30426478 -0.89077431 -0.33755609 0.0019904932
0.036782671 0.0073664691 -0.0050452254 0.34298223 -0.86400509 -0.36858976 0.00067707198
-0.036979303 0.011396773 -0.0042450405 -0.41137502 -0.86903179 -0.27487156 0.0018634956
-0.034521673 0.010367094 -0.0045161322 -0.38603768 -0.87575275 -0.28988287 0.00164172
-0.032161046 0.0094857831 -0.0049638697 -0.36905193 -0.87596524 -0.31062105 0.0018258953
0.041670896 0.0091829337 -0.0041928138 0.3757287 -0.82729959 -0.41761631 0.0011579618
-0.04269905 0.014487622 -0.0042716595 -0.50321102 -0.8175565 -0.27996427 0.001806402
-0.040554699 0.013370319 -0.0046180449 -0.45502067 -0.83660495 -0.3050383 0.0023795031
-0.038275536 0.012249153 -0.0049260696 -0.44988126 -0.84889543 -0.27745894 0.0015288427
-0.046312697 0.016951865 -0.0043470534 -0.54591364 -0.78591824 -0.29036319 0.0019642969
-0.044142995 0.015604561 -0.0047299084 -0.53920972 -0.79571271 -0.27585164 0.0015239158
-0.051464323 0.020622022 -0.0038870701 -0.56037474 -0.77171206 -0.30073333 0.0018194964
-0.049484968 0.019392915 -0.0045874715 -0.5798111 -0.76121253 -0.29047307 0.0020910376
-0.047512919 0.018181372 -0.0052834814 -0.55221808 -0.77111322 -0.31692219 0.0028744068
-0.054972589 0.023388689 -0.0042315414 -0.57641464 -0.76202345 -0.29507014 0.001690348
-0.052805804 0.021942792 -0.0047335732 -0.57559019 -0.7621125 -0.29644644 0.0020756763
-0.058051247 0.025994377 -0.0044597634 -0.64138478 -0.7014792 -0.31072888 0.0019838258
-0.056236252 0.024646191 -0.0049320864 -0.61205846 -0.73614877 -0.28891072 0.0016402581
-0.061096486 0.028889116 -0.0043610628 -0.67473382 -0.66164154 -0.3270548 0.0024480908
-0.059520077 0.027547756 -0.0049013174 -0.66343635 -0.6869837 -0.29648876 0.0018261182
-0.06385614 0.031996351 -0.0043329094 -0.73578858 -0.5866189 -0.33836865 0.0022510807
-0.062440939 0.030665958 -0.0049165352 -0.71319997 -0.63358313 -0.2998637 0.0029505014
-0.066546313 0.035333037 -0.0041164379 -0.76101571 -0.55070299 -0.34290126 0.0019153106
-0.065259323 0.034053005 -0.0048074531 -0.75076342 -0.582407 -0.31169918 0.0017612533
0.023078561 0.035320371 -0.0037115347 -0.27101892 0.90343142 -0.33220544 0.00078726187
0.025542499 0.035669796 -0.0050446438 -0.28334138 0.88856697 -0.3607859 0.0017403888
-0.069185078 0.03883617 -0.0034298173 -0.80836904 -0.46851265 -0.35642034 0.0024549677
-0.067776047 0.037451964 -0.0045761201 -0.77723908 -0.50298071 -0.3780342 0.0048795445
0.028886726 0.036975626 -0.0042493092 -0.31413245 0.8840602 -0.34606117 0.0016949059
0.031012699 0.037538987 -0.0049373843 -0.34696978 0.86602801 -0.36001056 0.001834865
0.034093652 0.038866285 -0.0046789856 -0.3839919 0.87160629 -0.30471742 0.0021203351
-0.069738545 0.040683996 -0.0043464107 -0.82300454 -0.39659476 -0.40666455 0.0045050723
-0.068642102 0.039741267 -0.0054946132 -0.78865308 -0.3852005 -0.47921488 0.0043961955
0.034934431 0.039667305 -0.0033869359 -0.43005484 0.87489641 -0.22273107 0.0059787701
0.03752131 0.04071413 -0.0045264675 -0.4696182 0.8358658 -0.28423056 0.0022909939
0.039546162 0.041744538 -0.0050307149 -0.51971245 0.8075217 -0.27894026 0.0017442934
-0.070814379 0.043498654 -0.0045363787 -0.85365546 -0.30108318 -0.42499557 0.004195665
0.041089982 0.04293609 -0.0043143597 -0.48961744 0.82439691 -0.28397971 0.0017735917
0.04318326 0.044097401 -0.0047957362 -0.5190931 0.81493223 -0.25773582 0.0017127621
-0.072352819 0.046922345 -0.0036785353 -0.84596986 -0.27895361 -0.45444453 0.0037170236
-0.071382158 0.046357486 -0.0050099804 -0.83965921 -0.22526732 -0.49419326 0.0075966166
0.044665504 0.045414843 -0.0038203688 -0.51323229 0.81183189 -0.27842686 0.0015552414
0.046556234 0.046344262 -0.0045260703 -0.50773066 0.794168 -0.33392635 0.0033036661
0.0484557 0.047159616 -0.005403921 -0.49739954 0.78531706 -0.36860678 0.0038422411
-0.072847538 0.049681164 -0.0041469871 -0.78782636 -0.24725153 -0.56408894 0.0073305508
-0.071584977 0.049334764 -0.0055973027 -0.67701745 -0.14113773 -0.72230709 0.0051078252
0.049895 0.048482511 -0.0044744723 -0.4895325 0.79409873 -0.36022916 0.0019561215
0.052525256 0.050101053 -0.004708413 -0.47211495 0.79237211 -0.38633385 0.0033852048
0.054519895 0.050876077 -0.0055840593 -0.46228647 0.78371996 -0.41481832 0.0035977988
-0.07519906 0.053649426 -0.0030186868 -0.90714067 -0.1102877 -0.40611863 0.024587603
-0.073447369 0.052550789 -0.0044976482 -0.70807356 -0.18066034 -0.68263727 0.0060306243
-0.071892373 0.052203666 -0.0057991557 -0.65422559 -0.046030365 -0.75489742 0.0080142114
0.055596113 0.052228171 -0.0042505907 -0.45730677 0.79922897 -0.39000461 0.0043351566
0.058233377 0.053433798 -0.0049214428 -0.44478756 0.748285 -0.49217236 0.0075144214
-0.075248346 0.055294249 -0.003307417 -0.80086714 -0.015916444 -0.59863049 0.013718474
-0.073626205 0.055448342 -0.0047765574 -0.6329627 0.057908494 -0.77201355 0.0083335685
-0.071419112 0.056441911 -0.0058467616 -0.24457669 0.24914551 -0.9370746 0.01230174
-0.067231007 0.056943338 -0.0059788832 -0.14966746 0.35420766 -0.92311239 0.0055350582
0.059260149 0.05480336 -0.0037860156 -0.55086696 0.71493685 -0.43059364 0.0045397975
0.061397552 0.055626657 -0.0047192574 -0.47124937 0.71122581 -0.52161467 0.0089261029
0.063942134 0.056527238 -0.0056609022 -0.32249907 0.52924198 -0.78479129 0.0073792716
-0.073358946 0.057675906 -0.0044224965 -0.62261432 0.20774996 -0.75444776 0.015383461
-0.070674129 0.05819745 -0.0052271332 -0.34643394 0.39065307 -0.85286212 0.019949118
-0.068068244 0.05813466 -0.0052414062 -0.19820741 0.30467254 -0.93160528 0.0078021782
0.062434547 0.057346173 -0.0037070655 -0.52338052 0.63023978 -0.57347238 0.010512599
0.064499825 0.058418367 -0.0045260713 -0.47391123 0.5455882 -0.69118863 0.018359538
0.067274541 0.058867112 -0.0055176294 -0.21565776 0.40841794 -0.88695353 0.0068953251
0.069541037 0.059049964 -0.0053658201 -0.25484276 0.31806877 -0.91317439 0.0085449228
0.065251939 0.061056267 -0.0036109525 -0.58246094 0.36199751 -0.72780287 0.011407963
0.067240968 0.061617263 -0.0046063168 -0.39239675 0.27142721 -0.87883562 0.023419673
0.069720067 0.061493296 -0.0048946245 -0.27608651 0.27387229 -0.9212873 0.0077721113
0.065920442 0.063393667 -0.0032893668 -0.83382249 0.2473501 -0.49351588 0.026318429
0.067374639 0.064507373 -0.0039380635 -0.42947412 0.19693103 -0.88134563 0.018595045
0.070304096 0.065087304 -0.0044785179 -0.41432226 0.12703198 -0.90122133 0.008962688
0.06789729 0.067354396 -0.0037987146 -0.56186253 0.11595691 -0.81906319 0.020627113
0.070306525 0.06761995 -0.0044867415 -0.41845852 0.15952946 -0.89411569 0.018489707
0.068164721 0.070250027 -0.0036062084 -0.74192202 0.10287624 -0.66254663 0.035479244
0.070323393 0.070704371 -0.0046030451 -0.40435961 0.0037392119 -0.91459244 0.02355884
0.072771333 0.070457168 -0.0044141612 -0.26282939 -0.015615065 -0.9647159 0.0077828532
0.068372354 0.073196664 -0.0035185872 -0.81665641 0.079510994 -0.57162082 0.032193098
0.070297159 0.073524348 -0.0047171414 -0.42412838 -0.065047354 -0.90326297 0.031208145
0.073198907 0.073703326 -0.0050464747 -0.2980943 -0.032178119 -0.95399392 0.011606159
0.068600774 0.075704083 -0.0035316364 -0.75765777 0.12622853 -0.64032882 0.085629731
0.069993146 0.07570564 -0.00462829 -0.53904903 0.094997942 -0.83689994 0.028380958
0.072159834 0.075129502 -0.0054861163 -0.52321935 -0.079186723 -0.84851104 0.036875375
-0.016128134 0.0027240708 -0.0015426256 -0.24633308 -0.96002418 -0.13294184 0.0012642973
-0.013486679 0.0020880997 -0.001584158 -0.19530411 -0.96987993 -0.14556544 0.0016275184
-0.010521448 0.0014828418 -0.0015446111 -0.16515355 -0.97413027 -0.15425526 0.0026723011
-0.00751126 0.0010092892 -0.0016234594 -0.13428886 -0.97743446 -0.1630592 0.0036735421
-0.0044756401 0.00065990532 -0.0015807509 -0.072059005 -0.9948746 -0.070936598 0.00401435
-0.0014909115 0.0004432275 -0.0017197697 -0.056894615 -0.99596101 -0.069459721 0.0040623541
0.001385025 0.00031663961 -0.0015158083 -0.035871107 -0.9969576 -0.06920097 0.0044126259
0.0043728063 0.00031390414 -0.001730824 0.004665785 -0.99316806 -0.1165992 0.0015667756
0.0074743149 0.0003953657 -0.0017270823 0.034836773 -0.97982192 -0.19681309 0.0040124347
0.010190596 0.00054612057 -0.0015670528 0.078295611 -0.97853726 -0.19061635 0.0032368863
0.013718878 0.00090530457 -0.0017071449 0.11658601 -0.96846771 -0.22017729 0.0022982194
0.016405262 0.0012744992 -0.0018050014 0.13444391 -0.97123557 -0.19653583 0.0016576332
0.019449426 0.0017584566 -0.0017084138 0.17153458 -0.96396512 -0.20334023 0.00048988592
0.022411514 0.0023830361 -0.0020567938 0.19930071 -0.94564849 -0.25695944 0.0014364342
0.024456549 0.0027897581 -0.0014441151 0.21638735 -0.95545 -0.20072845 0.00021923134
-0.024862479 0.0056872359 -0.0015167086 -0.35456699 -0.91862345 -0.17439388 0.00066505541
-0.022484882 0.0047940318 -0.00149363 -0.32115719 -0.93147099 -0.17093807 0.00027319606
-0.019484719 0.0037544882 -0.001601432 -0.29887262 -0.94085246 -0.15959899 0.00059817638
-0.017503187 0.0031699585 -0.0018278937 -0.28703144 -0.94597495 -0.1508119 0.0009934369
0.025828987 0.0031755127 -0.0022909639 0.24724029 -0.93693644 -0.24702699 0.0010007938
0.02826447 0.0038595702 -0.0023970515 0.24799538 -0.93151587 -0.2660383 0.0010514434
0.031553533 0.0047829715 -0.0019213097 0.27228132 -0.92098707 -0.27864987 0.00060568569
-0.031548534 0.0083910963 -0.0015221318 -0.37484029 -0.90029651 -0.22127131 0.00077645411
-0.02852509 0.0071746828 -0.0016941618 -0.35923517 -0.90925014 -0.21027213 0.0010334157
-0.026362143 0.0063053356 -0.0016384604 -0.36265188 -0.90946609 -0.20335959 0.0014146594
-0.039387893 0.01192344 -0.0010537528 -0.44076139 -0.86248416 -0.24869743 0.0024626371
-0.037510522 0.011065882 -0.0015502581 -0.40960905 -0.88289052 -0.22961845 0.0011148414
-0.034479644 0.0096404199 -0.0014160053 -0.39085042 -0.88568217 -0.25060546 0.0016776191
-0.04326177 0.014224518 -0.0014814043 -0.52510047 -0.82890624 -0.19283137 0.0023072115
-0.040693574 0.012733923 -0.0016611115 -0.46841466 -0.85271537 -0.23122324 0.0016141122
-0.048333012 0.017742388 -0.0015027281 -0.5757606 -0.78548878 -0.22695182 0.0012597824
-0.046573393 0.016464991 -0.0015421606 -0.55920172 -0.79488665 -0.23547576 0.0039360002
-0.044734862 0.015235277 -0.0017919404 -0.54646456 -0.80412054 -0.23402287 0.0041731349
-0.051859781 0.020379083 -0.0015706359 -0.59556562 -0.77829027 -0.19891158 0.0016876962
-0.049840324 0.01886891 -0.0015728464 -0.57886934 -0.7797786 -0.23844419 0.0012320023
-0.055310857 0.022973653 -0.0014807937 -0.59893841 -0.78068602 -0.17833146 0.0014567873
-0.053353891 0.021499628 -0.0015997174 -0.5956499 -0.76884162 -0.23255916 0.0035789805
-0.060094677 0.026965212 -0.0014169398 -0.69249249 -0.698322 -0.18110952 0.0005734759
-0.058529522 0.025606664 -0.0015322547 -0.64668399 -0.74052131 -0.18283324 0.00079949887
-0.056770343 0.024192326 -0.0021837417 -0.62391818 -0.7592954 -0.18492308 0.00069060439
-0.063027985 0.029944072 -0.0007913622 -0.74275082 -0.6537959 -0.14447148 0.0011066039
-0.061544761 0.028478689 -0.0014937535 -0.71106142 -0.67778438 -0.18708286 0.00083738437
-0.064248063 0.031485371 -0.0014881736 -0.76004243 -0.63305724 -0.14688076 0.0015081866
-0.062836438 0.030065527 -0.0026460732 -0.7274732 -0.64028484 -0.24661329 0.001391907
-0.06688983 0.034804411 -0.0015033833 -0.80561906 -0.57635099 -0.13710327 0.0024746764
-0.065651804 0.033291306 -0.001773782 -0.78429765 -0.6047619 -0.13834827 0.0016877531
0.022534009 0.035400171 -0.002561488 -0.26044816 0.90548742 -0.33505124 0.00061801844
-0.069417953 0.03836989 -0.0013200452 -0.85059845 -0.51089203 -0.12438487 0.0039952206
-0.068391815 0.036889818 -0.0016531192 -0.8161127 -0.56615424 -0.11588526 0.002523178
0.029582502 0.037693061 -0.0022225175 -0.32879478 0.89009517 -0.31563357 0.0012868375
-0.07055483 0.040479075 -0.0016131242 -0.88440132 -0.44177058 -0.15057607 0.0041313539
0.034716602 0.039824333 -0.0017715344 -0.42506257 0.89762539 -0.11657804 0.0028449125
0.037213068 0.041184418 -0.0014958794 -0.48964718 0.86616272 -0.10003911 0.0024857102
-0.072264157 0.044288829 -0.0012034305 -0.93294853 -0.31199786 -0.17962298 0.0077202045
-0.071661368 0.042915821 -0.0017214674 -0.91097611 -0.38291451 -0.15329398 0.0051842984
0.038817409 0.042114481 -0.0020964635 -0.48256791 0.86895126 -0.1097815 0.002238543
0.04073735 0.043341618 -0.0015506134 -0.51739252 0.84913486 -0.10618357 0.0023850158
0.04285568 0.044707023 -0.001570933 -0.55504972 0.82690954 -0.090224244 0.0023281414
-0.072942071 0.046523351 -0.001592377 -0.93469661 -0.29212612 -0.20249574 0.0076688626
0.04429882 0.045704879 -0.0012352972 -0.52807391 0.84422338 -0.091786876 0.0027415338
0.046565324 0.047133371 -0.0016208061 -0.52927166 0.84033859 -0.11705809 0.0034546484
-0.074084714 0.049560659 -0.0015935107 -0.92273265 -0.32486051 -0.20743705 0.016056197
0.049264349 0.048896156 -0.0017366873 -0.5495944 0.82346857 -0.14087419 0.0026986492
0.051569842 0.050431907 -0.0019482451 -0.52438509 0.83548874 -0.1642527 0.0034094839
-0.075552545 0.052650254 -0.0014000512 -0.93362778 -0.30923456 -0.18086775 0.020323578
-0.074705698 0.051591251 -0.0025122366 -0.83674771 -0.30935112 -0.45183539 0.017600793
0.0533095 0.051725417 -0.0012686634 -0.55811912 0.81043506 -0.17803945 0.0044744979
0.055860672 0.05330129 -0.0017308128 -0.5410701 0.82037407 -0.18501219 0.0046110689
-0.076071486 0.055391923 -0.0016307239 -0.963974 0.0032220115 -0.265977 0.023988979
0.05682113 0.054116495 -0.00063031708 -0.56615031 0.81125414 -0.14608374 0.0032790226
0.058726847 0.05525735 -0.001645354 -0.60081285 0.75417054 -0.26504838 0.0074838246
0.060388166 0.056558691 -0.0015483315 -0.68643862 0.71825206 -0.113649 0.020047927
-0.075509585 0.057292815 -0.0015870001 -0.92111599 0.13959673 -0.36339802 0.025317434
-0.074967027 0.057516482 -0.0026273942 -0.83435965 0.26845098 -0.48143336 0.043650378
0.062063504 0.058269285 -0.0015547279 -0.69297022 0.66918534 -0.26829711 0.023652207
0.063288294 0.059448421 -0.0023048965 -0.75690454 0.60731977 -0.24136735 0.021246091
0.064199768 0.061512675 -0.0016899358 -0.87796193 0.40422484 -0.25648627 0.020160196
0.065183148 0.064489819 -0.0015624135 -0.93252534 0.26757613 -0.24248616 0.041157909
0.066089541 0.065889403 -0.0025998023 -0.93290961 0.20831583 -0.29374164 0.04429229
0.065662071 0.06731692 -0.00096282648 -0.95421392 0.22313005 -0.19922024 0.03701175
0.066429704 0.067721166 -0.0023790356 -0.88128293 0.23127855 -0.41212943 0.026427912
0.066618219 0.070294544 -0.0015486897 -0.9200018 0.16032457 -0.35762092 0.017018536
0.06725616 0.073427387 -0.0016649652 -0.90599293 0.17845377 -0.38383731 0.028739622
0.067665525 0.076062262 -0.0016461731 -0.89599138 0.38738334 -0.21710248 0.067293666
-0.01821572 0.0028623147 0.0023213448 -0.25792271 -0.96615684 0.0040932177 0.0073791607
-0.016437013 0.002562063 0.0015161064 -0.22374305 -0.97464639 0.0018821921 0.0056413226
-0.013587312 0.0019436101 0.0013809711 -0.19793169 -0.9800483 0.018121615 0.001364379
-0.010525896 0.0013988409 0.0014642408 -0.1574371 -0.98654711 0.044027966 0.00097355049
-0.0076217172 0.00097888871 0.0013408327 -0.12084948 -0.99265957 0.0047290404 0.0043331808
-0.0048478665 0.0006780097 0.0012842099 -0.076030359 -0.99411219 0.077203453 0.0010679063
-0.0013331069 0.00043800168 0.00130151 -0.066928886 -0.99768549 0.01201056 0.0042267032
0.0021490944 0.00033933166 0.0013672302 -0.017385939 -0.99806094 0.059766784 0.00084183912
0.0048018182 0.00028485275 0.00098864746 -0.01397158 -0.99831825 -0.056262571 0.0035543668
0.0080425674 0.00039251597 0.0010335854 0.044747259 -0.9951961 -0.087076694 0.0013298217
0.01320493 0.0007866692 0.00066780759 0.10073175 -0.98701757 -0.12509798 0.00089377072
-0.027733171 0.0058124727 0.0020420966 -0.34238514 -0.93866456 -0.04100294 0.013740482
-0.025422903 0.0052825585 0.0015642645 -0.29475549 -0.9507252 -0.096129015 0.0048159291
-0.022519441 0.0043564243 0.0013761147 -0.3165729 -0.94778746 -0.038478129 0.0024754819
-0.019694589 0.0034826682 0.0013366075 -0.30673054 -0.95118576 -0.034088325 0.0031573952
-0.017786795 0.0031184494 0.00030111434 -0.2290265 -0.97065282 -0.073347993 0.001741739
-0.036088724 0.0089914501 0.0019982904 -0.39279914 -0.91022301 -0.13116007 0.0098647419
-0.034234408 0.008473211 0.0016952909 -0.35010979 -0.92986715 -0.1130055 0.0087526646
-0.031466905 0.007588143 0.0013738873 -0.36484957 -0.92420065 -0.11286248 0.0047450126
-0.028759887 0.0066761035 0.001146358 -0.36475396 -0.92125869 -0.13504417 0.0048633609
-0.02659421 0.0062065152 0.00051786995 -0.3411313 -0.93411291 -0.10517859 0.0063000787
-0.042125165 0.011906361 0.0024415837 -0.52956343 -0.83102065 -0.17019743 0.012214456
-0.040221922 0.011269169 0.0016361783 -0.4455997 -0.88398099 -0.14148715 0.01028776
-0.037540805 0.010173174 0.001411199 -0.46280521 -0.86757731 -0.18199152 0.0062051467
-0.034998752 0.0094518652 0.00078071648 -0.39438581 -0.90550548 -0.15658759 0.0088708121
-0.045995869 0.014491957 0.0020078346 -0.52842224 -0.82894176 -0.18337223 0.0068121245
-0.043511808 0.01339349 0.0013877364 -0.53760093 -0.81498516 -0.21629713 0.0091824699
-0.040886283 0.012483814 0.00066279952 -0.45456821 -0.85514688 -0.24918187 0.0047361827
-0.049192648 0.017046368 0.0017526302 -0.61674261 -0.7723881 -0.15180649 0.005434724
-0.046824601 0.015914183 0.0010697037 -0.55156398 -0.80885446 -0.2037932 0.0067958497
-0.044775333 0.015115155 0.00050414301 -0.56907719 -0.79657382 -0.2040132 0.0077032899
-0.054463323 0.020670161 0.002353349 -0.59227037 -0.77808076 -0.2092994 0.0059781666
-0.052401189 0.019665727 0.0016124324 -0.59099901 -0.76951742 -0.24199839 0.0049954853
-0.050244518 0.018654482 0.00089614064 -0.60570592 -0.76681376 -0.21240753 0.0024123073
-0.057512034 0.02335068 0.0022723943 -0.66536981 -0.71912068 -0.20037064 0.0039979918
-0.055582579 0.02236999 0.0014408187 -0.61284167 -0.7537725 -0.23717506 0.0066025397
-0.053462226 0.021401241 0.00069849769 -0.59451878 -0.75914264 -0.26504681 0.0047474215
-0.060439922 0.026503617 0.0019456648 -0.71473503 -0.68778646 -0.12689999 0.00088834862
-0.05872865 0.025127167 0.0014697131 -0.66600126 -0.72568172 -0.17270873 0.0030910089
-0.056834064 0.02404961 0.00027808748 -0.61247504 -0.75389451 -0.23773405 0.0058074477
-0.063229471 0.029678777 0.0022317474 -0.76686585 -0.63602656 -0.085947797 0.00090327777
-0.061851244 0.028316634 0.0015241746 -0.7487523 -0.65209764 -0.11890632 0.00062417774
-0.06451562 0.031493351 0.0015731854 -0.81045783 -0.58446485 -0.039483603 0.001620709
-0.066902265 0.034685966 0.0015550116 -0.82360554 -0.56628323 0.031578463 0.0016858515
-0.065828629 0.033237431 0.0012240402 -0.80497414 -0.59323204 -0.0096034613 0.00086208695
-0.069338419 0.038312454 0.0014084097 -0.86840516 -0.47852403 0.12995099 0.0049537895
-0.068373986 0.036824197 0.0015533761 -0.83895612 -0.54121178 0.056942195 0.0014710596
-0.070543915 0.040478792 0.0013664587 -0.88980293 -0.44534919 0.09957315 0.0019353683
0.035482198 0.040246077 0.00095586281 -0.50729537 0.85826051 -0.077719375 0.0016683157
0.038078193 0.04166038 0.0012832027 -0.49525198 0.8675909 -0.044850584 0.0023493343
-0.072240479 0.044300821 0.0010360888 -0.92832536 -0.30962226 0.2057815 0.0075445804
-0.071619354 0.043063886 0.0017295067 -0.90816242 -0.38124308 0.17290109 0.0046894168
0.040320572 0.043088984 0.0011344337 -0.53534001 0.8433668 0.046298478 0.0006736471
0.04261975 0.044532008 0.0014369143 -0.53751636 0.84178174 0.049795922 0.0006162881
-0.072917029 0.046519376 0.0013172227 -0.91517866 -0.30257216 0.26626691 0.010173981
0.044489462 0.045675691 0.001649459 -0.54272687 0.83990502 0.0026749093 0.0023440896
0.046801105 0.047216564 0.0014025522 -0.56583476 0.82450724 -0.0043362612 0.0015175793
-0.074024208 0.049553871 0.0013649545 -0.88415265 -0.39028326 0.25681344 0.010621724
0.049474988 0.04907788 0.00095360464 -0.56597579 0.82072872 -0.07794746 0.0015189223
0.051812485 0.050669178 0.0012255749 -0.56503141 0.81877553 -0.10171587 0.0019133781
-0.07558772 0.052666206 0.0010014729 -0.94514275 -0.31099415 0.099939138 0.016014647
-0.074700184 0.051654708 0.0021725388 -0.90296638 -0.38896707 0.18263698 0.011794525
0.053871028 0.052048303 0.0013013469 -0.55549783 0.82457215 -0.10725212 0.0019957719
0.05561465 0.053248405 0.00083627284 -0.55675602 0.8237645 -0.10693334 0.0024221379
-0.076051287 0.055263948 0.0013403357 -0.98929989 -0.049619086 0.13719939 0.030635104
0.058752522 0.055351052 0.00094844383 -0.59574413 0.80250448 -0.032794796 0.0094277207
0.06109976 0.056467634 0.0028112773 -0.70223773 0.71054071 0.044655137 0.012139224
-0.075700708 0.057221346 0.00078395562 -0.99906212 -0.0025964344 -0.043222547 0.017070502
0.06188928 0.058048729 0.0011033319 -0.7812978 0.61959875 -0.075307265 0.016126726
0.063313797 0.059623916 0.0013842286 -0.83984357 0.53060973 -0.11452534 0.016283356
0.06414146 0.061550006 0.0010327549 -0.87663317 0.45622361 -0.15288672 0.012704813
0.065110333 0.064398512 0.00097022048 -0.95394677 0.27904737 -0.11008211 0.015621241
0.066058092 0.065670192 0.0019539467 -0.96456093 0.25664759 -0.061271261 0.0096225515
0.065627724 0.067095928 0.00054424815 -0.97683203 0.21093249 -0.036147989 0.010460123
0.066292368 0.068474405 0.0011634902 -0.97684759 0.21085927 -0.03615525 0.01048559
0.066594951 0.070646122 0.00070530298 -0.96747601 0.179151 -0.17859201 0.018054191
0.067197904 0.073472828 0.00089991814 -0.93696737 0.30035865 0.17854074 0.039973706
0.067756847 0.07599853 0.0012472234 -0.88082767 0.47232166 0.032479785 0.061397552
-0.01834796 0.0029535878 0.0031068816 -0.270998 -0.95893455 0.08369346 0.0040524453
-0.016133672 0.0026654936 0.003864438 -0.20412129 -0.95384121 0.22027561 0.011444611
-0.013256413 0.0021778122 0.0040754876 -0.16838486 -0.94457042 0.28183895 0.0041240128
-0.010203381 0.001726345 0.004100549 -0.15230945 -0.97421473 0.16645549 0.0040944628
-0.0074064285 0.0013551696 0.0039759553 -0.10882802 -0.98985863 0.091303729 0.00089619722
-0.0047370638 0.0011534304 0.0041312259 -0.08594051 -0.98996896 0.112142 0.00070323638
-0.0019860677 0.00086022273 0.0035796056 -0.068769895 -0.99351746 0.090519294 0.00073814532
0.00027929555 0.00078697409 0.0035351943 -0.042537447 -0.99616933 0.076402143 0.00086862204
-0.027510185 0.0059131905 0.0035937428 -0.33764851 -0.92442226 0.17730498 0.016905949
-0.025326651 0.0054302658 0.0042852787 -0.28048044 -0.94258392 0.18129057 0.01358161
-0.02243311 0.0045244154 0.0043184273 -0.29821202 -0.91429108 0.27411926 0.0059756874
-0.019454338 0.0037404941 0.0045308662 -0.2675195 -0.92530453 0.26878396 0.0056377524
-0.016724788 0.0032408217 0.0050348253 -0.20679216 -0.91763216 0.33939382 0.003982727
