# .PCD v0.7 - Point Cloud Data file format
VERSION 0.7
FIELDS x y z normal_x normal_y normal_z curvature
SIZE 4 4 4 4 4 4 4
TYPE F F F F F F F
COUNT 1 1 1 1 1 1 1
WIDTH 575
HEIGHT 1
VIEWPOINT 0 0 0 1 0 0 0
POINTS 575
DATA ascii
0.025310369 0.035564039 0.0049670828 -0.28298369 0.8987686 0.33486605 0.0024320856
0.027265131 0.035941951 0.0056084869 -0.29121724 0.90327573 0.31509578 0.0028599489
0.068739899 0.033945039 0.005229421 0.8434546 -0.36382601 0.3952404 0.00270511
0.069592766 0.03486336 0.0042445664 0.86688352 -0.33736658 0.36701074 0.0028279119
-0.027052069 0.038869679 0.0058416892 0.40049419 0.8479985 0.34713534 0.0036591953
-0.025177743 0.038468819 0.0046689799 0.38555735 0.88307405 0.26744291 0.0018095588
-0.022504382 0.037465643 0.0045098704 0.32176924 0.90793651 0.26854411 0.0011456874
-0.019772016 0.036541715 0.0042794337 0.31535226 0.90766376 0.27694657 0.0021205039
-0.017828353 0.036144048 0.00342139 0.27034917 0.92778152 0.2571629 0.001954736
0.026037684 0.036224503 0.0036518485 -0.29013795 0.93160099 0.21895091 0.00056863291
0.02844598 0.036755376 0.0044862893 -0.30211416 0.902309 0.3075152 0.0026552451
0.031449657 0.037782852 0.0045925411 -0.36599204 0.86849838 0.33430594 0.0031832505
0.033794958 0.038659684 0.0048840963 -0.42448249 0.85438108 0.29974589 0.0023221551
0.070361674 0.037491862 0.0045462553 0.87895727 -0.22322761 0.42143038 0.0026149522
-0.033297941 0.041846007 0.0057085818 0.42871648 0.83334357 0.34891352 0.0037367577
-0.031322598 0.041255068 0.0046483837 0.41340658 0.86402738 0.28731808 0.0021572527
-0.028555099 0.039987635 0.0045429496 0.39287972 0.87907791 0.2699399 0.002059157
-0.026399257 0.039240774 0.0039137248 0.37088445 0.89011645 0.26483461 0.0018891541
0.035109468 0.039494984 0.0043450296 -0.3995477 0.85593361 0.32823676 0.0038243921
0.037590623 0.0407799 0.0045842812 -0.45329732 0.83844322 0.30254671 0.0024190196
0.039493904 0.041757703 0.0049932175 -0.51278758 0.80495441 0.29849187 0.0020687196
0.070999175 0.040474094 0.0045831315 0.90638101 -0.15242462 0.3940053 0.0025466704
-0.039086848 0.044976309 0.0053561595 0.45667732 0.8386429 0.2968567 0.0025446247
-0.03732704 0.044276446 0.0047040782 0.43885738 0.8465637 0.30122095 0.0026069742
-0.034538027 0.042918164 0.0044271238 0.43008807 0.86109638 0.27117777 0.0021577319
-0.032600857 0.042148046 0.0038532349 0.43033281 0.85803151 0.28034905 0.0021165267
0.040778235 0.042782363 0.0043725283 -0.48981589 0.814533 0.31083187 0.0023808752
0.043306179 0.044234268 0.0047622458 -0.50188768 0.79643774 0.33733624 0.0031575586
0.071350895 0.043517191 0.004665561 0.89153492 -0.091424704 0.44362932 0.0025492366
0.072109461 0.044485826 0.0030750693 0.97024065 -0.094008304 0.22314909 0.004160068
-0.045018259 0.047900539 0.0059224833 0.43360674 0.80699593 0.40092731 0.0047231629
-0.043045428 0.04733061 0.0048012692 0.47376886 0.82985371 0.29476407 0.0016654587
-0.040495154 0.046054207 0.0044941674 0.45250008 0.84141171 0.2954151 0.0024785565
-0.038453862 0.045252781 0.0035743117 0.44670376 0.8513034 0.27520597 0.0017748316
0.04433969 0.04531642 0.0037312778 -0.50794113 0.820427 0.26247925 0.0052466644
0.046530262 0.046353951 0.0045681368 -0.51396763 0.78658259 0.34223562 0.0028056337
0.04865028 0.047465023 0.0050516385 -0.52223969 0.7818017 0.34066367 0.0022906607
0.071429826 0.046537571 0.0047808685 0.87635797 -0.0059837988 0.4816232 0.0026915616
0.072122827 0.046513915 0.0033064075 0.91073996 -0.027885498 0.41203782 0.0031541078
-0.048960306 0.050458685 0.0049338872 0.45714504 0.82617086 0.32933277 0.0024081839
-0.046560835 0.049356133 0.0045316769 0.43191525 0.83593786 0.33861071 0.0022378077
-0.044313394 0.048349004 0.0039629154 0.45312318 0.8291688 0.32735083 0.0026335048
0.049933352 0.04857545 0.0044444078 -0.49664453 0.78734094 0.36529249 0.0027165788
0.052325286 0.049989566 0.004743136 -0.47248423 0.7749449 0.41978455 0.0036531184
0.054333027 0.050895244 0.0053882161 -0.47941175 0.77401286 0.41360426 0.0039201328
0.071287714 0.049502075 0.004954956 0.85828853 0.037173051 0.5118193 0.0032678358
0.072138995 0.049480155 0.0033067451 0.89628977 0.0084987301 0.44338757 0.0034261609
-0.057655707 0.053801358 0.0058446582 0.25135168 0.77438915 0.58064079 0.0019806777
-0.05515825 0.053408653 0.0049515907 0.35458305 0.85327101 0.38236028 0.0030546356
-0.052462745 0.052411303 0.0045556873 0.39629686 0.83512187 0.38147107 0.0027320243
-0.050116908 0.051438462 0.0040654847 0.42715049 0.83709168 0.34178945 0.0023580214
0.053592276 0.051353496 0.0036928076 -0.50174034 0.77397406 0.386291 0.0022168488
0.055660285 0.052228324 0.0044119479 -0.4527522 0.78838712 0.41648671 0.0038600049
0.058169585 0.05335512 0.0050337999 -0.41912782 0.73603874 0.53158152 0.0063409237
0.060285755 0.053948451 0.0058877412 -0.43820554 0.66407686 0.60578698 0.0052569276
0.07118129 0.052483432 0.0048395405 0.8261919 0.069972739 0.55902666 0.0047995094
0.072108202 0.052643459 0.0032740291 0.8670001 0.026037741 0.49762723 0.0043102661
-0.072791606 0.055829234 0.0055563073 -0.26930133 0.50636566 0.81918901 0.037723608
-0.071493387 0.056761812 0.0058811442 -0.081557535 0.46445644 0.88183248 0.010548448
-0.067461535 0.056920879 0.0059121596 0.10575202 0.5813368 0.80676144 0.005445485
-0.064187989 0.056398433 0.0053614168 0.26706183 0.71701217 0.64387232 0.0062903729
-0.061452348 0.055793896 0.0045636431 0.31883547 0.7980774 0.51128906 0.0086450521
-0.058515642 0.054772157 0.0045221322 0.26213139 0.85124153 0.45461515 0.0034385829
-0.056095794 0.054326676 0.0038383582 0.31159273 0.88528359 0.345229 0.0023866808
0.059283804 0.054657549 0.0041221217 -0.50384349 0.69638717 0.51106423 0.0039361604
0.061382592 0.05557609 0.0048251417 -0.41636631 0.69420648 0.58712566 0.0047816718
0.06386853 0.056621715 0.0055609173 -0.30239561 0.58441436 0.75300521 0.010677488
0.068990067 0.05686732 0.0058970321 0.52467191 0.26770657 0.80811673 0.0119089
0.070805043 0.055563759 0.0048228186 0.76237744 0.1001206 0.63934058 0.0062890011
0.072113827 0.055508405 0.0031904131 0.81840825 0.033692408 0.57364857 0.0059094066
-0.072779424 0.058213394 0.0046222229 -0.37784147 0.71161622 0.59231591 0.02740041
-0.07026796 0.058519147 0.005070704 -0.10162138 0.6392529 0.76225245 0.01685385
-0.067466214 0.058547337 0.004574792 0.2169622 0.68343914 0.69702101 0.0049253921
-0.064725906 0.057899047 0.0040087076 0.36636695 0.72499049 0.58323574 0.0077833263
-0.062573239 0.057143997 0.0034021768 0.4201721 0.7355476 0.53143674 0.0065102079
0.06241408 0.057500247 0.0036339897 -0.55608737 0.58811218 0.58727401 0.006947835
0.064597972 0.05839048 0.004658584 -0.48026279 0.4813084 0.73327345 0.017161626
0.067589894 0.058684435 0.0054623084 -0.042476755 0.40106979 0.91506219 0.014754022
0.070555203 0.058435947 0.004511273 0.5837189 0.19143529 0.78906584 0.018390663
0.072071657 0.058087163 0.0031525858 0.74018055 0.020864336 0.67208439 0.0067535238
-0.069899395 0.06008118 0.0034010757 -0.11188682 0.82502395 0.55391061 0.023847084
-0.068318702 0.060169205 0.0032818697 0.046617586 0.84841275 0.52727854 0.035491046
0.065324396 0.061153632 0.0036451276 -0.50025302 0.27967536 0.81946844 0.0068541598
0.0676075 0.061478727 0.0044961963 -0.18446556 0.24046554 0.95296836 0.026598817
0.07051082 0.061428621 0.0039592781 0.36904824 0.12861039 0.92046875 0.01755478
0.072124958 0.062463969 0.0030343595 0.82281679 0.0076793814 0.56825483 0.02756053
0.065546617 0.063036114 0.003039802 -0.52960277 0.2711516 0.80373979 0.0064473278
0.067688704 0.064404786 0.0037128772 -0.23384492 0.21599948 0.94797724 0.0092555191
0.070397764 0.064451069 0.0035664153 0.23742421 0.074902162 0.96851403 0.018516671
0.072169274 0.064844638 0.0031305449 0.67952871 -0.063591473 0.73088771 0.038267601
0.068236746 0.067304656 0.0032475051 -0.29190847 0.10796908 0.9503327 0.012816375
0.070328623 0.067427978 0.0033738716 -0.063579328 0.068950422 0.995592 0.010981887
0.072538242 0.067692883 0.0033050848 0.48645315 -0.11283372 0.86639017 0.0313663
0.068838 0.06926351 0.0030420683 -0.22064534 0.042275678 0.97443748 0.011217833
0.070440158 0.070489638 0.0035680179 -0.066963635 -0.0092879152 0.99771208 0.029787436
0.073184401 0.070503533 0.0036188036 0.34042421 -0.23728904 0.90983802 0.023633869
0.070752397 0.073420174 0.0042424663 -0.24975121 0.18029132 0.95137757 0.078202784
0.073651962 0.073545583 0.00437258 0.41347876 0.21048488 0.88585067 0.088213585
0.075453587 0.07388512 0.0033956771 0.75217164 -0.01617858 0.65876859 0.084353603
0.070678756 0.076132275 0.0040987739 -0.10871237 0.53846395 0.8356064 0.069991536
0.073333606 0.075547464 0.0041079242 0.29295918 0.7714203 0.56487662 0.068846002
0.075223543 0.075020701 0.0033693276 0.73302823 0.4499515 0.51011103 0.10052906
0.029001992 0.0074882088 0.0087659806 0.20008367 -0.66491103 0.71962482 0.00011558802
0.031893492 0.0082238168 0.0087219868 0.19629227 -0.65217566 0.73221326 0.00015067669
0.035614263 0.0095937392 0.0089201136 0.20790772 -0.61820138 0.75802469 0.0003728891
0.042318638 0.012162386 0.008670426 0.28768823 -0.62527859 0.72543919 0.00019569961
0.052972656 0.018271377 0.0084223198 0.48153332 -0.63574934 0.60328138 0.0032381236
0.055500031 0.019666374 0.0077172667 0.52130765 -0.64637649 0.55716765 0.0019414807
0.057455152 0.020540046 0.0068066823 0.54139459 -0.64715999 0.53672689 0.0018322914
0.058849219 0.022706106 0.0078703919 0.58675826 -0.59930873 0.54455847 0.0023596683
0.06055709 0.023736905 0.0071826177 0.59799469 -0.58455253 0.5483619 0.0022243578
0.061669234 0.025584284 0.0077902647 0.62764138 -0.54039264 0.56039464 0.0023151177
0.06364958 0.026410721 0.0062105502 0.67563432 -0.53731585 0.50478691 0.0014571991
0.0021053692 0.029971922 0.0088794287 0.045078598 0.78260249 0.62088752 0.001234595
0.0042152414 0.029893316 0.0089360541 0.0087410165 0.78236312 0.62276125 0.0011015915
0.0072210417 0.029929664 0.0088835945 -0.029268369 0.77667814 0.62921733 0.0014643219
0.062656753 0.027618513 0.0085460674 0.64947015 -0.47551015 0.59336209 0.0019744355
0.064261779 0.028542059 0.0074233413 0.68966258 -0.47144708 0.54963923 0.0024434342
0.066145569 0.029738832 0.0060162991 0.74854922 -0.48412609 0.453096 0.0047994419
-0.015245274 0.032934699 0.0089616189 0.25073433 0.77124548 0.58507496 0.0013139438
-0.013110309 0.032686338 0.0084197791 0.22367305 0.81526297 0.53415042 0.00048680283
-0.010361299 0.032327887 0.0078925518 0.19073643 0.85074258 0.48975158 0.001500729
-0.0075083855 0.031944592 0.0075159469 0.15928245 0.86549848 0.47491205 0.0013922513
-0.0044803126 0.031462181 0.0075342185 0.1210739 0.86626667 0.48468873 0.0030044408
-0.0014972093 0.03108966 0.0075462218 0.086580768 0.86520416 0.49388814 0.0020108887
0.0014670922 0.030923016 0.0074443552 0.045087278 0.87022829 0.49058113 0.0021651385
0.0045082164 0.030841753 0.0074417996 0.0073569445 0.87000293 0.49299169 0.0021998577
0.0075022397 0.030882809 0.0074008205 -0.035771318 0.86817485 0.49496752 0.0022822721
0.010522532 0.030984601 0.007548227 -0.080288664 0.86179578 0.50086099 0.0022542265
0.013517356 0.031329606 0.007566947 -0.14261198 0.84376192 0.51742405 0.0022646599
0.016471755 0.031866748 0.0075760502 -0.18665943 0.85400087 0.48563445 0.001675015
0.019311525 0.032343097 0.0079715615 -0.2127437 0.83204311 0.51229328 0.0016853141
0.0220157 0.032720558 0.0085261809 -0.23152258 0.76755023 0.59771562 0.0011252313
0.065167993 0.031092806 0.0082560144 0.67467546 -0.3607513 0.64394993 0.0014193746
0.066596426 0.031925853 0.0070765973 0.736058 -0.39222649 0.55170381 0.0024030728
-0.022156598 0.035576753 0.0084229168 0.30840266 0.82898325 0.46655601 0.0017114873
-0.019408565 0.03505059 0.0075851334 0.30865401 0.84979254 0.42730004 0.0012874339
-0.016504401 0.034149557 0.007495123 0.24360052 0.84960252 0.4677974 0.0019727633
-0.013644921 0.033533927 0.007150521 0.22994341 0.85791594 0.45946303 0.0020415115
-0.010845134 0.033237439 0.0064045917 0.19359162 0.8718648 0.44985998 0.0016929561
0.019806262 0.033284537 0.0065793418 -0.22307333 0.85592514 0.46650872 0.0016627549
0.022677958 0.03371517 0.0072140098 -0.23965476 0.84164983 0.48393297 0.0020447797
0.025566226 0.034388654 0.0075578657 -0.25350586 0.81454831 0.52177173 0.0018835461
0.028351825 0.035134021 0.0078366576 -0.29793492 0.82993573 0.47163695 0.0013821868
0.031008812 0.035636801 0.0085440343 -0.29706743 0.75362492 0.58634496 0.0011966981
0.065914974 0.033438329 0.0087632723 0.68017095 -0.28575826 0.67506278 0.0043523652
0.067426361 0.03444808 0.0075037908 0.76206207 -0.2838856 0.58195394 0.0019455457
0.06910982 0.035934236 0.0060267779 0.80399501 -0.30928558 0.5078724 0.0090574501
-0.030329935 0.038753547 0.0088670747 0.37763715 0.75576192 0.53498977 0.0016226273
-0.028200358 0.03841031 0.0078174872 0.3563596 0.81535262 0.45629817 0.0017338791
-0.02548754 0.037340689 0.0076011503 0.32785293 0.83527517 0.44139317 0.0022153202
-0.022683134 0.036580868 0.006926659 0.31878814 0.84398717 0.43134651 0.0017815452
-0.020596795 0.036152959 0.0062087663 0.32362133 0.8522048 0.41111583 0.0014992954
0.029282965 0.036219824 0.0065159737 -0.28763643 0.83994037 0.46017966 0.0015102726
0.031729273 0.036679022 0.007265924 -0.31532153 0.82155138 0.47500071 0.0023113899
0.03448965 0.037709154 0.0074848281 -0.38140288 0.81620431 0.43398437 0.001657026
0.036951836 0.038352787 0.0083881756 -0.39539391 0.71463603 0.57702595 0.0017435525
0.068138935 0.037438132 0.0079115136 0.7548458 -0.19447975 0.62640679 0.0020938483
0.069376662 0.037922919 0.0065315301 0.79490542 -0.21927886 0.56572258 0.0024723751
-0.036372956 0.041673463 0.0088347914 0.38383383 0.74782306 0.54169375 0.0021576127
-0.034286 0.041301239 0.0077565806 0.41122049 0.80409569 0.4293341 0.0011848439
-0.031540971 0.040115952 0.0074928161 0.36898714 0.80779606 0.45968914 0.0015233896
-0.029184356 0.039348848 0.0068813176 0.38904232 0.8206811 0.4184837 0.0013589342
0.035733297 0.039129697 0.0060316091 -0.41731513 0.788468 0.45184773 0.00089692074
0.037788134 0.039723344 0.0070064301 -0.42695481 0.76757532 0.47805628 0.0022656678
0.040430345 0.040887415 0.007604464 -0.44927874 0.74406093 0.49449158 0.0029298665
0.042693336 0.041616406 0.0084802806 -0.41519326 0.6765632 0.60817498 0.0011582925
0.068385176 0.040592898 0.0084178085 0.75265324 -0.10626566 0.6497851 0.0028303589
0.069633581 0.04071201 0.0069663157 0.7959891 -0.12617625 0.59201419 0.0024082088
-0.042344604 0.044808164 0.0086747995 0.39864379 0.75502408 0.52059764 0.0010814535
-0.040191326 0.044203218 0.0078933034 0.39049348 0.7836737 0.48308417 0.0019490939
-0.037540343 0.043124352 0.0074288198 0.38595128 0.79173952 0.47348729 0.0013839158
-0.035310168 0.042395975 0.0066875773 0.42134333 0.80217957 0.42305759 0.0012806543
0.041700855 0.042275928 0.0066529838 -0.45075399 0.74073738 0.49812555 0.0026446669
0.043744296 0.043069746 0.0073364624 -0.44211951 0.738325 0.5093196 0.0028411576
0.046326403 0.044128243 0.0080194613 -0.40763283 0.72232503 0.55864298 0.002715339
0.048161458 0.044734836 0.0086060064 -0.36310059 0.69215983 0.62375695 0.0035634248
0.068449736 0.043620553 0.008626909 0.63839054 -0.014142229 0.76958263 0.0033171934
0.069816291 0.043589033 0.0071107 0.78386503 -0.048151691 0.61906129 0.0028412088
-0.048561905 0.047805015 0.0087905647 0.33716476 0.70670366 0.62200475 0.00086958881
-0.046121944 0.0472693 0.0078940187 0.40584594 0.7716952 0.48966891 0.0011992366
-0.043561831 0.046243552 0.0074453135 0.38495335 0.76850879 0.51108235 0.0014420316
-0.0409941 0.045326579 0.0067284484 0.43011838 0.79301178 0.43142855 0.0017807926
0.047114063 0.045542277 0.0067548817 -0.45108584 0.73868835 0.50086021 0.0023404518
0.04954946 0.046447512 0.0074749095 -0.39532325 0.73510635 0.55076146 0.0017077764
0.0521967 0.047345635 0.0082499348 -0.36611867 0.69054198 0.62378597 0.002616924
0.068408415 0.046599161 0.008560081 0.58463019 0.0768741 0.80764961 0.0044200076
0.069912381 0.046498828 0.0070468793 0.74886888 0.031518701 0.66196823 0.0041885311
-0.069315813 0.048430935 0.0077517163 -0.3396306 0.22422114 0.91344178 0.0074499324
-0.067842849 0.050329216 0.0083868615 -0.29549745 0.27307925 0.91548294 0.0061345417
-0.054896984 0.050671879 0.0086103324 0.22548828 0.67971212 0.69795871 0.0016558605
-0.052273061 0.050189387 0.0079026576 0.32703543 0.75546283 0.56773573 0.0028652784
-0.049559265 0.049270742 0.0074696243 0.35440198 0.77629417 0.52131224 0.0015069993
-0.04713238 0.048504356 0.0068170377 0.40665323 0.77031314 0.49117288 0.0018790001
0.05056889 0.04802433 0.0062128073 -0.41828886 0.71772486 0.55669153 0.0022857282
0.052867375 0.04876592 0.0070734099 -0.4113594 0.70414513 0.57875997 0.0025049187
0.05539269 0.049704779 0.0076173865 -0.35016641 0.69169736 0.63161564 0.0021978437
0.0583058 0.050329946 0.0084125055 -0.27261588 0.65233308 0.70720726 0.003303454
0.060798738 0.050779629 0.0088556074 -0.14987387 0.58434325 0.7975468 0.0048364936
0.065935448 0.050777089 0.0089347195 0.2937564 0.28020352 0.91388905 0.013277705
0.067889549 0.04970251 0.0083866436 0.41288406 0.23426506 0.88014019 0.0053552962
0.069796212 0.049567033 0.0069339573 0.68685037 0.099839762 0.71990871 0.0061836578
-0.069853768 0.05286378 0.007137503 -0.19743976 0.2463984 0.94884425 0.0062171584
-0.067152798 0.052700371 0.0079992302 -0.14074163 0.38410357 0.91250002 0.0056118332
-0.06452997 0.05273265 0.0082094269 -0.041709911 0.49405935 0.8684271 0.012414061
-0.061501015 0.052843846 0.0079573337 0.098884195 0.64012814 0.76187795 0.0028901242
-0.058456834 0.052607939 0.0076285959 0.17983276 0.72066909 0.66954929 0.0029259485
-0.055583235 0.052006841 0.0073340377 0.27407187 0.75221646 0.59921199 0.0026844388
-0.052817825 0.05141443 0.0066196728 0.36076516 0.7697562 0.52661544 0.0014791023
0.056338686 0.051318306 0.0063940384 -0.40382981 0.70684153 0.58077246 0.0024643145
0.058713648 0.051959634 0.0070629474 -0.31808561 0.67224789 0.66850907 0.0017057869
0.061497405 0.052495148 0.0077304873 -0.19705261 0.60390186 0.77231658 0.0026374841
0.064452402 0.052595817 0.0082284864 -0.00032313145 0.45901227 0.88842988 0.0078882007
0.067493558 0.052464902 0.0077957599 0.35846964 0.26353398 0.89557207 0.0077830139
0.069639243 0.05245642 0.006599905 0.6671778 0.16131732 0.72722113 0.0091920998
-0.070217445 0.055694841 0.0064127203 -0.091590025 0.42753831 0.89934546 0.0069478671
-0.067449465 0.055510007 0.0067252163 0.0029342605 0.48001039 0.87725794 0.0084506935
-0.064602539 0.054975703 0.0067023202 0.15379113 0.61022961 0.77715385 0.0087825945
-0.061718047 0.054457698 0.0064118528 0.19054648 0.71754056 0.66994596 0.0057534529
-0.059588321 0.05410574 0.0061587179 0.23211542 0.74221087 0.62868553 0.0043917811
0.062272027 0.054529846 0.0064437189 -0.33180135 0.6123032 0.71762991 0.0064857332
0.064699873 0.055267911 0.0067533501 -0.1578383 0.48756579 0.85870057 0.011813424
0.067528434 0.055432741 0.0067282426 0.15296608 0.32496986 0.93327165 0.026623713
0.069388308 0.054836147 0.0062406519 0.57056707 0.20328692 0.79569322 0.01118079
0.067292221 0.057227045 0.0060944431 0.098112077 0.40210035 0.91032374 0.030633396
0.0049130595 0.0060854307 0.011908928 0.050689429 -0.51285088 0.85697985 0.00077758293
0.014709694 0.0073046149 0.011995456 0.10942028 -0.52840328 0.84191281 0.00073196599
0.015630512 0.0069550611 0.011548904 0.10585109 -0.5527842 0.82657433 0.00038066943
0.019116966 0.0077622044 0.011643863 0.14117189 -0.59355444 0.7923153 0.00082405168
0.02261992 0.007621598 0.0105848 0.17972057 -0.63706058 0.74956942 0.00069149153
0.026582973 0.0078552766 0.0096957823 0.19485278 -0.66026103 0.72531903 0.00025204761
0.028731273 0.0085938899 0.0098843379 0.19881801 -0.65700823 0.72719425 0.00025140686
0.02343205 0.0091800382 0.01194899 0.17745882 -0.5860725 0.79058683 0.0023674509
0.026091045 0.0095999688 0.011615971 0.18802109 -0.65521872 0.73166692 0.00050350197
0.029269822 0.0099196443 0.010931253 0.20227808 -0.63019091 0.74962854 0.0010603649
0.031709779 0.010497992 0.010792882 0.19832042 -0.63329279 0.7480703 0.00040363998
0.034381751 0.010828511 0.010393037 0.20792583 -0.61820138 0.75801975 0.00037031592
0.037053313 0.011299306 0.010053419 0.21634348 -0.60865474 0.76337075 0.0002371185
0.039028212 0.01114324 0.0091923932 0.24989884 -0.6178894 0.74549526 0.00054881052
0.034807485 0.01249083 0.011574749 0.202185 -0.57975453 0.78930718 0.001015064
0.038020294 0.013197184 0.011261893 0.22215407 -0.58051389 0.78335893 0.00040846667
0.040677771 0.013512287 0.01067571 0.25783965 -0.59722054 0.7595039 0.00085707387
0.043518972 0.014109269 0.010057746 0.27620655 -0.5924288 0.75679457 0.001078247
0.045532469 0.01456113 0.0095425574 0.31232059 -0.60347837 0.73366863 0.00064210739
0.041620739 0.015385003 0.011799142 0.25068676 -0.58147514 0.77397859 0.0012264982
0.043761175 0.015915254 0.011418469 0.27989888 -0.54343176 0.79141551 0.0012294963
0.046627 0.016429218 0.010618432 0.31817424 -0.56335664 0.7624923 0.00062517828
0.049358062 0.017119067 0.0097860144 0.38131374 -0.5868898 0.71425503 0.00086117315
0.051459368 0.017774209 0.0090887388 0.43432873 -0.65247995 0.62098992 0.0051116506
0.047801457 0.018237974 0.011521657 0.34083578 -0.56054795 0.75472975 0.0011218247
0.049782701 0.019174421 0.011244388 0.35737032 -0.52320337 0.77365667 0.0015163795
0.05224923 0.019992627 0.01053934 0.40734875 -0.55230975 0.72733825 0.00088313199
0.054810699 0.020426614 0.0092575019 0.49466285 -0.59072256 0.63746011 0.00081801257
0.05295917 0.021897502 0.011502735 0.38210019 -0.46544719 0.79834729 0.0012729581
0.055325642 0.022587454 0.010610588 0.45553383 -0.52134097 0.72159028 0.002087523
0.057783354 0.0233931 0.0095329629 0.50652355 -0.53111213 0.67923027 0.0029524721
0.056256931 0.024925528 0.011540071 0.41351143 -0.40744695 0.81424522 0.0011113434
0.05855 0.025646817 0.010534696 0.50641763 -0.46186742 0.72816181 0.0024754794
0.060559262 0.026182277 0.0094011324 0.55659276 -0.48988327 0.67098355 0.0011272428
-0.012325779 0.029822882 0.011790645 0.19995417 0.69838494 0.68722397 0.0039070905
-0.010243977 0.029574733 0.011514741 0.17717284 0.70905089 0.68253678 0.00046674043
-0.0074086916 0.029252162 0.011181922 0.14267589 0.75462419 0.64045757 0.0017558142
-0.004437536 0.029014597 0.010884465 0.11279072 0.75746101 0.6430639 0.0013186723
-0.0014984191 0.028796574 0.010687029 0.082627423 0.75974065 0.64495486 0.001134971
0.0014823048 0.028648866 0.01054996 0.047224659 0.76291507 0.64477164 0.0011993606
0.0045401379 0.028557785 0.010543268 0.017511386 0.73630536 0.67642272 0.0027234801
0.0075142276 0.028513854 0.010595442 -0.016851572 0.73876107 0.67375672 0.0027385596
0.01050215 0.028672753 0.010615537 -0.069792531 0.74695385 0.66120267 0.0014352263
0.013460144 0.028871903 0.010785036 -0.11138275 0.74105692 0.66213936 0.0017249116
0.016426027 0.029140906 0.011057175 -0.14931843 0.72953361 0.66744637 0.0019916177
0.019316465 0.029460376 0.011441256 -0.17348032 0.70667094 0.68594515 0.0017183896
0.022017505 0.029808965 0.011805752 -0.18841237 0.67869991 0.70983601 0.0017596029
0.059001569 0.028078401 0.011550947 0.4583067 -0.35767427 0.81364864 0.0014304438
0.061354615 0.028551232 0.010211039 0.56965292 -0.40899113 0.71289682 0.0017145148
0.063104093 0.029246708 0.0091895927 0.61839968 -0.42940864 0.65817165 0.0022798548
-0.021715162 0.032793339 0.011866249 0.26946491 0.67812103 0.68376935 0.0010274793
-0.019297889 0.032369718 0.011379922 0.25515771 0.71999806 0.64536607 0.0005036841
-0.016412247 0.031896722 0.010794858 0.23848364 0.76229006 0.60169715 0.0013509229
-0.013535907 0.031302772 0.010464234 0.20030412 0.76270509 0.61494642 0.0025877478
-0.010561388 0.030848861 0.010126519 0.18253273 0.76483142 0.61783069 0.0014906959
-0.0076423637 0.030549506 0.0097005796 0.14860699 0.77520061 0.61398697 0.001568386
-0.0046985145 0.030280227 0.00941341 0.11371458 0.7820456 0.61275917 0.0013204509
-0.0017217566 0.030060401 0.0091788135 0.081806973 0.78217667 0.61766261 0.0012369845
0.011850397 0.030091882 0.0091361795 -0.076865315 0.75994045 0.64543188 0.0014590791
0.013854707 0.030227145 0.0093314955 -0.11987682 0.76408911 0.63387489 0.0016314581
0.016646696 0.030524569 0.0095931366 -0.16384527 0.75002342 0.64079612 0.0018359971
0.019569311 0.030940462 0.0099601857 -0.19734463 0.73284668 0.65114588 0.0016292307
0.022561466 0.031341884 0.010410948 -0.20903213 0.72198957 0.65957308 0.0026469796
0.025447717 0.031818587 0.010850789 -0.21907638 0.69778782 0.68198073 0.0031293051
0.028307507 0.032325707 0.011284203 -0.22795446 0.70378524 0.67284691 0.0019434739
0.030896867 0.032766916 0.011739782 -0.23199609 0.66434729 0.71050721 0.0022029339
0.059654836 0.030010067 0.011991637 0.47453418 -0.35643914 0.80484068 0.0020371296
0.061699305 0.031349212 0.011225865 0.51195574 -0.29567662 0.80652136 0.0011880774
0.063928664 0.031725448 0.009777938 0.61550027 -0.33987945 0.7110846 0.0018361039
-0.028007079 0.0356066 0.011578496 0.30612326 0.677737 0.66855145 0.001014274
-0.025297018 0.035092492 0.010842131 0.30343542 0.74837661 0.58979607 0.0012038146
-0.022544021 0.034255367 0.010501012 0.27898201 0.73108727 0.62263983 0.0010877132
-0.019710105 0.033657867 0.0099664591 0.27155358 0.76621044 0.58239186 0.0013282967
-0.017282026 0.033242229 0.0093897516 0.24836136 0.77910948 0.57559109 0.0011772326
0.025980441 0.033296369 0.009384254 -0.23974255 0.74681723 0.62031239 0.0012715623
0.028804189 0.033794422 0.0099043753 -0.25609705 0.7251249 0.63922459 0.0016400215
0.031606864 0.034308393 0.01043091 -0.26210272 0.70944995 0.65420407 0.0028075529
0.034385789 0.034928214 0.010937499 -0.28537434 0.63775939 0.71541905 0.0022428846
0.037025254 0.035413202 0.011629174 -0.30524799 0.64217031 0.70316505 0.0025618144
0.062477138 0.034132935 0.011632758 0.47744945 -0.20120917 0.85531098 0.0023180647
0.0644162 0.03453901 0.010416034 0.57044578 -0.25336397 0.78127992 0.0015029277
0.066246279 0.035089415 0.0091218557 0.65583217 -0.26299745 0.70761323 0.0018669533
-0.03415386 0.038486578 0.011511451 0.3227829 0.67051142 0.66800117 0.0010482299
-0.031344783 0.037854999 0.010701003 0.32943785 0.74005038 0.58634132 0.0011944453
-0.028585823 0.037010442 0.010192868 0.33100134 0.75529236 0.56566024 0.0019770123
-0.025986221 0.036324635 0.0095907608 0.32180914 0.76684123 0.55533183 0.0010477409
0.034731086 0.036444355 0.0094619645 -0.32146981 0.71092367 0.62549555 0.0019183775
0.037691016 0.037099428 0.01034055 -0.34280992 0.67555225 0.65277135 0.0030087484
0.040330052 0.037835423 0.011017822 -0.34465191 0.60552543 0.7173242 0.0023076739
0.042933851 0.038522899 0.011648261 -0.30942625 0.60495859 0.7336759 0.0024728205
0.062711254 0.036213182 0.011933781 0.50849634 -0.11285216 0.85363674 0.0028353634
0.064503245 0.037477948 0.011032936 0.53722316 -0.12942323 0.83345121 0.0011326817
0.06663049 0.03780517 0.0095457034 0.65622783 -0.17088217 0.73495871 0.0023058087
-0.040203173 0.041423749 0.011455079 0.31493536 0.65464181 0.68721163 0.001152446
-0.037401877 0.040731922 0.010708782 0.33668038 0.72494489 0.60091692 0.001281778
-0.034645356 0.03992667 0.010070842 0.35300025 0.73109579 0.58385766 0.0013123389
-0.032317571 0.03928348 0.0094435904 0.35868949 0.75491798 0.54903609 0.001176675
0.040920604 0.039647929 0.0095675532 -0.39352906 0.67813444 0.62070006 0.0020389154
0.043628633 0.040321667 0.010419132 -0.3589288 0.62802494 0.69047439 0.0025332605
0.04626086 0.040936831 0.011157642 -0.30001587 0.56204569 0.77077574 0.0013995853
0.048874792 0.041580483 0.011693106 -0.26017916 0.57300627 0.77715552 0.002511289
0.064685203 0.040520515 0.011234989 0.44511122 0.0084312139 0.89543557 0.005154287
0.06692861 0.040729493 0.0097507341 0.62121612 -0.074739739 0.78006697 0.0031706064
-0.06651219 0.044501364 0.0097466698 -0.41337475 0.16235682 0.89596969 0.0015949969
-0.063688368 0.043473892 0.011507947 -0.34096694 0.19130096 0.92040509 0.0035759166
-0.048507217 0.044694144 0.011902976 0.22047718 0.64278865 0.73362976 0.0020817982
-0.046257138 0.044325802 0.011360882 0.28421333 0.67623937 0.67964929 0.0017537352
-0.043363955 0.043685261 0.010626983 0.3211537 0.70290715 0.63465101 0.0013394634
-0.04068784 0.042905968 0.010045467 0.35209036 0.713117 0.60621494 0.0014922052
-0.038216066 0.042262245 0.0093116015 0.37324262 0.73996693 0.55958819 0.0013663686
0.044687249 0.042145845 0.0092550842 -0.40649414 0.6817323 0.60827923 0.0012432153
0.046805423 0.042741057 0.0098686935 -0.36549285 0.63372129 0.6817714 0.0021935457
0.049510844 0.043484908 0.010463042 -0.325324 0.58080202 0.7462126 0.0021926737
0.052408304 0.043879699 0.011248181 -0.24175712 0.52641732 0.81513083 0.0014746831
0.055463903 0.044416148 0.011714712 -0.17130579 0.46454182 0.86882401 0.0025934274
0.0584068 0.044830661 0.011904836 -0.035778735 0.38152894 0.92366421 0.0041610557
0.062150288 0.044174347 0.011833547 0.14550975 0.242091 0.95928037 0.0053265062
0.064525448 0.043524813 0.011180461 0.37996414 0.122743 0.91682136 0.0054581324
0.066959463 0.043533526 0.0098317564 0.57342607 0.033542607 0.81857044 0.0042189364
-0.066076785 0.046729293 0.0099109495 -0.37322682 0.22037351 0.90118659 0.004817599
-0.064364761 0.046653893 0.010739338 -0.34624049 0.23425043 0.90842956 0.0053162603
-0.061631534 0.046944439 0.01155227 -0.19353139 0.33921051 0.92058784 0.0074941148
-0.058450744 0.047456305 0.011693019 -0.0063047437 0.4814266 0.87646377 0.0029568558
-0.055324104 0.047340538 0.011553151 0.1142982 0.54875737 0.82813108 0.0025355155
-0.052374538 0.046980698 0.01118211 0.20024244 0.60071868 0.77397674 0.0013348565
-0.049484935 0.046507455 0.010586534 0.25612989 0.64526153 0.71974647 0.00094268942
-0.046671964 0.045903128 0.0099388445 0.33321422 0.71693999 0.61234403 0.0011517947
-0.044372067 0.045263164 0.0094271479 0.36484468 0.71798885 0.59277344 0.001477038
0.050401557 0.04534566 0.009268417 -0.36756796 0.65975547 0.6554513 0.0020826494
0.052728027 0.04600355 0.0097784791 -0.31618562 0.61789674 0.71988213 0.0022945781
0.055436514 0.046487492 0.010397515 -0.24059077 0.53716862 0.80843431 0.002488489
0.058544032 0.046503913 0.011073288 -0.082468569 0.4511193 0.88864523 0.0044606067
0.061504655 0.046513565 0.011185347 0.07320787 0.3580443 0.93083024 0.0064630634
0.064497694 0.046493981 0.010639835 0.3059974 0.2509563 0.91836077 0.0083291465
0.066903196 0.046468601 0.0096079893 0.50662541 0.14371727 0.85010362 0.0059407051
-0.06650652 0.048787292 0.0093763284 -0.34537837 0.248531 0.9049564 0.0084596006
-0.064335003 0.049626086 0.0098574227 -0.23510154 0.37102363 0.89837009 0.0037932233
-0.061448794 0.04965777 0.010307952 -0.10231765 0.47474608 0.8741551 0.0061172652
-0.058498591 0.049559973 0.010360261 0.097876921 0.59123486 0.80053818 0.0023460474
-0.055577733 0.04936729 0.010026636 0.17990769 0.64605546 0.74178541 0.0025069956
-0.052638743 0.048788257 0.0096278554 0.26008397 0.68917763 0.67630661 0.0019808221
-0.050506465 0.048202045 0.0093928445 0.31290543 0.69022274 0.65244365 0.0020952446
0.056174513 0.048365917 0.0092824418 -0.29300535 0.61725777 0.73016489 0.0025422571
0.058580201 0.04891092 0.0096192975 -0.19308564 0.55600923 0.80843782 0.0045708418
0.061572094 0.049378492 0.0098282285 -0.046501689 0.46554694 0.88380069 0.0056582168
0.064491346 0.049479309 0.0096722981 0.13549104 0.32538366 0.93582463 0.0098791113
0.066615999 0.048938949 0.0092464341 0.41577816 0.23741788 0.8779301 0.0055564293
-0.063531406 0.051223207 0.0092206271 -0.14776935 0.46008575 0.8754915 0.0069515626
-0.061374594 0.05137099 0.0092123356 0.014789099 0.61006743 0.79221147 0.0040281541
-0.058822729 0.051159084 0.0091705937 0.12684999 0.66905838 0.73230457 0.0020798424
0.064333439 0.051055335 0.0090502286 0.079069205 0.4263719 0.90108544 0.011554238
-0.0071421615 0.0076962938 0.013294695 -0.011218184 -0.52790248 0.84923089 9.4677569e-05
-0.0042390521 0.0079559311 0.013537348 0.002801493 -0.51985675 0.85424882 0.0002370314
-0.0015679282 0.0079928441 0.013584501 0.0087778084 -0.50850213 0.86101604 0.0004613912
0.0015999812 0.0079036271 0.013449828 0.045381233 -0.51275694 0.8573336 0.00077295362
0.0048303227 0.0081771454 0.01350831 0.04927874 -0.50917619 0.85925037 0.00098069501
0.0075517469 0.0078557488 0.013100865 0.046945009 -0.50718772 0.86055607 0.00095928321
0.010567039 0.008004453 0.01299763 0.086286746 -0.50777245 0.85715914 0.00082652876
0.013129938 0.0081071723 0.012808904 0.08793775 -0.51561338 0.85229677 0.00095092854
0.0162037 0.0086163785 0.012809738 0.10068233 -0.53347522 0.83980197 0.00091471802
0.018335668 0.0082636485 0.012223572 0.14117138 -0.59355336 0.79231626 0.00082432543
-0.018777523 0.010910209 0.014606277 -0.056842197 -0.41482565 0.90812373 0.0016813424
-0.014648188 0.010340612 0.014696373 -0.054755226 -0.46354493 0.88437998 0.00042459546
-0.01087064 0.0099843796 0.014713098 -0.010575852 -0.46131042 0.88717574 0.001146437
-0.0075220927 0.0093807131 0.0144757 -0.0089211259 -0.46983299 0.88271022 0.0014631579
-0.0040766597 0.0098628551 0.014775107 -0.00088378345 -0.47179452 0.88170809 0.0019183181
-0.0017616628 0.0094269952 0.014500541 0.021939887 -0.45211214 0.89169121 0.0017724026
0.0013879277 0.0097095845 0.014570693 0.031715762 -0.43830317 0.89826745 0.0015331848
0.0044894442 0.010125858 0.014651307 0.04791449 -0.44065541 0.8963967 0.0016461529
0.0076235319 0.010198904 0.014503756 0.060311697 -0.44128394 0.89533842 0.0015967389
0.010451216 0.010379372 0.014413173 0.059876971 -0.43401447 0.89891392 0.0018876416
0.013436715 0.010656013 0.014292414 0.078499019 -0.45230919 0.88839984 0.0010586855
0.016513482 0.010708568 0.014025102 0.095088109 -0.4761351 0.87421596 0.0017329197
0.01945273 0.010398899 0.013483194 0.12448664 -0.50503463 0.85407442 0.00081059028
0.022435391 0.010727772 0.01324472 0.13101734 -0.5237779 0.84171915 0.0033532663
0.025363257 0.011141906 0.012979289 0.17610028 -0.51309496 0.84007275 0.0019928517
0.028235372 0.011343017 0.012497067 0.1790538 -0.60102749 0.7789132 0.0018593896
0.014836556 0.012051982 0.014830442 0.082380228 -0.40585575 0.91021681 0.0012506759
0.016743621 0.012520522 0.014840147 0.086734556 -0.3298088 0.94005489 0.0022554325
0.019597 0.01291256 0.014717963 0.10264678 -0.35987285 0.92733765 0.0019856161
0.022531055 0.013224361 0.014513082 0.10854091 -0.39016259 0.91432601 0.0014716842
0.0254409 0.013604205 0.014315423 0.12995386 -0.41624597 0.89991742 0.0014747457
0.028566292 0.01346275 0.013746031 0.16638272 -0.4823162 0.8600511 0.0036220185
0.03160309 0.013762717 0.013329384 0.18027176 -0.49899647 0.84764647 0.002477458
0.034376688 0.013989073 0.012808478 0.1903732 -0.54730856 0.81499165 0.001056495
0.037096322 0.014422854 0.012355306 0.21095242 -0.54821694 0.80929422 0.00037804115
0.026244009 0.0153055 0.014897184 0.10011544 -0.26661405 0.95858949 0.0021115076
0.028706171 0.015694248 0.014743806 0.12019319 -0.319617 0.93989283 0.002652473
0.031473491 0.016300483 0.0146206 0.13793837 -0.37774637 0.91557664 0.0022672552
0.034493525 0.016540311 0.014252959 0.16461518 -0.42221674 0.89142299 0.001802025
0.037622709 0.016525101 0.01357325 0.19927867 -0.46377435 0.86325049 0.001566675
0.040461425 0.016725892 0.012923012 0.2239268 -0.49632299 0.83876121 0.00058370194
0.043400872 0.017291227 0.012438974 0.2578012 -0.51143616 0.81973875 0.0013038192
0.04527355 0.017702175 0.012119257 0.29007977 -0.53322524 0.79468524 0.0010869291
0.035055067 0.018350206 0.014911742 0.12178063 -0.264723 0.95660394 0.0030933162
0.037607875 0.018849066 0.014710197 0.169576 -0.3400709 0.92498422 0.003306072
0.040572625 0.019551005 0.014404065 0.20142987 -0.39931649 0.89441168 0.0016010262
0.043541681 0.019476026 0.013573682 0.24095523 -0.42722332 0.8714475 0.0011355198
0.046425428 0.019590423 0.012780395 0.27638865 -0.45575768 0.8461054 0.0011937667
0.048741881 0.020127641 0.012306579 0.32650888 -0.47709212 0.81595045 0.0017327963
-0.00424685 0.0238645 0.014906835 0.10089015 0.51382196 0.85194379 0.0013321124
-0.0013401967 0.023531696 0.014814915 0.074013427 0.4331736 0.89826643 0.0023124064
0.0015818579 0.023406671 0.0146756 0.048523873 0.44359881 0.89491087 0.0022447037
0.004403397 0.023298016 0.014623097 0.020932708 0.44489413 0.89533842 0.0022480672
0.0074129212 0.023147156 0.014659188 -0.0057265232 0.43800974 0.89895201 0.0023199893
0.010434255 0.023315288 0.014630197 -0.031921577 0.42037371 0.9067893 0.002533098
0.013425088 0.023391975 0.014722308 -0.05614562 0.39089549 0.91872102 0.0028931473
0.016204108 0.023620693 0.014822224 -0.071683407 0.34645981 0.93532199 0.0032223389
0.01865644 0.023832828 0.01494761 -0.079383798 0.29142436 0.95329434 0.0029960216
0.041481316 0.021233588 0.014885156 0.15448858 -0.23690765 0.95917046 0.0043118983
0.043634668 0.021901809 0.014658754 0.21598563 -0.32124373 0.92203724 0.0023597174
0.046464674 0.022571331 0.014158206 0.25163275 -0.3599939 0.89837933 0.00068870618
0.04946737 0.022540592 0.013219401 0.29722565 -0.3991178 0.86738795 0.00065554027
0.052213293 0.023022547 0.01247324 0.3450402 -0.41817033 0.84028614 0.0011762672
-0.015477369 0.026848421 0.014955772 0.18265474 0.55592537 0.81091577 0.0011752619
-0.013173795 0.026495429 0.014697389 0.1663211 0.49972829 0.85006404 0.0021393651
-0.010407872 0.026095713 0.01442569 0.14858541 0.52420199 0.8385312 0.0015452655
-0.0074266735 0.025722291 0.014173028 0.12629943 0.53980762 0.83225965 0.0011195999
-0.0045059994 0.025535703 0.01388596 0.10316521 0.54512686 0.83198172 0.0010469441
-0.0015331737 0.025553087 0.013553394 0.075803913 0.54424471 0.83549464 0.001116335
0.0015098645 0.025573403 0.013303765 0.049941689 0.59855849 0.79952085 0.0016294761
0.0045241378 0.025510976 0.013226248 0.028336061 0.57155538 0.82007402 0.0027782216
0.0074716196 0.025525978 0.013214967 -0.014398816 0.584548 0.81123143 0.0016558091
0.010503427 0.025640875 0.013255714 -0.049177885 0.57726479 0.81507474 0.0019963668
0.013492423 0.025535893 0.013544713 -0.07355877 0.50552106 0.85967296 0.0012385279
0.016483275 0.025497908 0.013868004 -0.098653011 0.48578718 0.86849201 0.0013438615
0.019495819 0.025612636 0.014194926 -0.11409809 0.46243089 0.87928343 0.0014929464
0.022409433 0.02586071 0.014483012 -0.12049522 0.42478585 0.89723903 0.0022404359
0.02533403 0.026284976 0.014674111 -0.12364696 0.37362957 0.91929996 0.0030901402
0.028123133 0.026693679 0.014862154 -0.11308495 0.2989741 0.94753695 0.0036428606
0.046939731 0.024651067 0.014799896 0.21329466 -0.24311499 0.94625604 0.0026391107
0.049482767 0.025538957 0.014380624 0.27374917 -0.29188058 0.91644269 0.0010449721
0.052471768 0.02546417 0.013391635 0.32102227 -0.34007329 0.88390881 0.000797346
0.055192892 0.025838263 0.012501975 0.37836781 -0.36553121 0.8504262 0.0014057691
-0.021817192 0.029645709 0.014676128 0.22114512 0.5870713 0.77874392 0.001284453
-0.019295899 0.029042093 0.014399549 0.21301273 0.55037016 0.80729073 0.0012457847
-0.016435344 0.02865389 0.013922337 0.19804767 0.57352102 0.7948904 0.00094742415
-0.01350284 0.028492689 0.013297184 0.18922216 0.63980311 0.7448805 0.0016431909
-0.010535452 0.028123504 0.012940926 0.15977143 0.65175611 0.74140888 0.0012419985
-0.0075159501 0.027728844 0.012680155 0.1358577 0.66255802 0.73658639 0.001501081
-0.0045841434 0.027520297 0.01240155 0.10484624 0.67252594 0.73260909 0.0014599055
-0.0015638812 0.027291877 0.012221252 0.076652028 0.682836 0.72653943 0.0014871918
0.0012563434 0.027145058 0.012104358 0.049606062 0.69154644 0.72062665 0.0015350127
0.0042689531 0.027080327 0.012027395 0.0086426204 0.69014609 0.72361845 0.0013441043
0.0087466938 0.027068269 0.01207684 -0.022925774 0.68913215 0.72427291 0.0014491735
0.01080341 0.027177438 0.012107607 -0.054956123 0.67482227 0.73593116 0.0012714026
0.013750566 0.027321873 0.012296788 -0.088277683 0.65586859 0.74969554 0.0016629444
0.01658929 0.027574642 0.012504137 -0.1237428 0.62894094 0.76754218 0.0021131183
0.019668989 0.028059764 0.012689903 -0.14756745 0.59846169 0.78744358 0.0020249321
0.022588294 0.028341245 0.013054235 -0.16308481 0.56834477 0.80646604 0.0019554195
0.025485152 0.028637355 0.01343518 -0.17138559 0.51036698 0.84270555 0.0030505569
0.02848429 0.028580254 0.014031017 -0.14684618 0.45209107 0.87980103 0.00166811
0.031387892 0.028630868 0.014484513 -0.1452117 0.41077715 0.90009761 0.0022810225
0.034316387 0.02917525 0.014682658 -0.14035633 0.34175223 0.92924994 0.0034902007
0.037042972 0.029605987 0.014886235 -0.11428241 0.26000884 0.95881957 0.0029149845
0.050277125 0.027979309 0.014834833 0.2150647 -0.16948907 0.96177995 0.0033043546
0.05257497 0.02852956 0.014324373 0.28119132 -0.22655232 0.93252635 0.0011854067
0.055522542 0.028497828 0.01330849 0.33377358 -0.2695474 0.90329361 0.0016371249
0.057944793 0.028973324 0.012464355 0.41537184 -0.31372949 0.85383832 0.0021638109
-0.055268761 0.032448996 0.014815375 -0.27781647 -0.022929141 0.96036047 0.0012521138
-0.028219372 0.032417286 0.014551521 0.25186101 0.59946895 0.7597388 0.0011529955
-0.025366237 0.031806502 0.014078561 0.23838674 0.57941043 0.77939409 0.0010780797
-0.022514658 0.031426162 0.01344996 0.2402252 0.63542318 0.73384547 0.0020075473
-0.019616904 0.030960457 0.012931289 0.23611367 0.675421 0.69861066 0.0010290901
-0.016852008 0.030443422 0.012553372 0.21880582 0.69588661 0.68400717 0.0013463802
-0.014677703 0.030076889 0.012252444 0.17454071 0.68865204 0.70377123 0.0029466613
0.025933893 0.030416725 0.012300572 -0.18708324 0.63608831 0.74859303 0.0017872258
0.028624404 0.030868089 0.012612807 -0.187122 0.59449482 0.78202379 0.0024817421
0.031637602 0.03137137 0.013005011 -0.1964408 0.55357295 0.8093009 0.0024037394
0.034541722 0.031479828 0.013610849 -0.19237417 0.45519847 0.86935985 0.0018351993
0.037444625 0.031470086 0.014211866 -0.17041363 0.40027365 0.90041119 0.0021600705
0.040409211 0.031796854 0.014585861 -0.15079448 0.33914405 0.92857009 0.002366646
0.043440245 0.032326408 0.014822727 -0.1227463 0.2652528 0.95633376 0.0027470163
0.046074688 0.032806888 0.014958533 -0.066856369 0.22833721 0.97128379 0.0014379047
0.052602392 0.031556319 0.014795449 0.13380024 -0.019224849 0.99082184 0.003157665
0.055484299 0.031542715 0.014073624 0.27163148 -0.13777572 0.95248842 0.002680856
0.058508199 0.031575747 0.012975607 0.39143494 -0.233649 0.8900488 0.00084303785
0.060398608 0.032442331 0.012337293 0.46388167 -0.23462349 0.85426313 0.0017509342
-0.056253076 0.034714058 0.014798183 -0.27249306 -0.0038505991 0.9621501 0.0021132983
-0.036838755 0.035836488 0.014819296 0.23016123 0.53242248 0.81458712 0.001144406
-0.034351461 0.035266288 0.014463634 0.25305644 0.54402775 0.79999769 0.0012698319
-0.031421565 0.034661576 0.01389751 0.27418897 0.58681357 0.76188588 0.0010246912
-0.028673077 0.034321953 0.013142416 0.28907108 0.63186967 0.71915126 0.0018819971
-0.025850561 0.033713989 0.012615469 0.27734715 0.68681097 0.67184019 0.0010878539
-0.023589615 0.033161681 0.012243193 0.26377577 0.69401377 0.66990101 0.00060607016
0.034822837 0.0334596 0.012398559 -0.23144311 0.60599202 0.76105702 0.0029135826
0.037681397 0.034010306 0.012900685 -0.24425302 0.53237987 0.81050116 0.0033164141
0.040503349 0.034548707 0.013382162 -0.22258227 0.46828741 0.85508126 0.002708924
0.043463584 0.034534149 0.014060769 -0.1719275 0.36865142 0.91352993 0.0015341216
0.046471372 0.03449022 0.01452429 -0.068660572 0.27860507 0.95794833 0.0021991641
0.049460422 0.034611799 0.014737556 -0.0088591715 0.18168075 0.98331767 0.0017188003
0.052432463 0.034594204 0.014724712 0.030234672 0.15085344 0.98809367 0.0021596961
0.05538249 0.034518585 0.014366578 0.19186559 -0.0020641678 0.98141909 0.0043518501
0.058414303 0.034532722 0.013538131 0.31570476 -0.076714016 0.94575125 0.0026256859
0.061078496 0.034655858 0.01248728 0.42218971 -0.1476067 0.89440942 0.0028714212
-0.058125854 0.037879627 0.014245676 -0.27802911 0.071691461 0.95789361 0.0013687948
-0.05617857 0.037521135 0.014957088 -0.22186276 0.085478894 0.97132397 0.0027238841
-0.04514141 0.038918797 0.014980813 0.14733997 0.50478792 0.85057634 0.0038708358
-0.043042105 0.038535882 0.014777593 0.1916537 0.52013797 0.83230132 0.0012649208
-0.040337272 0.038014308 0.014380435 0.23395182 0.53719008 0.81036615 0.0013756026
-0.03745243 0.037620455 0.013714244 0.2667549 0.58689243 0.76446009 0.0012452184
-0.034683853 0.037189726 0.013027919 0.30046573 0.65237629 0.69579124 0.001129796
-0.032029543 0.036539979 0.012521997 0.30765045 0.6614421 0.68399233 0.0018302493
0.040978212 0.03646487 0.012401406 -0.27777931 0.56494445 0.77696615 0.002780203
0.04362423 0.03716813 0.012803148 -0.23893644 0.48917148 0.83882093 0.0034526861
0.04647468 0.037599266 0.013301057 -0.18849182 0.41934833 0.8880415 0.0029665255
0.049517505 0.037486557 0.013896177 -0.10798271 0.31618267 0.94253284 0.0023280163
0.052537087 0.037537429 0.014148721 -0.030289024 0.25922608 0.96534157 0.0033674175
0.055545058 0.037492912 0.01409808 0.086232819 0.18647991 0.97866702 0.0054562893
0.05856305 0.037520632 0.013606313 0.25051233 0.047546275 0.96694517 0.0050690244
0.061408475 0.03754352 0.012667575 0.35849145 -0.034683384 0.93288851 0.0032091632
-0.060804244 0.040700309 0.013064186 -0.27628261 0.18196476 0.94369316 0.0016716507
-0.058024727 0.040620122 0.014116275 -0.23714128 0.18858954 0.95299417 0.0018044116
-0.055447828 0.040808644 0.014601122 -0.15775427 0.27047709 0.94971353 0.006962725
-0.052481521 0.041201416 0.014662599 0.021758685 0.38413745 0.92301947 0.0029288509
-0.049351085 0.041049205 0.014512715 0.11541808 0.45682442 0.88203746 0.0021462652
-0.046463381 0.040658776 0.014216572 0.17080249 0.52478939 0.83392006 0.0015882887
-0.043486256 0.040542129 0.013494364 0.24660002 0.56507409 0.78732437 0.0012049344
-0.040635381 0.040030077 0.012930615 0.28483179 0.63492256 0.7181533 0.0012155704
-0.038132485 0.03948414 0.012413228 0.30509934 0.66947091 0.67729092 0.001168828
0.046980336 0.039597061 0.012376416 -0.2512885 0.52141076 0.81546611 0.0026477333
0.049662132 0.040277444 0.012680113 -0.18985046 0.45625684 0.86935985 0.0029878251
0.052470207 0.040519018 0.013086488 -0.11971589 0.37673053 0.91855443 0.0031859423
0.055497136 0.040495068 0.01338106 -0.0039449306 0.29085964 0.95675755 0.0035516259
0.058504742 0.040520184 0.013250134 0.13271034 0.19689317 0.97140157 0.0046709063
0.061522495 0.040526241 0.012592989 0.26176459 0.1216629 0.95743275 0.0026813385
0.063105986 0.040362306 0.012035199 0.42112681 0.031296678 0.90646166 0.0031014406
-0.061112899 0.043581229 0.012643881 -0.25283852 0.25337064 0.933743 0.0036449647
-0.058358815 0.043678131 0.013320119 -0.1697586 0.29344466 0.94078279 0.0046439716
-0.055524286 0.043541744 0.013646896 -0.033442784 0.39421663 0.91840887 0.0036687735
-0.052498605 0.043557994 0.013518685 0.093986064 0.4828206 0.87066114 0.0013782864
-0.049582813 0.043430433 0.013115806 0.18452522 0.54044819 0.82089347 0.002675843
-0.046619128 0.042887472 0.012723248 0.23921327 0.6038208 0.76037985 0.0020106018
-0.044004954 0.042333227 0.012251549 0.28083158 0.64185381 0.71355259 0.0013907211
0.052916467 0.042441264 0.012255663 -0.1922435 0.48917979 0.85073233 0.0025221875
0.055640649 0.042939514 0.012467013 -0.097792454 0.40739477 0.90800118 0.0033905839
0.058564138 0.043362785 0.012462164 0.044737954 0.30869371 0.95010883 0.0036299797
0.061203387 0.043157663 0.012280763 0.16299151 0.25909325 0.9520002 0.0056403736
-0.060708679 0.045752708 0.012203399 -0.21926421 0.36154729 0.90620452 0.0073146387
-0.058389932 0.045923185 0.01245697 -0.079471648 0.42107537 0.90353745 0.003558693
-0.055479001 0.045858022 0.012508363 0.049455602 0.50385427 0.86237174 0.002930796
-0.052702978 0.045548871 0.012341368 0.14877135 0.56926793 0.80857974 0.0031285561
-0.050900195 0.045162667 0.0122314 0.18272704 0.60989374 0.77112937 0.0012584059
-0.018983506 0.011665718 0.015062084 -0.056844182 -0.41482642 0.90812325 0.0016812175
-0.013664576 0.01163605 0.015556643 -0.058889136 -0.39467111 0.91693336 0.0019681191
-0.010294276 0.011228379 0.015488249 -0.010574065 -0.46131 0.88717604 0.0011470504
-0.0073052854 0.011334839 0.015576445 0.0011886341 -0.44657224 0.89474672 0.0018519631
-0.0047683208 0.011087193 0.01543959 0.016487513 -0.42057475 0.90710801 0.0017482346
-0.001534926 0.011200734 0.015414583 0.031363659 -0.40129042 0.9154138 0.0015455298
0.0015923618 0.011455572 0.015407439 0.035514437 -0.3957909 0.91765368 0.0016395095
