# .PCD v0.7 - Point Cloud Data file format
VERSION 0.7
FIELDS x y z normal_x normal_y normal_z curvature
SIZE 4 4 4 4 4 4 4
TYPE F F F F F F F
COUNT 1 1 1 1 1 1 1
WIDTH 559
HEIGHT 1
VIEWPOINT 0 0 0 1 0 0 0
POINTS 559
DATA ascii
-0.025392007 0.022575492 -0.016594034 0.0038667077 -0.086243391 -0.99626654 0.0066634947
-0.022435879 0.022560269 -0.016540909 0.051579375 0.094607674 -0.99417752 0.007161004
-0.019496972 0.022558652 -0.016382217 0.065738827 0.1520199 -0.98618877 0.0045534321
-0.016461665 0.022671415 -0.016122518 0.072583012 0.19846472 -0.97741669 0.0031877544
-0.013507964 0.022494124 -0.015880203 0.078170292 0.2394132 -0.96776581 0.0027497879
-0.010559251 0.022540359 -0.01558864 0.075039245 0.2785961 -0.95747232 0.0028174291
-0.0075363931 0.022216126 -0.015450323 0.065410145 0.31609896 -0.94646871 0.0027178808
-0.0045808358 0.02191221 -0.015373093 0.043647565 0.34775144 -0.93657023 0.0025378857
-0.001606447 0.021799454 -0.015284112 0.027369449 0.37524575 -0.92652118 0.0026042394
0.0015119424 0.021773556 -0.015234052 0.0066859177 0.39207101 -0.91991061 0.0026138907
0.0045600133 0.021644089 -0.015306228 -0.019643947 0.39803478 -0.91716003 0.0025861494
0.0074788062 0.021897566 -0.015303801 -0.040560197 0.39687937 -0.91697413 0.0026179093
0.010582233 0.022034183 -0.015427874 -0.059106551 0.38835445 -0.91961253 0.0025934316
0.013586299 0.022286629 -0.015564482 -0.080621496 0.36380059 -0.92798126 0.0023891006
0.01654893 0.022503456 -0.015775528 -0.095190234 0.33875698 -0.93604618 0.0019992185
0.019513734 0.022586143 -0.016094781 -0.10214286 0.3129808 -0.94425094 0.0025831419
0.022504739 0.022536542 -0.016474919 -0.098280258 0.28430596 -0.9536829 0.0031723559
0.02553484 0.022578605 -0.016797891 -0.094284646 0.24478039 -0.9649834 0.0041758688
0.028617201 0.022504751 -0.017080385 -0.071133278 0.19405366 -0.97840858 0.0052935104
0.031675871 0.022556033 -0.017259561 -0.041066229 0.1369115 -0.98973167 0.0070901946
0.034731679 0.022556636 -0.017329907 0.0038289363 -0.00092238461 -0.99999225 0.0035394568
0.037627257 0.022537587 -0.017243184 0.056928638 -0.14118266 -0.98834538 0.0070356764
0.040563188 0.022514584 -0.016966492 0.11371315 -0.20273362 -0.9726091 0.0050543286
0.043587353 0.022454722 -0.016432645 0.22527452 -0.29479387 -0.92862695 0.0016946878
0.046383061 0.022596637 -0.015758459 0.28553578 -0.34830549 -0.89283401 0.0013957313
0.048752803 0.023363952 -0.015282592 0.34046057 -0.37347004 -0.86290604 0.002605658
-0.043063417 0.026307441 -0.015202451 -0.22854237 -0.29229254 -0.92861915 0.0011292937
-0.040146533 0.025880093 -0.015801072 -0.18309845 -0.25133976 -0.95042264 0.0024196547
-0.037233625 0.025558883 -0.016255781 -0.12121633 -0.19616501 -0.97304982 0.0041246521
-0.034457859 0.025533492 -0.016553001 -0.098264143 -0.13796791 -0.98555011 0.0081809452
-0.031420533 0.025618924 -0.016651602 -0.0056664539 -0.047633018 -0.99884886 0.0071080616
-0.028337313 0.025587428 -0.016565826 0.041672744 0.13033378 -0.99059403 0.005315769
-0.025443198 0.025503805 -0.016362838 0.076762438 0.20315829 -0.97613227 0.0048267348
-0.02244428 0.025579823 -0.016035339 0.092095457 0.25474766 -0.96261215 0.0031689494
-0.019516669 0.025510564 -0.015668754 0.13803332 0.3335101 -0.93258661 0.0017877747
-0.016598379 0.025063768 -0.015437323 0.11578935 0.36744836 -0.92280793 0.0028730398
-0.013733536 0.024453405 -0.015276926 0.12272537 0.41556183 -0.90124738 0.0024923177
-0.011003072 0.024192389 -0.015024965 0.10569935 0.40028688 -0.91027361 0.00067592552
0.017268213 0.024100108 -0.015169756 -0.11999235 0.50221318 -0.85637826 0.0016636447
0.0197128 0.024630919 -0.015267569 -0.13297531 0.47139892 -0.87183744 0.0021571117
0.022624359 0.025003256 -0.015553009 -0.13359757 0.43922856 -0.88838619 0.0025429805
0.025583828 0.025553564 -0.015781667 -0.15770337 0.41098931 -0.89789611 0.0015424037
0.028501451 0.025540275 -0.016248658 -0.14967091 0.3707515 -0.91659254 0.0017681413
0.03149179 0.025520939 -0.016664665 -0.10242348 0.2988452 -0.94878924 0.0034990632
0.034498662 0.02548817 -0.016986715 -0.069583409 0.24381472 -0.96732235 0.0045183087
0.037431188 0.025489131 -0.017164705 -0.028833553 0.17708485 -0.98377317 0.0063271229
0.040447433 0.025506223 -0.017173344 0.028558586 0.0330192 -0.99904656 0.0042861481
0.04340563 0.025480805 -0.016979879 0.13612409 -0.1170309 -0.98375499 0.0082770968
0.04646872 0.025437793 -0.016493889 0.1849639 -0.17171705 -0.96762681 0.0046864641
0.04949348 0.025562285 -0.015742866 0.25652751 -0.22661968 -0.93959421 0.0029336326
0.051712736 0.026333919 -0.01524716 0.34752092 -0.30371213 -0.88712353 0.0029013213
-0.045501631 0.02899782 -0.015390741 -0.21429779 -0.22454548 -0.95060807 0.0011072373
-0.043335389 0.028721256 -0.015803866 -0.18478535 -0.17748396 -0.96661979 0.0039646025
-0.040514495 0.028750051 -0.016282145 -0.12458543 -0.11310431 -0.98574132 0.0055598533
-0.03762887 0.028568299 -0.016522836 -0.059967428 -0.038434852 -0.99746007 0.0093341358
-0.034531772 0.028599245 -0.016507963 0.030400498 0.14531134 -0.98891884 0.005211534
-0.031449929 0.028553223 -0.016289141 0.075163357 0.22044323 -0.97249943 0.0040518297
-0.028483825 0.028469231 -0.015946282 0.12212167 0.28858775 -0.9496333 0.002888303
-0.025628544 0.028390372 -0.015528369 0.14141276 0.35695055 -0.92335737 0.0028120507
-0.022692109 0.027760653 -0.015299803 0.15122248 0.42139423 -0.89418042 0.0031215101
-0.020706184 0.027277621 -0.015157677 0.1621713 0.47614405 -0.86428434 0.0023078516
0.026954534 0.027537281 -0.015013559 -0.19472484 0.53300333 -0.82340133 0.0020437327
0.02860523 0.027599422 -0.015330783 -0.16211888 0.45032862 -0.87802142 0.00085659669
0.031651806 0.02820397 -0.015596719 -0.15720832 0.44463646 -0.88180721 0.0026947823
0.034599945 0.028456094 -0.015999474 -0.13863508 0.38277635 -0.91337973 0.0026027143
0.037583906 0.028434094 -0.016452054 -0.10430013 0.32618815 -0.93953329 0.0034908233
0.040561974 0.028446835 -0.016748274 -0.066824839 0.25723404 -0.96403581 0.0048726285
0.043507427 0.028527012 -0.016841387 0.01012129 0.16818646 -0.98570329 0.0058113365
0.046431653 0.028448435 -0.016705662 0.12737626 -0.027478935 -0.99147373 0.0091588572
0.049474686 0.028443949 -0.016250702 0.19183674 -0.054763202 -0.9798978 0.0034987391
0.052338719 0.028635694 -0.015546704 0.25299573 -0.14953469 -0.95584124 0.0037695854
0.054238994 0.029412702 -0.015095882 0.35760617 -0.22074164 -0.90740895 0.0034525809
-0.048962716 0.032224283 -0.015226964 -0.19830394 -0.10426435 -0.97457916 0.0024419662
-0.046600137 0.031516984 -0.015640199 -0.1464674 -0.074990399 -0.98636895 0.0031934015
-0.043650698 0.031764019 -0.01610731 -0.11316057 -0.014800002 -0.9934665 0.0067797834
-0.040578183 0.03167776 -0.016244607 -0.018639127 0.12558842 -0.99190736 0.0049844454
-0.037551802 0.031495575 -0.016179463 0.052655511 0.21896458 -0.97431099 0.0041578105
-0.034488294 0.031577729 -0.015809448 0.11326921 0.29099354 -0.94999623 0.0033879271
-0.03162 0.031182114 -0.015478465 0.15737864 0.37281319 -0.9144628 0.0032453239
-0.028950538 0.030434698 -0.015289054 0.18084785 0.4437235 -0.87772626 0.0025408086
0.035199732 0.030390715 -0.015150853 -0.18935359 0.52125835 -0.83212674 0.0020435653
0.037720215 0.03085744 -0.015440306 -0.16570668 0.46168986 -0.87142622 0.0030770202
0.040578738 0.031329017 -0.015755521 -0.15258135 0.36978754 -0.91650212 0.0033420713
0.043517869 0.031440768 -0.016132016 -0.073544152 0.30084404 -0.95083338 0.0033350412
0.046520375 0.031501628 -0.016303156 0.0020907973 0.2204085 -0.9754054 0.0044152243
0.049466353 0.031490508 -0.01619694 0.094604388 0.12549646 -0.98757309 0.0042496608
0.052446391 0.031468499 -0.015760232 0.167996 -0.013637344 -0.98569328 0.0048362501
0.054670114 0.031576 -0.015213796 0.29206198 -0.058424525 -0.95461321 0.00339839
-0.051005974 0.035242409 -0.015062756 -0.21009724 -0.02776999 -0.97728604 0.0042706239
-0.049175128 0.03460896 -0.015375342 -0.17021503 -0.0076398514 -0.98537731 0.0055540735
-0.046211209 0.034724791 -0.015721807 -0.072808482 0.105901 -0.99170756 0.0036704224
-0.043444727 0.034579765 -0.015792191 -0.012382256 0.1829664 -0.98304117 0.0049733012
-0.040539194 0.034499373 -0.015612531 0.08106406 0.28402895 -0.9553827 0.0037268109
-0.037636228 0.034002922 -0.015414804 0.14154448 0.37508154 -0.91612172 0.0034696206
-0.035213005 0.033606928 -0.015149586 0.18630195 0.4483909 -0.87420666 0.0027259747
0.04150359 0.033149086 -0.015073587 -0.19764571 0.50338322 -0.84115487 0.0020948425
0.043715507 0.033588734 -0.015318166 -0.16046982 0.43482855 -0.88610023 0.0030824307
0.046619717 0.034228634 -0.015474354 -0.091021605 0.34928894 -0.93258363 0.0030914678
0.049507044 0.034512471 -0.015574192 -0.0026554104 0.25014108 -0.96820569 0.0037706161
0.052538306 0.034495454 -0.015471081 0.095755324 0.14964703 -0.98409182 0.0023627349
0.054722682 0.034358028 -0.015183036 0.18565269 0.11641708 -0.97569472 0.0044003217
-0.049565252 0.036898021 -0.015190424 -0.10882383 0.15699935 -0.98158479 0.0042806887
-0.04669762 0.037086926 -0.015258587 0.0076739192 0.26821116 -0.96332955 0.0039708125
-0.043685734 0.036594346 -0.015239392 0.096523516 0.37617809 -0.92150605 0.0034184146
-0.041367538 0.036216713 -0.015105696 0.16013546 0.44608715 -0.88054699 0.0023472344
0.050094634 0.036232855 -0.015051221 -0.08342766 0.39698169 -0.91402704 0.0025861007
0.052315321 0.036341138 -0.015066653 0.058349229 0.2946181 -0.95383209 0.0037778986
-0.015191134 0.0087896893 -0.012047532 -0.13165715 -0.5659532 -0.81385708 0.0003009901
-0.011148608 0.008400728 -0.012458888 -0.10214061 -0.58503795 -0.80454826 0.00093001884
-0.0077201165 0.0081420094 -0.012708494 -0.087362453 -0.59129292 -0.80171102 0.000780378
-0.0046399068 0.0079351049 -0.012854885 -0.063920259 -0.58951348 -0.80522549 0.0012019565
-0.0014561487 0.0079193888 -0.013067699 -0.046665139 -0.56843728 -0.82140213 0.0015342887
0.0016346597 0.0077531738 -0.01311795 -0.042236254 -0.57661074 -0.81592649 0.0017577341
0.0046376046 0.0077952491 -0.013266504 -0.016910579 -0.59844828 -0.80098301 0.0021583147
0.0076293228 0.0075508398 -0.013101692 -0.017554773 -0.60025227 -0.79961812 0.0020235984
0.010596067 0.0076958709 -0.013190247 0.012308408 -0.60197973 -0.79841644 0.0020937675
0.013533306 0.0079374751 -0.013275015 0.037547469 -0.61085963 -0.79084814 0.001960326
0.016429774 0.0078198137 -0.01299209 0.064374015 -0.64808571 -0.75884187 0.0010997426
0.019403253 0.0080782026 -0.012901587 0.10153602 -0.67116827 -0.73431844 0.0014308235
0.022316553 0.0082939295 -0.012671396 0.12762983 -0.64634109 -0.75229907 0.001273514
0.025136441 0.0085764769 -0.012394242 0.17400572 -0.68518269 -0.70728117 0.0022955292
-0.019388931 0.01129354 -0.013046246 -0.13643581 -0.52921528 -0.83744645 0.0004559053
-0.016250558 0.01036391 -0.013003469 -0.12321211 -0.52343005 -0.84311312 0.00092449511
-0.013066009 0.010611795 -0.01375784 -0.12053312 -0.51144636 -0.85081983 0.0016132931
-0.010343511 0.010686707 -0.014135897 -0.066053815 -0.51014274 -0.85754961 0.0023812605
-0.0073833787 0.010716053 -0.0144144 -0.053702611 -0.45811546 -0.88726902 0.0014322588
-0.0044844514 0.010260446 -0.014376553 -0.072382271 -0.46679381 -0.88139904 0.0014843702
-0.0016544324 0.01025555 -0.014533013 -0.044286236 -0.4657107 -0.88382822 0.0019388385
0.0013560344 0.010177018 -0.014618436 -0.033581998 -0.45546034 -0.88962245 0.0020212946
0.004661466 0.0099034905 -0.014584551 -0.020215921 -0.45583066 -0.88983685 0.0022424336
0.0077102832 0.0098397536 -0.014608051 -0.0088382578 -0.46421751 -0.88567716 0.002064527
0.010660042 0.0096206656 -0.014497465 -1.1791994e-05 -0.47457543 -0.88021481 0.0021153155
0.013586072 0.0098607298 -0.014590105 0.024548823 -0.48752213 -0.87276548 0.0022463496
0.016645802 0.009778277 -0.014415741 0.046259526 -0.51012146 -0.85885751 0.0019522511
0.019543698 0.010095586 -0.014415449 0.071916699 -0.53658241 -0.84077775 0.0017051372
0.022573771 0.01026487 -0.014204295 0.10278631 -0.56148314 -0.82107949 0.0014478652
0.025560005 0.01046783 -0.013898626 0.13607234 -0.61155242 -0.77941513 0.0021965965
0.028456569 0.010539962 -0.013382714 0.17956463 -0.63452333 -0.75175571 0.0019640834
0.031349968 0.011081656 -0.013110149 0.21800962 -0.63035095 -0.7450701 0.0012357342
0.034367785 0.011401878 -0.012429541 0.24350688 -0.67658973 -0.69493216 0.00063831924
-0.02710082 0.013111152 -0.012321951 -0.1851934 -0.5330689 -0.82555497 0.00073179003
-0.025119606 0.012909539 -0.012752078 -0.19628432 -0.52753037 -0.82654947 0.00067762809
-0.022506416 0.013538984 -0.013861181 -0.17321254 -0.49182767 -0.85328948 0.001345793
-0.019369343 0.013566282 -0.014529609 -0.11790971 -0.44899973 -0.88571811 0.0018008999
-0.016934371 0.012958854 -0.014572596 -0.12434409 -0.45251641 -0.88304442 0.0020385988
-0.013840362 0.012492183 -0.014738046 -0.10654854 -0.41620648 -0.9030059 0.0026386823
-0.010584725 0.012182082 -0.014906247 -0.070126854 -0.41415951 -0.9074989 0.0047527016
0.028748184 0.01240127 -0.014737828 0.15346462 -0.57985055 -0.80013871 0.0013069886
0.031568952 0.012848991 -0.01444489 0.18670918 -0.53789079 -0.82207853 0.0021248606
0.034545202 0.013218601 -0.013940345 0.20042849 -0.56883323 -0.79765725 0.00092022627
0.037536763 0.013689083 -0.013399499 0.26637366 -0.61045426 -0.74591595 0.0011717892
0.040435754 0.014234368 -0.012768619 0.30665973 -0.65581983 -0.68982613 0.001201717
0.042282298 0.014675822 -0.012340857 0.29725087 -0.64087552 -0.70775741 0.0018201695
-0.031632297 0.016771127 -0.013780264 -0.19175842 -0.51265645 -0.83690619 0.001231182
-0.028713474 0.016841106 -0.014505996 -0.16065378 -0.49544254 -0.85365516 0.0025479258
-0.026044842 0.015792785 -0.014497276 -0.19983555 -0.48570216 -0.85097539 0.0024336064
0.035822533 0.015064269 -0.014963266 0.20532715 -0.56130767 -0.80173218 0.0010464037
0.037718304 0.01537874 -0.014644369 0.22986947 -0.5463106 -0.80542219 0.00086583826
0.040598042 0.016135987 -0.014225854 0.27236629 -0.53595626 -0.79910421 0.0010635353
0.043440558 0.016548699 -0.013389581 0.32112491 -0.57931381 -0.74918234 0.0019815711
0.046154998 0.01726312 -0.01270048 0.37845454 -0.57478285 -0.72553211 0.0015377358
0.048104383 0.017997248 -0.012264885 0.41174364 -0.61091304 -0.67620444 0.00065192097
-0.037472509 0.020206643 -0.014114985 -0.21630871 -0.365693 -0.90525091 0.00070513022
-0.034857508 0.019187991 -0.014330916 -0.18777718 -0.39536223 -0.89912653 0.001034918
-0.031545475 0.018298758 -0.014714443 -0.14356095 -0.36759204 -0.91883969 0.0019510075
0.044083882 0.018689275 -0.01466099 0.29779741 -0.49607417 -0.81561458 0.003180183
0.046602346 0.019342888 -0.014023478 0.33975977 -0.4989379 -0.79726046 0.0011575916
0.049282238 0.019759845 -0.012993853 0.41048977 -0.55613905 -0.7226392 0.0015113055
0.051498372 0.020582151 -0.012379943 0.44260502 -0.56448364 -0.69674897 0.0013653474
-0.040622771 0.022618761 -0.014339265 -0.2413857 -0.35505316 -0.9031446 0.00085122226
-0.037862673 0.021561924 -0.014738636 -0.22058375 -0.36334181 -0.90516597 0.0007727503
-0.0090223802 0.023895599 -0.014926129 0.070270039 0.41112396 -0.908867 0.0068797008
-0.0072425972 0.023683937 -0.014842773 0.09337265 0.43319151 -0.89645219 0.00051330327
-0.0045147482 0.023368044 -0.014765746 0.067632064 0.40235558 -0.91298181 0.0025539394
-0.0014931584 0.023288608 -0.014630795 0.043075539 0.42797577 -0.90276307 0.0023185227
0.001399123 0.023258502 -0.014560753 0.014432343 0.44137359 -0.89720738 0.0022925427
0.0044622803 0.023236137 -0.014576529 -0.014976352 0.44589922 -0.8949579 0.0024475183
0.0074073579 0.023308516 -0.014636096 -0.042937849 0.45144814 -0.89126372 0.0022136678
0.01009262 0.023454882 -0.014725609 -0.069640435 0.43840447 -0.89607573 0.0026451112
0.013292581 0.023704071 -0.014884545 -0.099225968 0.42053384 -0.90183455 0.0024974777
0.047482993 0.021350464 -0.014857188 0.31906444 -0.46082264 -0.8281548 0.0027784843
0.049781628 0.022262612 -0.014336153 0.36806077 -0.42494145 -0.82701635 0.0011330369
0.052437834 0.022597659 -0.013189577 0.44300437 -0.49785095 -0.74558133 0.0012264845
0.054613262 0.023333926 -0.012406262 0.47671506 -0.49797082 -0.72440857 0.001798534
-0.045251012 0.026207946 -0.014411918 -0.22835329 -0.2839478 -0.93125105 0.001127374
-0.042115033 0.024874784 -0.014939044 -0.22975682 -0.28763723 -0.92977244 0.001112568
-0.018355979 0.026768971 -0.014975259 0.161222 0.36186105 -0.91818523 0.0033567862
-0.016167635 0.026453752 -0.014745384 0.15931943 0.42569301 -0.89073157 0.0024773194
-0.013318777 0.025926633 -0.014498997 0.15260856 0.45977044 -0.87482667 0.0019970464
-0.010395073 0.025637602 -0.014187378 0.12734179 0.4910827 -0.86175507 0.0015443013
-0.0074581266 0.025497727 -0.013869367 0.10759228 0.50104791 -0.8587054 0.0012845602
-0.0044655418 0.02551225 -0.013546082 0.0768741 0.51273596 -0.85509771 0.0010422274
-0.0015955286 0.025539244 -0.013291079 0.055284973 0.55909991 -0.82725507 0.0031755471
0.0014640174 0.025567405 -0.013133634 0.015617047 0.56386465 -0.82571954 0.0024826203
0.0044407733 0.025524851 -0.013144073 -0.025792696 0.58304465 -0.81203061 0.002721363
0.0075027971 0.025504028 -0.013247483 -0.045898773 0.57730937 -0.81523448 0.0025325113
0.010519336 0.025529755 -0.013436081 -0.082179837 0.58501303 -0.80684954 0.0028266618
0.013426288 0.025535172 -0.013749779 -0.10371408 0.54854745 -0.82966197 0.0010466169
0.016406085 0.025528988 -0.014184371 -0.13330176 0.53660029 -0.83324116 0.001260356
0.019259671 0.025956417 -0.014410852 -0.15762696 0.51584256 -0.84205711 0.0016469427
0.022133986 0.026527267 -0.014639272 -0.1670911 0.48382533 -0.85906559 0.0023284601
0.024555096 0.026897712 -0.014898094 -0.17440102 0.49847743 -0.84917873 0.00084726402
0.052744661 0.025256578 -0.014416722 0.38395563 -0.35390657 -0.85283542 0.0012659653
0.055431172 0.025569683 -0.013186276 0.45734975 -0.41418675 -0.78694373 0.001640395
0.057647139 0.026427308 -0.012302717 0.5057044 -0.42960373 -0.74813342 0.0023085664
-0.046790749 0.028625531 -0.014884817 -0.21465459 -0.22986874 -0.94925433 0.0010874406
-0.024795394 0.029745867 -0.014739512 0.19400074 0.49924996 -0.84446025 0.0016685555
-0.022308763 0.029186837 -0.014491882 0.20071135 0.47186828 -0.8585192 0.0021140159
-0.019452147 0.028607648 -0.014154756 0.1900177 0.51145542 -0.83803737 0.0014860926
-0.016520465 0.028517099 -0.013542775 0.18635733 0.53256589 -0.82561767 0.00095280638
-0.013621933 0.028254589 -0.013068277 0.17735901 0.59829026 -0.7814042 0.0015774621
-0.010626956 0.02792556 -0.012696381 0.14662778 0.61620486 -0.77381647 0.0016517855
-0.0075521762 0.027587827 -0.012436522 0.11759396 0.63773239 -0.76122862 0.0017881065
-0.0045621372 0.027341822 -0.012245111 0.087824591 0.65826428 -0.74764633 0.0015436308
-0.0012022416 0.027064729 -0.012136849 0.068896674 0.64294928 -0.76280373 0.0033830281
0.0059210099 0.027033394 -0.012000428 0.0083918599 0.660887 -0.75043845 0.0033124113
0.011105761 0.027233446 -0.012159579 -0.07468731 0.65721869 -0.74999028 0.0024486254
0.013917265 0.027438508 -0.012355828 -0.11135509 0.67912138 -0.72553033 0.0017018837
0.01657442 0.027684191 -0.012601972 -0.14769514 0.66055232 -0.73610926 0.0014782799
0.019638369 0.028030997 -0.012971272 -0.18093365 0.6222142 -0.76165116 0.0022515263
0.022601606 0.028519221 -0.013292327 -0.19898525 0.6058045 -0.77032834 0.0022172797
0.0254384 0.028543198 -0.013986271 -0.18574555 0.55889928 -0.80816478 0.00085200445
0.028423097 0.029080214 -0.014360045 -0.20098455 0.53458411 -0.82086849 0.001685109
0.031159259 0.029515125 -0.014740263 -0.1971004 0.49309972 -0.84735131 0.0021647206
0.053611912 0.027518954 -0.014867667 0.33582523 -0.21671137 -0.9166556 0.0037426038
0.055585779 0.028382305 -0.014244751 0.41283008 -0.26340348 -0.8718887 0.0015777812
0.058300108 0.028639235 -0.012916692 0.47444397 -0.32971784 -0.81620401 0.0025375793
0.060205534 0.029656695 -0.01215886 0.54758394 -0.35472846 -0.75783873 0.0020893202
-0.05196273 0.032225545 -0.014248612 -0.24347788 -0.079432972 -0.96664828 0.0012512353
-0.049638242 0.031387564 -0.014825325 -0.20639516 -0.12677488 -0.97022116 0.0015900998
-0.031244755 0.032583345 -0.01474815 0.21609733 0.43205324 -0.87557524 0.0025131146
-0.028412391 0.031872544 -0.014394409 0.22270386 0.48927796 -0.84321415 0.0017537628
-0.02551298 0.031585686 -0.013764264 0.22892667 0.53353637 -0.814206 0.0011274444
-0.022621069 0.031339586 -0.01308926 0.24173287 0.58383298 -0.77505106 0.002522612
-0.019724011 0.030882955 -0.012610869 0.22297853 0.63586861 -0.73888552 0.0015562051
-0.017023006 0.03028254 -0.012328589 0.20226248 0.66415811 -0.71971089 0.001531419
0.025900554 0.030567795 -0.012475288 -0.22223687 0.66151166 -0.71624935 0.0020152472
0.028651463 0.030999569 -0.012920095 -0.21987912 0.64427048 -0.73250842 0.0020492277
0.031469367 0.031464312 -0.013365707 -0.23332134 0.61640245 -0.75206989 0.001938798
0.034327596 0.031578299 -0.014122629 -0.22284169 0.55580288 -0.80088997 0.0012075524
0.037235059 0.032244653 -0.014495214 -0.22498326 0.50349438 -0.83419174 0.0023201322
0.039524451 0.032614388 -0.014901005 -0.20755745 0.48237026 -0.85102218 0.001895725
0.056182977 0.031322423 -0.014672839 0.3566989 -0.13086541 -0.92500818 0.0029911911
0.058548488 0.031523462 -0.013664268 0.42289725 -0.17520276 -0.88907927 0.0020415178
0.0608158 0.031694021 -0.012475484 0.51113659 -0.24297373 -0.82444113 0.0031057415
-0.054802306 0.035338536 -0.013896519 -0.2522212 -0.0065478603 -0.96764743 0.0027814908
-0.052286763 0.034597475 -0.014625753 -0.24704683 -0.078260534 -0.96583807 0.0012670489
-0.037253831 0.035444189 -0.014664966 0.2004151 0.43381909 -0.87842745 0.0025828641
-0.034275468 0.034790717 -0.014260162 0.22970827 0.49499756 -0.83798063 0.0014434388
-0.031419605 0.034559079 -0.013520225 0.25784481 0.53694034 -0.80325031 0.0011510376
-0.028659888 0.034126014 -0.012907097 0.27280957 0.61257118 -0.74184322 0.0014050497
-0.025737595 0.033500209 -0.01238969 0.25820994 0.65124905 -0.71358413 0.0015815693
0.032579362 0.033183567 -0.012238372 -0.25363183 0.70439214 -0.66295004 0.0015485985
0.034789108 0.033630352 -0.012611583 -0.26493964 0.66607934 -0.69724119 0.0014813526
0.037624385 0.034270708 -0.013110402 -0.2917417 0.6007362 -0.7443136 0.0020393117
0.040432129 0.034531049 -0.01389824 -0.23728061 0.52546489 -0.81705844 0.00085241004
0.04333495 0.035068501 -0.01443937 -0.22726034 0.48074719 -0.84689724 0.0020475846
0.046109844 0.035637945 -0.014778773 -0.169489 0.48364127 -0.85869938 0.0020830694
0.056179252 0.034565188 -0.014836959 0.23429279 0.031528857 -0.97165471 0.0049176156
0.05851467 0.034473106 -0.014084669 0.34361643 -0.03217205 -0.93855882 0.0038001505
0.061379418 0.034605604 -0.012782123 0.45858371 -0.11408488 -0.88129765 0.002890537
-0.058304459 0.037964705 -0.012849475 -0.27385044 0.068822764 -0.95930672 0.0023613933
-0.055292536 0.037400845 -0.013961363 -0.24462269 0.03134422 -0.96911162 0.0013759666
-0.052462038 0.037883949 -0.01467438 -0.16361904 0.094877131 -0.9819507 0.0051531983
-0.049193013 0.038524423 -0.014889645 -0.021212379 0.21779397 -0.97576421 0.004612308
-0.0463355 0.03845232 -0.014798771 0.085488096 0.34955341 -0.93300819 0.0039486163
-0.043326322 0.038104922 -0.01454043 0.15704998 0.42806306 -0.88999838 0.0025675786
-0.040308423 0.037611861 -0.014154161 0.20026414 0.48306334 -0.85237563 0.0012570031
-0.037420463 0.03750528 -0.013405523 0.27044347 0.55338877 -0.78779507 0.0023019591
-0.034740012 0.037075486 -0.012811874 0.29297137 0.60199332 -0.74281347 0.0018441712
-0.032232177 0.036443111 -0.012367906 0.29004538 0.64861405 -0.70368564 0.0013469656
0.040668517 0.036612634 -0.012405234 -0.30670878 0.62913543 -0.71422565 0.0015820973
0.043525957 0.037236076 -0.013054805 -0.27577519 0.58348119 -0.76387024 0.0014872701
0.04645779 0.037541062 -0.013760274 -0.19725062 0.48907301 -0.84964681 0.0010041996
0.049470432 0.037620645 -0.014356659 -0.14085008 0.43949938 -0.88713115 0.0016690673
0.052551344 0.037861895 -0.0145446 -0.0285624 0.33621746 -0.94135112 0.0050596436
0.055525851 0.037501637 -0.014544455 0.1561808 0.18387116 -0.97046328 0.0024344188
0.05851547 0.037510723 -0.013990201 0.26771578 0.11829975 -0.95620781 0.0049457992
0.061572384 0.037432604 -0.012895247 0.38522616 0.0100716 -0.92276722 0.0042455993
0.063203596 0.038081404 -0.012142684 0.51844895 -0.062971167 -0.85278684 0.0024703718
-0.058243476 0.04059764 -0.013048124 -0.27822974 0.088852413 -0.95639604 0.0024280569
-0.055117272 0.040786732 -0.013859271 -0.18458828 0.17985316 -0.96621943 0.0067615947
-0.05250157 0.040611155 -0.014169137 -0.069713615 0.26557285 -0.96156698 0.0065187318
-0.049516331 0.040605746 -0.014166147 0.039104514 0.3573938 -0.93313473 0.0040932829
-0.046421718 0.040449552 -0.013851239 0.13928472 0.44517183 -0.8845461 0.0016622168
-0.043570466 0.040558882 -0.013148468 0.22647278 0.53820372 -0.81181699 0.0024541221
-0.040796191 0.039968133 -0.012723993 0.27669728 0.58525163 -0.76218057 0.0023130688
-0.038215347 0.039276034 -0.01235581 0.28735557 0.6195879 -0.7304365 0.0013300048
0.044942625 0.039011896 -0.012262094 -0.31070346 0.58759248 -0.74712682 0.0030494449
0.046889007 0.039702166 -0.012457449 -0.26851484 0.57986748 -0.76919013 0.0024309398
0.04965229 0.040254295 -0.012923058 -0.20517747 0.52551651 -0.82567221 0.0025507298
0.052541737 0.040514693 -0.013341639 -0.11910419 0.4497509 -0.88517696 0.0038812354
0.055577643 0.040521309 -0.013586763 0.0076378849 0.36062962 -0.93267787 0.0039870567
0.058545966 0.04048438 -0.013407524 0.15672924 0.25453666 -0.95427829 0.0053042718
0.061580531 0.040468618 -0.012677716 0.29694268 0.16786218 -0.94002515 0.0028843053
0.063345261 0.039876383 -0.012031732 0.44155258 0.1051284 -0.89105517 0.0037994594
-0.060160551 0.044499464 -0.012093613 -0.22494791 0.18020929 -0.95756096 0.0060667973
-0.058483269 0.043468941 -0.012661724 -0.18287474 0.23461437 -0.95473182 0.0025398466
-0.055413336 0.043616939 -0.013057303 -0.088149369 0.31187683 -0.94602466 0.0045658285
-0.052389171 0.043625329 -0.013003646 0.056048702 0.41714337 -0.90711075 0.0032565158
-0.04948521 0.043291263 -0.01281938 0.13751785 0.49584687 -0.85745245 0.0033576484
-0.046708975 0.042651139 -0.012610417 0.21055184 0.56314594 -0.79908359 0.003082593
-0.044314519 0.042189483 -0.012231912 0.24858233 0.60989666 -0.7524845 0.0016553043
0.052794218 0.042426087 -0.012307727 -0.19059911 0.53619838 -0.82229149 0.0025170052
0.055652931 0.043027777 -0.012448202 -0.08685226 0.46085036 -0.88321769 0.003421129
0.058530673 0.043118317 -0.012520758 0.054169711 0.36704788 -0.92862344 0.0042856829
0.061132051 0.042934451 -0.012280338 0.25496498 0.24187002 -0.93621141 0.0047325459
-0.058219872 0.045468859 -0.01216817 -0.14585063 0.36126304 -0.92098677 0.0055541862
-0.055550855 0.045585934 -0.012227999 0.0070523936 0.45949465 -0.88815254 0.0040802327
-0.053099863 0.04532668 -0.012209887 0.12862478 0.54101926 -0.83111596 0.0025230611
-0.0078991335 0.005759744 -0.010553801 -0.085888214 -0.61522853 -0.78365618 0.0010666999
-0.0043173623 0.0051667076 -0.010401361 -0.062778108 -0.66338676 -0.74563867 0.0004105588
-0.0015187711 0.0052541615 -0.010758499 -0.044984005 -0.62134409 -0.78224546 0.00099998328
0.0017508758 0.0051754536 -0.010877743 -0.026352838 -0.63710183 -0.77032906 0.00091891433
0.0048056892 0.0049336697 -0.010714567 -0.0023397114 -0.67428178 -0.73847049 0.0023086709
0.007448121 0.004880745 -0.010610238 0.010111007 -0.72472918 -0.68895954 0.0013866887
0.010611201 0.0049462244 -0.010588448 0.022238927 -0.73943788 -0.67285734 0.0014088615
0.013587619 0.0052220575 -0.010673782 0.066094287 -0.75190574 -0.65594918 0.0011700604
0.016539788 0.0051899292 -0.010286544 0.092498377 -0.76495916 -0.63740224 0.00087914773
0.019653823 0.0052936464 -0.0098100286 0.13286677 -0.77756101 -0.6146099 0.0010605793
0.022474431 0.0055391025 -0.0094306618 0.16018839 -0.78542495 -0.59786898 0.00058607425
-0.014641775 0.0083677256 -0.011830084 -0.13165522 -0.56595248 -0.81385785 0.00030263638
-0.010486254 0.0070590386 -0.011430127 -0.10208165 -0.59820336 -0.79481572 0.00057195895
-0.0071328222 0.0067372625 -0.01169423 -0.085887603 -0.61522985 -0.78365529 0.0010672747
-0.0048137857 0.0063113421 -0.011543329 -0.068535835 -0.62419748 -0.77825469 0.0013339388
-0.002645561 0.006475409 -0.011892973 -0.04498351 -0.62134635 -0.78224367 0.0010012782
0.010257565 0.0060171522 -0.011755326 0.028461231 -0.6918245 -0.72150445 0.0028730081
0.012761666 0.0062525417 -0.01183842 0.053921491 -0.7211355 -0.69069248 0.0010326881
0.016245792 0.0063910685 -0.011690189 0.081362002 -0.73490316 -0.6732738 0.0010773411
0.019325513 0.0065697818 -0.011461918 0.11589976 -0.75027096 -0.65089226 0.00089563144
0.022603991 0.0067824526 -0.011019427 0.15104297 -0.77192873 -0.61750478 0.0011453751
0.025636036 0.007279309 -0.010810837 0.17409702 -0.74212837 -0.64725244 0.001367997
0.02840895 0.0077848798 -0.010524883 0.20931089 -0.77309996 -0.59875315 0.0018756047
0.031386033 0.0081331907 -0.00985373 0.24452555 -0.76850498 -0.59127611 0.0013923146
0.033350028 0.008888335 -0.010033694 0.25621176 -0.75611699 -0.60219812 0.0012702253
0.029635116 0.0091687869 -0.011792302 0.2081001 -0.68923903 -0.69400567 0.0011574745
0.031820189 0.0095182499 -0.011423892 0.22601688 -0.74360663 -0.62925792 0.0015967825
0.034660816 0.0099670272 -0.010776056 0.27477178 -0.74845403 -0.60358679 0.0011743036
0.037401758 0.010775945 -0.010443167 0.30101165 -0.75794768 -0.57871169 0.0019967491
0.04011621 0.011440175 -0.0098078866 0.3647548 -0.75934964 -0.53883386 0.0014387766
-0.028772105 0.013114421 -0.01180569 -0.19473499 -0.51814723 -0.83282751 0.0012466378
0.038300145 0.012174014 -0.011699175 0.2784718 -0.67140257 -0.68678373 0.00090370805
0.04083189 0.012774151 -0.01106969 0.33871087 -0.73480165 -0.58765763 0.0019405653
0.043507036 0.013709602 -0.010587487 0.36284065 -0.71826977 -0.59366256 0.00156902
0.04627037 0.014406517 -0.0095917024 0.42283317 -0.7097792 -0.56340533 0.0008357137
0.044849087 0.015549512 -0.011848659 0.36155489 -0.63241953 -0.685072 0.0012885573
0.04673218 0.015887551 -0.011030355 0.40601468 -0.68337142 -0.60675818 0.0014435549
0.049371053 0.016865673 -0.010255374 0.4558416 -0.67244905 -0.58311296 0.0015120789
0.051327717 0.017749904 -0.0097656706 0.45551246 -0.66039175 -0.59698504 0.0016148728
0.050072815 0.018534901 -0.011528847 0.41737533 -0.60857576 -0.67485803 0.0007138027
0.052604657 0.019438976 -0.010554031 0.46743783 -0.62473738 -0.6254639 0.0024642062
0.054777049 0.020397875 -0.00980628 0.50238299 -0.60695839 -0.61580265 0.00086052122
0.053532623 0.021406975 -0.011700002 0.48692107 -0.56869584 -0.66294259 0.00052598474
0.055736709 0.022351461 -0.010826483 0.50170201 -0.5324313 -0.68177122 0.0011254154
0.05787392 0.023070164 -0.0097079081 0.57104373 -0.58086145 -0.58009398 0.00077538536
0.056767743 0.024345094 -0.01164858 0.52386737 -0.51321322 -0.67983466 0.0010349854
0.05868271 0.025299245 -0.010810094 0.52816439 -0.46040788 -0.71348923 0.00093654578
0.06073074 0.02605514 -0.0096223354 0.59104311 -0.51450342 -0.62125206 0.0012524639
-0.012951897 0.029662158 -0.011751638 0.18858363 0.69701725 -0.69181156 0.001613164
-0.010347227 0.029373303 -0.011409826 0.1628242 0.72081256 -0.67373401 0.0017628714
-0.0075386446 0.029055197 -0.011092659 0.13433871 0.73567653 -0.66387749 0.0017557505
-0.0044680513 0.028853519 -0.010778596 0.10666589 0.74259228 -0.66119516 0.0011517316
-0.0014650463 0.028678641 -0.010551578 0.080424264 0.72301602 -0.68613392 0.0027057594
0.001470311 0.028432425 -0.010591814 0.026667044 0.73516649 -0.67736185 0.0020394698
0.0044550942 0.028401753 -0.010570602 -0.01513545 0.72943395 -0.68388391 0.0023858733
0.0074975677 0.028415168 -0.010624876 -0.053728718 0.73244387 -0.67870408 0.0026374906
0.01046488 0.028777512 -0.010503397 -0.094574444 0.73905528 -0.66697299 0.0023669333
0.013402165 0.02886223 -0.010815951 -0.12670696 0.73137712 -0.67009914 0.003609254
0.016314726 0.029206218 -0.011050541 -0.15845926 0.74945515 -0.64281231 0.0016772995
0.019107414 0.0295176 -0.011458983 -0.18628223 0.73181576 -0.65554911 0.0014730222
0.021256456 0.029810864 -0.011792107 -0.2132225 0.68678266 -0.69488537 0.0027732777
0.059616443 0.027554438 -0.011560952 0.56319004 -0.39882573 -0.72370917 0.0010409515
0.061516654 0.028555233 -0.010579874 0.57796937 -0.38106227 -0.72162521 0.00083333009
0.063306227 0.029161261 -0.0093512824 0.62661242 -0.42207319 -0.65514213 0.0017069867
-0.021914627 0.032695699 -0.011714657 0.25409284 0.63630784 -0.72838807 0.0014652119
-0.019347774 0.032290764 -0.011171089 0.24909727 0.69865835 -0.67069161 0.00052493421
-0.016433777 0.031745818 -0.010670478 0.2318496 0.73962021 -0.6318289 0.0013066817
-0.013561939 0.031185519 -0.010334149 0.1988793 0.74082679 -0.64157832 0.002598319
-0.010566412 0.030751875 -0.0099692577 0.17953356 0.74343908 -0.64425623 0.001622863
-0.0076486226 0.030447189 -0.0095792655 0.14303482 0.75756365 -0.63689744 0.0015694654
-0.0047489866 0.030189935 -0.0093098013 0.11294228 0.7660439 -0.63278812 0.0012285507
-0.0021713707 0.030040205 -0.0090275677 0.079430424 0.76904482 -0.63424033 0.0011658757
0.013434 0.03020568 -0.0091945315 -0.12959333 0.77439135 -0.61929286 0.001258895
0.016544523 0.030388489 -0.0097217308 -0.16873321 0.76950008 -0.61595351 0.0014950614
0.019552678 0.030767513 -0.010173846 -0.2036595 0.75397617 -0.62453395 0.0015361946
0.022584999 0.031313788 -0.010537096 -0.22184056 0.75035524 -0.62269884 0.0020556359
0.025390338 0.031964075 -0.010826477 -0.24944083 0.7226038 -0.64468831 0.0026053144
0.028403023 0.032388501 -0.011482798 -0.24951907 0.68190193 -0.68756825 0.0011334836
0.06218873 0.031415723 -0.01143853 0.55791485 -0.28877679 -0.77803534 0.0017949434
0.064046718 0.031583149 -0.0099703446 0.64824098 -0.34070343 -0.68095875 0.001692969
-0.027918288 0.035409745 -0.011465984 0.30012888 0.69790524 -0.65026987 0.0016680609
-0.025307121 0.034905221 -0.010798847 0.29622921 0.72990906 -0.61602038 0.0013231959
-0.022543138 0.034215644 -0.010300347 0.28047431 0.73493183 -0.61742163 0.0025632328
-0.019636378 0.033602882 -0.0097778048 0.26649427 0.74563181 -0.61074865 0.0013467976
-0.017562045 0.033313435 -0.0092164567 0.24954093 0.7555874 -0.60565424 0.0013768853
0.02561824 0.033199973 -0.0093604308 -0.24728665 0.77397847 -0.58292937 0.00098485406
0.028553683 0.03370633 -0.0099721886 -0.25981924 0.77049261 -0.58209538 0.0018682408
0.031500377 0.034235999 -0.010607844 -0.27698746 0.74378413 -0.6083281 0.0023031943
0.03425362 0.035071678 -0.010878755 -0.30262065 0.73177123 -0.61068124 0.0016626788
0.036952835 0.035565082 -0.011667645 -0.31367159 0.63969415 -0.70171326 0.0013359978
0.062702492 0.03387396 -0.011879862 0.57547432 -0.17747489 -0.79833066 0.0021242874
0.064486749 0.034439743 -0.010650946 0.58994609 -0.19470482 -0.78361571 0.0010793927
0.066331781 0.035150103 -0.0093083689 0.69166523 -0.25092041 -0.67722839 0.0019971495
-0.036111657 0.038892861 -0.011811555 0.30568054 0.64260459 -0.70258009 0.0038820186
-0.034075353 0.038296357 -0.011452049 0.31418154 0.66306114 -0.67944086 0.0008145044
-0.031437859 0.037810538 -0.010608526 0.33530498 0.71683663 -0.61132294 0.00159202
-0.028703038 0.036918174 -0.010193129 0.31564736 0.72980225 -0.60642838 0.0018682138
-0.025963476 0.036300506 -0.0094524305 0.32070622 0.74458581 -0.58543962 0.0011666309
0.034769665 0.036264073 -0.0096883681 -0.32750675 0.74516201 -0.58092421 0.0013518207
0.037691303 0.037211712 -0.010226132 -0.36170006 0.70057827 -0.6151123 0.001691959
0.040420819 0.037923731 -0.011035649 -0.34647784 0.66424525 -0.662368 0.0023153571
0.042800937 0.038609572 -0.011639667 -0.32366523 0.61977983 -0.71492225 0.0015299869
0.064796187 0.037438434 -0.011055216 0.56331986 -0.10185804 -0.81993639 0.0010426336
0.066669874 0.037580341 -0.0096058249 0.66700315 -0.14105105 -0.73158139 0.002750278
-0.06285096 0.041950718 -0.011121131 -0.27019987 0.11869601 -0.95545977 0.0040501291
-0.042417753 0.04180846 -0.01185137 0.29287353 0.64930499 -0.70187479 0.00098292704
-0.040273566 0.041371558 -0.011326358 0.30394259 0.64955723 -0.69691765 0.00086464378
-0.037451599 0.040683601 -0.010614354 0.32954702 0.70260608 -0.63066912 0.0016375058
-0.034733079 0.039830774 -0.010110235 0.3298178 0.70537883 -0.62742406 0.0010232157
-0.03250986 0.039382316 -0.0093495762 0.36265698 0.7438699 -0.56137103 0.0021937024
0.040995382 0.039638232 -0.0095069818 -0.39706731 0.7035929 -0.58931696 0.0013607813
0.043571725 0.04021886 -0.010448206 -0.34987584 0.68465751 -0.63939893 0.00089364051
0.046310775 0.041072972 -0.011077246 -0.31786719 0.63222206 -0.70658034 0.00095536147
0.048844691 0.041670274 -0.011673825 -0.26371178 0.61049104 -0.74683112 0.0020350516
0.064716779 0.040616293 -0.011244161 0.4793005 0.047071517 -0.87638766 0.0054219761
0.066932395 0.040418044 -0.0097188987 0.62579536 -0.029644923 -0.77942371 0.0030048846
-0.06224823 0.043737002 -0.011436282 -0.27725202 0.19833528 -0.94010335 0.0048830658
-0.049077217 0.044630434 -0.011840605 0.21148549 0.60938531 -0.76414883 0.0019401861
-0.046292774 0.044081151 -0.011379892 0.26305595 0.59883434 -0.75643837 0.0016518504
-0.043464862 0.043582771 -0.010622844 0.30405518 0.6418215 -0.7039997 0.00095855579
-0.040699031 0.042911891 -0.0099316305 0.35227913 0.72191334 -0.59560096 0.0010968464
-0.038536072 0.042374644 -0.0093159424 0.37420425 0.71856201 -0.58620805 0.0012481852
0.044483423 0.042000704 -0.009076179 -0.40270579 0.68903971 -0.60253835 0.0018887493
0.04697185 0.042757906 -0.009789655 -0.37570319 0.66844308 -0.64189643 0.001258987
0.049666855 0.043373741 -0.010502463 -0.30844656 0.63018918 -0.71254641 0.0017081233
0.052355435 0.043904513 -0.011120724 -0.24148409 0.56913441 -0.7859844 0.0012356222
0.055207849 0.044370223 -0.011602558 -0.15758362 0.50826061 -0.84666312 0.002494745
0.058608703 0.044625081 -0.011858551 -0.024619956 0.42843148 -0.90323877 0.0034898482
0.061944228 0.044169426 -0.011726242 0.17268069 0.28532159 -0.94274753 0.0060996325
0.064510569 0.043470852 -0.011033216 0.38928518 0.16985165 -0.90532178 0.0054343077
0.066932976 0.043416109 -0.0096696196 0.57241935 0.081406005 -0.81591004 0.0035817644
-0.063520364 0.046883978 -0.010541342 -0.28122425 0.20729674 -0.93698508 0.003449965
-0.061347071 0.046575535 -0.011235741 -0.17103568 0.33239323 -0.92750281 0.0039242813
-0.058546361 0.046970662 -0.011509701 -0.034821164 0.42324641 -0.90534526 0.0041506076
-0.055540983 0.047073379 -0.011389061 0.08524923 0.51637542 -0.8521086 0.0028224443
-0.052499585 0.046780657 -0.011104711 0.17303632 0.57470679 -0.79985654 0.0013166618
-0.049552962 0.04649638 -0.010438648 0.24909106 0.63599473 -0.7303865 0.0021303757
-0.046592195 0.045815893 -0.0098767504 0.31562173 0.69660521 -0.64430112 0.0015733885
-0.044598028 0.045389295 -0.0093226405 0.36764923 0.68641031 -0.62743521 0.0012444851
0.050708119 0.045299154 -0.0092181358 -0.37151581 0.66197836 -0.65096891 0.0010176889
0.052765343 0.045763787 -0.0097502479 -0.31010357 0.64444435 -0.69894725 0.0019172848
0.055581205 0.046352681 -0.01030095 -0.23405705 0.57776952 -0.78192055 0.0031512068
0.058547884 0.046514612 -0.010819132 -0.063366197 0.47546422 -0.87744993 0.002822455
0.061537236 0.046509139 -0.010891314 0.095050596 0.39260677 -0.91478157 0.0058295643
0.064549357 0.046509266 -0.010278434 0.31261 0.28564796 -0.90591407 0.0073753688
0.06671533 0.046185289 -0.0094028432 0.49962476 0.18450144 -0.84636533 0.004270568
-0.064155579 0.049453482 -0.00955592 -0.12187083 0.4363232 -0.89149851 0.0024168706
-0.061352927 0.049569111 -0.010025931 -0.10640752 0.46175882 -0.88059992 0.0026543357
-0.058457106 0.049535964 -0.010084775 0.081702314 0.5764268 -0.81305408 0.0018715545
-0.055470254 0.049232434 -0.0098754419 0.19459192 0.63912779 -0.74407631 0.0013927226
-0.052550018 0.048692126 -0.009530955 0.23683469 0.66592079 -0.70743114 0.002598607
-0.050540164 0.048293002 -0.0091672465 0.30020925 0.67934281 -0.66960257 0.0017293812
0.056827001 0.048083626 -0.0094040809 -0.21661295 0.59805775 -0.7716254 0.0036314791
0.058845583 0.048739556 -0.0094336048 -0.17152692 0.57424998 -0.80050951 0.0038092774
0.061624292 0.049073759 -0.0095857605 -0.018031141 0.49190569 -0.87046176 0.005117387
0.064382404 0.048982464 -0.009442362 0.1911397 0.3727608 -0.90802807 0.0058239354
0.066288695 0.048328403 -0.0091052521 0.4541398 0.31333613 -0.83401287 0.0068420535
-0.061153851 0.051151942 -0.0091017783 -0.0035161006 0.58489186 -0.8111037 0.003754162
-0.058786836 0.051031988 -0.009053709 0.10841469 0.63972861 -0.76091617 0.0026785925
0.012504554 0.0025240302 -0.0068483995 0.081133924 -0.81159872 -0.57855409 0.00096090947
0.017590618 0.0029366065 -0.0065319599 0.11267643 -0.83159405 -0.54383403 0.0004122098
0.0081108334 0.0031113971 -0.008359246 0.035717141 -0.76705039 -0.64059192 0.0021193391
0.011357617 0.0032989364 -0.0083909463 0.057521906 -0.79232579 -0.60738063 0.00067128427
0.013374873 0.0037083731 -0.0087165385 0.088271014 -0.8067171 -0.58430791 0.001149828
0.016496608 0.003900798 -0.0084978985 0.09817259 -0.8143577 -0.57199979 0.00070692465
0.019297183 0.0041679586 -0.0082566924 0.12521231 -0.80923772 -0.57398278 0.00072018459
0.022370547 0.0043329378 -0.0075538442 0.16646311 -0.832699 -0.52811217 0.0010418725
0.025496075 0.0054116528 -0.008219515 0.19956504 -0.83472764 -0.51322865 0.00087260891
0.028782202 0.0056037027 -0.0069491994 0.24014395 -0.84374326 -0.48002937 0.00078035844
0.02685431 0.0062390002 -0.008996076 0.20248429 -0.81888872 -0.53704876 0.001894998
0.029577937 0.006301187 -0.0078873858 0.24885048 -0.83526808 -0.49030671 0.00064036669
0.031697858 0.0069134878 -0.0078068809 0.27294925 -0.83504361 -0.47770369 0.0012883634
0.03461092 0.0080887787 -0.0080902791 0.30921996 -0.83265001 -0.45943117 0.0012670052
0.036981091 0.0083525283 -0.006863114 0.32116598 -0.84477741 -0.42802283 0.0024660551
0.037772849 0.0092543047 -0.0080142571 0.34291795 -0.81156969 -0.4730348 0.0022725365
0.040460832 0.010194615 -0.0075781271 0.37281147 -0.80598956 -0.4597742 0.0015657573
0.043130573 0.011428017 -0.0075042169 0.39882037 -0.7953738 -0.45642391 0.0018694348
0.044535346 0.012418126 -0.0080481656 0.42647204 -0.79667521 -0.42828745 0.0012654791
0.046523623 0.013234827 -0.0075543481 0.44244042 -0.77767766 -0.44661382 0.0020439504
0.048716236 0.014510815 -0.0075612408 0.45586014 -0.76323336 -0.45789337 0.0015329503
0.050265785 0.015561596 -0.007714625 0.49336806 -0.75640571 -0.42946282 0.0012016851
0.052287292 0.016758284 -0.0074565271 0.50251549 -0.73893481 -0.44883573 0.0024452668
0.054295767 0.017574042 -0.00649091 0.52993023 -0.72008049 -0.44794878 0.0011469115
0.053494398 0.018238097 -0.0084329164 0.51425141 -0.70612818 -0.48675308 0.0011215798
0.05562624 0.01936801 -0.0076812604 0.53773361 -0.70649046 -0.46012384 0.0017644059
0.057642393 0.020300893 -0.0066357958 0.59104162 -0.66907007 -0.45057186 0.0017773999
0.056793474 0.021109983 -0.0087290499 0.53530842 -0.61079282 -0.58341843 0.0010472768
0.058777001 0.022117471 -0.0077235242 0.58965194 -0.64256787 -0.48930266 0.0021251645
0.060698234 0.023381498 -0.0069532469 0.62307239 -0.60681707 -0.49351174 0.00080049783
0.061879758 0.025380077 -0.0077436389 0.64951909 -0.55377495 -0.52101654 0.003130547
0.063583814 0.026472937 -0.0067507853 0.68156433 -0.52939343 -0.50518566 0.0010582887
0.0016442958 0.029906705 -0.0088374214 0.042220123 0.83677983 -0.54590929 0.0026877788
0.0044809077 0.029837418 -0.0088500287 0.0087779192 0.7822504 -0.62290221 0.00080809899
0.0072125331 0.029904181 -0.0088025406 -0.038809277 0.82227236 -0.56776917 0.004107513
0.062772483 0.027527196 -0.008741322 0.63718253 -0.45066017 -0.6252231 0.00098967471
0.064489566 0.028525872 -0.0074909022 0.71605068 -0.44912413 -0.5343771 0.0019482317
0.066141501 0.02959314 -0.0062564174 0.73212761 -0.4402115 -0.51981056 0.00161602
-0.015729694 0.032986321 -0.0088978959 0.24374914 0.78318286 -0.57202351 0.00048479048
-0.013189615 0.03260532 -0.0083792601 0.21632567 0.82948625 -0.51493293 0.0022427246
-0.010261528 0.032257587 -0.0077837044 0.19106999 0.83783746 -0.51139092 0.0015294311
-0.0075074336 0.03181966 -0.0075432314 0.15855269 0.85414106 -0.4952819 0.0013639535
-0.0044925958 0.031312946 -0.0075977356 0.1294224 0.84106457 -0.52522397 0.0018482998
-0.0015731201 0.031035088 -0.0074637984 0.08757811 0.8552866 -0.5107004 0.0020906597
0.0013669911 0.030781168 -0.0075269439 0.044653505 0.86126214 -0.50619519 0.0022470201
0.0044604274 0.030806504 -0.007341038 0.0077659027 0.86542112 -0.50098497 0.0022775263
0.0074414513 0.030812996 -0.0073863855 -0.020128397 0.85933214 -0.51102155 0.0022102972
0.010593233 0.030913947 -0.0076008113 -0.067678757 0.85942268 -0.50676644 0.0019646788
0.013494664 0.031297743 -0.0074905008 -0.13073237 0.86631602 -0.48208466 0.0032765123
0.016362147 0.031728726 -0.0076245191 -0.18300466 0.8615492 -0.47354239 0.0014808216
0.019246586 0.032205842 -0.0080238292 -0.2184003 0.83990139 -0.49685717 0.0013687713
0.021882685 0.032653525 -0.0084855007 -0.23718739 0.82778674 -0.50843996 0.0015391053
0.065377057 0.031013032 -0.0083157029 0.69056672 -0.35230511 -0.6316635 0.0013407326
0.066757798 0.031735439 -0.0070338915 0.73952419 -0.4022477 -0.5397228 0.0017019777
-0.022104997 0.035580732 -0.0082503352 0.30460465 0.81566066 -0.49184716 0.0019186161
-0.019342318 0.034985278 -0.0075662779 0.3065404 0.83708239 -0.45312929 0.0012143657
-0.016585954 0.034054264 -0.0075881239 0.24604374 0.83178812 -0.49758521 0.0020641026
-0.013781624 0.033588409 -0.0070096254 0.22418027 0.84970683 -0.47722274 0.002037989
-0.011150216 0.033194706 -0.006476453 0.19707367 0.85902017 -0.47248951 0.0016538301
0.019707711 0.03318014 -0.0064994916 -0.22805478 0.85666662 -0.46272373 0.0014682761
0.022630068 0.03360825 -0.0072149057 -0.24031335 0.8503378 -0.4681614 0.0016679355
0.025609165 0.034374818 -0.0074509177 -0.26289511 0.84619099 -0.46351579 0.0020172477
0.028334165 0.035041962 -0.0078338478 -0.28061098 0.83657342 -0.47053421 0.0016782146
0.031324804 0.035694528 -0.0085419575 -0.2984255 0.81965715 -0.48898298 0.00183546
0.065867871 0.033228219 -0.0089806421 0.67714697 -0.31224912 -0.66631252 0.0027543583
0.067637697 0.034499086 -0.0075199986 0.76006389 -0.27848372 -0.58715397 0.0017162125
0.069071956 0.03575803 -0.0062414655 0.77440178 -0.30490756 -0.55437654 0.0038489252
-0.030748008 0.038998511 -0.008723652 0.35476995 0.7525031 -0.55486703 0.00060127722
-0.028133959 0.038259123 -0.0079840599 0.3638674 0.80135745 -0.47479132 0.0017386959
-0.025428237 0.037332762 -0.007527356 0.34982151 0.80279553 -0.48285007 0.0019812854
-0.022709124 0.036603466 -0.0068906904 0.31942537 0.83053619 -0.45626432 0.001718719
-0.020642592 0.036094114 -0.0063150572 0.31838104 0.84254223 -0.4344607 0.0015102022
0.029493827 0.036140412 -0.0066135465 -0.30202949 0.85149866 -0.42863542 0.0015309071
0.031508557 0.036556963 -0.0071321139 -0.31043977 0.83569664 -0.45303228 0.0018309553
0.034311421 0.037406914 -0.0076342551 -0.36794904 0.81056583 -0.45562759 0.00299142
0.036888335 0.038398717 -0.0080546057 -0.42393994 0.79000384 -0.4429096 0.0014883553
0.068144977 0.037343528 -0.0080573196 0.7567603 -0.17381082 -0.63016158 0.0021237838
0.069410905 0.037645984 -0.0065834611 0.79262686 -0.20641387 -0.57370377 0.0022824956
-0.03636919 0.041861206 -0.0085349549 0.39725623 0.73419505 -0.5505861 0.0010623733
-0.034152921 0.04113612 -0.0079310192 0.39223471 0.79486173 -0.46297598 0.0012343155
-0.031527407 0.040188596 -0.0073791901 0.38549694 0.79656649 -0.4656972 0.0020261796
-0.029142523 0.039312255 -0.006950567 0.37929136 0.81523401 -0.43764314 0.0015118106
0.037591636 0.039657213 -0.0065805889 -0.43014199 0.78319114 -0.44898722 0.0016132883
0.040281218 0.040486392 -0.0077729244 -0.43641499 0.74740142 -0.50093222 0.001869741
0.042690828 0.041647486 -0.0081572859 -0.44741625 0.74693769 -0.49183616 0.0017295982
0.068425857 0.040448479 -0.0083717071 0.7434684 -0.07577534 -0.66446429 0.0024741658
0.069725476 0.04055414 -0.0069065955 0.78379297 -0.10749841 -0.61164755 0.002050255
-0.04260394 0.044822302 -0.0088100871 0.36909068 0.70993471 -0.59980386 0.00084796117
-0.04016361 0.044208944 -0.0078748688 0.39598519 0.77096903 -0.49880105 0.002412027
-0.037654605 0.043191671 -0.0074562957 0.39053786 0.77007437 -0.50444591 0.0016029667
