# .PCD v0.7 - Point Cloud Data file format
VERSION 0.7
FIELDS x y z normal_x normal_y normal_z curvature
SIZE 4 4 4 4 4 4 4
TYPE F F F F F F F
COUNT 1 1 1 1 1 1 1
WIDTH 556
HEIGHT 1
VIEWPOINT 0 0 0 1 0 0 0
POINTS 556
DATA ascii
-0.022587994 0.031504389 -0.013303992 0.24134848 0.61939257 -0.7470634 0.0015776656
-0.019672533 0.031104123 -0.012761715 0.22594324 0.64593941 -0.72918588 0.001361239
-0.016792893 0.030634012 -0.012300473 0.20720235 0.67324054 -0.70979875 0.0015646594
0.022943806 0.030162694 -0.012236576 -0.20567203 0.66722339 -0.71589947 0.0010258661
0.025669202 0.030556044 -0.012691332 -0.21938956 0.65058291 -0.72705573 0.0012272708
0.02862411 0.030991888 -0.013190844 -0.22944702 0.63406456 -0.7384553 0.0012745011
0.031511985 0.031533718 -0.013595507 -0.23791498 0.60168195 -0.76247972 0.0011961561
0.034385048 0.031931307 -0.01416308 -0.2330883 0.56020105 -0.79488653 0.0015365833
0.037210073 0.032546062 -0.014570109 -0.23583421 0.57750553 -0.7815814 0.001923702
0.03924353 0.032936238 -0.014903689 -0.20985223 0.54387325 -0.81250471 0.0030847192
0.056583669 0.031334065 -0.014868598 0.35959485 -0.1277148 -0.92432702 0.0031240832
0.058445577 0.031411726 -0.014052391 0.40956223 -0.17096481 -0.8961193 0.0029511736
0.061019659 0.031361055 -0.012613535 0.50681645 -0.24414451 -0.82675904 0.0031437729
-0.057867367 0.03486773 -0.012549422 -0.45672408 -0.29416081 -0.83956683 0.0033678638
-0.055454798 0.034398112 -0.01363703 -0.4038277 -0.23397115 -0.88440973 0.0038970904
-0.052937813 0.03427561 -0.014660322 -0.33636573 -0.17218542 -0.92585653 0.0026387284
-0.036948804 0.035690956 -0.014810601 0.20599464 0.50153852 -0.84025311 0.0016244894
-0.034289893 0.035173904 -0.014388319 0.24025877 0.49711767 -0.83375639 0.0019346925
-0.031407736 0.034620501 -0.013828452 0.26154822 0.55481464 -0.78979307 0.0014827235
-0.028586883 0.034300167 -0.013085561 0.25902924 0.61063606 -0.74834979 0.0019856875
-0.025803616 0.033677183 -0.012614803 0.26699582 0.65487951 -0.70699787 0.0015783436
-0.023468193 0.033228129 -0.012149695 0.25570586 0.6384123 -0.72597808 0.0019565083
0.032496393 0.03342098 -0.012239641 -0.26012874 0.6592896 -0.70545751 0.0013731077
0.034741983 0.033883154 -0.012633815 -0.2700749 0.67959583 -0.68206233 0.0013777487
0.037647545 0.034444738 -0.013247085 -0.29796833 0.62952423 -0.71757513 0.0014410035
0.040396534 0.034754399 -0.014005695 -0.2511366 0.55542535 -0.79273766 0.0015714351
0.043319028 0.035357095 -0.014546877 -0.23696779 0.48789042 -0.84012455 0.0021835743
0.045727871 0.035875414 -0.014866259 -0.1826909 0.5015471 -0.84562075 0.0027610278
0.056892358 0.035934534 -0.014935805 0.17960976 0.065511174 -0.98155415 0.0029522639
0.05859787 0.034588747 -0.014405234 0.34578723 -0.050061002 -0.93697655 0.0042347186
0.061444074 0.034556549 -0.01309912 0.48656675 -0.15626371 -0.85955477 0.0014404445
0.063382789 0.035512745 -0.012148262 0.5470801 -0.17844607 -0.81783879 0.0030098339
-0.060213331 0.03820106 -0.012212892 -0.49131507 -0.23284131 -0.8392821 0.003483311
-0.058401637 0.037582502 -0.012998286 -0.39483279 -0.17093571 -0.90271145 0.0042859786
-0.055489238 0.037581094 -0.014195773 -0.30794007 -0.059257813 -0.94955856 0.0047617787
-0.05322054 0.037735123 -0.014837317 -0.18802793 0.040852759 -0.98131371 0.0097348103
-0.045964725 0.038900483 -0.014906709 0.104944 0.38873187 -0.91535485 0.0071940087
-0.043072019 0.038319692 -0.014737957 0.15943684 0.41857359 -0.89407831 0.0029795058
-0.040304996 0.037852537 -0.014373161 0.20603842 0.48791015 -0.84822863 0.00156867
-0.037504729 0.037439249 -0.01383115 0.25149697 0.53899544 -0.80388629 0.0014138273
-0.034679595 0.037206978 -0.013038443 0.29650429 0.59007621 -0.75092965 0.0019792109
-0.032088973 0.03667054 -0.01246924 0.29563257 0.65285105 -0.69741446 0.0011868392
0.038762476 0.036364827 -0.012011876 -0.34835482 0.62080622 -0.70231658 0.0012915418
0.04081424 0.036794562 -0.012574091 -0.31549498 0.63703954 -0.703309 0.0015876933
0.043590974 0.037500225 -0.013147803 -0.30335274 0.5845136 -0.75254297 0.0015711755
0.046474062 0.037605733 -0.014008174 -0.21691675 0.51018 -0.83226407 0.0010814926
0.049399585 0.037962906 -0.014471296 -0.15487994 0.45147344 -0.87874001 0.0017533293
0.052454207 0.038390052 -0.01464923 -0.063171178 0.37896401 -0.92325282 0.0028906371
0.055642009 0.038009338 -0.014722303 0.053171076 0.27856177 -0.95894539 0.0032823309
0.058398902 0.03774327 -0.014328175 0.20251176 0.17634715 -0.96327084 0.0027445643
0.061332058 0.03770962 -0.013364282 0.3796635 0.034708906 -0.92447329 0.0036265589
0.063494556 0.03776519 -0.012317515 0.51523501 -0.049507685 -0.85561776 0.0035728025
-0.060665142 0.040587045 -0.012362182 -0.4117299 -0.084849879 -0.9073472 0.0039535887
-0.058467381 0.040489409 -0.013268374 -0.32096612 0.027979866 -0.94667727 0.0042586117
-0.055471681 0.04049693 -0.014126989 -0.21032107 0.13916056 -0.9676773 0.0069520636
-0.052462425 0.040464193 -0.014539543 -0.069955915 0.26080701 -0.96285301 0.0067699179
-0.049464948 0.040598504 -0.014501701 0.043333028 0.3687166 -0.92853123 0.0038610925
-0.046447799 0.040586174 -0.014122827 0.11783855 0.43736371 -0.89153069 0.0034590487
-0.043562237 0.040344335 -0.013624948 0.22355904 0.52355254 -0.82214004 0.0015802468
-0.040735744 0.039970644 -0.013048932 0.25244638 0.59615147 -0.76215118 0.0020734863
-0.038035233 0.0393635 -0.012561229 0.29259622 0.6086387 -0.73752725 0.0011792134
0.044649977 0.03932986 -0.012135206 -0.34254742 0.62333679 -0.70293134 0.0016812994
0.046761334 0.039854556 -0.012567007 -0.2806944 0.59070563 -0.75649029 0.0023390653
0.049585804 0.040485255 -0.013031893 -0.23152266 0.5290609 -0.8163895 0.0025123437
0.052507494 0.040610358 -0.013588599 -0.10608964 0.4370001 -0.89318299 0.0022033735
0.0554845 0.040587019 -0.013869862 -0.0060477769 0.36129886 -0.93243051 0.0035217504
0.058519341 0.040664788 -0.013684957 0.12602781 0.28974429 -0.9487704 0.0052324818
0.061455134 0.040732265 -0.01303216 0.27450839 0.15841784 -0.94844556 0.0054545267
0.06354811 0.040521424 -0.01225624 0.44849995 0.075188309 -0.89061469 0.0041995817
-0.060730856 0.043354247 -0.012333904 -0.35519513 0.08799015 -0.93064177 0.0040105991
-0.058430593 0.043383002 -0.013001353 -0.20369658 0.18904491 -0.96060902 0.0058711274
-0.055492029 0.043413438 -0.01343777 -0.088909298 0.31174412 -0.94599724 0.0054374309
-0.052524392 0.043470968 -0.013409515 0.022400124 0.40596649 -0.91361338 0.0036020447
-0.049583238 0.043450784 -0.01306243 0.17707542 0.52553546 -0.83213985 0.00132998
-0.046748582 0.042983647 -0.012729586 0.20960037 0.56351233 -0.79907537 0.0029235517
-0.044255305 0.042392951 -0.012395881 0.26837525 0.61607826 -0.74055541 0.0018379271
0.050676133 0.042326588 -0.012089967 -0.26936245 0.60151893 -0.75207633 0.0018932855
0.052721154 0.042726338 -0.01238558 -0.19750901 0.54678142 -0.8136462 0.0031393138
0.055601485 0.043215938 -0.012633621 -0.10046662 0.47116265 -0.87630606 0.0038898778
0.058530439 0.043620568 -0.012620742 0.035311718 0.3848654 -0.922297 0.0033592188
0.06133296 0.043439165 -0.012413329 0.16987856 0.29278585 -0.94096643 0.0052204663
0.063412562 0.042458724 -0.012093373 0.39433765 0.14708206 -0.90711892 0.0023191352
-0.060387976 0.045387812 -0.01213082 -0.30733603 0.22493498 -0.92463446 0.0051378584
-0.058451068 0.045853853 -0.012304955 -0.11153723 0.36374369 -0.9247973 0.004025002
-0.055618014 0.045826476 -0.012423441 0.011827528 0.45038217 -0.89275753 0.00383515
-0.052667972 0.045571506 -0.012323849 0.11901657 0.53064364 -0.83919746 0.0035750601
-0.050800014 0.045341358 -0.012124258 0.19158098 0.58307767 -0.78950435 0.0018607104
-0.01326857 0.0054949606 -0.0094023012 -0.17754316 -0.76244766 -0.62221539 0.00088928023
-0.010382892 0.0052183727 -0.0097890953 -0.1438316 -0.75749582 -0.63679874 0.0012363876
-0.0074787834 0.0049791411 -0.010059748 -0.11709957 -0.7487219 -0.65245938 0.0014623476
-0.0044884817 0.004840618 -0.010314142 -0.080890961 -0.75298715 -0.65304446 0.0019232987
-0.0015430001 0.0049681868 -0.010748428 -0.043167185 -0.73139888 -0.68058234 0.0020665214
0.0014602883 0.0046634274 -0.010585251 -0.054766055 -0.74752581 -0.66197133 0.0018764886
0.0044979467 0.0045670643 -0.01057641 -0.013473546 -0.77007943 -0.6378057 0.0024277705
0.0074878964 0.0047956938 -0.010839701 0.033145111 -0.75023037 -0.6603452 0.0016691898
0.010454354 0.0047272136 -0.010638044 0.049502116 -0.76200485 -0.64567643 0.0015735107
0.013414224 0.0048434697 -0.010535032 0.066406347 -0.78475243 -0.61624169 0.0020287747
0.016378012 0.0049114879 -0.01024988 0.099716611 -0.78026432 -0.6174497 0.0011165289
0.019447628 0.0051949895 -0.010048806 0.13462527 -0.791134 -0.59664315 0.0011320756
0.022325132 0.005596898 -0.0098796096 0.16170281 -0.79649019 -0.58262819 0.0010240675
0.025033884 0.0058306684 -0.0093940329 0.19345355 -0.8033337 -0.56323242 0.0008120563
-0.022216134 0.0083416393 -0.0095860213 -0.27583608 -0.7374112 -0.61655414 0.0010151902
-0.019375559 0.0078611216 -0.010169768 -0.25176215 -0.72356683 -0.64270282 0.0014525627
-0.016473321 0.0073252106 -0.010540742 -0.19899033 -0.73907292 -0.64356345 0.00069611642
-0.013592935 0.0069469819 -0.010949747 -0.16752256 -0.73660779 -0.65524441 0.0010541939
-0.01058681 0.0065998393 -0.011254273 -0.12957792 -0.72868067 -0.6724835 0.0015002445
-0.0074514686 0.006296433 -0.011485673 -0.099345885 -0.71581089 -0.69119102 0.001407958
-0.0049792076 0.0061586425 -0.011671829 -0.066004641 -0.67287397 -0.73680663 0.002548109
0.01425053 0.0061525507 -0.011936726 0.043969635 -0.71397722 -0.69878691 0.0023623612
0.016436396 0.0060996464 -0.011676789 0.081633188 -0.74980778 -0.65660065 0.0012677633
0.019355359 0.0063594994 -0.01155229 0.11184894 -0.71370238 -0.69146127 0.0011934163
0.022694053 0.0068468004 -0.011429892 0.14758307 -0.72417343 -0.67364091 0.0013617458
0.025553616 0.006996396 -0.010806856 0.18133575 -0.779342 -0.59978616 0.00088402524
0.028489061 0.0076068104 -0.010601535 0.2159059 -0.79197103 -0.57110995 0.00076972146
0.031411681 0.0081426296 -0.010202432 0.2494612 -0.77544683 -0.58004415 0.0012214713
0.033915084 0.0084734205 -0.0094859125 0.28799784 -0.78310961 -0.55117744 0.00099573308
-0.031024959 0.011727218 -0.0095543768 -0.3147395 -0.74431831 -0.58900702 0.00081058376
-0.028373832 0.011217476 -0.01021204 -0.29070231 -0.72996759 -0.61857867 0.0013052648
-0.025508678 0.010465074 -0.010606659 -0.26589969 -0.71359342 -0.64813715 0.0019273395
-0.02264462 0.0097691277 -0.011016384 -0.25503209 -0.71806741 -0.6475631 0.0013737801
-0.019736435 0.0092216544 -0.011502434 -0.21993226 -0.67144012 -0.70767075 0.00071553234
-0.017792201 0.0090712663 -0.011988874 -0.19474144 -0.65185529 -0.73291236 0.0030120916
0.031929389 0.0093606878 -0.011550803 0.23110279 -0.70435393 -0.6711759 0.001045384
0.034655515 0.0097978003 -0.010910055 0.27039397 -0.76043963 -0.59043932 0.0012860505
0.037485328 0.010656601 -0.010604813 0.29378295 -0.75513154 -0.58606142 0.0018668314
0.040154487 0.011354277 -0.010020015 0.34993702 -0.75199407 -0.55861342 0.0011256144
0.042133182 0.01189743 -0.0095178541 0.39653841 -0.76318038 -0.51020879 0.0022542656
-0.03699065 0.014488192 -0.0096571017 -0.37878567 -0.71316475 -0.58984518 0.00081490987
-0.034301229 0.013890729 -0.010422852 -0.32277891 -0.7133761 -0.62201959 0.00137499
-0.031636618 0.013178258 -0.010935088 -0.29968125 -0.7223441 -0.62322557 0.0011488241
-0.028959189 0.012696693 -0.011597428 -0.26251009 -0.65110517 -0.71214503 0.001130174
0.038272485 0.012033734 -0.011911873 0.29195452 -0.7027638 -0.64875698 0.0021687604
0.040665597 0.012689365 -0.011424081 0.32260662 -0.70467633 -0.63194638 0.00048472051
0.043586712 0.013483715 -0.010620332 0.37200683 -0.73101932 -0.57203287 0.00096149434
0.04603124 0.014447505 -0.010177426 0.40918443 -0.72716677 -0.55117756 0.001372326
-0.042459957 0.017429288 -0.0094038825 -0.46002334 -0.68312293 -0.56720507 0.0016202556
-0.040285088 0.016783142 -0.01019407 -0.41079286 -0.6776374 -0.60996455 0.0016917239
-0.037754431 0.016109362 -0.010991151 -0.36274269 -0.69216084 -0.62396401 0.0012107659
-0.035189621 0.015437211 -0.011652286 -0.30453816 -0.67684567 -0.67017645 0.0012713985
0.046790782 0.015877549 -0.011360376 0.3914876 -0.68866175 -0.61031336 0.0010850228
0.049362827 0.016757337 -0.010511147 0.44400984 -0.67992061 -0.58357799 0.0018186761
0.051763393 0.017448734 -0.0094209248 0.48829764 -0.67152089 -0.55733752 0.0012765774
-0.046033304 0.020323312 -0.0098515041 -0.47634625 -0.64727187 -0.59509104 0.0012159243
-0.043579333 0.019345108 -0.010634375 -0.42758825 -0.64307302 -0.63531518 0.0020872818
-0.041122951 0.018493088 -0.011421605 -0.37957171 -0.64213234 -0.66602659 0.0012920576
0.050095074 0.018252935 -0.011616854 0.44108465 -0.65234923 -0.61634785 0.0010293726
0.052541766 0.019400535 -0.010952617 0.46756527 -0.60021973 -0.64893681 0.001155348
0.054943994 0.020067407 -0.0096879099 0.52326584 -0.64526224 -0.55662328 0.00084992417
-0.051010385 0.023606582 -0.00936139 -0.47226492 -0.64306706 -0.60285211 0.0016053064
-0.049150113 0.022864424 -0.010057298 -0.49028212 -0.63102472 -0.60119152 0.0016777657
-0.046828717 0.022125514 -0.011064359 -0.45904896 -0.58915132 -0.66496235 0.0018773095
-0.044652391 0.021333467 -0.011851309 -0.42721516 -0.58703911 -0.68765706 0.0030638804
0.053522304 0.021185037 -0.011899798 0.48439193 -0.5838517 -0.65152246 0.00087527756
0.055639829 0.02211364 -0.011084887 0.50511497 -0.55312598 -0.6625033 0.0018926917
0.057992298 0.023048833 -0.0099669825 0.55530435 -0.56128013 -0.61367881 0.00078024273
-0.054512497 0.026538746 -0.009529897 -0.51616019 -0.59356678 -0.61746025 0.00098826026
-0.052320678 0.025652945 -0.01039277 -0.48262209 -0.60763443 -0.63075846 0.0023065403
-0.049920853 0.024638318 -0.011224948 -0.44821841 -0.607198 -0.656057 0.0018366931
0.05690448 0.024125565 -0.011770966 0.51608044 -0.50015378 -0.69534677 0.00049329619
0.058755394 0.02518422 -0.011068854 0.5525986 -0.47438547 -0.6852687 0.0021034582
0.060723364 0.025998458 -0.009987629 0.59117997 -0.49399966 -0.63755047 0.0011671515
-0.057570409 0.029516418 -0.0095940502 -0.55477893 -0.52447039 -0.64587235 0.00087133265
-0.055496614 0.028611604 -0.010551033 -0.53669244 -0.51768619 -0.66630489 0.0017606543
-0.053237304 0.02767133 -0.011532451 -0.50025058 -0.5510782 -0.66787893 0.00059525546
-0.012773417 0.029998846 -0.011746768 0.19032991 0.69982028 -0.68849558 0.0016811414
-0.010276658 0.029415658 -0.011709985 0.15986598 0.65241188 -0.74081147 0.00162096
-0.0073592444 0.029096099 -0.011371539 0.13349886 0.66793662 -0.73214656 0.0018024239
-0.0044486704 0.028851079 -0.0111351 0.10554613 0.68640161 -0.71952277 0.0014675014
-0.0014003834 0.028663136 -0.010920118 0.07485047 0.7031076 -0.70713294 0.0014671044
0.0015418238 0.028559344 -0.010804987 0.040964331 0.73795664 -0.67360371 0.0027525255
0.0045261481 0.028607171 -0.010675798 0.00011490116 0.73767394 -0.67515725 0.0020684877
0.0075176368 0.028589744 -0.010766209 -0.043403435 0.74365097 -0.66715771 0.002863755
0.010399564 0.028735321 -0.010878672 -0.079517663 0.76873142 -0.63460928 0.0010851836
0.013333318 0.02889148 -0.011095223 -0.1134446 0.7663793 -0.63229203 0.001609287
0.016301878 0.029184569 -0.011381233 -0.15569352 0.69324213 -0.70368659 0.0014729081
0.018850649 0.029448103 -0.0117523 -0.18869407 0.67764759 -0.71076608 0.0012389874
0.059795901 0.027083654 -0.011554281 0.58603847 -0.42861491 -0.68763959 0.0023431845
0.061525524 0.02830256 -0.010823216 0.59107411 -0.40083951 -0.69997072 0.0014061674
0.063502133 0.029064612 -0.0095071895 0.62201232 -0.4221102 -0.65948749 0.0022068182
-0.060376316 0.032336373 -0.00928789 -0.5957033 -0.49682841 -0.63110936 0.0017498542
-0.05844003 0.031612001 -0.010433774 -0.55440319 -0.47617471 -0.6825648 0.0028347422
-0.056301307 0.030825607 -0.011591863 -0.49715891 -0.42986113 -0.75369257 0.0020541756
-0.021409065 0.032774493 -0.011820459 0.26366976 0.67701012 -0.68712115 0.0038734993
-0.019220626 0.032397408 -0.011380109 0.25151774 0.70263875 -0.66561067 0.0006359556
-0.016438976 0.031962674 -0.010800212 0.23162974 0.75325787 -0.61558932 0.0011128678
-0.013619153 0.031351693 -0.010525281 0.2113297 0.74688649 -0.63047624 0.0025591273
-0.010566757 0.030820919 -0.010228618 0.18413727 0.74977845 -0.63555157 0.0017375781
-0.007605359 0.030414958 -0.0099495864 0.14523141 0.76475173 -0.62774414 0.0016278642
-0.0047378503 0.030245701 -0.0095821498 0.1096439 0.77410376 -0.62349141 0.0013435965
-0.0016221801 0.03001222 -0.009363506 0.077770911 0.77709752 -0.62455672 0.0012795052
0.0010214279 0.030014798 -0.0090932017 0.052451745 0.81596595 -0.57571542 0.0036297303
0.0087151062 0.030020747 -0.0090769352 -0.041067075 0.78139007 -0.62269014 0.001064728
0.010680073 0.030021759 -0.0093247471 -0.07818605 0.78876305 -0.60970467 0.0011779119
0.013699849 0.030215632 -0.0095412191 -0.11393907 0.7878539 -0.60523057 0.0014591556
0.01655177 0.03044918 -0.0099292379 -0.16243383 0.77907467 -0.60552275 0.0015816534
0.019542389 0.030856909 -0.0103271 -0.20641887 0.76425618 -0.61098582 0.0015262837
0.022499768 0.031475138 -0.010605138 -0.22914875 0.77633786 -0.58718848 0.00096666574
0.025367375 0.032221965 -0.010786618 -0.23743349 0.75720769 -0.60849142 0.0012199485
0.028233772 0.03261989 -0.01144292 -0.24968511 0.71385616 -0.65426815 0.00059378153
0.030267682 0.032932948 -0.011883474 -0.26833338 0.69986713 -0.66195399 0.0030382851
0.062453855 0.030967006 -0.011452834 0.60542196 -0.30094242 -0.73681611 0.0025358323
0.064158455 0.031516969 -0.010239582 0.64199716 -0.34832308 -0.68301588 0.0011570606
-0.061202213 0.034659185 -0.010075048 -0.61126202 -0.41890255 -0.67147553 0.0012507582
-0.059114709 0.034130991 -0.011434426 -0.52225649 -0.35383818 -0.77591664 0.0021961129
-0.028062707 0.035802335 -0.011511875 0.30158749 0.70046902 -0.64682931 0.0018786605
-0.025336742 0.034928065 -0.011173348 0.3039355 0.70485449 -0.64093941 0.0036962195
-0.022565495 0.03437306 -0.010492797 0.28211752 0.75473636 -0.59226912 0.0010838002
-0.019720824 0.033756483 -0.0099836374 0.26932806 0.75201118 -0.60161585 0.0013773505
-0.01711298 0.033392996 -0.0092885941 0.24149063 0.78789395 -0.56648517 0.0020762091
0.02615826 0.033505205 -0.0094444798 -0.2504335 0.77986807 -0.5736627 0.0011569133
0.02871241 0.033965021 -0.0099647976 -0.26595157 0.76189482 -0.59058106 0.0016293079
0.031560197 0.034492992 -0.010585178 -0.28006756 0.76978457 -0.57357997 0.0011655074
0.03441513 0.035277989 -0.010992773 -0.30432239 0.74326277 -0.59577543 0.0016709233
0.036841389 0.035709929 -0.011720507 -0.32989889 0.65549278 -0.67933488 0.0014187549
0.062975757 0.033033695 -0.011867062 0.59673905 -0.26160479 -0.75859439 0.0018879654
0.064613916 0.034290269 -0.010913491 0.58637547 -0.20021257 -0.78490686 0.0011896089
0.06645862 0.035061534 -0.0095921224 0.66056472 -0.26708588 -0.70165467 0.0015220158
-0.063763507 0.037895907 -0.0096032061 -0.6063785 -0.34578031 -0.71605939 0.0023745568
-0.061685231 0.037536956 -0.011052462 -0.5330146 -0.26473463 -0.80362368 0.0011334366
-0.05995851 0.036470935 -0.011864961 -0.49130753 -0.23284796 -0.83928466 0.0034891036
-0.03398918 0.038417906 -0.011664293 0.31138727 0.64280421 -0.69988626 0.0012179511
-0.031361617 0.037840087 -0.01091884 0.33115888 0.72550786 -0.60330099 0.0012990598
-0.028682034 0.037071835 -0.010380009 0.32700074 0.73294294 -0.5965445 0.0020653896
-0.025826551 0.036365237 -0.0096767172 0.3199192 0.7487815 -0.5804981 0.0011300587
0.034971468 0.036623783 -0.0095796641 -0.32889792 0.75423086 -0.56829745 0.0013295559
0.037654493 0.037281338 -0.010371959 -0.3393119 0.73137021 -0.59157848 0.0018637972
0.040329665 0.038147718 -0.010999745 -0.3534947 0.69747216 -0.62335712 0.001553923
0.042564362 0.038711932 -0.011689451 -0.34389502 0.61453784 -0.70998555 0.0013209513
0.065013357 0.037254579 -0.011290288 0.55863744 -0.094279274 -0.82403618 0.0019733869
0.066970237 0.037312578 -0.0096894847 0.66882378 -0.14412014 -0.72931749 0.0021013091
-0.066153973 0.041645952 -0.0090391263 -0.63637197 -0.26676586 -0.72378635 0.0029988468
-0.064416334 0.040591374 -0.010071972 -0.56903577 -0.22343192 -0.79137629 0.0044604684
-0.062226012 0.040377203 -0.011493796 -0.49524352 -0.14149994 -0.85715318 0.0027789713
-0.040134456 0.041469317 -0.011532794 0.30455521 0.67422265 -0.67280751 0.0019308232
-0.037308685 0.040777199 -0.0108151 0.35453856 0.72014087 -0.59640557 0.00086373481
-0.034610938 0.039865766 -0.010374619 0.34299558 0.713705 -0.61072016 0.0013387491
-0.032224648 0.039339736 -0.0096134339 0.35669452 0.73895973 -0.57158339 0.0010590833
0.040969048 0.039678901 -0.0096793184 -0.40528166 0.70571917 -0.58112586 0.0011881382
0.043558281 0.040461034 -0.010431577 -0.35984612 0.66690385 -0.65249515 0.0011136484
0.046181515 0.041168135 -0.011194694 -0.32379174 0.63889027 -0.69783813 0.0008699079
0.048498217 0.041698739 -0.011796284 -0.30882218 0.64463884 -0.69933504 0.0010968165
0.065035902 0.040569756 -0.011444164 0.5150758 0.0064797895 -0.85712022 0.002986727
0.067077555 0.040305126 -0.010008713 0.63637173 -0.07082098 -0.76812458 0.0025527836
-0.066397026 0.043619473 -0.0092785498 -0.58951104 -0.1293643 -0.79733402 0.0033385097
-0.064443007 0.043415878 -0.010539177 -0.52139622 -0.099280909 -0.84751952 0.0024524769
-0.062172677 0.043466326 -0.011743543 -0.42003837 0.013873947 -0.90740025 0.0037201091
-0.048629902 0.044928346 -0.011842836 0.2418344 0.63285267 -0.73553634 0.0011806133
-0.04635958 0.044419814 -0.011478915 0.27257803 0.65882492 -0.70117825 0.0021626072
-0.043403935 0.0436121 -0.010938271 0.32310385 0.65008199 -0.68774796 0.0019556091
-0.040761545 0.043019462 -0.0102118 0.33541405 0.70255077 -0.62763041 0.0019526775
-0.038401324 0.042508375 -0.0094268722 0.37666297 0.71252871 -0.59196955 0.001038913
0.044986602 0.04234463 -0.0092530288 -0.41201457 0.69117057 -0.59373993 0.0020869875
0.046868324 0.042865813 -0.0098668449 -0.38398227 0.67389202 -0.6312108 0.0015069253
0.049527939 0.043561354 -0.010541008 -0.31348592 0.6247924 -0.71509516 0.00094999606
0.052298829 0.044133697 -0.011201642 -0.25545844 0.57725137 -0.77557838 0.0015193246
0.055154912 0.044602733 -0.0117319 -0.18703483 0.57169473 -0.79886359 0.0025559838
0.05735527 0.044868652 -0.011967303 -0.062356852 0.48070419 -0.87466282 0.0053487113
0.062185772 0.04463324 -0.011881702 0.15184158 0.301191 -0.94139689 0.0064519998
0.06458284 0.043693677 -0.011315257 0.34996182 0.22162244 -0.9101705 0.0041799503
0.067098051 0.043304354 -0.0099711912 0.55876642 0.086716332 -0.82477897 0.0040495056
-0.066665091 0.046571154 -0.0092903124 -0.53739977 0.026059756 -0.84292489 0.0047993818
-0.064569339 0.046514876 -0.010408965 -0.39813402 0.13588664 -0.90720677 0.006667858
-0.061700989 0.046695195 -0.0114142 -0.29523566 0.20932998 -0.93221074 0.0049703787
-0.058640797 0.047386687 -0.011630693 -0.034623865 0.42529845 -0.90439069 0.0038135059
-0.055474579 0.047239255 -0.01162041 0.083990611 0.50924885 -0.85651112 0.0027620215
-0.052416783 0.046903472 -0.011344017 0.17794326 0.57385838 -0.799389 0.0020935442
-0.049501952 0.046545792 -0.010735389 0.2422768 0.62999707 -0.73783851 0.0012753077
-0.046636377 0.046013031 -0.010053494 0.33107176 0.6828208 -0.65126592 0.0018584965
-0.044052571 0.045335855 -0.0094446586 0.3576605 0.70303857 -0.61466724 0.0013253532
0.050679974 0.045363665 -0.0093833664 -0.38958716 0.65547377 -0.6469745 0.0014040233
0.052746981 0.04601261 -0.0097849946 -0.32140085 0.65429378 -0.68454456 0.0019586671
0.055553686 0.046569519 -0.010402286 -0.24547341 0.58597916 -0.77225071 0.0012647063
0.058494233 0.046676796 -0.011015854 -0.1334545 0.53911263 -0.83159333 0.0014446889
0.061458386 0.04669157 -0.011136753 0.075435296 0.41050071 -0.90873468 0.0061804419
0.064414337 0.046531357 -0.010660558 0.28449893 0.29821569 -0.91111344 0.0074306652
0.066970333 0.046262458 -0.0096206311 0.48992002 0.18886872 -0.85106224 0.0046534357
-0.066357628 0.049106173 -0.0091868341 -0.39767638 0.2273279 -0.88891816 0.007933584
-0.064489357 0.049506612 -0.0097444635 -0.28070977 0.31636176 -0.90615523 0.0055205547
-0.0615016 0.04948575 -0.010363197 -0.13382469 0.43284532 -0.89147961 0.0070705721
-0.058489267 0.049601145 -0.010361359 0.075791202 0.56226981 -0.82347333 0.002723905
-0.055546787 0.049278893 -0.010188327 0.15305252 0.62217832 -0.76776892 0.0028075797
-0.052660178 0.048760079 -0.0098450147 0.2400286 0.6440866 -0.72631866 0.0022506102
-0.050196171 0.0482939 -0.0093764029 0.29923385 0.6788969 -0.67049092 0.0021141414
0.056315847 0.048419483 -0.0091838362 -0.29105508 0.64183384 -0.70946205 0.0026371225
0.05866136 0.048909921 -0.0095481873 -0.1898922 0.58149296 -0.79107964 0.0039405399
0.061587904 0.049369831 -0.0097217243 -0.028434893 0.50268847 -0.86399978 0.0041624438
0.064435057 0.04933095 -0.0096085845 0.15353426 0.37938604 -0.91241086 0.0083004031
0.066564329 0.048738133 -0.0092264758 0.39666808 0.28986317 -0.87099588 0.0070342952
-0.063828431 0.051193777 -0.0091827922 -0.18371525 0.43495908 -0.88150972 0.0066022612
-0.061516412 0.051403444 -0.0092175473 -0.011354125 0.58415008 -0.81156629 0.0047379988
-0.058867693 0.051209431 -0.0092383986 0.10633644 0.65251821 -0.75027502 0.002547116
-0.0073499656 0.0024867435 -0.0063977479 -0.13734567 -0.88096833 -0.45280343 0.0027505264
-0.0044011842 0.0025936619 -0.0071829883 -0.075888149 -0.87030017 -0.48664007 0.0016838412
-0.0014950215 0.0024075215 -0.0072407294 -0.053188823 -0.88023734 -0.47154346 0.0030811103
0.0014999931 0.0023527408 -0.0074128681 -0.018795008 -0.86796522 -0.49626914 0.0018165844
0.0045033414 0.0022860274 -0.0073778373 -0.026388546 -0.86627322 -0.49887308 0.0018712881
0.0074356371 0.0022779016 -0.0072883791 0.023982838 -0.87558293 -0.48247215 0.002268
0.010503108 0.0023889099 -0.0072232084 0.059672546 -0.87612063 -0.47838444 0.001674254
0.013161837 0.0024125974 -0.0068106926 0.084367871 -0.8794924 -0.46837509 0.0015224402
0.016461315 0.0027156745 -0.0066903406 0.11668079 -0.91441965 -0.38758525 0.00085900998
0.01867443 0.002897189 -0.0064270319 0.16077371 -0.88398844 -0.43899459 0.001084034
-0.019197322 0.0054087047 -0.0067462181 -0.28255138 -0.83745074 -0.46780437 0.0013341594
-0.016388819 0.0050120191 -0.0075182109 -0.23523304 -0.83648199 -0.49493763 0.0016625627
-0.013481699 0.0043014637 -0.0075600082 -0.19272164 -0.84292454 -0.50233114 0.0022371733
-0.010549966 0.0037241417 -0.0075995163 -0.15909991 -0.83099908 -0.53303635 0.0018648126
-0.0075350553 0.0035034036 -0.0080599859 -0.11767806 -0.824251 -0.55386108 0.0021333608
-0.0043769758 0.0034946669 -0.0086134635 -0.086587138 -0.80054605 -0.59298277 0.00078971073
-0.0014468817 0.0034494791 -0.0089013735 -0.065279484 -0.83027291 -0.55352092 0.0031622117
0.0059163482 0.0033018813 -0.0089986175 -0.008245416 -0.80137855 -0.59810078 0.00049603236
0.0074943341 0.0032643534 -0.0089110257 0.021428457 -0.84213787 -0.53883654 0.0017972321
0.010455482 0.0031865507 -0.0086108027 0.048683509 -0.85035783 -0.52394795 0.0020424437
0.013736153 0.0033213373 -0.0084157614 0.078618944 -0.85299093 -0.51597041 0.001468944
0.016634889 0.0035693445 -0.0082631689 0.10479106 -0.8557629 -0.50664455 0.0011402082
0.019605067 0.0038298443 -0.0079388693 0.15539758 -0.8697871 -0.46831822 0.001601577
0.022473084 0.0041821892 -0.0075554824 0.18078358 -0.87343758 -0.45213273 0.00097624288
0.025545569 0.0049717166 -0.0077466704 0.19893476 -0.86445612 -0.46167141 0.0011394365
0.028226461 0.0054637706 -0.0073500169 0.23472442 -0.86404037 -0.44535229 0.0013662255
0.030029755 0.0056020282 -0.0065704607 0.27462131 -0.84895557 -0.45150584 0.0011858738
-0.027605338 0.0084102079 -0.0064509846 -0.33850735 -0.82361859 -0.45504412 0.0015342901
-0.025319673 0.0080419909 -0.0074048634 -0.32030243 -0.81410277 -0.48439959 0.0016186667
-0.022526845 0.0071280259 -0.0076471311 -0.311968 -0.80450839 -0.50541276 0.0019312968
-0.019746473 0.006420345 -0.0081332801 -0.26926491 -0.81758785 -0.50896615 0.0018837512
-0.017434724 0.0061166054 -0.0087824315 -0.22543122 -0.7583409 -0.611637 0.00093592261
0.028579758 0.006212641 -0.0085911648 0.22792031 -0.84051782 -0.49151003 0.0010138501
0.031490058 0.0067016245 -0.0078537194 0.27572003 -0.84598774 -0.45638052 0.0012179116
0.034559213 0.0076513514 -0.0076718666 0.28936553 -0.84429044 -0.45104471 0.00098733685
0.037296668 0.0085323276 -0.0073533133 0.3137252 -0.82855129 -0.4637664 0.0010369811
0.039299309 0.0088692922 -0.0063711363 0.35726064 -0.81713974 -0.45237979 0.00061171508
-0.036327295 0.011902299 -0.0060171313 -0.41134584 -0.82578868 -0.38583377 0.0030092469
-0.034226838 0.011591014 -0.0072543314 -0.36284995 -0.8100695 -0.46057284 0.0015534885
-0.031516407 0.010631177 -0.0075793909 -0.34487182 -0.80514729 -0.4824948 0.0019704201
-0.028693946 0.0095769055 -0.0077555301 -0.34600043 -0.81727457 -0.46081007 0.0014480557
-0.026384117 0.0092226909 -0.0086272666 -0.29902834 -0.7971974 -0.52446014 0.0015564102
0.037475307 0.009320247 -0.0086893747 0.32595348 -0.81265134 -0.48306534 0.00056774524
0.040757865 0.01015421 -0.0076160729 0.36395213 -0.80986869 -0.46005604 0.00055829494
0.043327302 0.011424181 -0.0077375276 0.40438214 -0.79611284 -0.45019943 0.001089258
0.045226797 0.011750877 -0.0065399506 0.43175578 -0.79093504 -0.43359983 0.0006671939
-0.040007472 0.014383441 -0.0071258973 -0.44617978 -0.76909041 -0.45762819 0.0011392693
-0.037585452 0.013362681 -0.007581044 -0.41196635 -0.80043399 -0.43541834 0.00076419278
-0.035108197 0.012687505 -0.0084046684 -0.34888673 -0.75848401 -0.55043632 0.00088409439
0.044246357 0.012326753 -0.0085378755 0.4179846 -0.78850192 -0.45116916 0.0010315903
0.046364043 0.013198621 -0.0080475369 0.44436568 -0.75856793 -0.47656456 0.0011036369
0.048866063 0.014335588 -0.0075180465 0.44421923 -0.7594986 -0.47521687 0.00095856504
-0.045414168 0.017451786 -0.0064558033 -0.50693804 -0.74116468 -0.44010097 0.0011786954
-0.0433545 0.016652329 -0.0074734204 -0.47623649 -0.75195491 -0.45580995 0.0010408027
-0.041028686 0.015630301 -0.0082021374 -0.44261828 -0.74224991 -0.50314415 0.0025629455
0.050122678 0.015581847 -0.0083073564 0.45294756 -0.73173362 -0.50931752 0.00091453019
0.052257672 0.016659202 -0.0077270768 0.49822396 -0.71264893 -0.49386674 0.00084539573
0.054595277 0.01760542 -0.006594677 0.51495874 -0.70100605 -0.49336407 0.00077644049
-0.04890446 0.020421613 -0.0071365605 -0.53935963 -0.7141664 -0.4461588 0.0013909732
-0.046645891 0.019116439 -0.007693646 -0.52201408 -0.71284062 -0.46835831 0.0019113461
-0.04465254 0.018181983 -0.0084349858 -0.50325722 -0.71654081 -0.4830128 0.0012465445
0.053719886 0.018408554 -0.0088389609 0.51401907 -0.67899692 -0.52416378 0.0019694706
0.055723228 0.019112345 -0.0076460615 0.52336079 -0.67730677 -0.51705796 0.0014275369
0.057150252 0.020604115 -0.0081169512 0.550695 -0.66514009 -0.50430512 0.0014049734
-0.052127015 0.022978174 -0.007344 -0.55544019 -0.69911534 -0.45024872 0.0019771762
-0.049994584 0.021830801 -0.0080154417 -0.5286172 -0.69568443 -0.48640198 0.0022799643
0.058549274 0.021840746 -0.0081105996 0.56030589 -0.59138429 -0.57993269 0.00063822733
0.060475528 0.023321241 -0.0076415557 0.5926531 -0.55087787 -0.58761877 0.00081516244
-0.057405353 0.026635805 -0.0063779969 -0.59671521 -0.65404075 -0.46493191 0.00097601162
-0.055434819 0.025663957 -0.0074528097 -0.57884789 -0.68870503 -0.4366011 0.00066045154
-0.053246185 0.024437273 -0.0082225287 -0.55462855 -0.6943174 -0.45859629 0.0013721989
0.061574694 0.02492639 -0.0080633527 0.61300147 -0.52353841 -0.59172362 0.00050753658
0.063720636 0.026306707 -0.0068303263 0.63866132 -0.47945711 -0.60185766 0.00098050723
-0.060382623 0.029669804 -0.0065503996 -0.64261138 -0.59699273 -0.4802607 0.0010201873
-0.058484979 0.028609853 -0.0076456564 -0.59632659 -0.61681432 -0.51374561 0.0028124151
-0.056557279 0.027552856 -0.0086057857 -0.55702507 -0.58652079 -0.58797657 0.001415005
0.064311311 0.028314391 -0.0080062579 0.65245026 -0.44479212 -0.61357045 0.0010732303
-0.063221641 0.032691199 -0.0061925636 -0.68487287 -0.57274997 -0.45045161 0.0019981896
-0.061364289 0.031638008 -0.0074912473 -0.67297482 -0.54174536 -0.50360376 0.002768707
-0.059610214 0.03053483 -0.0084860716 -0.63250673 -0.55824131 -0.53693759 0.0010800847
-0.013074301 0.032669235 -0.0086144712 0.22890851 0.78964096 -0.56926984 0.0010083981
-0.01039838 0.032401487 -0.0079782177 0.19374084 0.83761621 -0.51074809 0.0013328257
-0.0075834794 0.032004748 -0.0076226718 0.16042396 0.85606813 -0.49133655 0.0015316609
-0.0046146419 0.031532444 -0.0076198489 0.11600448 0.85875523 -0.49908149 0.0034629025
-0.0015507896 0.031162666 -0.007591289 0.086544156 0.85732055 -0.50745595 0.0022581413
0.0016469989 0.030897185 -0.0076470389 0.058165457 0.85813296 -0.51012212 0.0019351195
0.004545365 0.0307275 -0.0077808797 0.013665597 0.86226362 -0.5062753 0.001952157
0.0074398126 0.030807303 -0.0077027534 -0.053490672 0.8621701 -0.5037871 0.0020137124
0.010614128 0.031077925 -0.0076470203 -0.078932069 0.86898607 -0.48850068 0.0019841027
0.013476526 0.031403653 -0.0076076398 -0.12782988 0.85904497 -0.49568251 0.0022085998
0.016540093 0.031940144 -0.0076098572 -0.18816569 0.86553359 -0.46416083 0.0018548499
0.019342007 0.032529812 -0.0078031006 -0.2225389 0.84424305 -0.48757562 0.0014203686
0.021988671 0.03279588 -0.0086001623 -0.24321242 0.83831215 -0.48793492 0.0018701558
0.065728575 0.030733928 -0.0081670266 0.67241591 -0.3844983 -0.63246971 0.0020520857
0.066805892 0.031908587 -0.007572385 0.68681437 -0.31984338 -0.65267611 0.0011456967
-0.064022228 0.03480212 -0.0072590024 -0.69558984 -0.48070824 -0.53392351 0.0021498774
-0.062427893 0.03384956 -0.0083374726 -0.67525011 -0.51001799 -0.53284043 0.0012736066
-0.021526961 0.035447571 -0.0084907198 0.28671756 0.81673157 -0.5007419 0.002886981
-0.019345624 0.035047643 -0.007858526 0.28161985 0.83415526 -0.47421014 0.0014816334
-0.016460128 0.034234039 -0.0075940629 0.26077309 0.83729297 -0.48056 0.0018915209
-0.013554354 0.033661757 -0.0071384353 0.22600858 0.85228854 -0.47172481 0.0018102733
-0.01090286 0.03332299 -0.0064785709 0.19179897 0.90452093 -0.38086089 0.0016339065
0.020208292 0.033430129 -0.00653646 -0.22961909 0.86470068 -0.44673008 0.0018691083
0.022635654 0.033766776 -0.0071824254 -0.24462654 0.8573004 -0.45298335 0.001732332
0.025491243 0.034411985 -0.0075870897 -0.26534685 0.84726506 -0.46014458 0.0015373055
0.02834768 0.035249945 -0.0077471486 -0.29976466 0.84917808 -0.43478468 0.0010701545
0.030912187 0.0357644 -0.0084498851 -0.30352283 0.82704562 -0.47314844 0.0018725016
0.06747698 0.034153692 -0.0080242753 0.6926533 -0.25984484 -0.67283875 0.0014723081
-0.066617429 0.038146019 -0.0067702886 -0.71075183 -0.41588926 -0.56733406 0.0026568931
-0.065104686 0.037361372 -0.0079817111 -0.6915015 -0.41806287 -0.58910882 0.003239952
-0.028146898 0.03839989 -0.0081744185 0.37805891 0.79207575 -0.4792572 0.0023231946
-0.02540895 0.037562933 -0.0075057377 0.3588587 0.80303031 -0.47577599 0.0018945442
-0.022690989 0.036511499 -0.0074350494 0.31941232 0.82870072 -0.45959857 0.0013590776
-0.020046074 0.036112532 -0.0062575936 0.29799178 0.88657522 -0.35381526 0.0019208565
0.029597849 0.036397595 -0.0063410979 -0.31188932 0.85483968 -0.41469759 0.0014930074
0.031785905 0.036722552 -0.0072645177 -0.3182689 0.84014791 -0.43915409 0.0017353132
0.034471028 0.037681885 -0.0075205928 -0.37098855 0.81596094 -0.44336817 0.0030372457
0.037044484 0.038547453 -0.0081848036 -0.41136354 0.78788078 -0.45828369 0.0026051672
0.068463512 0.036846984 -0.0079970062 0.70917666 -0.20234007 -0.67537165 0.0020453082
0.069591895 0.038128942 -0.0069778971 0.7207827 -0.13473597 -0.67994004 0.00111634
-0.067274198 0.04064073 -0.0075052916 -0.71601743 -0.29495746 -0.63270766 0.0021092424
-0.065737106 0.039747961 -0.0087029273 -0.63630927 -0.26679403 -0.72383112 0.0030183147
-0.036127754 0.041981462 -0.0086047361 0.40587345 0.77643186 -0.48209977 0.0017050967
-0.034184702 0.041227333 -0.0082153082 0.38978779 0.79069757 -0.47208339 0.0022372168
-0.031546723 0.040198501 -0.0077929101 0.36966175 0.80360121 -0.46644974 0.0016453217
-0.02918818 0.039492492 -0.0070701437 0.37522498 0.81091034 -0.44903293 0.0010770785
0.037984218 0.039684836 -0.0071161683 -0.42873761 0.78887242 -0.44030032 0.0015659009
0.040403146 0.040779047 -0.0076355794 -0.4612245 0.77972335 -0.42344251 0.00098946597
0.042664442 0.041714944 -0.0082659079 -0.46115154 0.75444794 -0.46706286 0.0018538381
0.068742536 0.040603854 -0.0085216388 0.67767733 -0.084595352 -0.73047733 0.0016571131
0.070036307 0.040550627 -0.0069987089 0.717076 -0.06123152 -0.69430012 0.0015320063
-0.069454283 0.043824617 -0.006422956 -0.73589534 -0.24747793 -0.63024825 0.002287962
-0.067887299 0.04340611 -0.0079328762 -0.69808286 -0.18071507 -0.69283652 0.0025163272
-0.040189542 0.044288803 -0.0081870714 0.40674981 0.78070706 -0.47439545 0.0010492794
-0.037462879 0.043283675 -0.0075534503 0.40000123 0.78374708 -0.47512057 0.0017148515
-0.035125095 0.042343289 -0.0071142931 0.40437824 0.79593205 -0.4505223 0.0012348455
0.041789278 0.042391911 -0.0062921559 -0.47462451 0.76018655 -0.44367552 0.00097994891
0.043837603 0.043029163 -0.0073333383 -0.46793005 0.73980659 -0.48345375 0.0019783317
0.046310958 0.044166159 -0.0078643374 -0.41566142 0.7406556 -0.52787763 0.0023599954
0.048566502 0.044866908 -0.0086643221 -0.40714267 0.7318266 -0.54650217 0.001327168
0.068586811 0.043354023 -0.0088046929 0.62639219 0.025054602 -0.77910525 0.0035172843
0.069885291 0.043406159 -0.0074785841 0.69455349 -0.010853365 -0.71935916 0.0032473712
-0.069739915 0.046786211 -0.0068358569 -0.68917984 -0.11882738 -0.71478051 0.0047982056
-0.068106912 0.046514764 -0.0082624462 -0.59560794 -0.048922271 -0.80178416 0.0031397874
-0.048064951 0.047780257 -0.0088504916 0.37044975 0.71518224 -0.59268981 0.0038086397
-0.046124771 0.047423925 -0.0080604907 0.40572849 0.77027619 -0.49199495 0.0013050452
-0.043534584 0.046396598 -0.0076281331 0.39808235 0.78133947 -0.4806653 0.0015411165
-0.040986948 0.045466274 -0.006975106 0.40796459 0.77899593 -0.47616199 0.0010455818
0.047283631 0.0455769 -0.0066407039 -0.46805623 0.75236171 -0.46354628 0.0020673112
0.049633641 0.046357147 -0.0074932855 -0.39459896 0.74439424 -0.53867322 0.0020199826
0.052218996 0.047360197 -0.0080931718 -0.39608952 0.70592052 -0.58718771 0.003464835
0.05430299 0.047909133 -0.0087828115 -0.31923598 0.66039753 -0.67967892 0.0025116084
0.068608239 0.046481412 -0.0084714973 0.55377394 0.12756856 -0.822837 0.0033823629
0.069960281 0.046616089 -0.0071954494 0.60673076 0.12638626 -0.7847957 0.0012176371
-0.069914937 0.049601369 -0.006933033 -0.62918401 -0.024444681 -0.77687198 0.0088290237
-0.067663081 0.049604148 -0.0084154699 -0.43972448 0.11003888 -0.89136624 0.008918887
-0.054807607 0.050743707 -0.0087245954 0.20986409 0.71744901 -0.66424692 0.0026052003
-0.05243396 0.050284874 -0.0081719765 0.30877873 0.75009412 -0.58482009 0.0034919581
-0.049501788 0.049365591 -0.0076639699 0.340354 0.7781862 -0.52781194 0.0015733519
-0.047039557 0.048618514 -0.0070001581 0.39282668 0.76919848 -0.50400496 0.0016454005
0.052973665 0.048814856 -0.0068922453 -0.39411011 0.72588789 -0.56370562 0.0019293602
0.055481464 0.049525391 -0.0076965 -0.34191644 0.67841685 -0.65026432 0.0012891318
0.058294836 0.050114062 -0.0084428741 -0.25974014 0.61719978 -0.74269742 0.0023207373
0.060667988 0.050490394 -0.0088642016 -0.13830239 0.57679927 -0.80509311 0.0050026411
0.065706447 0.050572094 -0.0089012394 0.29306209 0.32379302 -0.89959586 0.011268386
0.067640856 0.049716976 -0.0084001785 0.47191694 0.19757426 -0.85921985 0.0047838138
0.069819055 0.049262695 -0.006979675 0.52652287 0.18760081 -0.82920426 0.0024364737
-0.070158616 0.052434839 -0.006703177 -0.48526236 0.093344025 -0.86937171 0.011501328
-0.067572884 0.052439466 -0.0078206258 -0.26681802 0.29177889 -0.91851687 0.012539244
-0.06459868 0.052725077 -0.0082144924 -0.047710579 0.46616802 -0.88340878 0.0094999177
-0.061587714 0.052898459 -0.0080161644 0.082073934 0.61777031 -0.78206378 0.0036179272
-0.058474731 0.052607618 -0.007786938 0.1532771 0.71209002 -0.68515247 0.0026747489
-0.055699181 0.052114848 -0.0074819843 0.2424998 0.76223278 -0.60016263 0.0026742108
-0.052869197 0.051656734 -0.0066709132 0.34504378 0.7585932 -0.5527035 0.0013406853
0.056493603 0.051228154 -0.0063737035 -0.39959195 0.7145654 -0.57421464 0.0025254434
0.058711927 0.051765215 -0.007044124 -0.34395492 0.67937118 -0.64818966 0.0031942795
0.061459169 0.05231417 -0.0076307068 -0.24351203 0.61158663 -0.75277078 0.0025784683
0.064467385 0.052375454 -0.0081280638 0.035986502 0.45067978 -0.89196008 0.0084630391
0.067474201 0.052403145 -0.0076506939 0.29157206 0.32629496 -0.89917588 0.012466864
0.06964343 0.052631754 -0.0064960718 0.48785332 0.19802727 -0.85016727 0.0032853105
-0.07003136 0.055266839 -0.0063383584 -0.24609429 0.33440429 -0.90973151 0.01404866
-0.067556888 0.055381786 -0.0067075267 -0.10008444 0.43430156 -0.89519006 0.0099755991
-0.064694434 0.055151377 -0.0066898023 0.088722341 0.57430953 -0.81381631 0.011533902
-0.061572324 0.05446684 -0.0065392726 0.17926365 0.6782105 -0.71266758 0.0058631743
-0.059316263 0.054075181 -0.0062830676 0.22860475 0.75843489 -0.61034125 0.002131945
0.062277887 0.054302394 -0.0063628312 -0.3292971 0.61890578 -0.7131052 0.0068365829
0.064642794 0.055045471 -0.0066468553 -0.17173937 0.49069136 -0.85424095 0.011763171
0.067434594 0.05548127 -0.006592344 0.14986058 0.3419942 -0.92767543 0.016125154
0.069421887 0.054530345 -0.0062507181 0.41697153 0.21170875 -0.88391978 0.0066046314
0.067564748 0.057277702 -0.0060041007 0.037639804 0.30479568 -0.95167369 0.020535814
-0.015399653 0.0029739644 -0.0035509244 -0.26583749 -0.91465116 -0.3045384 0.0021657958
-0.01323445 0.0025471847 -0.0038208629 -0.19078472 -0.92250311 -0.33554322 0.0020913458
-0.010347504 0.0022293148 -0.0045845145 -0.17001826 -0.92062706 -0.351482 0.0021219866
-0.0074075605 0.0017962251 -0.0046977485 -0.13932674 -0.92338157 -0.35770729 0.0018461001
-0.0047020782 0.0015672396 -0.0049522379 -0.090206303 -0.92083603 -0.37937278 0.0015771179
-0.0013362172 0.0010602117 -0.0042576673 -0.075950094 -0.90985656 -0.40791252 0.0014530977
0.001541751 0.00098302157 -0.0044154883 -0.0335836 -0.9255746 -0.37707272 0.0016059928
0.0045680646 0.00093253632 -0.0043427655 0.011843199 -0.91385108 -0.40587685 0.0011456425
0.0077978056 0.0011939179 -0.0049245968 0.026329255 -0.91082788 -0.41194576 0.0015195531
0.010515472 0.0012771748 -0.0046324143 0.077518202 -0.93144637 -0.35552585 0.0018328883
0.013674631 0.0016462139 -0.0048918594 0.099187173 -0.93013191 -0.35357693 0.0016441342
0.016632624 0.0020551418 -0.0050353073 0.11668135 -0.91441947 -0.38758546 0.00085895305
0.019322773 0.0023838393 -0.0046978458 0.14527017 -0.91641289 -0.37293965 0.00072230148
0.021603977 0.0027330415 -0.0045263311 0.17724104 -0.90368617 -0.38979086 0.0002061462
-0.0245445 0.0059841089 -0.0033806055 -0.35507345 -0.88778365 -0.29285312 0.0015709677
-0.022009607 0.0053744903 -0.0044066878 -0.32225296 -0.88404697 -0.33854696 0.0025583243
-0.019465787 0.0045281705 -0.0045125289 -0.29570225 -0.89971429 -0.32105193 0.0019211066
-0.01654798 0.0037389873 -0.0048413496 -0.24995284 -0.89777803 -0.36265451 0.0010967237
-0.013507051 0.0031504298 -0.005327451 -0.21424636 -0.90854645 -0.35866669 0.0020853227
0.022879889 0.00323362 -0.0052565597 0.19238624 -0.88494915 -0.42409036 0.00068564515
0.025162438 0.0036565089 -0.0049025184 0.20882417 -0.88594818 -0.41411138 0.00030689593
0.027767202 0.0044385451 -0.0052540787 0.23009638 -0.88211501 -0.41100961 0.00046270734
0.031508289 0.0055034552 -0.005092869 0.28596658 -0.8596341 -0.42338198 0.00059622951
-0.030872473 0.0088174166 -0.0042212447 -0.35021448 -0.87864161 -0.32455939 0.0018166456
-0.028501913 0.0079597458 -0.0045126225 -0.35442799 -0.88349366 -0.30630025 0.0016507687
-0.025548013 0.0068637733 -0.0047893976 -0.36215267 -0.88266718 -0.29957321 0.0014708376
-0.023055857 0.0061336146 -0.005395852 -0.31616244 -0.87407649 -0.36882466 0.0014767954
0.034636814 0.0065958216 -0.0051361029 0.3074142 -0.85910261 -0.40919334 0.0001906699
0.036867846 0.0076522697 -0.0057707862 0.30885929 -0.84229904 -0.44174451 0.00087032747
-0.037094232 0.011575099 -0.0042347754 -0.41732296 -0.85889041 -0.29689863 0.0016440157
-0.034407999 0.010504913 -0.0047001857 -0.39579394 -0.85379469 -0.33820376 0.0017362731
-0.032040536 0.009588588 -0.0050304928 -0.37512001 -0.86674041 -0.32870361 0.0018055825
-0.029943362 0.0090014525 -0.0057347179 -0.32757565 -0.88019407 -0.34344223 0.0026381717
0.043521304 0.010501339 -0.0055406783 0.39742526 -0.81254923 -0.42640013 0.00060991739
-0.042615831 0.014549487 -0.0042126761 -0.49059719 -0.81066132 -0.3195976 0.0016704875
-0.040527262 0.013483639 -0.0045720916 -0.47061458 -0.81962973 -0.32669407 0.0017261551
-0.038400378 0.012517639 -0.0051428052 -0.42793313 -0.84050399 -0.3323046 0.0023244238
0.046968132 0.012178188 -0.0052368315 0.43978265 -0.78913027 -0.42879441 0.00056774128
0.049243059 0.01365486 -0.0056615192 0.45557046 -0.76236701 -0.45962179 0.00065953151
-0.046356171 0.017141927 -0.0043293037 -0.5443328 -0.78048652 -0.30747768 0.0016074268
-0.043937258 0.015695896 -0.0049053705 -0.53207076 -0.79574418 -0.28929538 0.0012285528
0.054570075 0.017082363 -0.0055572516 0.51497293 -0.70099276 -0.49336797 0.00077984983
-0.051470682 0.020781057 -0.0038585244 -0.55888116 -0.76696742 -0.31529811 0.0017137739
-0.049547363 0.01963078 -0.0046423189 -0.57900953 -0.75385153 -0.31057325 0.0017238394
-0.047353428 0.01824666 -0.005294824 -0.54665178 -0.7737245 -0.32019085 0.0021986042
-0.054648105 0.023306333 -0.0042296364 -0.5799064 -0.74513626 -0.3293637 0.0019421941
-0.052636664 0.022029495 -0.004828345 -0.56038517 -0.75691885 -0.33621773 0.0020208175
-0.058036551 0.026143488 -0.0043830746 -0.6273312 -0.7022084 -0.33668804 0.0015601151
-0.055947959 0.024575243 -0.0048604296 -0.5930298 -0.73714447 -0.32393464 0.0021760664
-0.061053857 0.029063858 -0.0043511651 -0.67771876 -0.64127392 -0.35981247 0.0015990069
-0.059383962 0.027657917 -0.0049373205 -0.66102117 -0.66570336 -0.3462514 0.0031714421
-0.063675895 0.032049824 -0.0043861079 -0.73642838 -0.58017266 -0.34795541 0.0023616315
-0.062408898 0.030924736 -0.0050235027 -0.70930719 -0.62388277 -0.32810602 0.0020559514
-0.0068454854 0.032868538 -0.005705751 0.17244262 0.91642046 -0.36116064 0.0019553748
-0.0044968454 0.032744225 -0.0051310626 0.13118657 0.92539918 -0.35556498 0.0018195839
-0.0015012942 0.032575529 -0.0045527951 0.10320769 0.94224697 -0.31862018 0.003794417
0.0015730854 0.032181259 -0.0050041452 0.048592366 0.91518623 -0.40009135 0.0026790986
0.004501292 0.032190237 -0.0047548148 0.0053964327 0.93022192 -0.36695784 0.0022282088
0.0075959391 0.032197811 -0.0047798203 -0.036874332 0.92909765 -0.36799157 0.002684766
0.010541071 0.032366574 -0.0047838553 -0.078433618 0.92786521 -0.36457413 0.0027634886
0.013587227 0.032697033 -0.0047845868 -0.13121867 0.93472546 -0.33025756 0.0020540056
0.016212583 0.032941855 -0.0054087713 -0.21106738 0.92277646 -0.32238805 0.0019295391
-0.066491812 0.035523422 -0.0041280859 -0.75536829 -0.5300501 -0.38531238 0.0031155196
-0.065100417 0.034155987 -0.0048498474 -0.74928778 -0.57824039 -0.32280916 0.0017111218
-0.018198283 0.035657384 -0.0059193177 0.3112343 0.88195831 -0.35395318 0.0034564589
-0.016164398 0.03534453 -0.0049549281 0.28839222 0.90355295 -0.31689414 0.0013190799
-0.013432837 0.034684699 -0.0047025131 0.24526112 0.89831769 -0.36451662 0.0015550014
-0.010403806 0.033861425 -0.0049305987 0.1917758 0.90453279 -0.38084459 0.0016142679
-0.007711472 0.033512171 -0.0043710056 0.16650957 0.92897868 -0.33056492 0.001560658
-0.0053164349 0.033368364 -0.0036039564 0.15031357 0.93882591 -0.30985758 0.0039371224
0.016827282 0.033501439 -0.0041000494 -0.19639555 0.93154806 -0.30601808 0.0021539507
0.019500783 0.033963989 -0.0046952157 -0.2404227 0.91772652 -0.3161881 0.0018530674
0.022500966 0.034815803 -0.0045556282 -0.26227582 0.91222757 -0.3147254 0.0023268119
0.02532799 0.035557859 -0.0048741736 -0.28406236 0.90521497 -0.31606069 0.0015075703
0.02745587 0.035905518 -0.0057506966 -0.28109366 0.90843415 -0.3094084 0.0022027879
