# .PCD v0.7 - Point Cloud Data file format
VERSION 0.7
FIELDS x y z normal_x normal_y normal_z curvature
SIZE 4 4 4 4 4 4 4
TYPE F F F F F F F
COUNT 1 1 1 1 1 1 1
WIDTH 550
HEIGHT 1
VIEWPOINT 0 0 0 1 0 0 0
POINTS 550
DATA ascii
-0.016602989 0.016406739 -0.016507048 -0.049338657 -0.25991976 -0.96436894 0.0027881681
-0.01360684 0.016409731 -0.016633367 -0.025449002 -0.21971957 -0.97523111 0.002591314
-0.010560221 0.016451498 -0.016690556 0.0063293977 -0.16762541 -0.98583043 0.0046186587
-0.0074059092 0.016515156 -0.016711678 -0.0090055447 -0.053137589 -0.9985466 0.0046425126
-0.0045853476 0.016120113 -0.016683927 -0.0089709219 -0.10578786 -0.99434823 0.005011423
-0.0016619089 0.016333612 -0.016718496 0.0036607129 -0.092977136 -0.99566156 0.0050868383
0.0015749478 0.016359625 -0.01675473 -0.025958424 -0.084768564 -0.99606246 0.0055353399
0.0047457675 0.01626697 -0.016831327 -0.043619148 -0.018412519 -0.99887854 0.0019002309
0.0077155544 0.016415827 -0.016917147 -0.044748213 -0.027264411 -0.99862617 0.0017824634
0.01023728 0.016369993 -0.017005019 -0.02308877 -0.036658522 -0.99906105 0.0019608855
0.013164487 0.016366119 -0.017126454 -0.021994298 -0.015412952 -0.99963927 0.0040271888
0.01635677 0.016416941 -0.017245525 -0.044249993 -0.039751429 -0.99822932 0.0055534984
0.019629065 0.016414344 -0.017339418 -0.019896714 -0.073835775 -0.99707192 0.0064680912
0.022491829 0.016274806 -0.017340027 0.0084822867 -0.22624296 -0.97403395 0.0048063742
0.025465352 0.016451055 -0.01732059 0.036422029 -0.2708064 -0.96194458 0.0041811019
0.028442768 0.016332813 -0.0171513 0.05363398 -0.30940643 -0.94941616 0.0036730652
0.031541631 0.01652782 -0.01688767 0.10245506 -0.36190125 -0.92656916 0.0028200652
0.034527708 0.016436812 -0.016455162 0.16965421 -0.43380642 -0.88488954 0.0017688894
0.037432436 0.016590424 -0.015942389 0.21693484 -0.47851047 -0.85086256 0.0016305053
0.040296592 0.01713354 -0.01549777 0.24089909 -0.49733531 -0.83344173 0.0026467561
0.042687196 0.017822314 -0.015144944 0.30510265 -0.53825581 -0.7856164 0.001766201
-0.036566265 0.020623358 -0.01526294 -0.2684806 -0.47968718 -0.83535522 0.0022515564
-0.034384485 0.020029843 -0.015528587 -0.20815589 -0.43588868 -0.87559819 0.0026115107
-0.031551685 0.019492663 -0.015873868 -0.15583168 -0.37827209 -0.91248387 0.0023799031
-0.028479338 0.019381145 -0.016315637 -0.1074947 -0.32502377 -0.93957675 0.0026504348
-0.025617911 0.019440537 -0.016641272 -0.08153937 -0.27544552 -0.9578523 0.0038047321
-0.02254172 0.019317847 -0.016836749 -0.046505686 -0.21390201 -0.97574741 0.0039092251
-0.019354135 0.019344181 -0.016931929 -0.026663737 -0.16634256 -0.98570746 0.0039902721
-0.01659894 0.019362187 -0.016942207 0.0049428572 -0.11447702 -0.99341363 0.0054169777
-0.013807418 0.019206261 -0.016879456 0.031308688 0.0068186112 -0.99948663 0.002292284
-0.010410945 0.018973554 -0.0167928 0.017634651 0.055838067 -0.9982841 0.0013224363
-0.0070899483 0.019823797 -0.016519438 0.00086392666 0.0052101291 -0.99998605 0.0029572695
-0.0048187017 0.018942047 -0.016614415 -0.0078662569 -0.029832374 -0.99952394 0.0032796557
-0.0012182456 0.019227587 -0.016480071 0.0010943705 -0.017948808 -0.99983829 0.0012327402
0.001716565 0.019455627 -0.016428724 -0.0035184948 -0.0086838808 -0.99995607 0.0012036783
0.0042356546 0.018731985 -0.016623195 -0.030654762 -0.017595686 -0.9993751 0.0015797105
0.007452094 0.019260405 -0.016610963 -0.04657647 0.0084178373 -0.99887925 0.0010216985
0.010644307 0.019119743 -0.016810739 -0.045354649 0.040831782 -0.9981361 0.0023010406
0.013688869 0.019126667 -0.016991455 -0.052544989 0.019686092 -0.99842453 0.0026125649
0.016824359 0.019450936 -0.017156066 -0.064264432 0.025278974 -0.99761266 0.0041147503
0.01967226 0.019312643 -0.017378978 -0.069513828 0.077231072 -0.99458694 0.00155823
0.022784315 0.019115968 -0.017563807 -0.040080998 0.06863074 -0.99683666 0.0035004374
0.025349345 0.019545568 -0.017661216 -0.039915852 0.029817184 -0.99875808 0.0057007521
0.028530849 0.019250099 -0.017718833 0.0161405 -0.053480078 -0.99843842 0.0040336628
0.031669244 0.019443985 -0.017670676 0.023054246 -0.10244112 -0.99447191 0.0072003133
0.034385949 0.019476291 -0.017522749 0.083987109 -0.26462653 -0.96068674 0.0050169649
0.037417747 0.019449472 -0.017156446 0.14140776 -0.32032976 -0.93669236 0.0039220736
0.040505402 0.019328 -0.016536077 0.18522802 -0.36267895 -0.91332066 0.0028437779
0.043429423 0.019609997 -0.015870778 0.25684896 -0.40978628 -0.87527359 0.0032488951
0.045777597 0.020336017 -0.015457298 0.31598479 -0.46009216 -0.82974029 0.0020165532
-0.042052735 0.023738861 -0.01505995 -0.32917646 -0.45761976 -0.82597041 0.0015733386
-0.040122055 0.023192575 -0.015432788 -0.26914945 -0.41634455 -0.86845601 0.0034286408
-0.037544273 0.022470459 -0.015822418 -0.23751666 -0.37886786 -0.89445233 0.0013455878
-0.034615263 0.022502234 -0.01645647 -0.13644055 -0.29436374 -0.94590378 0.0030324771
-0.031591054 0.022364311 -0.016828947 -0.096875332 -0.18569368 -0.97782058 0.0035764694
-0.028614862 0.022325132 -0.017046733 -0.071288645 -0.12312789 -0.98982692 0.0042696479
-0.025742814 0.022336682 -0.017111367 -0.0090700742 -0.059962261 -0.99815947 0.0037568673
-0.022715572 0.022327311 -0.017071873 -0.0014099283 -0.074455626 -0.99722332 0.0042733811
-0.019587871 0.022124654 -0.016933896 0.020069392 -0.024016129 -0.99951005 0.0023818796
-0.01632273 0.021576623 -0.016838895 0.035360586 -0.040150821 -0.99856776 0.0032959902
-0.013576855 0.021855537 -0.016553205 0.057989236 0.044074755 -0.99734372 0.00098024646
-0.010960747 0.021928519 -0.016334694 0.04911181 0.042302754 -0.99789709 0.0013197844
-0.0081328573 0.021390421 -0.016270334 0.032037091 0.077172689 -0.99650282 0.00080258568
0.014862715 0.021396657 -0.016541211 -0.048500359 0.097382315 -0.99406457 0.00082832272
0.019463647 0.021900926 -0.016854485 -0.070728131 0.12880583 -0.98914438 0.001080356
0.022440683 0.022237826 -0.017067729 -0.063475311 0.10160102 -0.99279815 0.002182595
0.025838822 0.022154808 -0.017460128 -0.074211761 0.076276511 -0.99432111 0.0030146088
0.02863113 0.022287624 -0.017625503 -0.060792789 0.033325702 -0.99759388 0.0049356953
0.031490911 0.022415396 -0.017790359 -0.015586377 0.03722072 -0.99918544 0.0013484398
0.034658827 0.022394137 -0.017851144 -0.0042839237 -0.0088183824 -0.99995196 0.0034327102
0.037870809 0.022564022 -0.017744612 0.05986245 -0.047177259 -0.99709117 0.0072220941
0.040752962 0.022486113 -0.017443705 0.1508715 -0.23238747 -0.9608506 0.0063381572
0.043542892 0.022283498 -0.016905032 0.19420576 -0.27530241 -0.94153744 0.0040330635
0.04655939 0.022502897 -0.016149051 0.26362485 -0.32762331 -0.90728438 0.0027273898
0.048888166 0.022722576 -0.015447352 0.33939075 -0.39832142 -0.85214674 0.0029255662
-0.045298498 0.026515372 -0.015156616 -0.3288514 -0.41036204 -0.85056436 0.0026275194
-0.043284036 0.025749836 -0.015515378 -0.28007373 -0.34035617 -0.89761704 0.0036632938
-0.040547319 0.025395989 -0.016146196 -0.21507625 -0.2741183 -0.93733734 0.003222845
-0.037572429 0.025501316 -0.016754789 -0.14218126 -0.2237148 -0.96422827 0.0048003034
-0.034413569 0.025271619 -0.017069263 -0.060978867 -0.11718737 -0.99123597 0.0041548773
-0.031222844 0.025176512 -0.01717734 -0.037185568 -0.057662353 -0.99764341 0.001888689
-0.028524684 0.024857584 -0.017168356 0.01569056 -0.056416471 -0.99828404 0.0038656259
-0.026410492 0.024773508 -0.017068058 0.012405568 -0.01917514 -0.99973923 0.002426493
-0.02383611 0.025764424 -0.016670292 0.013618711 -0.010059359 -0.99985671 0.0017714469
0.02475919 0.024368754 -0.016708728 -0.078418523 0.13869607 -0.98722529 0.00080664502
0.029978512 0.02448344 -0.017337466 -0.068259068 0.093592025 -0.99326795 0.0016117821
0.032174625 0.024874987 -0.017461816 -0.011014351 0.048285894 -0.9987728 0.0017793746
0.034693439 0.025745492 -0.017476544 -0.02496958 0.056500871 -0.99809027 0.001717686
0.037553195 0.025229409 -0.017727463 0.011316108 0.016328475 -0.99980265 0.0037114874
0.040723838 0.025564903 -0.017692642 0.055403769 0.013663968 -0.99837047 0.0039082761
0.043807823 0.025502594 -0.017462067 0.12154185 -0.032212723 -0.9920634 0.0068930746
0.046457522 0.02545023 -0.017014382 0.20837991 -0.16216709 -0.96451008 0.0036229698
0.049551882 0.025086313 -0.016074654 0.3336415 -0.31117243 -0.88986242 0.0027740027
0.051553577 0.025213972 -0.015407368 0.35053506 -0.32198989 -0.87945867 0.0030124143
-0.0485695 0.029417755 -0.015190574 -0.32632104 -0.35367718 -0.87659967 0.0031729816
-0.046329658 0.028539715 -0.015590679 -0.26524138 -0.28051719 -0.92247337 0.0033009024
-0.04349399 0.028413897 -0.01627305 -0.19937092 -0.24232447 -0.94948941 0.002484604
-0.040558472 0.028305572 -0.016779667 -0.14716844 -0.099658638 -0.98407805 0.0046006786
-0.037556455 0.028225804 -0.017053686 -0.081394471 -0.047900468 -0.99553025 0.0021479407
-0.034575924 0.028245276 -0.017061343 -0.03750968 -0.066734716 -0.99706542 0.0012928788
-0.032005813 0.027188027 -0.01710129 -0.035763338 -0.072240114 -0.99674588 0.001578224
-0.029603276 0.027125632 -0.016938757 0.021482555 -0.0001315064 -0.99976921 0.0012965741
0.037471838 0.027859822 -0.017183531 -0.0026722404 0.070286088 -0.99752331 0.0013791966
0.04059168 0.0286547 -0.017225826 0.0073603545 0.077995822 -0.99692655 0.0014213524
0.043202188 0.028122976 -0.017425727 0.038408946 0.077842936 -0.99622548 0.00195541
0.046201911 0.028495969 -0.017243283 0.14262418 0.032845423 -0.98923182 0.0059648161
0.04899111 0.028018229 -0.016831176 0.19873972 -0.12296341 -0.9723078 0.0057445364
0.052322157 0.028238652 -0.015957076 0.2839089 -0.1731296 -0.94309169 0.0026953781
0.054201886 0.027445987 -0.01509379 0.38174555 -0.24961667 -0.88992232 0.0046403874
-0.051285069 0.03213327 -0.015085232 -0.34630212 -0.27834737 -0.89587808 0.0034247476
-0.049406167 0.031477742 -0.015514114 -0.25135016 -0.20813634 -0.94525254 0.0035780005
-0.046500646 0.031337518 -0.016197775 -0.17827219 -0.13970812 -0.97401267 0.0042128349
-0.043724351 0.031188481 -0.016627189 -0.1235236 -0.048687901 -0.9911465 0.0031097692
-0.041084401 0.030791188 -0.016852498 -0.10443766 -0.051498014 -0.9931972 0.002680992
-0.038897634 0.030366311 -0.01694753 -0.091756217 -0.060982998 -0.9939124 0.0024691764
0.044284899 0.031041456 -0.016850913 0.055588845 0.086228602 -0.99472332 0.0020928069
0.047021769 0.031709094 -0.01680612 0.062699802 0.11988309 -0.9908061 0.00095630955
0.048943739 0.030801186 -0.016840952 0.10276125 0.060432177 -0.9928686 0.0040483749
0.051615987 0.031047417 -0.016440799 0.19855607 -0.0417592 -0.97919947 0.0034817427
0.054980937 0.031277929 -0.015560083 0.27347586 -0.084420934 -0.95816708 0.0043232692
-0.052084699 0.03463088 -0.015284199 -0.2704995 -0.11206757 -0.95617509 0.003381033
-0.049605865 0.034191187 -0.015836889 -0.21144576 -0.059191208 -0.97559571 0.0028407655
-0.046738971 0.034142639 -0.01627644 -0.18055356 -0.05449307 -0.98205447 0.0028675438
-0.043325033 0.033880457 -0.016463704 -0.12846628 -0.03595997 -0.99106175 0.0026499438
-0.040685609 0.033056207 -0.016548283 -0.091351211 -0.0035555798 -0.99581242 0.0011016679
0.047154814 0.03356893 -0.016304376 0.062695548 0.11990127 -0.99080414 0.00095528789
0.050266661 0.033537231 -0.016344693 0.13356659 0.045346897 -0.99000192 0.0033797568
0.052857667 0.03387947 -0.016083533 0.16404396 -0.0013475844 -0.98645216 0.0053780293
0.055420261 0.034297016 -0.015564718 0.30846947 -0.062035985 -0.94920915 0.0043279324
-0.052494444 0.037243959 -0.015273684 -0.24754407 -0.0080242539 -0.96884346 0.0031221006
-0.049664162 0.037084818 -0.015679609 -0.18982072 0.022412576 -0.98156291 0.0013518534
-0.047989905 0.036773935 -0.015851719 -0.14477333 0.019171325 -0.98927909 0.0013739349
-0.052494138 0.039391235 -0.015040568 -0.17684016 0.081588104 -0.98085219 0.0011632711
-0.050847113 0.0390427 -0.015225149 -0.1745473 0.053057972 -0.98321819 0.00060869328
-0.00068942655 0.0059648328 -0.012189507 -0.052580897 -0.68109465 -0.7303049 0.0023793967
0.0015858648 0.0058405488 -0.012179655 -0.035784606 -0.70815855 -0.70514601 0.0011582973
0.004659127 0.0057882075 -0.012210481 -0.011684439 -0.71357369 -0.70048279 0.0010750978
0.0075582387 0.005818998 -0.012234114 0.011033189 -0.67369246 -0.73892951 0.0014927422
0.0099741174 0.005863925 -0.012202593 0.036971886 -0.68063295 -0.73169112 0.0014981322
0.012055095 0.0058807968 -0.01209252 0.051072087 -0.71106219 -0.70127183 0.0019114614
-0.016307026 0.0085976804 -0.01226911 -0.17906529 -0.66736114 -0.72288632 0.00088603009
-0.013468673 0.0082049109 -0.012524118 -0.14642 -0.65462637 -0.74163699 0.0011312853
-0.01048514 0.0079881931 -0.012838731 -0.11759053 -0.63897228 -0.76018864 0.0010064442
-0.0074582137 0.0076997173 -0.012997258 -0.08926338 -0.62981397 -0.77159989 0.0011038989
-0.0044629788 0.007495916 -0.013129274 -0.069726698 -0.62232643 -0.7796461 0.00093843712
-0.001512347 0.007522326 -0.013361183 -0.055577755 -0.60126233 -0.79711658 0.0022020976
0.0015019425 0.0074104788 -0.013449947 -0.02986387 -0.57126069 -0.82022518 0.00079430261
0.0044722925 0.0073970924 -0.013542815 -0.015501335 -0.57660359 -0.81687707 0.00087432074
0.0074814111 0.0073718103 -0.013554125 -0.00013386301 -0.58235788 -0.81293261 0.0010053748
0.010497499 0.0074210931 -0.01354542 0.01699337 -0.59578979 -0.80296063 0.00099156797
0.01353684 0.0073840097 -0.013376018 0.039936099 -0.64072895 -0.76672781 0.0020406276
0.016482864 0.0074870726 -0.013251663 0.063796438 -0.65151238 -0.75595087 0.0020564576
0.019425973 0.0077612433 -0.013169862 0.10008217 -0.64741176 -0.75554067 0.0010238589
0.02239367 0.0079963449 -0.012927512 0.13662435 -0.70311779 -0.6978246 0.0011822493
0.025399918 0.0083317319 -0.012635512 0.16773294 -0.71937227 -0.67406917 0.0011044397
0.028213335 0.0087598599 -0.012340758 0.19567929 -0.6965552 -0.69030464 0.0011216848
-0.024935486 0.011570725 -0.012366642 -0.24110924 -0.66899639 -0.70307195 0.00098918262
-0.022306396 0.011054253 -0.012715227 -0.22115013 -0.64353299 -0.73277408 0.0012583939
-0.019424003 0.010662437 -0.013166245 -0.19514649 -0.62082517 -0.75927198 0.00092822098
-0.016481409 0.010362943 -0.01359304 -0.15301816 -0.58264035 -0.79819524 0.0017675904
-0.013524472 0.010264435 -0.014056511 -0.12562081 -0.54188341 -0.83101249 0.00091095426
-0.010574634 0.010041602 -0.014322799 -0.098746791 -0.52287549 -0.84667015 0.001447181
-0.0076244208 0.0098381042 -0.014501299 -0.073897578 -0.50217068 -0.86160541 0.0018949115
-0.0045390511 0.0096637551 -0.014632643 -0.058186505 -0.48899049 -0.87034631 0.0020894725
-0.0016281515 0.009516893 -0.014717315 -0.045102026 -0.47367764 -0.87954271 0.0024456077
0.0012213045 0.009338282 -0.014742301 -0.032918699 -0.54114467 -0.840285 0.00089455646
0.004221824 0.0092895273 -0.014809685 -0.018716192 -0.54313743 -0.83943522 0.00097178353
0.0075069773 0.0092097847 -0.014819928 -0.0058342433 -0.54981011 -0.83526927 0.0010073103
0.010525307 0.0092841908 -0.014868098 0.0072564995 -0.56255251 -0.82672966 0.0010718318
0.013395084 0.0092290025 -0.014784831 0.026077902 -0.57895511 -0.81494218 0.0010005612
0.016522778 0.0094003193 -0.014744174 0.052271664 -0.59706521 -0.80048782 0.00095650187
0.019586915 0.0095622838 -0.014614135 0.077116854 -0.54953992 -0.83190078 0.0020033959
0.022586096 0.0097445045 -0.014390123 0.10998981 -0.57375324 -0.81160909 0.0016675256
0.025611738 0.01008497 -0.014153505 0.14271708 -0.59815347 -0.788571 0.0013397743
0.028592674 0.010427959 -0.013795405 0.18665574 -0.62561768 -0.75747085 0.0010169127
0.031441424 0.010638995 -0.013197972 0.2244131 -0.66332293 -0.71389174 0.0017224111
0.034348428 0.011090828 -0.01266449 0.25071776 -0.69753146 -0.67126036 0.001201161
0.036788289 0.011709957 -0.012383493 0.28809917 -0.68486959 -0.66929251 0.00096639141
-0.033519655 0.014786934 -0.012202837 -0.30063123 -0.67197019 -0.67681384 0.001216258
-0.031295307 0.014297384 -0.0125786 -0.26766244 -0.6538164 -0.70772934 0.0013111696
-0.028379828 0.013734696 -0.013071008 -0.25155103 -0.60852206 -0.75261068 0.0016689753
-0.025545364 0.013462529 -0.01368109 -0.21381801 -0.56777573 -0.79492933 0.00098001817
-0.022641065 0.01310566 -0.014182829 -0.18359329 -0.53434724 -0.82508582 0.0010722901
-0.019674251 0.012790018 -0.01462613 -0.16197985 -0.49968496 -0.85092741 0.0018720326
-0.016687632 0.012263551 -0.014839138 -0.13217835 -0.45832554 -0.87890077 0.0021535913
0.031678658 0.012589818 -0.014770737 0.19202048 -0.5488767 -0.81354934 0.0022264873
0.034567732 0.012889855 -0.014213151 0.21782096 -0.58723807 -0.77955472 0.0014394546
0.037633616 0.013421546 -0.013655917 0.27061188 -0.61698097 -0.73898834 0.0014897197
0.040438645 0.014063911 -0.013109306 0.31238061 -0.65741295 -0.68573076 0.0018136301
0.043058995 0.01465047 -0.012428774 0.35326758 -0.67614275 -0.64655483 0.0010636389
-0.039496467 0.017804025 -0.012182839 -0.37218007 -0.63628924 -0.67573518 0.0011623821
-0.037253093 0.01717942 -0.012667009 -0.32797253 -0.62445164 -0.70886821 0.001171174
-0.034451749 0.016531538 -0.013254787 -0.29707554 -0.58961582 -0.75106549 0.0018611245
-0.031624738 0.016267346 -0.014014279 -0.23216534 -0.54579079 -0.80511594 0.0007827573
-0.028812874 0.015820652 -0.014501262 -0.20551464 -0.51257676 -0.83368385 0.001770449
-0.026268966 0.015295558 -0.014778469 -0.17973098 -0.46233025 -0.86830151 0.0022246272
0.038108982 0.015109283 -0.014859132 0.23405693 -0.5529502 -0.7996645 0.0011264095
0.040630937 0.015840657 -0.014523352 0.28152221 -0.549622 -0.78654999 0.0016324674
0.043547172 0.016470656 -0.013789858 0.32573202 -0.57373124 -0.75148588 0.00088003057
0.046294615 0.017057449 -0.012929096 0.38307673 -0.6235469 -0.68149948 0.0011123812
0.048102099 0.017379947 -0.01219663 0.42043477 -0.63751674 -0.64560586 0.001057814
-0.04284694 0.020327538 -0.01247607 -0.41292664 -0.59017152 -0.69367802 0.00095288956
-0.0404067 0.019644536 -0.013150297 -0.36657682 -0.57792485 -0.72912568 0.0011655906
-0.037655514 0.019251704 -0.014055407 -0.29451016 -0.51812708 -0.80299938 0.00093917706
-0.034783959 0.018573748 -0.014628199 -0.25048891 -0.48517102 -0.8377735 0.0017975252
0.044525374 0.018559609 -0.014922569 0.30325043 -0.4701255 -0.82886738 0.0026104141
0.046797201 0.019205729 -0.014346302 0.3577202 -0.50613093 -0.7847724 0.0012897208
0.049496129 0.019469801 -0.013125519 0.42145219 -0.55734962 -0.71535969 0.001971907
0.051692944 0.020458272 -0.012623891 0.45695546 -0.58262795 -0.6721133 0.0011056295
-0.048221428 0.023898866 -0.01218934 -0.43266746 -0.54465187 -0.71843803 0.0027379717
-0.046219271 0.023055715 -0.012681615 -0.41793948 -0.56564343 -0.71089667 0.0013077511
-0.043576706 0.022426432 -0.013597772 -0.37281448 -0.50209242 -0.78032857 0.0013775638
-0.040916666 0.02187966 -0.014465515 -0.32030079 -0.46388346 -0.82596576 0.0017485794
-0.03868049 0.02116305 -0.014896298 -0.29710162 -0.50641859 -0.809488 0.00085333292
0.049688678 0.021754548 -0.014601479 0.37858766 -0.44135004 -0.81356102 0.0009537657
0.052555721 0.022269836 -0.013383347 0.44141188 -0.49913099 -0.74567002 0.0016769266
0.054901939 0.02335318 -0.012685186 0.49218488 -0.51629812 -0.70084971 0.00091979594
-0.05153098 0.026681524 -0.012325583 -0.45273244 -0.55568403 -0.69731539 0.0015912413
-0.049315631 0.025730109 -0.012902793 -0.42400444 -0.52734762 -0.73629123 0.001863846
-0.04660875 0.025336778 -0.013996347 -0.36852387 -0.45479959 -0.81076968 0.00096718158
-0.044150833 0.024626903 -0.014704456 -0.32979292 -0.40458179 -0.85296559 0.0027039072
0.052915145 0.024732757 -0.014593509 0.39269075 -0.37259161 -0.84081471 0.0013430527
0.055409234 0.02522105 -0.013478056 0.46669668 -0.43377894 -0.77073348 0.001427413
0.057669368 0.026162155 -0.01258212 0.501782 -0.43694705 -0.74651992 0.0017093958
-0.054558635 0.029424818 -0.01231499 -0.47521117 -0.48340052 -0.7351858 0.0018727033
-0.052430492 0.02861747 -0.013058904 -0.43713143 -0.47287944 -0.76504982 0.0019963195
-0.049727786 0.028204864 -0.01418465 -0.37232754 -0.40534118 -0.83490759 0.0012848825
-0.047331642 0.027516473 -0.014867192 -0.31806383 -0.35047892 -0.88090849 0.0033079896
0.055764038 0.027722327 -0.014435668 0.41672206 -0.29289982 -0.86055356 0.0016780136
0.058665425 0.028135438 -0.0129267 0.50601089 -0.36819908 -0.77998871 0.0012794866
0.060361464 0.029842632 -0.012581871 0.52292299 -0.36273113 -0.77134794 0.0020719592
-0.057277255 0.032384232 -0.01225905 -0.51788282 -0.41049695 -0.75052619 0.0024264983
-0.055345498 0.031571012 -0.01299309 -0.45628661 -0.38945103 -0.80008149 0.0028595072
-0.052674368 0.031311393 -0.014241688 -0.39521721 -0.31874475 -0.86151332 0.0016290898
-0.050535202 0.030495524 -0.014861494 -0.32145739 -0.28007573 -0.90455669 0.0036906009
0.056601234 0.030176686 -0.014789805 0.42042595 -0.20576695 -0.8836866 0.0041884081
0.058492132 0.030800782 -0.014013665 0.46647155 -0.19994967 -0.86164057 0.0060370513
0.060930092 0.032368395 -0.013062161 0.45516568 -0.29456246 -0.84027213 0.010654886
-0.058142036 0.034620356 -0.012670237 -0.47324494 -0.29330507 -0.83066916 0.0035016432
-0.05560001 0.034433067 -0.013926248 -0.37865159 -0.21068208 -0.90124142 0.0025766799
-0.053475343 0.034149446 -0.014751536 -0.34463516 -0.18769775 -0.91978055 0.0025439523
-0.060647584 0.037893489 -0.012249477 -0.50336426 -0.23875239 -0.83043462 0.0024129481
-0.058591578 0.037428822 -0.013215884 -0.4197506 -0.17641047 -0.89033073 0.0029663087
-0.055424627 0.037456319 -0.014492679 -0.31501475 -0.082057029 -0.94553286 0.0034353128
-0.060948387 0.04044177 -0.012536874 -0.44358221 -0.087801322 -0.89192253 0.0033778276
-0.058618721 0.040196296 -0.013511145 -0.34200978 -0.0026525164 -0.93969262 0.0030478647
-0.05596792 0.040055647 -0.014321874 -0.25334594 0.044226453 -0.96636426 0.002456083
-0.053622402 0.039624486 -0.01484953 -0.20655996 0.073403195 -0.97567666 0.0010797932
-0.061175782 0.043341294 -0.012455311 -0.35212687 0.065498143 -0.93365765 0.0032673378
-0.05874034 0.043033686 -0.013251364 -0.31275758 0.066387407 -0.94751006 0.0031050851
-0.055832971 0.042602912 -0.01387068 -0.26058689 0.097824767 -0.96048152 0.0011145425
-0.061814029 0.045095116 -0.012045471 -0.34808835 0.060153194 -0.93552983 0.0030621553
-0.058390494 0.045184251 -0.012814757 -0.28170931 0.11115961 -0.95303899 0.0011822712
-0.015786812 0.005763012 -0.0093644047 -0.21726434 -0.77032584 -0.59949499 0.00093522621
-0.013330391 0.0053807003 -0.0096180588 -0.17504016 -0.76529503 -0.61942273 0.0011832227
-0.010537284 0.0051810904 -0.010053144 -0.14579703 -0.75793856 -0.6358242 0.0012863562
-0.0075373822 0.004846368 -0.010220906 -0.11112624 -0.75089622 -0.65100378 0.0011485657
-0.0045038215 0.0047054803 -0.010475585 -0.077154949 -0.75875992 -0.64678472 0.0017258418
-0.0014909479 0.0044982592 -0.01053512 -0.0606254 -0.75268251 -0.65558636 0.0020350304
0.0015644224 0.0043405839 -0.010540251 -0.027602242 -0.7763164 -0.62973875 0.0006045078
0.004588149 0.004259882 -0.010535307 -0.0053224978 -0.75971514 -0.65023422 0.0018485097
0.0075691198 0.0043017487 -0.010550463 0.017866155 -0.78386581 -0.62067318 0.00069335406
0.010563929 0.0044115405 -0.010539011 0.042529605 -0.78960371 -0.61214149 0.0008291796
0.013496932 0.0046228836 -0.010521142 0.06535273 -0.78142965 -0.6205616 0.0018255637
0.016398529 0.0048476108 -0.010427847 0.10730357 -0.79875124 -0.5920155 0.0018552857
0.019343179 0.0051342635 -0.010244633 0.13724068 -0.79588765 -0.58968455 0.0012368618
0.022210887 0.005393568 -0.0098792976 0.16693158 -0.80504423 -0.56924307 0.0010653583
0.024997691 0.005698327 -0.009455068 0.20179088 -0.81125247 -0.5487712 0.00078564673
-0.024528166 0.0086813048 -0.0093375929 -0.29412609 -0.77207458 -0.56337428 0.0020481832
-0.022342585 0.0082716625 -0.0098557528 -0.27579641 -0.7413668 -0.61181015 0.0012400979
-0.019415187 0.0077414475 -0.010398826 -0.23382203 -0.73422474 -0.63737059 0.0015916453
-0.016540363 0.0071623777 -0.010721468 -0.21418913 -0.71732062 -0.66300392 0.0019411923
-0.013525494 0.0067406436 -0.011101445 -0.15957089 -0.73844987 -0.6551556 0.0013612505
-0.010525115 0.0065196264 -0.011525249 -0.1283344 -0.67321706 -0.7282232 0.0011876039
-0.0078952126 0.0062159472 -0.011663415 -0.098159723 -0.71800429 -0.68908244 0.0011621197
-0.0054240823 0.0061309789 -0.011910075 -0.057946585 -0.68412274 -0.72706133 0.0022006526
0.016399253 0.0060426369 -0.011894094 0.080870524 -0.70349419 -0.70608491 0.0010802186
0.019455526 0.0062958044 -0.01171791 0.11754441 -0.71728188 -0.68679684 0.0012301357
0.022550557 0.006521205 -0.011309979 0.15121099 -0.73272979 -0.66350758 0.0010851622
0.025649277 0.0068714228 -0.010846199 0.19008173 -0.78839481 -0.58506632 0.00095144595
0.028501946 0.0074203475 -0.010574596 0.22258469 -0.79971004 -0.55760199 0.0008353616
0.031218149 0.0080290288 -0.010332088 0.2417843 -0.79307389 -0.55908322 0.0018191916
0.03408267 0.0085126115 -0.0096426737 0.29777408 -0.79083264 -0.53470975 0.0009446711
-0.03304914 0.011968339 -0.0091695385 -0.34614927 -0.7412827 -0.57504833 0.0019971896
-0.0312379 0.011516801 -0.0096092066 -0.31707233 -0.7461639 -0.58540964 0.0011668393
-0.028386565 0.010956173 -0.010311489 -0.27886215 -0.74158835 -0.61014968 0.0017485121
-0.025561238 0.010160759 -0.010647667 -0.27851146 -0.73465449 -0.61863893 0.0012847048
-0.022655981 0.0096575553 -0.011285402 -0.24326353 -0.6704362 -0.70095521 0.0012047773
-0.020271599 0.0092467265 -0.011723658 -0.21471436 -0.69602633 -0.68516064 0.0011812773
0.032041099 0.009223829 -0.011554647 0.23351058 -0.75822973 -0.60873669 0.0016809817
0.034518328 0.009619683 -0.010952923 0.28291842 -0.76861912 -0.57374364 0.0014555247
0.037562754 0.010521566 -0.010550474 0.31608978 -0.77772832 -0.54334688 0.00095801725
0.040367823 0.011292061 -0.009945319 0.35647249 -0.75960106 -0.54399782 0.001414744
0.042399745 0.011967475 -0.0095640961 0.39237538 -0.76392502 -0.51230872 0.0011694703
-0.039197925 0.014955943 -0.0092536611 -0.41905606 -0.72123003 -0.55156082 0.001314796
-0.03722927 0.014322855 -0.0097577916 -0.37434596 -0.7165482 -0.58857781 0.0012122078
-0.034453411 0.01361082 -0.010449619 -0.32009932 -0.73369241 -0.59935957 0.0011311601
-0.031695053 0.012877217 -0.010988209 -0.29897174 -0.70817596 -0.63961136 0.00085971167
-0.02909462 0.012406969 -0.011629426 -0.26387393 -0.65674418 -0.70644003 0.0010254661
0.040813342 0.012533333 -0.011317876 0.33948624 -0.71887839 -0.60659945 0.00084596872
0.043528341 0.013289126 -0.010546618 0.37033737 -0.74108261 -0.56004179 0.001464773
0.046203207 0.01431071 -0.0099870246 0.42493027 -0.71881229 -0.55022103 0.0010583417
-0.042833548 0.017474135 -0.0096509848 -0.45879346 -0.67120582 -0.58222961 0.0012587009
-0.040458757 0.016648628 -0.010383589 -0.39268947 -0.69691521 -0.60008687 0.001195095
-0.037853278 0.015830154 -0.011077377 -0.35713765 -0.67975837 -0.64061004 0.0010696488
-0.035407126 0.015204586 -0.011715838 -0.32278538 -0.69089592 -0.64689451 0.00085291493
0.044674654 0.015073164 -0.011952207 0.37319469 -0.69560188 -0.61389232 0.00097748451
0.047042664 0.015702065 -0.011101449 0.42124799 -0.71256739 -0.56106848 0.00083111192
0.049468067 0.01660906 -0.010343305 0.44449845 -0.68652308 -0.57541901 0.0017243675
0.051776186 0.01747226 -0.0094870543 0.49827531 -0.67562461 -0.54337198 0.001583488
-0.04627917 0.020152075 -0.0099477777 -0.47723696 -0.65912068 -0.58120978 0.0014438352
-0.043802172 0.019236755 -0.010834854 -0.42562959 -0.6174826 -0.66147912 0.00081008265
-0.041378435 0.018371388 -0.011584789 -0.4163335 -0.65611112 -0.62943202 0.00086000416
0.050737485 0.018366659 -0.011366483 0.46133292 -0.65559781 -0.59779882 0.00083307782
0.052785818 0.019266879 -0.010700635 0.49264839 -0.615161 -0.61552787 0.0015397561
0.055045731 0.020247255 -0.0098551363 0.52715975 -0.6195128 -0.5816412 0.0009603806
-0.051458899 0.023612943 -0.0094846133 -0.51202309 -0.63722235 -0.57600349 0.0014204002
-0.049265549 0.022678487 -0.010250683 -0.4817265 -0.63633257 -0.60251188 0.001778189
-0.046919368 0.021888521 -0.011239642 -0.42791292 -0.57848889 -0.69443583 0.00071374211
0.055641785 0.022130281 -0.011180872 0.52469975 -0.569309 -0.63291186 0.0019359748
0.057887122 0.022795109 -0.0098670498 0.55763698 -0.56715035 -0.60612005 0.0015147901
-0.054684971 0.026341142 -0.0096655674 -0.54058242 -0.61396742 -0.57516485 0.0022025914
-0.052454539 0.025457202 -0.010577756 -0.48029408 -0.61358374 -0.62676352 0.0024243812
-0.050143149 0.024554823 -0.01144953 -0.44406006 -0.57819897 -0.68446809 0.0010821162
0.058831804 0.024857329 -0.010804583 0.56947082 -0.51949102 -0.63704956 0.0019358818
0.061369196 0.026431093 -0.0096815992 0.60229367 -0.47836524 -0.63906884 0.0022137831
-0.057791352 0.02929163 -0.0096900463 -0.57997364 -0.54780048 -0.60294706 0.0023613491
-0.055683494 0.028352447 -0.010658493 -0.51548278 -0.52045631 -0.68073684 0.0011711858
-0.053526573 0.027427172 -0.011586281 -0.50590575 -0.57032245 -0.64714116 0.0011573241
0.061110087 0.027919669 -0.011010589 0.6164853 -0.41536322 -0.66889411 0.0028233579
-0.060593117 0.032364316 -0.0096005872 -0.61639857 -0.5051772 -0.60402709 0.0014906682
-0.058578197 0.031384915 -0.010626877 -0.54388201 -0.45724216 -0.70364898 0.0011913403
-0.0566127 0.03061036 -0.011675487 -0.54771125 -0.45629662 -0.70128864 0.0011632914
0.062336162 0.030061593 -0.011176307 0.60317981 -0.39534441 -0.6927315 0.0041974881
-0.063208833 0.035400074 -0.0092256125 -0.6501714 -0.43611887 -0.62215543 0.0019031256
-0.061372921 0.034627009 -0.010366998 -0.5923087 -0.38253847 -0.70910835 0.0020501318
-0.059415471 0.033919539 -0.011547111 -0.55970597 -0.35364124 -0.7494446 0.0020744782
-0.06398239 0.037753355 -0.0097983228 -0.62427932 -0.34259608 -0.70207065 0.0029499205
-0.061972473 0.037243053 -0.01115798 -0.53998572 -0.28020382 -0.7936632 0.0012467538
-0.06635914 0.041316263 -0.0091999294 -0.64883202 -0.25890085 -0.7155329 0.0030469818
-0.064560838 0.040467825 -0.010335205 -0.58002776 -0.22830468 -0.78194934 0.0036823309
-0.062485408 0.040310506 -0.011694938 -0.49608591 -0.14990591 -0.8552351 0.0026578179
-0.0665773 0.043449182 -0.0095249051 -0.60824168 -0.12718515 -0.78349596 0.0039049054
-0.064624473 0.043432713 -0.010802304 -0.49384531 -0.056611992 -0.86770493 0.0018917969
-0.062720887 0.043273207 -0.011823219 -0.42871025 -0.0050171148 -0.90342814 0.0032473106
-0.066852577 0.046415411 -0.0095370831 -0.56375796 -0.0096910167 -0.82588321 0.0019733589
-0.064750493 0.046404555 -0.01065106 -0.46041813 0.045130257 -0.88655418 0.0013671977
-0.062022973 0.046312436 -0.011683867 -0.35253984 0.12520109 -0.92738366 0.002011362
-0.066827931 0.048999645 -0.0093026329 -0.54880577 0.041654818 -0.83491147 0.0021883433
-0.065502748 0.048447743 -0.010010914 -0.46053129 0.070061818 -0.88487417 0.0018948141
-0.010336698 0.0027562177 -0.0064285756 -0.1623116 -0.87121755 -0.46328706 0.0014669503
-0.0074056997 0.0025569478 -0.0069313566 -0.11646947 -0.87447757 -0.47087556 0.0017244768
-0.0044619953 0.0023535218 -0.0071432581 -0.081588782 -0.8756302 -0.47604099 0.0019242294
-0.0014440932 0.0022067034 -0.0072855116 -0.051741496 -0.87856352 -0.47481471 0.0018615413
0.0015150066 0.0021818497 -0.00747567 -0.024456123 -0.88102847 -0.47243068 0.0016169877
0.0045729568 0.0021221496 -0.0074439533 0.0018314386 -0.88372141 -0.46800986 0.0014138953
0.0074655246 0.0021710231 -0.0074300333 0.029756429 -0.88669527 -0.46139571 0.0016027627
0.010370603 0.0022788001 -0.0073494804 0.062032327 -0.89017546 -0.45137516 0.0017167039
0.013358795 0.0024257128 -0.0071240431 0.091109343 -0.89138907 -0.44398728 0.0017874916
0.016308593 0.0026126609 -0.0068216487 0.12009287 -0.8926717 -0.43441328 0.0017866639
0.019037085 0.0028559458 -0.0064824587 0.16222751 -0.8930819 -0.41962719 0.0015677896
-0.021558436 0.005749187 -0.0063712844 -0.31410104 -0.84246743 -0.43770903 0.0015167028
-0.019306557 0.0053644488 -0.0070962491 -0.27034631 -0.84048539 -0.46957123 0.0017690847
-0.016514106 0.0047585322 -0.0075032846 -0.2380055 -0.83715045 -0.49247578 0.0016965433
-0.013530473 0.0040086252 -0.0074982778 -0.19500624 -0.85395914 -0.48241735 0.0012807795
-0.010561315 0.0036515086 -0.007921637 -0.15796807 -0.84669214 -0.50809306 0.0013645128
-0.0075942706 0.0034561816 -0.0083736572 -0.11389086 -0.8439135 -0.52425081 0.0017502529
-0.0044994592 0.0032735399 -0.0086429054 -0.083274804 -0.79980624 -0.59445375 0.00075284281
-0.0018216374 0.0031354371 -0.0087703317 -0.052029718 -0.79823691 -0.60009235 0.00085848611
0.00069615099 0.0031005451 -0.0089345872 -0.027050471 -0.80052549 -0.59868789 0.00078852096
0.0044299727 0.0030247497 -0.0089371689 -0.0011655542 -0.8033936 -0.59544718 0.00069236924
0.0082924077 0.0030592419 -0.0088976901 0.023329135 -0.80740476 -0.58953649 0.00085681753
0.010739933 0.0030981787 -0.0087710377 0.052092601 -0.8129555 -0.57999122 0.0010833499
0.013754343 0.0032339564 -0.0085887155 0.083084963 -0.86470652 -0.49535793 0.0019651509
0.016755411 0.0034149296 -0.0082801823 0.11191308 -0.86650503 -0.48646119 0.001856897
0.019672593 0.0036310679 -0.0078279776 0.15502796 -0.8694157 -0.46912965 0.0014921966
0.022496048 0.0040583829 -0.0075809131 0.18716058 -0.8805995 -0.43533373 0.0015361293
0.025565667 0.0047155297 -0.007489169 0.21736559 -0.87221563 -0.43816891 0.001593954
0.028356662 0.0053094542 -0.0071862559 0.24250494 -0.87736398 -0.41403371 0.0016435687
0.030765923 0.0057857409 -0.006659193 0.29288334 -0.87353122 -0.38879633 0.0013740764
-0.028116051 0.0085467231 -0.0068940837 -0.33399349 -0.82993728 -0.44682488 0.0014969691
-0.025444573 0.0078575825 -0.0075212815 -0.30452496 -0.81573701 -0.49176991 0.0013797106
-0.022564027 0.0068139769 -0.0076151653 -0.29130015 -0.82085854 -0.49125907 0.0016809094
-0.019887578 0.0063403393 -0.0084270341 -0.2571061 -0.8172906 -0.51568645 0.0017509231
0.02919806 0.0062385965 -0.0085405884 0.23431024 -0.8554188 -0.46190631 0.0016578574
0.031828366 0.0066851177 -0.0078116944 0.30517462 -0.86425436 -0.3999159 0.0012325711
0.034595013 0.0075136074 -0.007536937 0.31766102 -0.85585642 -0.40816826 0.0015963931
0.037210774 0.0083349245 -0.0071608126 0.33698422 -0.84999716 -0.40490296 0.0016427367
0.039004281 0.0088036191 -0.0066504665 0.36497304 -0.83538568 -0.41100547 0.0016575166
-0.036471326 0.01181181 -0.0063253106 -0.39790857 -0.81720227 -0.41695216 0.001746531
-0.034303699 0.011314619 -0.0072493711 -0.34962299 -0.81486714 -0.46233675 0.001383745
-0.03148517 0.01024236 -0.0074794078 -0.34168392 -0.82587916 -0.44852623 0.0015099512
-0.028886003 0.0095415851 -0.0080974782 -0.32736069 -0.82051802 -0.4685992 0.0023317733
-0.026803015 0.0091802869 -0.0088032959 -0.29782942 -0.75268507 -0.587165 0.0011966226
0.03809071 0.0092261182 -0.0082436092 0.35091972 -0.83725852 -0.41934898 0.0016129683
0.040558521 0.0099880733 -0.0076088784 0.37063065 -0.8277241 -0.42131433 0.0014412643
0.043371193 0.011162385 -0.0072681243 0.41090658 -0.81909931 -0.40029004 0.0015011473
0.045463718 0.01187204 -0.0065611508 0.43084344 -0.81225425 -0.39321348 0.0011373048
-0.042364642 0.014849372 -0.006149115 -0.47353125 -0.76955879 -0.42842439 0.0011195401
-0.040226612 0.014219492 -0.0072318767 -0.42863628 -0.77421117 -0.46569091 0.001308187
-0.037595868 0.013051973 -0.0076219332 -0.4122999 -0.80196393 -0.43227604 0.00094920624
-0.035076328 0.012372539 -0.0084650805 -0.34612879 -0.77452326 -0.52944177 0.00058132451
0.044320259 0.01229655 -0.008540052 0.4038792 -0.76019353 -0.50890803 0.00081574928
0.046540029 0.013046611 -0.0076677315 0.44690454 -0.79355431 -0.41297451 0.0016019718
0.049113009 0.014331251 -0.0072746747 0.47765648 -0.77603483 -0.41184244 0.0010549161
-0.045760125 0.017555105 -0.0068775816 -0.53061789 -0.73148727 -0.42821839 0.001720854
-0.043515012 0.016401693 -0.0075110132 -0.47516897 -0.75325632 -0.45477381 0.0016721999
-0.041170444 0.015409607 -0.0083237179 -0.42375576 -0.73567015 -0.52841318 0.00073834421
0.05038356 0.015670946 -0.0082534133 0.47940102 -0.75274384 -0.45116672 0.0023271842
0.052446086 0.01657041 -0.0074023753 0.52337861 -0.75947028 -0.38636729 0.00060872227
0.054260481 0.017305452 -0.0064483378 0.53137785 -0.75242233 -0.38922778 0.00075842853
-0.049099468 0.020196062 -0.0071861753 -0.54256761 -0.71085262 -0.44755894 0.0015143168
-0.046873931 0.018930918 -0.0077856886 -0.53145939 -0.72825086 -0.43266785 0.00097067462
-0.044781275 0.018137645 -0.0088092107 -0.4880718 -0.69494206 -0.52805436 0.0014820994
0.053607289 0.018210981 -0.0087180771 0.51353264 -0.69050848 -0.50939393 0.00054162834
0.055524338 0.018975649 -0.0076358346 0.5445987 -0.71240276 -0.44259968 0.0015939024
0.057383046 0.020358574 -0.0074445442 0.58265823 -0.68414497 -0.4386971 0.0010279348
-0.054368358 0.023752557 -0.0064774477 -0.55266869 -0.71085805 -0.43501517 0.001013696
-0.052368861 0.022767505 -0.0073685236 -0.55266023 -0.72679693 -0.40783927 0.00072159991
-0.050251745 0.021606293 -0.0080270479 -0.54501885 -0.71866935 -0.4318203 0.0013247955
0.058461625 0.021685718 -0.0079712095 0.57791489 -0.6245032 -0.5253666 0.0010196806
0.060518671 0.023197537 -0.0073379702 0.63244539 -0.60528404 -0.48336741 0.0016753245
-0.057523474 0.026527822 -0.0067446665 -0.59479511 -0.65911239 -0.46020606 0.0011322498
-0.055593465 0.025409011 -0.0075326129 -0.57868248 -0.69290513 -0.43012685 0.0009470199
-0.053490628 0.024368212 -0.0084613729 -0.52311182 -0.65227318 -0.54853785 0.00083267008
0.060650274 0.024498511 -0.0087571647 0.63318276 -0.56982744 -0.52380937 0.0019509591
0.063341238 0.026173616 -0.0071126949 0.65199769 -0.54996175 -0.52195895 0.0041118241
-0.060487624 0.029417386 -0.0067353677 -0.64441174 -0.59483373 -0.48052704 0.0012182217
-0.058681518 0.02831091 -0.0076594292 -0.6230889 -0.63771302 -0.45286039 0.0011310651
-0.056650449 0.027242146 -0.0087186946 -0.55496943 -0.61068207 -0.56486851 0.0005809656
-0.063222475 0.032417685 -0.0065515861 -0.68401849 -0.5383426 -0.49224588 0.0012004462
-0.061616078 0.031414766 -0.0075472645 -0.6712597 -0.57360458 -0.46945527 0.0012480767
-0.059701759 0.030288756 -0.0087084817 -0.59538639 -0.54402858 -0.5912258 0.00071984681
-0.066083655 0.035806607 -0.0060730577 -0.71429962 -0.47503769 -0.51392144 0.0015054136
-0.064269237 0.0345704 -0.0073347311 -0.70615554 -0.48774323 -0.51327467 0.0031336294
-0.062493939 0.033567555 -0.0086085703 -0.62866718 -0.47660106 -0.61451524 0.0010097886
-0.066753305 0.037798185 -0.006912122 -0.71038336 -0.44805783 -0.54277033 0.0022124329
-0.065257952 0.037098158 -0.0081970077 -0.69511843 -0.38652655 -0.60614157 0.0031044383
-0.069236115 0.041652109 -0.0062870742 -0.73125499 -0.34091702 -0.59079754 0.0050768303
-0.067578577 0.040404316 -0.0075730733 -0.72068197 -0.30328107 -0.6234085 0.0025650258
-0.065842256 0.039165817 -0.0088190623 -0.69197774 -0.32934043 -0.64241856 0.0030195394
-0.069597282 0.043621618 -0.0067173718 -0.73762161 -0.23839132 -0.63173079 0.0029820227
-0.068113789 0.043383181 -0.008193627 -0.65143162 -0.17280868 -0.73876512 0.0021220376
-0.070027098 0.046551738 -0.0069777025 -0.69663304 -0.13204879 -0.70517051 0.0045649372
-0.068301097 0.046316456 -0.0085238609 -0.59188193 -0.0412568 -0.80496812 0.0038131452
-0.070300817 0.049498823 -0.0070129158 -0.63328332 -0.029181937 -0.77336967 0.0073500769
-0.068138629 0.049230993 -0.0085515054 -0.56721514 0.036278762 -0.82277024 0.0029450899
-0.070660613 0.052520126 -0.0067524849 -0.58460772 -0.052912135 -0.80958885 0.0055640787
-0.067755729 0.051818609 -0.0082203271 -0.5497241 0.031149825 -0.83476532 0.0020369345
-0.070891201 0.054936208 -0.0064143944 -0.51607102 0.038054768 -0.85570002 0.0035043885
-0.015664158 0.0028577927 -0.0036507018 -0.26242152 -0.92369145 -0.27915758 0.0021979827
-0.013321972 0.0025212516 -0.0043195649 -0.19905719 -0.93793863 -0.28398481 0.0020426163
-0.010487506 0.0020328967 -0.004544314 -0.16075826 -0.94009531 -0.3006289 0.0020067131
-0.0075334357 0.0015593356 -0.004528454 -0.12178512 -0.9406507 -0.31677216 0.0024556888
-0.0044847904 0.0012080637 -0.004525004 -0.083866447 -0.94083279 -0.32832918 0.0026459775
-0.0014775731 0.00096860982 -0.0044890796 -0.053168625 -0.94118887 -0.33367139 0.0027361338
0.0014805023 0.0008561284 -0.00451248 -0.026816869 -0.94169784 -0.33538947 0.0028638949
0.0044910568 0.00084122736 -0.0045479764 0.0066311266 -0.94308871 -0.33247516 0.0027768847
0.007503822 0.00091116736 -0.0045176689 0.044912402 -0.94525868 -0.32321629 0.0026588831
0.010455908 0.0011079349 -0.0045661731 0.07083939 -0.9464767 -0.31490257 0.0023930192
0.013439971 0.0013642861 -0.0044927569 0.099441968 -0.94826669 -0.30149901 0.0021848755
0.016402887 0.0017395618 -0.0044788495 0.13221076 -0.94986618 -0.28332773 0.0019562012
0.019455597 0.0022613385 -0.0045755408 0.16227086 -0.95103902 -0.2630457 0.0015002142
0.022147827 0.002663228 -0.0041686338 0.19072323 -0.94851929 -0.25285551 0.0017099961
0.024046922 0.0028535326 -0.0032798725 0.21871282 -0.95597357 -0.19565099 0.00525206
-0.024418529 0.0058091911 -0.0038115717 -0.35159954 -0.88687724 -0.29971084 0.0028436827
-0.02244431 0.0052794125 -0.0044083642 -0.32093766 -0.89969176 -0.29589489 0.0024643878
-0.019520432 0.0043041892 -0.0045415163 -0.29695249 -0.90645063 -0.30027714 0.0016171474
-0.016732167 0.0035220264 -0.004759836 -0.28456494 -0.91003442 -0.3014302 0.0017451977
-0.014215111 0.0031541535 -0.0055087921 -0.20137236 -0.91326433 -0.35411501 0.0022450639
0.023192702 0.0032829712 -0.0054625347 0.2035761 -0.9342221 -0.29289204 0.002193636
0.025537198 0.0035632309 -0.0045498372 0.23790076 -0.92885691 -0.28395063 0.0016189641
0.028490216 0.0043290905 -0.0044475817 0.26838967 -0.92389745 -0.27272797 0.0018659893
0.031472158 0.0052424073 -0.0044292463 0.28843957 -0.92450655 -0.24917939 0.0016228291
0.033601508 0.0058167554 -0.0039360966 0.30994236 -0.91458219 -0.25976008 0.0016462692
-0.030964255 0.0085908165 -0.0042009889 -0.35454094 -0.88746792 -0.29445091 0.0023426227
-0.028510248 0.007689999 -0.0045010787 -0.3465707 -0.88647157 -0.30668703 0.0019879092
-0.025709404 0.0066169971 -0.0046666744 -0.372583 -0.88315785 -0.28498068 0.0018450621
-0.023600956 0.006154418 -0.0056387684 -0.36407259 -0.86666709 -0.34108549 0.0050266692
0.034816891 0.0064626802 -0.0046637403 0.3361305 -0.90294963 -0.26776549 0.0016966276
0.037528805 0.0074801021 -0.0045614606 0.34512842 -0.89591491 -0.27968347 0.0013011212
0.040027205 0.0084908055 -0.0043937871 0.38523409 -0.89117539 -0.23958533 0.001515695
-0.039088242 0.011968377 -0.0032782166 -0.45019373 -0.86765248 -0.21096149 0.0013948212
-0.037241846 0.01137286 -0.0042606243 -0.41394812 -0.87004244 -0.26771846 0.0019815248
-0.034514926 0.010215227 -0.0045320997 -0.38697881 -0.88002086 -0.27533746 0.0017396082
-0.032240994 0.0093639027 -0.0049483874 -0.37492409 -0.87731135 -0.29959446 0.0024341927
0.041365612 0.0092518171 -0.0049667661 0.4211964 -0.87334931 -0.24465163 0.0013826548
0.043433215 0.010091148 -0.004436919 0.42990521 -0.86977315 -0.24223158 0.001462693
0.045965955 0.011383698 -0.0044100899 0.43676549 -0.85721111 -0.27280933 0.0019985179
-0.042896014 0.014429143 -0.0042409962 -0.50177336 -0.81996477 -0.27546555 0.0019047078
-0.040536378 0.013178367 -0.0045789382 -0.45078495 -0.84423834 -0.28992158 0.0020126945
-0.038356591 0.012262254 -0.0053060786 -0.43856889 -0.8510263 -0.28881043 0.0021364945
0.047356248 0.012308067 -0.0049657351 0.47037941 -0.83829111 -0.27570152 0.0020784372
0.049406748 0.013403754 -0.0046010558 0.5032481 -0.81657124 -0.28275913 0.0015980882
0.051441345 0.014523439 -0.0042656763 0.51295036 -0.81472492 -0.2703796 0.0017973625
-0.048178833 0.017871317 -0.0035968563 -0.565274 -0.78047639 -0.26706153 0.0016824588
-0.04641385 0.01686837 -0.0044270596 -0.55221474 -0.78575087 -0.2786653 0.0022198036
-0.044237044 0.015496602 -0.004762257 -0.54041266 -0.79649645 -0.27119642 0.0015826456
0.052993409 0.015753249 -0.0048205717 0.54525965 -0.80133164 -0.24608861 0.0011121019
0.054926932 0.016873276 -0.0041929912 0.5568763 -0.78709847 -0.26526377 0.0020519178
-0.051571678 0.02060971 -0.0041663614 -0.56029099 -0.77365518 -0.29585761 0.0019380557
-0.049554218 0.019241611 -0.0045565637 -0.58077347 -0.76205742 -0.28630507 0.0023027938
-0.047675438 0.018231867 -0.0055698883 -0.55204022 -0.76156449 -0.33951616 0.0027969133
0.056429241 0.018272767 -0.0049777436 0.59374386 -0.75388187 -0.28130111 0.0013799383
0.058422759 0.019589638 -0.0041556228 0.62570477 -0.73521817 -0.26066816 0.0024416947
-0.05494833 0.023210522 -0.0043111094 -0.58947372 -0.75240511 -0.29395106 0.0018243266
-0.052912503 0.021817556 -0.0046974588 -0.57743186 -0.76244664 -0.29197183 0.0021142461
0.059563279 0.021038942 -0.005400762 0.66035032 -0.68448585 -0.3088958 0.0031765618
0.061682869 0.022616664 -0.0042634578 0.67447817 -0.66889518 -0.31250367 0.0026086508
-0.058260899 0.02592887 -0.0043535409 -0.63622099 -0.70880783 -0.30465451 0.002181723
-0.056348074 0.024496937 -0.0048443857 -0.61181772 -0.73732877 -0.28640065 0.0016561901
0.063924581 0.025618803 -0.0054101553 0.68517208 -0.59454107 -0.42078513 0.007621258
-0.061198857 0.028761258 -0.0043547116 -0.70366001 -0.65081942 -0.28512573 0.0022253101
-0.05957194 0.027504807 -0.0052019497 -0.66228729 -0.69066876 -0.2904346 0.0019539166
-0.063948147 0.031873569 -0.0043815975 -0.73169976 -0.60405922 -0.3157973 0.0028862739
-0.062512115 0.030557279 -0.0050348872 -0.71897215 -0.62962371 -0.29436868 0.0021723863
-0.066591248 0.03513879 -0.0041446448 -0.76741022 -0.54487145 -0.3379299 0.0023077291
-0.065365061 0.033900887 -0.0047896006 -0.74708402 -0.5852893 -0.31512207 0.0019706874
-0.069227904 0.038606573 -0.003467758 -0.80829865 -0.47176749 -0.35226235 0.002542672
-0.067874394 0.037353028 -0.0046704109 -0.79103535 -0.47247925 -0.38862121 0.0042231861
-0.069857784 0.040565211 -0.0043869186 -0.84136379 -0.39181191 -0.37227747 0.0030755301
-0.068772368 0.039562304 -0.0054706242 -0.78133714 -0.42041901 -0.46125931 0.0057920632
-0.072149992 0.044924412 -0.0032567761 -0.87415844 -0.31680745 -0.36807624 0.015434613
-0.071007878 0.043472309 -0.0045232442 -0.84417552 -0.2839478 -0.45468822 0.0040910607
-0.072502404 0.046903919 -0.0037510782 -0.84830052 -0.25936198 -0.46164653 0.004545026
-0.071456216 0.04629207 -0.0051898537 -0.82202536 -0.19552717 -0.53483033 0.0058449372
-0.0729362 0.04962061 -0.0042847185 -0.79260111 -0.25770336 -0.55260521 0.0081400843
-0.071736418 0.049169235 -0.005642476 -0.68013257 -0.13868676 -0.7198512 0.0048057213
-0.075125888 0.053381115 -0.0033294884 -0.82551348 -0.29561341 -0.48077047 0.013414678
-0.073658556 0.05243241 -0.0044794418 -0.71188635 -0.18186073 -0.67833954 0.0064763012
-0.071949624 0.051477131 -0.005848282 -0.6568206 -0.092793405 -0.74831557 0.0069019515
-0.075369142 0.055306472 -0.0033977495 -0.84707701 0.10568868 -0.52085549 0.03919312
-0.07367035 0.05514862 -0.0049321917 -0.61480319 0.056016512 -0.78668869 0.01057761
-0.071534708 0.056915298 -0.0058344202 -0.55403012 0.036003891 -0.83171767 0.0053286543
-0.072788641 0.057206478 -0.0052831951 -0.61269259 0.055739153 -0.78835332 0.010418208
-0.070727132 0.057191692 -0.0059021465 -0.55402285 0.035937916 -0.83172542 0.0053309528
-0.016261896 0.0026372392 -0.0014443517 -0.23829292 -0.96198267 -0.13343857 0.00097623264
-0.013530886 0.0019777985 -0.0015265057 -0.2142652 -0.96484351 -0.15220836 0.0013831828
-0.010517817 0.001373262 -0.0015018204 -0.16550261 -0.97434717 -0.15250045 0.0027969384
-0.0075228964 0.00090359058 -0.0015474543 -0.12841293 -0.97873038 -0.15999062 0.0041428232
-0.0045249956 0.00056525425 -0.0015439736 -0.088748336 -0.98278004 -0.16207169 0.0051727253
-0.0014450095 0.00033410496 -0.0014940236 -0.05537447 -0.99787277 -0.034404762 0.0061201225
0.0015079941 0.00022340295 -0.0015235103 -0.021203469 -0.99946743 -0.024806041 0.0069115236
0.0044703637 0.00020700191 -0.0014907719 0.017178396 -0.9956618 -0.091446564 0.0017699015
0.0075053619 0.00030415811 -0.0015428348 0.042694721 -0.99516487 -0.088453516 0.0017640182
0.010558293 0.00049510179 -0.001455228 0.075677209 -0.99341661 -0.086003117 0.0016838822
0.013473503 0.00079400861 -0.0015973981 0.11046523 -0.98389316 -0.14054045 0.0051480886
0.016420929 0.001173702 -0.0015326535 0.14861733 -0.98070568 -0.12700053 0.004136268
0.019419692 0.0016667055 -0.0014649502 0.17252132 -0.98203522 -0.076441206 0.0014413596
0.02249589 0.0022849045 -0.001569799 0.20170158 -0.97368068 -0.10612416 0.0023316699
