# .PCD v0.7 - Point Cloud Data file format
VERSION 0.7
FIELDS x y z normal_x normal_y normal_z curvature
SIZE 4 4 4 4 4 4 4
TYPE F F F F F F F
COUNT 1 1 1 1 1 1 1
WIDTH 552
HEIGHT 1
VIEWPOINT 0 0 0 1 0 0 0
POINTS 552
DATA ascii
0.056735795 0.031096224 -0.014941412 0.41960341 -0.23118927 -0.87777239 0.0020027105
0.058309786 0.03031447 -0.013986819 0.45096853 -0.28358328 -0.84629071 0.0025338668
0.060836911 0.030586453 -0.012597571 0.56456035 -0.29751492 -0.76990682 0.001489494
-0.058243275 0.034579664 -0.012669032 -0.47442541 -0.2939398 -0.82977098 0.0034515713
-0.055574656 0.034354776 -0.013971935 -0.3913686 -0.22160719 -0.89315218 0.0018877662
-0.053176392 0.033638634 -0.014824213 -0.33651787 -0.16840486 -0.92649633 0.0042624832
0.061035201 0.034231272 -0.013408578 0.53096259 -0.2423168 -0.81201059 0.00094241661
0.063152544 0.035157222 -0.012312223 0.603526 -0.27291641 -0.74918157 0.0013110244
-0.060641844 0.037715118 -0.012271005 -0.51074916 -0.24561535 -0.82389838 0.001951815
-0.058608744 0.037318565 -0.013247201 -0.4408775 -0.20646918 -0.87349731 0.0014738949
-0.055519428 0.037432179 -0.01451306 -0.34154996 -0.13220845 -0.93051845 0.0018233261
-0.060997471 0.040411167 -0.012559738 -0.46333158 -0.12848894 -0.87682068 0.0012608923
-0.058787126 0.03989616 -0.013504795 -0.43443054 -0.15918002 -0.88652802 0.0010310485
-0.056825556 0.039028306 -0.014187456 -0.40304703 -0.171914 -0.89888746 0.0015377144
-0.061775368 0.042725086 -0.012324389 -0.49572375 -0.11009192 -0.86147416 0.0012593473
-0.015826015 0.0057110824 -0.0094030537 -0.21724454 -0.76792914 -0.60256916 0.0010182577
-0.013368261 0.005359333 -0.0096941153 -0.1760371 -0.76300281 -0.62196279 0.0012609225
-0.010416254 0.0050511654 -0.010030743 -0.14404856 -0.75671118 -0.63768184 0.0012223435
-0.0075167841 0.0048148078 -0.010285964 -0.11154597 -0.74906963 -0.65303308 0.001125518
-0.0045334417 0.0046412656 -0.010502405 -0.071818896 -0.73792756 -0.67104769 0.00092485
-0.0014994765 0.0043936078 -0.010515979 -0.054032493 -0.75585169 -0.65250951 0.0021030358
0.0015632301 0.0042183562 -0.010508425 -0.015913542 -0.76579809 -0.64288408 0.0019747703
0.0044654836 0.0041489676 -0.010508287 -0.0046698796 -0.77464372 -0.6323806 0.0020974211
0.0074929413 0.0041973442 -0.010534701 0.02712458 -0.77375966 -0.63289827 0.0021671534
0.010500845 0.0042886729 -0.010497485 0.043616954 -0.77015775 -0.63636047 0.0019097398
0.013450286 0.0045187906 -0.01051235 0.070402682 -0.79900265 -0.59719199 0.00096724561
0.016385091 0.0048289429 -0.01051494 0.084925681 -0.77265549 -0.6291194 0.00081146683
0.019361595 0.0050547998 -0.0102486 0.14109778 -0.7982434 -0.58557558 0.0013197258
0.02239294 0.0053608418 -0.0098988796 0.16697691 -0.80497152 -0.56933248 0.0011318941
0.025231574 0.0056682276 -0.0094532603 0.19940937 -0.81064653 -0.55053437 0.00080279104
-0.024793167 0.0087310579 -0.0093948739 -0.29617217 -0.75772727 -0.5814907 0.0011903128
-0.022360628 0.0082135592 -0.0098898495 -0.27654424 -0.74110764 -0.61178648 0.0013002319
-0.019394042 0.0076768398 -0.010438411 -0.22676663 -0.73864704 -0.63480514 0.0017191026
-0.016578799 0.0070576132 -0.010699687 -0.20424484 -0.74245721 -0.63799793 0.0010706834
-0.013625057 0.0067324014 -0.011169503 -0.16034436 -0.73580807 -0.65793329 0.0013661146
-0.010740431 0.0064492412 -0.011509143 -0.12847474 -0.72573006 -0.67587739 0.0011599007
-0.0077117882 0.0062312633 -0.01180318 -0.098599486 -0.71782446 -0.6892069 0.0011997049
-0.0056135594 0.0060684737 -0.01191955 -0.078138322 -0.68400776 -0.72527772 0.0033524472
0.017997092 0.0061825304 -0.011949328 0.0996783 -0.69032669 -0.71659845 0.0014064412
0.01963657 0.0062353574 -0.011717168 0.11680634 -0.71680546 -0.68741989 0.0015042432
0.022555422 0.0064858431 -0.011378709 0.15287779 -0.73135513 -0.66464126 0.0011785553
0.025651902 0.0068305219 -0.010906608 0.18933897 -0.78814524 -0.58564317 0.0010397435
0.028504174 0.0072481618 -0.010458591 0.22283179 -0.79669613 -0.56180185 0.00082648691
0.0312774 0.0079759434 -0.010344488 0.24283315 -0.7920326 -0.56010395 0.0016681688
0.034125805 0.0085459612 -0.0097938208 0.29216769 -0.78891599 -0.54060113 0.0014387574
0.036096785 0.0089104138 -0.0092298361 0.32213014 -0.79153484 -0.51933104 0.0012934046
-0.031259831 0.011437732 -0.0096141864 -0.31852514 -0.74559873 -0.58534116 0.00092849182
-0.028383425 0.010814931 -0.010255996 -0.28097498 -0.74197143 -0.60871291 0.0017262464
-0.025605327 0.010165615 -0.010746352 -0.26790032 -0.73574656 -0.62201804 0.0011862067
-0.022731703 0.0096096657 -0.011309881 -0.24613832 -0.69358474 -0.67702007 0.00049465155
-0.020359483 0.0091739921 -0.011718235 -0.23319136 -0.70674312 -0.66793406 0.00079597277
0.032234304 0.0092837 -0.011649647 0.23149319 -0.70915616 -0.66596431 0.00099012791
0.034721751 0.0097716954 -0.011163695 0.26979926 -0.76661843 -0.58267033 0.0015878142
0.037433363 0.010330904 -0.010485538 0.30872455 -0.76934105 -0.55928832 0.0011085266
0.040202655 0.011242157 -0.010097602 0.35227302 -0.75836331 -0.54844218 0.0012715913
0.04241468 0.011833937 -0.0094621656 0.39245591 -0.76255727 -0.5142808 0.0011328413
-0.039447978 0.014870772 -0.0090940613 -0.41614029 -0.72034073 -0.55492032 0.0011562824
-0.037180904 0.01429354 -0.0098698279 -0.37414804 -0.71655267 -0.58869809 0.0011614426
-0.03442673 0.013487113 -0.010428792 -0.32289404 -0.73433006 -0.59707516 0.00093346112
-0.031640656 0.012812168 -0.011049434 -0.29889485 -0.72827125 -0.61667079 0.0012903998
-0.028977541 0.012279533 -0.011648632 -0.26480779 -0.70524246 -0.65765494 0.0015199609
0.040858172 0.012564246 -0.011434597 0.32733503 -0.6956355 -0.63948649 0.00079852616
0.04361311 0.013330982 -0.010651476 0.37528187 -0.73885471 -0.55969381 0.0011227308
0.046138041 0.014184299 -0.0099637294 0.41629696 -0.73569232 -0.53427869 0.0016327862
0.04845617 0.014993879 -0.0092038717 0.44750726 -0.7162112 -0.53551733 0.00092623808
-0.042918466 0.017451916 -0.0096692061 -0.45977244 -0.67582941 -0.57607633 0.0011271953
-0.040450968 0.016580323 -0.010420936 -0.39329249 -0.69665289 -0.59999651 0.0011079941
-0.037860695 0.015764561 -0.011115481 -0.3427183 -0.69828844 -0.6284405 0.0014772766
-0.03568102 0.015197027 -0.011677034 -0.30284294 -0.66635871 -0.68136054 0.0024793632
0.047108702 0.015677674 -0.011132278 0.42651087 -0.70762008 -0.56334907 0.00087270525
0.049596209 0.016708994 -0.010472647 0.45124128 -0.68341351 -0.57387042 0.0022023448
0.052110147 0.017528474 -0.0093748327 0.49827445 -0.68993205 -0.52508694 0.00056946633
-0.048249383 0.020851016 -0.0091772545 -0.5051235 -0.68908203 -0.51963079 0.00083197968
-0.046171933 0.020011511 -0.0099911168 -0.49291384 -0.65287143 -0.57514763 0.0015106475
-0.043704521 0.019092599 -0.010867643 -0.42597693 -0.63747054 -0.64200848 0.00056764367
-0.04146304 0.018391928 -0.011657983 -0.41471192 -0.60895139 -0.67615998 0.0021437726
0.05026494 0.018359292 -0.011790107 0.43230492 -0.64618349 -0.62893516 0.0016832709
0.05259179 0.019241422 -0.010915891 0.47310996 -0.6046921 -0.64071411 0.0009762182
0.055017471 0.020077206 -0.0097684655 0.52522498 -0.64544183 -0.55456614 0.001044927
-0.05150244 0.023632912 -0.0095921149 -0.51163697 -0.64732939 -0.56497097 0.00141568
-0.049311608 0.022695014 -0.01034293 -0.47157004 -0.64213586 -0.60438657 0.0017650129
-0.04694625 0.021808447 -0.01124919 -0.44003841 -0.60747725 -0.66131514 0.00080866035
-0.044886533 0.02101787 -0.011948233 -0.44680855 -0.61497241 -0.64974689 0.0011272517
0.055700898 0.022027267 -0.011123599 0.49478093 -0.53920549 -0.68150514 0.00081680733
0.057937387 0.022833202 -0.009922334 0.56939137 -0.5670979 -0.59514153 0.0015480333
-0.054775104 0.026308121 -0.0096667344 -0.52221662 -0.63641775 -0.56768155 0.0014119764
-0.052551437 0.025400432 -0.010556329 -0.48034504 -0.61488646 -0.6254465 0.0024534313
-0.05032073 0.024547417 -0.011420957 -0.47879928 -0.60611314 -0.63512057 0.00041104961
0.056920111 0.02413932 -0.01191742 0.49989486 -0.47337097 -0.72527581 0.001166552
0.058851928 0.024994332 -0.010965767 0.54558527 -0.47498155 -0.69045585 0.00085599785
0.060976341 0.025994398 -0.0098047322 0.60844636 -0.50868648 -0.60912317 0.0013228772
-0.057755627 0.029147722 -0.0096968561 -0.56335217 -0.57030267 -0.5978204 0.0014527398
-0.055681605 0.028338097 -0.010746676 -0.51891512 -0.52297515 -0.67618346 0.0012102462
-0.053585809 0.027405227 -0.011629831 -0.50187665 -0.56872022 -0.65167248 0.0009705202
0.059749894 0.027180657 -0.011743348 0.53846657 -0.39853704 -0.74244326 0.0017569651
0.061554991 0.028199563 -0.01082485 0.58659917 -0.40424398 -0.70177507 0.00064215052
0.063458234 0.029177845 -0.0096549308 0.63487011 -0.42913899 -0.6424793 0.0014694686
-0.06055766 0.032177463 -0.0095901983 -0.6190325 -0.50233203 -0.6037063 0.0012034699
-0.058616083 0.031362776 -0.010673163 -0.54729855 -0.45936215 -0.69960749 0.0012361768
-0.056636717 0.030575998 -0.011725714 -0.52535349 -0.45722285 -0.71760088 0.00092867081
0.062599033 0.031114565 -0.011468564 0.59537971 -0.2883794 -0.7499069 0.0013439909
0.064289384 0.031513181 -0.010173505 0.65619338 -0.37245262 -0.65626925 0.0012268844
-0.063394919 0.03567487 -0.0093141617 -0.6090796 -0.41456881 -0.6761322 0.0036367164
-0.061464556 0.034598224 -0.010359524 -0.59254217 -0.38619587 -0.70692754 0.0018660222
-0.059449106 0.033750758 -0.01151931 -0.56285226 -0.35447493 -0.74668914 0.0018313029
0.065130562 0.034173675 -0.010530663 0.64949554 -0.26720658 -0.71186805 0.0040334179
0.066563658 0.034136228 -0.0091422563 0.71260279 -0.29817137 -0.63505197 0.0074647698
-0.064074181 0.037728861 -0.0097901961 -0.62299961 -0.33020595 -0.70910895 0.0025958878
-0.062027678 0.037300024 -0.011218394 -0.53927165 -0.27785444 -0.79497349 0.0011570518
0.06417916 0.036351208 -0.011851487 0.63526726 -0.25342712 -0.72952735 0.0026919283
-0.066275649 0.041361935 -0.009348616 -0.63321203 -0.26562613 -0.72696996 0.0025263238
-0.06460309 0.04038645 -0.010347954 -0.57862604 -0.225107 -0.78391248 0.0037514805
-0.062537819 0.04035148 -0.011726354 -0.5109154 -0.15705645 -0.84516191 0.0018535502
-0.066790059 0.043554131 -0.0094400737 -0.61097556 -0.13164999 -0.78062618 0.0032045473
-0.064582691 0.043379247 -0.010868346 -0.53659534 -0.085254952 -0.83952194 0.00083940441
-0.062591374 0.043789867 -0.011930511 -0.51975578 -0.082510956 -0.85032099 0.00052854244
-0.066856116 0.04638546 -0.0095911995 -0.60665965 -0.089503504 -0.78990704 0.0019574324
-0.06480667 0.046123043 -0.010732099 -0.53987503 -0.067089014 -0.83906734 0.0009407372
-0.012347927 0.0029041935 -0.0061334204 -0.21631621 -0.86884344 -0.44532958 0.0015413163
-0.01020169 0.0027010452 -0.0065269624 -0.15577009 -0.89283866 -0.42258111 0.00063251291
-0.0074240915 0.0025105507 -0.0069940458 -0.11705535 -0.87460518 -0.47049314 0.0018591445
-0.0044165473 0.0022857604 -0.0071765631 -0.08150395 -0.87606263 -0.47525916 0.0019140189
-0.001476815 0.0021582784 -0.0073414105 -0.035927996 -0.87189913 -0.48836571 0.0019206457
0.0014662285 0.0021287722 -0.0075266659 -0.020260919 -0.86718065 -0.49758151 0.0017688036
0.0044748452 0.0020955957 -0.0075362115 0.0034445045 -0.85415721 -0.52000356 0.002770463
0.0074802362 0.0021427982 -0.007525309 0.022511093 -0.87383848 -0.48569492 0.0016665003
0.01047211 0.0022372624 -0.007404869 0.041123815 -0.8828733 -0.46780714 0.0019257556
0.013456869 0.0023777951 -0.0071703419 0.089433439 -0.89251453 -0.44206268 0.0017427537
0.016313465 0.0025679173 -0.0068980688 0.12137102 -0.89225858 -0.43490645 0.0019481741
0.019057233 0.0027929395 -0.0065153376 0.16335085 -0.89378494 -0.41769019 0.0016281933
-0.021654546 0.0057918769 -0.0065548546 -0.3139804 -0.84372926 -0.43535891 0.0015797208
-0.019334046 0.0053266217 -0.0071651354 -0.26896983 -0.84157974 -0.46840024 0.0017866906
-0.01649506 0.0046683792 -0.0075054858 -0.23930019 -0.83741128 -0.49140379 0.0016768636
-0.013549205 0.0039681629 -0.0075656599 -0.18514881 -0.84833765 -0.49602735 0.0013304751
-0.0105954 0.0036384705 -0.0080328668 -0.14876275 -0.84426081 -0.51487219 0.0015808587
-0.0075837635 0.0033808821 -0.0083894124 -0.11232071 -0.84446359 -0.5237034 0.0018330496
-0.0045931442 0.0032176047 -0.0086748395 -0.084323265 -0.79941255 -0.59483546 0.00071424805
-0.0016369651 0.0030929723 -0.0088525023 -0.053636555 -0.79282224 -0.60708809 0.00083638955
0.011083637 0.0031379431 -0.0089153489 0.052929785 -0.80856091 -0.58602709 0.00098256231
0.01384769 0.0032015163 -0.008659984 0.082187049 -0.8203333 -0.56594926 0.0011029459
0.016772358 0.0033734061 -0.0083503202 0.11248748 -0.86653876 -0.48626852 0.0019027876
0.019665454 0.0035848075 -0.0078997761 0.15445954 -0.86989045 -0.46843663 0.001638239
0.022472974 0.0039243517 -0.0074875215 0.18827471 -0.88044703 -0.43516165 0.0015348456
0.025473755 0.0046087168 -0.0074821436 0.21927819 -0.87894464 -0.42352492 0.0021941562
0.028347693 0.0053305333 -0.0073941876 0.24259102 -0.87843472 -0.41170612 0.0014248415
0.030816823 0.0057649794 -0.0067567541 0.29271087 -0.87365937 -0.38863823 0.0014218545
-0.030328628 0.0089512384 -0.0060899379 -0.35245287 -0.83246714 -0.42752236 0.00090508792
-0.028225519 0.0085165827 -0.0069190809 -0.33501372 -0.83144319 -0.44324702 0.001704448
-0.025452543 0.0077454066 -0.0074721649 -0.30433807 -0.81511217 -0.4929204 0.0014461833
-0.022616286 0.0067915507 -0.0076894383 -0.29104641 -0.82065427 -0.49175057 0.001713933
-0.020077933 0.0063481703 -0.0084774559 -0.2596904 -0.77767152 -0.57252765 0.00069701893
0.029606855 0.0063158772 -0.0086042229 0.23419069 -0.81665742 -0.52747077 0.00073785783
0.031808484 0.0066000964 -0.0078205587 0.28529754 -0.85635924 -0.43041152 0.0016611607
0.034493931 0.0073897266 -0.0075246119 0.30866107 -0.86330169 -0.39929754 0.0013249121
0.037299946 0.0083644763 -0.0073139109 0.32523599 -0.85018373 -0.41401607 0.001214943
0.039396454 0.0088124042 -0.0064192261 0.36655569 -0.84317857 -0.39330238 0.0011429272
-0.036483485 0.011806367 -0.0064752707 -0.40640688 -0.81853616 -0.40599528 0.0017165573
-0.034329463 0.011209817 -0.007196187 -0.36286658 -0.81652224 -0.44902033 0.0016409025
-0.031517468 0.010208809 -0.0075512701 -0.34643093 -0.82258171 -0.45093778 0.0017622311
-0.028950077 0.0094995294 -0.008142272 -0.31059584 -0.81438172 -0.490217 0.0018271208
-0.026661629 0.0090972278 -0.0088926982 -0.32027611 -0.75678062 -0.56983024 0.0016739254
0.038428664 0.0093146367 -0.0083083594 0.36150083 -0.83780515 -0.40914506 0.0017876535
0.040599562 0.0099456394 -0.0076529714 0.36798841 -0.82948494 -0.42016584 0.0014730456
0.043357376 0.01107911 -0.0072871605 0.41501093 -0.81637782 -0.40161335 0.0016726431
0.04542844 0.01177197 -0.0065429374 0.4320572 -0.81236964 -0.39164022 0.0011637072
-0.042346191 0.014842355 -0.0063376436 -0.47677881 -0.77029067 -0.42347878 0.0011811195
-0.040209066 0.014156167 -0.00729809 -0.42808351 -0.77283746 -0.46847284 0.0014481561
-0.037602793 0.013000781 -0.0076789805 -0.38081419 -0.79840213 -0.46640605 0.0015926125
-0.035207778 0.012322345 -0.0084443176 -0.36871934 -0.76697779 -0.52515817 0.0010944379
0.044324331 0.012165158 -0.0084420545 0.41760239 -0.79027814 -0.44840702 0.0010080556
0.04662269 0.012981032 -0.0076147262 0.46118793 -0.79610246 -0.39182457 0.00091133005
0.049217418 0.014256296 -0.0071554426 0.48065248 -0.77666146 -0.40714878 0.0014148053
-0.045699891 0.017468136 -0.0069695851 -0.51542914 -0.73095119 -0.4472619 0.0011654019
-0.043553028 0.016362021 -0.0075629172 -0.49801123 -0.75439447 -0.42763746 0.00083719869
-0.041316189 0.015357193 -0.0082572475 -0.42238644 -0.75965577 -0.49448246 0.0021975478
0.050138041 0.015537214 -0.0084144678 0.46032846 -0.72151816 -0.51721293 0.00068452681
0.052440681 0.016496452 -0.0074224505 0.52281731 -0.76208723 -0.3819491 0.00051803392
0.054670703 0.017675146 -0.0067215441 0.54149014 -0.73129362 -0.4147265 0.0010856703
-0.049086776 0.020117229 -0.0072330991 -0.53874665 -0.71292818 -0.44887131 0.0016961813
-0.046909343 0.018848171 -0.0077653835 -0.53569132 -0.7227571 -0.43664289 0.0011260245
-0.044887137 0.018132521 -0.0088347653 -0.496308 -0.68436641 -0.53415447 0.0014456508
0.053649429 0.018176951 -0.0087423995 0.49826759 -0.68992859 -0.52509803 0.00058301189
0.055572491 0.018950913 -0.0076859337 0.55858517 -0.71678174 -0.41738063 0.0010182491
0.05754599 0.020271398 -0.0072150542 0.59495384 -0.67416584 -0.43764177 0.001294209
-0.054369908 0.023704065 -0.0065574646 -0.55212831 -0.7120955 -0.43367532 0.001045865
-0.052394681 0.022701465 -0.0073804702 -0.54101205 -0.71578664 -0.44153771 0.0021562448
-0.050226353 0.021545058 -0.0081026107 -0.54214776 -0.71676785 -0.43854257 0.001385884
0.058893915 0.021859944 -0.0077736997 0.61796725 -0.658629 -0.42933008 0.0012621428
0.060711503 0.023165992 -0.0071418374 0.63930523 -0.62104648 -0.45342049 0.0015356272
-0.057494842 0.026493164 -0.0068861349 -0.59349865 -0.66166824 -0.45820796 0.0011468226
-0.055571456 0.025281098 -0.0075151469 -0.57779419 -0.69517803 -0.42764625 0.00094297802
-0.053529263 0.024389798 -0.0085793147 -0.51798171 -0.65045488 -0.55552083 0.00097445882
0.061996445 0.024991479 -0.00764819 0.6501627 -0.56340379 -0.50976926 0.0023044324
0.063773341 0.026541587 -0.0069909026 0.69488037 -0.51527447 -0.50163072 0.0018211268
-0.0605046 0.029428156 -0.0068631149 -0.64363873 -0.59678793 -0.47913808 0.0011131966
-0.05874978 0.028246516 -0.0076252162 -0.63175273 -0.63030672 -0.45122275 0.0011612803
-0.056857418 0.027214214 -0.0085899169 -0.58449399 -0.62459749 -0.51792347 0.00088302238
0.064677551 0.028522843 -0.0076895389 0.70675808 -0.47386363 -0.52530587 0.0017420877
-0.063358121 0.032540433 -0.0066288323 -0.68654424 -0.53414309 -0.4933033 0.0012901484
-0.061680958 0.031389054 -0.0075603402 -0.67332858 -0.57347941 -0.46663696 0.001204847
-0.059856292 0.030278252 -0.0086378157 -0.63044906 -0.56172967 -0.53571802 0.0010754113
0.065648146 0.031648275 -0.0088448692 0.71950096 -0.38581437 -0.57746488 0.0029147526
0.066785999 0.03140226 -0.0071695177 0.74311841 -0.40605035 -0.53188175 0.0028178603
-0.06434726 0.03460988 -0.0073870113 -0.69306713 -0.47769848 -0.53987235 0.0024143094
-0.06255848 0.033480007 -0.0085666627 -0.63385713 -0.51427782 -0.57770544 0.0027900015
0.067843676 0.033790536 -0.007225222 0.78942293 -0.39281586 -0.47170657 0.0061531551
-0.066790238 0.0378071 -0.0069740466 -0.72443616 -0.41787034 -0.54824859 0.0032318754
-0.065354012 0.036984231 -0.0081011467 -0.70780343 -0.41062978 -0.57480204 0.0039107045
-0.069162033 0.04136337 -0.0063190144 -0.75005889 -0.34722984 -0.56288809 0.0031106011
-0.067594245 0.040429655 -0.0076581878 -0.7004593 -0.31289473 -0.64144647 0.0025288947
-0.069694057 0.04364663 -0.006695501 -0.73957866 -0.2331603 -0.63139498 0.0031940811
-0.068183333 0.04338884 -0.0082138209 -0.64957976 -0.1743072 -0.74004269 0.0023434414
-0.069958143 0.046430793 -0.0071009467 -0.70456713 -0.14917013 -0.69378191 0.0035369927
-0.068217784 0.046367295 -0.0086420951 -0.6422264 -0.087281816 -0.76152945 0.0035555987
-0.070413299 0.049450077 -0.0069729663 -0.70328873 -0.074944697 -0.70694286 0.0055643828
-0.068640038 0.048685126 -0.0083424095 -0.62815291 -0.061043456 -0.77569169 0.0035384852
-0.071006387 0.05230999 -0.0066140699 -0.62470871 -0.075693086 -0.77718055 0.0031148626
-0.068776518 0.051579352 -0.0079293633 -0.65022045 -0.032632478 -0.75904453 0.0016225085
-0.07124871 0.054761488 -0.0063799242 -0.61036885 -0.090428516 -0.78693873 0.0028820075
-0.015735684 0.0027986642 -0.0036442599 -0.24446125 -0.92532438 -0.28985086 0.0019930566
-0.013403217 0.0024681408 -0.0043446287 -0.2109632 -0.9318974 -0.29506221 0.0022644247
-0.010576744 0.0019625998 -0.0045212791 -0.16735992 -0.93593198 -0.30987406 0.0023629458
-0.0075297998 0.0014805574 -0.0045276009 -0.12074681 -0.94089329 -0.31644911 0.0024390246
-0.0045324857 0.0011222261 -0.0044886353 -0.085273236 -0.94073999 -0.32823265 0.0026851492
-0.0015204693 0.00089857751 -0.0045028855 -0.051688373 -0.94091958 -0.3346619 0.0028206578
0.0014511474 0.00078942569 -0.0045465659 -0.039681617 -0.94112206 -0.33573025 0.002741091
0.0044655907 0.00074746553 -0.0044965469 0.01305873 -0.95085233 -0.30936924 0.0016187122
0.0075198961 0.00083741563 -0.0045167967 0.036448274 -0.95221406 -0.30324897 0.0015473644
0.010514262 0.0010107944 -0.0044970852 0.071873151 -0.94578737 -0.31673402 0.0025920256
0.013493509 0.0013022701 -0.0045227343 0.10132168 -0.94803315 -0.3016074 0.0022467859
0.016524231 0.0016881318 -0.0045033586 0.13129598 -0.95012367 -0.28288937 0.0020241605
0.019476628 0.0021656584 -0.004496248 0.1612227 -0.95101613 -0.26377183 0.0016061435
0.02230625 0.0026140288 -0.004136702 0.19254805 -0.94982713 -0.24648266 0.0016595349
0.024387993 0.0029017057 -0.0034343954 0.24437682 -0.94001657 -0.23801006 0.0016386489
-0.024643075 0.0058018235 -0.003761858 -0.34233472 -0.89711565 -0.27926773 0.002075759
-0.022427918 0.005212782 -0.0044541792 -0.31855652 -0.89951956 -0.2989755 0.0023159657
-0.019481385 0.0042028343 -0.0045144483 -0.30039254 -0.90500808 -0.30120525 0.0016296647
-0.016754782 0.0034469708 -0.0047432492 -0.28548464 -0.90933746 -0.30266157 0.0017612564
-0.014267621 0.0031648299 -0.005704727 -0.20605402 -0.89032328 -0.40603727 0.00069860829
0.022981551 0.0031456307 -0.0054303003 0.19531065 -0.93163913 -0.30643472 0.0016583658
0.025610756 0.0035237477 -0.0046208482 0.24473369 -0.93178523 -0.26810789 0.001964004
0.028496485 0.004274949 -0.0045188991 0.26939425 -0.9269883 -0.26099697 0.0011791029
0.031448208 0.0051737539 -0.0044952221 0.28581092 -0.9236179 -0.25542513 0.0015336634
0.033643223 0.0057385154 -0.0038809727 0.31284797 -0.91406947 -0.25807577 0.0016403942
-0.031123675 0.0085693682 -0.0041916114 -0.36414337 -0.89068049 -0.27219057 0.0018800535
-0.02849322 0.0076120137 -0.0045297109 -0.3513293 -0.8892718 -0.29285389 0.0022867525
-0.025810061 0.0065838783 -0.0046911775 -0.37385416 -0.88342834 -0.28246665 0.0017771402
-0.023864701 0.0061805034 -0.0056605996 -0.35591358 -0.86922306 -0.34318617 0.0049666227
0.034852169 0.0064304806 -0.0047712605 0.33947438 -0.90226078 -0.26586205 0.001700596
0.037497554 0.0073907659 -0.0045509455 0.35486427 -0.8936975 -0.2745471 0.0015982062
0.04008035 0.0084070154 -0.0042957757 0.3844589 -0.89156204 -0.23939182 0.0016122032
-0.039260589 0.01195973 -0.003225184 -0.44807938 -0.86791182 -0.21436863 0.0014760469
-0.037342176 0.011365698 -0.0043379492 -0.41123179 -0.86535949 -0.2864286 0.0020150607
-0.034490626 0.010110989 -0.0044984524 -0.38811854 -0.87917107 -0.27644584 0.0017416542
-0.03225207 0.0093419449 -0.0051029217 -0.39602032 -0.87524426 -0.27769652 0.0017244159
0.041462421 0.0092715267 -0.0051320838 0.39914808 -0.88006812 -0.25721759 0.0021977366
0.043479972 0.010033399 -0.0044201179 0.42807689 -0.87084121 -0.24163139 0.0014580115
0.046139739 0.01138173 -0.0043521347 0.45299703 -0.85827398 -0.24116273 0.0015074481
-0.042975962 0.014377766 -0.0041817199 -0.49666634 -0.82067537 -0.28251451 0.0017822179
-0.040568247 0.013114525 -0.0045788442 -0.45175317 -0.84320641 -0.29141378 0.0019974601
-0.038500465 0.012339811 -0.0055388361 -0.40014663 -0.86273426 -0.30914766 0.0028778056
0.04734809 0.012262185 -0.005063443 0.48628637 -0.83892065 -0.2444132 0.001337235
0.04948125 0.013329829 -0.0044918084 0.49319395 -0.83530802 -0.24294075 0.0014275009
0.051634617 0.01450174 -0.0040178108 0.51332587 -0.81383109 -0.27235189 0.0018693141
-0.048249077 0.017778628 -0.0034129794 -0.56148839 -0.78896165 -0.24954009 0.00089904602
-0.04645402 0.016828977 -0.0044667139 -0.56037551 -0.77868658 -0.28218153 0.0019848277
-0.044303808 0.015495301 -0.0048667453 -0.53850943 -0.79583234 -0.27687269 0.0016681399
0.052908909 0.015601102 -0.0047822627 0.5360254 -0.79912013 -0.27218345 0.0020217109
0.055169541 0.017085496 -0.0044846125 0.56470096 -0.78270757 -0.26168984 0.0016585981
-0.051588684 0.020581964 -0.0042832284 -0.56187117 -0.77278775 -0.29512686 0.0020331158
-0.049540516 0.019168628 -0.0046209232 -0.57971555 -0.76373649 -0.28396556 0.0021247943
-0.047480039 0.018157307 -0.0058721295 -0.54405022 -0.73956668 -0.39629596 0.0010521525
0.056614999 0.018377431 -0.0051103868 0.59350866 -0.76050955 -0.26338688 0.0016755597
0.058450133 0.019659068 -0.0045043631 0.62348628 -0.73288953 -0.27228239 0.0024554727
0.060114451 0.020828139 -0.0038792295 0.64340931 -0.70999449 -0.28623831 0.0027072141
-0.05498793 0.023133682 -0.0042641643 -0.57435507 -0.764624 -0.29234633 0.0017334505
-0.052956525 0.021748664 -0.0046681194 -0.58459687 -0.76749951 -0.26304179 0.0014454798
0.059726346 0.021189496 -0.0055463961 0.63853556 -0.71084082 -0.29491991 0.0025581231
0.061543431 0.022475157 -0.0044638757 0.69505531 -0.66004813 -0.28501672 0.0019168161
-0.060017332 0.026965395 -0.0031306006 -0.66302377 -0.69759214 -0.27159646 0.0020148284
-0.058223452 0.025825297 -0.0044129957 -0.64196175 -0.70385909 -0.30408463 0.0028711213
-0.056370299 0.024404831 -0.0048030019 -0.61132711 -0.73680907 -0.28877595 0.0017411573
0.064005263 0.025218152 -0.0045970236 0.73327833 -0.60354871 -0.31310031 0.0022890894
-0.061241791 0.028730163 -0.0043962141 -0.68567407 -0.67085767 -0.28249076 0.002518524
-0.059515398 0.027357437 -0.0052144225 -0.6269877 -0.70892614 -0.3229709 0.0036667087
0.065638281 0.027386844 -0.0047184173 0.77953541 -0.53768331 -0.32128054 0.0026637872
0.066512637 0.02839789 -0.004311183 0.79045731 -0.51884258 -0.32554495 0.002242378
-0.063987613 0.031790383 -0.0043207994 -0.73392844 -0.60135937 -0.31577829 0.002874855
-0.062555797 0.03056477 -0.0051752902 -0.71167547 -0.63670719 -0.29685351 0.002125001
0.06791158 0.030914783 -0.0046060886 0.83573359 -0.43771967 -0.3315883 0.0054472494
-0.066616915 0.035090171 -0.0041903616 -0.76163775 -0.54942751 -0.34356573 0.0021273536
-0.065373674 0.033794764 -0.0047739437 -0.75125468 -0.581577 -0.31206515 0.0019295609
-0.069257304 0.038574938 -0.0035169595 -0.80859131 -0.47336602 -0.34943485 0.0024500468
-0.067853503 0.037209623 -0.0046795644 -0.78891611 -0.52149355 -0.32504746 0.0019930201
-0.069942072 0.040615968 -0.0044035832 -0.84187394 -0.39537865 -0.36731994 0.0032121032
-0.068718195 0.039456204 -0.005585127 -0.8082329 -0.41159427 -0.42112908 0.0045402884
-0.072106108 0.044605456 -0.0032284693 -0.88545305 -0.34818569 -0.307798 0.0094274804
-0.071018219 0.04332431 -0.0045271069 -0.85622209 -0.33942708 -0.38945219 0.0023287842
-0.072520807 0.046883967 -0.0037986587 -0.8456592 -0.25686169 -0.46784893 0.0047134641
-0.071540214 0.046261176 -0.0051393937 -0.82183534 -0.19812819 -0.53416473 0.0053125559
-0.073068842 0.049699932 -0.0042233071 -0.77535701 -0.22690071 -0.58935344 0.011619826
-0.071690932 0.049383346 -0.0058116582 -0.67312199 -0.11349589 -0.73077047 0.0066208476
-0.075178772 0.053186316 -0.0032693953 -0.80636632 -0.29201588 -0.51429576 0.010093777
-0.073729619 0.052353721 -0.0044684205 -0.6905157 -0.14583808 -0.70846266 0.010498822
-0.075299665 0.054538935 -0.0035095606 -0.92225027 -0.18040174 -0.34192061 0.027408689
-0.073663622 0.05498381 -0.0050170063 -0.68993735 -0.16210663 -0.70548421 0.010654659
-0.016343232 0.0025857363 -0.0014477257 -0.23805374 -0.96222705 -0.13209675 0.00096173794
-0.013504974 0.0018968771 -0.0015072038 -0.20274362 -0.96902341 -0.1410275 0.0018141697
-0.01049277 0.0012968916 -0.0015330018 -0.16446945 -0.97430247 -0.15389799 0.0029449463
-0.007508907 0.00082429999 -0.0015004528 -0.1281548 -0.97880614 -0.15973383 0.0043112249
-0.0044907439 0.00048328371 -0.0015148009 -0.08934471 -0.98275965 -0.1618672 0.0052788807
-0.0014915136 0.00026641987 -0.0015253981 -0.057620261 -0.99366665 -0.096469805 0.0017286817
0.0015126698 0.00014796147 -0.0015102304 -0.02483313 -0.99535072 -0.093060352 0.0017448461
0.0045245318 0.00013834084 -0.0015458645 0.0084585398 -0.99592316 -0.089807473 0.0017908311
0.007516528 0.00022279697 -0.0014473831 0.050658233 -0.99498445 -0.086254001 0.0017213398
0.010528206 0.00042644836 -0.0015229943 0.084108151 -0.99296254 -0.083374247 0.0016874865
0.01351739 0.00072160031 -0.0015135761 0.1105677 -0.98405445 -0.1393252 0.0051934561
0.016533893 0.0011165697 -0.0015115004 0.14271605 -0.98145515 -0.12797636 0.0042293579
0.019518102 0.0016087241 -0.0014775202 0.1719695 -0.9786337 -0.11270568 0.00338707
0.022463534 0.0022015471 -0.0015322479 0.2023432 -0.97428042 -0.099171288 0.002279866
0.024961365 0.0027652027 -0.0013686846 0.22444049 -0.97258806 -0.06081919 0.0020903212
-0.025050348 0.0055575627 -0.0015240115 -0.35662088 -0.9182533 -0.17214039 0.00076624833
-0.022500848 0.0045923605 -0.0014715092 -0.32311165 -0.93104821 -0.16955271 0.00023103501
-0.019518029 0.0035593766 -0.0015408518 -0.30247393 -0.93955523 -0.16045375 0.00043643775
-0.017781029 0.0030751172 -0.0020756486 -0.28068906 -0.9482336 -0.14854836 0.00078162464
0.026366135 0.0031585144 -0.0018369397 0.27487221 -0.95906895 -0.068060152 0.0019852307
0.028472358 0.0037209408 -0.0015291768 0.28308085 -0.9562282 -0.074113518 0.0019344504
0.031487599 0.0046405485 -0.0015241762 0.29392114 -0.95333415 -0.06902381 0.001277013
0.034167115 0.0055552023 -0.0014885458 0.32092959 -0.94461763 -0.068569407 0.0020066863
-0.033267803 0.0088729253 -0.0011219574 -0.37964672 -0.8937152 -0.23904303 0.0022537534
-0.031454284 0.0081478329 -0.0015637461 -0.39213222 -0.89735174 -0.2024655 0.00063703238
-0.028488861 0.0069273585 -0.0014911803 -0.3571471 -0.91156107 -0.20372103 0.0010395031
-0.02658657 0.0061690514 -0.0015562911 -0.36249352 -0.91073209 -0.1979029 0.0013887885
0.035688516 0.0061120265 -0.0015213192 0.36705863 -0.92749405 -0.070872232 0.0019540912
0.037438858 0.0068054958 -0.0015688065 0.37952447 -0.92237306 -0.072035395 0.0018934703
0.040496528 0.0080976114 -0.0015028865 0.3881937 -0.91763771 -0.085127696 0.0017101275
0.042300101 0.0088771833 -0.0011358371 0.41462603 -0.9061358 -0.083685003 0.0019315761
-0.039452232 0.011783718 -0.001368911 -0.46793327 -0.85356432 -0.22905545 0.001958342
-0.037464116 0.010820687 -0.0015241018 -0.40303335 -0.8875789 -0.22308713 0.0018934879
-0.034737565 0.0095587168 -0.0015745983 -0.38123026 -0.88996583 -0.25024828 0.0023301528
0.043775912 0.0096365018 -0.0015172769 0.45215261 -0.88767087 -0.087169595 0.0018809158
0.046430331 0.011011541 -0.0015359565 0.47159702 -0.87865829 -0.074536383 0.0025693811
0.048163746 0.01191806 -0.0011992444 0.48876047 -0.86937279 -0.072830133 0.0029089591
-0.043433193 0.014093899 -0.0014218285 -0.49015999 -0.83830577 -0.23871878 0.0022865641
-0.040946651 0.012635618 -0.0015826633 -0.47299302 -0.8508321 -0.22882809 0.0021131218
0.049663261 0.012844875 -0.0016169451 0.51592755 -0.85179526 -0.090904303 0.00182311
0.052081879 0.014324017 -0.0013979966 0.53041005 -0.84454829 -0.073508069 0.0018314165
-0.048517913 0.017612696 -0.0014359918 -0.58917016 -0.7778222 -0.21879472 0.0019026236
-0.046484612 0.016147966 -0.001518962 -0.55113268 -0.79447466 -0.25507432 0.0019009869
-0.044849191 0.015104331 -0.0022534248 -0.56109625 -0.79949135 -0.21444011 0.00040215303
0.053605556 0.015347504 -0.001620144 0.55461431 -0.82862455 -0.076054789 0.0019497022
0.055539627 0.016692972 -0.0014907601 0.58093446 -0.80888492 -0.090665981 0.0021914341
0.057176813 0.017849982 -0.001273635 0.60363394 -0.79096037 -0.10003836 0.0023742719
-0.05200468 0.020224381 -0.0014803219 -0.59195971 -0.78185999 -0.19564931 0.0017752765
-0.050012488 0.018743601 -0.0016081354 -0.59272861 -0.77172148 -0.23047501 0.0018591981
0.058689348 0.019122219 -0.0015288729 0.63441199 -0.76660889 -0.099157438 0.0021989753
0.060480565 0.020638065 -0.0014788685 0.6630162 -0.74447364 -0.0785404 0.0023769895
-0.057020482 0.023940628 -0.00037669553 -0.63916177 -0.74104273 -0.20573741 0.0011626917
-0.05543644 0.022818347 -0.0015079305 -0.59466356 -0.7842254 -0.1771038 0.0010137813
-0.053510454 0.021369606 -0.0015809046 -0.59497786 -0.76917404 -0.23317935 0.0036618579
0.061932668 0.02201649 -0.0015147646 0.69685185 -0.71322656 -0.075533122 0.0014988977
0.063425243 0.023551248 -0.0013535275 0.73407841 -0.67358381 -0.086102821 0.0025070948
-0.060237829 0.026803678 -0.0010029086 -0.69361198 -0.70024925 -0.16897728 0.00073922676
-0.058561385 0.025362873 -0.0015471266 -0.634817 -0.75363219 -0.1704286 0.00035546845
-0.056853801 0.024032576 -0.0024435341 -0.62133509 -0.76201522 -0.18241574 0.00045858623
0.064777657 0.025143428 -0.0016477901 0.76937944 -0.62711304 -0.12159149 0.0025807717
0.066060379 0.026659461 -0.0012481267 0.80066061 -0.59073001 -0.099903166 0.0029433887
-0.063140586 0.02981321 -0.0010409364 -0.74056691 -0.65323335 -0.15762861 0.00093520957
-0.061675429 0.028329471 -0.0015812076 -0.71783084 -0.67892694 -0.15419808 0.00060476584
0.066984303 0.027992187 -0.0015042522 0.81709075 -0.56633717 -0.10781886 0.0037319108
-0.064492129 0.031465363 -0.0015172849 -0.76438874 -0.62835556 -0.1444962 0.001062319
0.068617821 0.030653225 -0.0016640479 0.86777657 -0.44303942 -0.22512199 0.0070778029
-0.067062952 0.034685079 -0.0014571083 -0.80792791 -0.57404357 -0.13314085 0.0025659138
-0.06582053 0.033179037 -0.0019062224 -0.78398317 -0.60590971 -0.13506983 0.0015923394
-0.069482319 0.038093846 -0.001336938 -0.85285938 -0.5084964 -0.11858491 0.0040219058
-0.068542719 0.036753967 -0.0016977548 -0.81606132 -0.56676871 -0.11321317 0.0026040538
-0.07077565 0.040448036 -0.0015540458 -0.89476383 -0.43101633 -0.11671548 0.0048304279
-0.072364986 0.044079285 -0.001371021 -0.93661529 -0.33124262 -0.11414953 0.0059994631
-0.071782038 0.042638134 -0.0017511077 -0.9023962 -0.41301668 -0.12287534 0.0049617477
-0.073157683 0.046503406 -0.0015733835 -0.93222749 -0.30182984 -0.19962659 0.0094559267
-0.075091332 0.050680455 -0.00058601587 -0.93722004 -0.3484911 -0.013132893 0.012922292
-0.074285276 0.049502019 -0.0016125309 -0.90039593 -0.3424933 -0.26830125 0.015226843
-0.075646564 0.052337758 -0.0014392671 -0.89973366 -0.33133891 -0.28406677 0.014341359
-0.07483045 0.051379248 -0.0026414881 -0.85732388 -0.36441284 -0.36359188 0.0081184022
-0.076228194 0.054553401 -0.0017983513 -0.92233211 -0.18012686 -0.34184477 0.027296279
-0.018651525 0.0028282048 0.0021294246 -0.2459548 -0.9685483 0.037689209 0.0056296922
-0.016509585 0.0024007706 0.0014566217 -0.22493766 -0.97402459 0.026059553 0.0049055824
-0.013525012 0.0017502493 0.0014810107 -0.19783068 -0.97684485 0.081468157 0.003584984
-0.010531611 0.0012281021 0.0014854358 -0.15416074 -0.98019189 0.12433114 0.0048112134
-0.0075052776 0.0008055995 0.0014598405 -0.11584371 -0.98147565 0.1525971 0.005437111
-0.0045023905 0.00051374297 0.0015209052 -0.077442668 -0.98256189 0.16904065 0.0052177846
-0.0014951993 0.00031448386 0.0014330429 -0.041456532 -0.99717629 0.062617809 0.0065098694
0.0015685229 0.000228787 0.0015162738 -0.018257003 -0.98932016 0.1446106 0.0020257544
0.0044972287 0.00021490731 0.0014729074 0.0117056 -0.98723704 0.15882719 0.0023147494
0.0074477596 0.00031182644 0.0015057893 0.050696488 -0.974361 0.21920402 0.0059076641
0.010448852 0.00050954614 0.0015195458 0.081616201 -0.97245997 0.21831274 0.0058363499
0.013427797 0.00080152217 0.001510032 0.1106496 -0.97097296 0.2120574 0.0057910685
0.016389607 0.0011777945 0.0014347795 0.1309137 -0.97127038 0.19873445 0.0050453632
0.019483862 0.00169195 0.0014697706 0.16711338 -0.97057444 0.1733737 0.0040191482
0.022486513 0.0022878514 0.0014928138 0.19023791 -0.971021 0.14466403 0.0027876771
0.024906063 0.002790167 0.0011870133 0.21230294 -0.96698827 0.14092913 0.003471911
-0.027833655 0.0057017398 0.0020634083 -0.33973593 -0.93946415 -0.044570051 0.011270639
-0.025447408 0.005100836 0.0015077933 -0.327236 -0.93906838 -0.10520083 0.0044288998
-0.022497421 0.004128335 0.0014775739 -0.32224181 -0.94633698 -0.024626726 0.003085078
-0.019832451 0.0033474516 0.0012158701 -0.31483424 -0.94880366 -0.025516355 0.0028766408
0.026183397 0.0032038169 0.0017838919 0.26375672 -0.95526803 0.13377361 0.0025225277
0.028497946 0.0037974119 0.0014986061 0.28149614 -0.95036459 0.13254112 0.0024581503
0.031431444 0.004690032 0.001454661 0.30060422 -0.94274187 0.14448106 0.0027926383
0.034072228 0.0055796145 0.0013595065 0.31692126 -0.94074154 0.12069059 0.0023715678
-0.036255043 0.0088680536 0.0022701011 -0.39283073 -0.91147906 -0.12202448 0.01231886
-0.034373429 0.0083060954 0.0017084755 -0.36400041 -0.92579323 -0.10203195 0.011678868
-0.031534333 0.007359819 0.0014544256 -0.39530733 -0.90665996 -0.14730871 0.0042238999
-0.028893234 0.0065379543 0.0010993645 -0.36240095 -0.92394668 -0.1224259 0.0059372908
-0.026651474 0.0061034653 0.00032159692 -0.30357128 -0.94520432 -0.12013813 0.0045349672
0.035580531 0.0061780852 0.0018079724 0.36899066 -0.92101043 0.12484279 0.002309633
0.037461843 0.006883468 0.0014682559 0.37813842 -0.91673791 0.12885223 0.0021505405
0.04045571 0.0081622889 0.0015460175 0.38215044 -0.91385758 0.13720553 0.0020713687
0.042254861 0.0089016678 0.0010870594 0.41263238 -0.90028501 0.13864142 0.0022314365
-0.042324983 0.011836084 0.0021799202 -0.50885606 -0.85055202 -0.13276587 0.017959451
-0.040319908 0.011072193 0.0017024049 -0.45249039 -0.88091373 -0.13872083 0.016000045
-0.037628848 0.0099870991 0.0013716961 -0.43983242 -0.8796947 -0.18078916 0.0074027525
-0.035048109 0.0094909025 0.00044209222 -0.38032147 -0.90009689 -0.21255861 0.005915097
0.043691561 0.0096796108 0.0015370282 0.44743332 -0.88333064 0.13975097 0.0022389016
0.046482734 0.011109227 0.001451187 0.45422834 -0.88147467 0.12914744 0.0026989717
0.048186727 0.011941896 0.00085115485 0.49014872 -0.86105567 0.13541545 0.0035261875
-0.046079438 0.01428574 0.0020242911 -0.56236964 -0.811611 -0.15820244 0.0074600438
-0.043673564 0.013247414 0.0013659188 -0.52117211 -0.82774436 -0.20789166 0.0099973241
-0.041162033 0.012439314 0.00051865837 -0.45965517 -0.85919505 -0.22472426 0.0075396835
0.047948521 0.01204457 0.0023787196 0.49021384 -0.86101836 0.13541709 0.0035174009
0.049595896 0.01286706 0.001394076 0.52944541 -0.84162617 0.10654961 0.0017481851
0.051965464 0.014316381 0.001377046 0.52772313 -0.84024715 0.12447149 0.0023787161
-0.05117197 0.01773815 0.0026584475 -0.55175465 -0.81961024 -0.15429184 0.013963598
-0.049286552 0.016850917 0.0017212632 -0.54980057 -0.81839639 -0.1671724 0.011682004
-0.046905145 0.015780339 0.00090319471 -0.5923776 -0.78471202 -0.18252631 0.0052911816
0.053431902 0.01532825 0.0016801268 0.56763232 -0.81377351 0.12476439 0.0021045699
0.055498689 0.016732238 0.0014136967 0.58315659 -0.80232108 0.12731592 0.0021532218
0.05732584 0.017952932 0.00068835251 0.59954363 -0.78797805 0.14013578 0.0024334218
-0.054642159 0.020529078 0.0023257029 -0.62304401 -0.75527024 -0.20342799 0.0077730841
-0.052500986 0.019481797 0.001580125 -0.59282619 -0.76643735 -0.24724679 0.009042684
-0.050241526 0.018553156 0.0006598318 -0.60113198 -0.75898635 -0.25016022 0.0066271001
0.058511347 0.019078113 0.0015764742 0.630858 -0.763928 0.13576519 0.0021923841
0.060280543 0.020513397 0.0011863182 0.66766769 -0.73255289 0.13261251 0.0022565622
-0.057682909 0.023381619 0.002075739 -0.68344718 -0.72632879 -0.073119186 0.0079062209
-0.055717807 0.022288784 0.001276401 -0.6138562 -0.7591995 -0.21632549 0.0057654046
-0.053544909 0.021224577 0.00052382494 -0.5809769 -0.77048546 -0.26233187 0.0042716274
0.061744437 0.021959174 0.0015020019 0.68307376 -0.71266687 0.15973796 0.0035112277
0.063356362 0.023472006 0.00090614893 0.73359185 -0.66597307 0.13536187 0.0029562409
-0.060551204 0.026340261 0.0018854674 -0.72029603 -0.68339777 -0.11891714 0.0014572324
-0.058863614 0.025042709 0.0012585142 -0.66799903 -0.72719651 -0.15799534 0.0020571817
0.064832255 0.025360389 0.0016121878 0.77163529 -0.62517345 0.11720576 0.0017268339
-0.063344136 0.029565835 0.0019474482 -0.76857024 -0.63564032 -0.072534561 0.00084343174
-0.061941631 0.028149318 0.0013540522 -0.75010306 -0.65262401 -0.1068989 0.00067948888
0.067022681 0.028233249 0.0014945222 0.80960292 -0.57839066 0.10003684 0.0083859274
-0.064746909 0.031471103 0.0015065175 -0.79520327 -0.60379159 -0.055564664 0.00039007451
0.068425663 0.030192861 0.00039948049 0.83493853 -0.5502429 0.010513716 0.01338184
-0.067036703 0.034543034 0.001510288 -0.81078064 -0.58527577 0.0093267914 0.001089026
-0.065949991 0.033121578 0.00077585469 -0.80730349 -0.59012467 -0.0037387428 0.0015387932
-0.069492459 0.038192999 0.0012924647 -0.86309028 -0.49240708 0.112296 0.0029020447
-0.068533927 0.036739223 0.0016166795 -0.83935583 -0.53882569 0.071754098 0.0016453031
-0.070665047 0.040376045 0.0014602749 -0.88700682 -0.44827056 0.1107809 0.0018956754
-0.072245933 0.043866515 0.0010724298 -0.94096214 -0.31862247 0.1143241 0.0081985565
-0.071628958 0.042624261 0.0017215258 -0.9134118 -0.36569995 0.17872462 0.0047404706
-0.073042639 0.046468489 0.0013848891 -0.91198736 -0.30050108 0.27924585 0.0092822649
-0.075148761 0.050923701 0.00054711272 -0.88253033 -0.42373773 0.20392813 0.021929096
-0.074200638 0.049545251 0.0013674892 -0.88935226 -0.35474116 0.2884638 0.010863767
-0.075712726 0.052683372 0.0010707466 -0.92512935 -0.26660174 0.27029452 0.011683916
-0.07462129 0.051609959 0.0025363008 -0.88049585 -0.32860616 0.34167966 0.0090190824
-0.076299131 0.054875273 0.001131049 -0.96925867 -0.19094829 0.1551657 0.030046916
-0.018269835 0.0029193535 0.0035933172 -0.25876907 -0.92177671 0.28873232 0.0072292513
-0.016292887 0.0026182411 0.0040597697 -0.18572645 -0.9430508 0.27597246 0.0046576094
-0.013431382 0.002188365 0.0044155698 -0.14381158 -0.94446784 0.29546344 0.0032075127
-0.01049255 0.0017398602 0.0044700191 -0.12859358 -0.94371235 0.30474699 0.0037668925
-0.0074726888 0.0014064705 0.0045176195 -0.097023129 -0.94072735 0.32499003 0.0034526819
-0.0045184991 0.0011622335 0.0044713481 -0.060615398 -0.93806678 0.34111056 0.0031658462
-0.0014828867 0.0010363136 0.0044513261 -0.026179526 -0.93427801 0.35558295 0.0027364313
0.0015466532 0.0010543352 0.0045562005 -0.00114494 -0.93020654 0.36703467 0.002417129
0.0044957246 0.0010871424 0.0044724527 0.028326109 -0.92591214 0.3766754 0.0020154356
0.0074945837 0.0012512553 0.0045194058 0.053600311 -0.92205751 0.38332364 0.0017991584
0.010492971 0.0014334979 0.0044619534 0.078977659 -0.91848665 0.38748521 0.001778702
0.013517365 0.0017268097 0.0044754362 0.1016477 -0.91569912 0.38879651 0.0023369789
0.016498189 0.0020630893 0.0044074729 0.12151761 -0.91690558 0.38015491 0.0027327409
0.019410716 0.0024233465 0.0042440202 0.14678542 -0.91306382 0.38048443 0.0039476608
0.022139238 0.0027100467 0.0036838998 0.2047656 -0.91370577 0.35101685 0.0034993482
-0.027686402 0.0058053862 0.0035914143 -0.28136227 -0.95538658 0.089843228 0.010513934
-0.02540027 0.0053436579 0.0044158865 -0.28000024 -0.91929889 0.27656743 0.0047147307
-0.022476828 0.0044284752 0.0044532912 -0.26757148 -0.92557544 0.26779741 0.0055419966
-0.019629659 0.0036519975 0.0045854603 -0.30217084 -0.91744757 0.25881004 0.0046781562
-0.016970189 0.0033099626 0.0054043108 -0.22378463 -0.90232128 0.3684248 0.0017780163
-0.014755984 0.0030656797 0.0059388652 -0.1877858 -0.86490321 0.46548775 0.0015289137
0.019635072 0.0031952979 0.0057199709 0.14893089 -0.8290295 0.53900808 0.00085902843
0.022708081 0.0033985015 0.0050221747 0.20002389 -0.89098138 0.4076061 0.00501802
0.025459476 0.0037915879 0.004464359 0.22457784 -0.90078992 0.37167504 0.0034189981
0.028524231 0.0045940466 0.0044465759 0.25120452 -0.8923617 0.37494916 0.0040606996
0.031396948 0.0053991554 0.004291588 0.28740865 -0.89194077 0.34905294 0.0037557832
0.033419054 0.0058009871 0.0035649228 0.31665471 -0.87970215 0.35475898 0.0041073775
-0.034234006 0.0084524238 0.0042096484 -0.35170987 -0.92199826 0.16192387 0.016332446
-0.031435538 0.0074597127 0.0044595315 -0.32549843 -0.9233321 0.20373651 0.0062221917
-0.028707162 0.0065708291 0.0047026882 -0.33067167 -0.90551728 0.26588473 0.0089409798
-0.026661089 0.0061634355 0.0054687317 -0.27834177 -0.91510129 0.29174545 0.0046856184
0.032363649 0.0061660414 0.0053974669 0.26287299 -0.87072647 0.41561174 0.0044842754
0.034643143 0.0066353651 0.0046075862 0.34691349 -0.87824893 0.329135 0.0022835385
0.037532017 0.0076918784 0.0044686315 0.33982638 -0.87215322 0.35194719 0.0027560855
0.040012687 0.0086080674 0.0041442304 0.36418965 -0.86782396 0.33800521 0.0031448216
-0.042299591 0.011866386 0.003162256 -0.44690675 -0.89226913 0.064265929 0.017500086
-0.040365964 0.01125797 0.0043079401 -0.44540107 -0.88182485 0.15492861 0.023060312
-0.037540238 0.0099660587 0.0044962047 -0.41844118 -0.87564421 0.24115165 0.0061685145
-0.035271112 0.0092549883 0.0052611502 -0.35074311 -0.88188821 0.31504345 0.0034587213
0.041107278 0.0094123753 0.0049857395 0.38432199 -0.85785055 0.3411583 0.0033290752
0.04341517 0.010317873 0.004457036 0.40608582 -0.84694397 0.34319127 0.0026209014
0.046040174 0.011532335 0.0041231406 0.44750017 -0.8386758 0.31042957 0.0023101929
-0.045852028 0.014388003 0.004245331 -0.52264804 -0.83835888 0.15489779 0.013889245
-0.043509748 0.013073146 0.0045461757 -0.52639139 -0.82315332 0.21291029 0.0071455953
-0.041440647 0.012235684 0.0054164017 -0.40260446 -0.86226362 0.30726391 0.0049669235
0.047051828 0.012454634 0.0050629461 0.43899146 -0.82242876 0.36179766 0.001990434
0.049567733 0.013660745 0.0043985955 0.49748114 -0.82282281 0.27472726 0.0010951078
0.051638499 0.014667763 0.003720992 0.50789684 -0.80113071 0.31659186 0.0015338463
-0.051120229 0.017833687 0.0036906316 -0.61474127 -0.78372228 0.088727348 0.026284289
-0.049377266 0.016833579 0.004360544 -0.57913262 -0.80577826 0.12380158 0.029284613
-0.047245715 0.015539409 0.0048096771 -0.55617648 -0.81772166 0.14832075 0.012492864
0.05283365 0.015917253 0.0047918195 0.51892042 -0.78365576 0.34147501 0.0023725713
0.055048771 0.017201187 0.0041647926 0.56234539 -0.76104486 0.32338598 0.0021762026
-0.054548819 0.020528618 0.0040532323 -0.58774513 -0.80624813 0.067227609 0.023824349
-0.052553784 0.019247208 0.0045631612 -0.60076648 -0.76036459 0.24683043 0.011383994
-0.050646134 0.018177573 0.0053748339 -0.55855405 -0.7847237 0.26874924 0.0077225477
0.056491386 0.018490672 0.0047111525 0.58880937 -0.72795755 0.351257 0.0037785587
0.058400594 0.019858059 0.0042374334 0.6212613 -0.71770036 0.31454831 0.0022429938
-0.057811171 0.023308044 0.0042093773 -0.64048237 -0.75912929 0.11621082 0.015208999
-0.055923328 0.021875514 0.004625977 -0.64753425 -0.75193036 0.12369372 0.01054302
0.059796788 0.021786932 0.0055704918 0.63950294 -0.6293003 0.44160733 0.0051858295
0.061383266 0.022684885 0.0044208434 0.6747362 -0.65778583 0.33473685 0.0025506325
0.063130945 0.0238175 0.0030512002 0.69515675 -0.67580372 0.24504404 0.0042804186
-0.060716677 0.02620174 0.004204656 -0.74550563 -0.65250903 0.13584229 0.014212317
-0.059160978 0.024832204 0.0047232299 -0.69271666 -0.71112388 0.1201937 0.010900293
0.063839518 0.025419833 0.0045042122 0.70791614 -0.60247427 0.36861837 0.0026051172
-0.063463531 0.029434534 0.0040815487 -0.77436036 -0.60973251 0.16909297 0.010166918
-0.062122185 0.028029773 0.0046500317 -0.75466466 -0.64245057 0.1331858 0.0085897632
0.066150427 0.029082496 0.0053013917 0.77312291 -0.50514865 0.38354376 0.0084688906
-0.066010304 0.032993041 0.0040556435 -0.81220597 -0.54116011 0.21786976 0.014122297
-0.064757735 0.031434771 0.004457186 -0.80745697 -0.55306226 0.20526905 0.014912518
-0.066863202 0.034659706 0.0042809253 -0.83124113 -0.50697488 0.22806707 0.011083934
-0.065818384 0.033383708 0.0051457635 -0.81205738 -0.54137659 0.21788572 0.014168237
-0.069171138 0.038560774 0.0037034608 -0.83712894 -0.4022713 0.37066558 0.0058241873
-0.068190739 0.037267908 0.0045138914 -0.83934337 -0.39870778 0.36950642 0.0060728709
-0.069890827 0.040638141 0.0041671721 -0.84487337 -0.35202509 0.40282425 0.0047578085
-0.068832047 0.039843868 0.0055556293 -0.82593107 -0.31028309 0.47070396 0.0033154937
-0.070928209 0.043562844 0.0042179669 -0.83471441 -0.31082833 0.4545742 0.0031149357
-0.072371185 0.046900421 0.0034474873 -0.83636844 -0.25051498 0.48757571 0.0046175169
-0.07128147 0.046450373 0.0048638037 -0.84308678 -0.24341395 0.47953564 0.0046432563
-0.073032536 0.04986909 0.0037678278 -0.81084007 -0.28590524 0.51068258 0.0045901029
-0.071970157 0.048318047 0.0046166736 -0.80965781 -0.27935368 0.51615477 0.0041780784
-0.073923036 0.052299965 0.0037787159 -0.80115736 -0.30091754 0.51729637 0.0027118565
-0.074884541 0.054505557 0.0033921129 -0.90810829 -0.29421446 0.29795483 0.012526511
