# .PCD v0.7 - Point Cloud Data file format
VERSION 0.7
FIELDS x y z normal_x normal_y normal_z curvature
SIZE 4 4 4 4 4 4 4
TYPE F F F F F F F
COUNT 1 1 1 1 1 1 1
WIDTH 552
HEIGHT 1
VIEWPOINT 0 0 0 1 0 0 0
POINTS 552
DATA ascii
0.013501369 0.0093222409 -0.014750519 0.027914032 -0.49870387 -0.86632282 0.0030676923
0.016530158 0.0094626183 -0.014687702 0.051940534 -0.52117383 -0.85186857 0.0025041422
0.019898772 0.0096454527 -0.014542691 0.074183539 -0.57360983 -0.81576258 0.0036449309
0.022728689 0.010127002 -0.014555672 0.11025017 -0.5944708 -0.79652327 0.0029571131
0.025591884 0.0098850736 -0.013890849 0.14580746 -0.63492513 -0.75868982 0.0036040659
0.0281663 0.010707704 -0.014041024 0.16944899 -0.62402272 -0.76281238 0.0023794058
0.032955721 0.010354213 -0.012345455 0.18367837 -0.63649386 -0.74909133 0.0012099098
0.035093516 0.011381384 -0.012575627 0.21455394 -0.58808738 -0.77982038 0.00093856128
-0.033029485 0.014653397 -0.012136561 -0.27227965 -0.64139241 -0.71727228 0.0015837926
-0.031105511 0.014437695 -0.012622859 -0.2687712 -0.65320528 -0.70787358 0.0012309845
-0.028325828 0.013785226 -0.012992776 -0.253521 -0.61054456 -0.75030822 0.0018030063
-0.025504183 0.013373781 -0.013492175 -0.2094741 -0.58740795 -0.78171134 0.0019341455
-0.022678049 0.01329733 -0.014179876 -0.18428607 -0.53567469 -0.82406986 0.00095475477
-0.01964239 0.012801551 -0.01452455 -0.16392624 -0.50236273 -0.84897578 0.001847246
-0.016682921 0.012398606 -0.014808485 -0.13458784 -0.46295449 -0.87610453 0.0022298987
0.031608332 0.012396868 -0.014553835 0.20656043 -0.56627697 -0.79791176 0.002063104
0.03511139 0.013286772 -0.014255612 0.181318 -0.57108974 -0.80061245 0.001942616
-0.039037824 0.017709665 -0.012178943 -0.34089255 -0.60905874 -0.71612817 0.0017200259
-0.037246168 0.017257448 -0.012590279 -0.32824829 -0.62338054 -0.70968282 0.0012939107
-0.034414269 0.016621256 -0.013198708 -0.29345876 -0.60942864 -0.73653156 0.00095585349
-0.031635039 0.01638261 -0.013959133 -0.23001197 -0.54713935 -0.80481863 0.00096698996
-0.028859453 0.015833959 -0.014371227 -0.2033679 -0.51479393 -0.83284372 0.0015651734
-0.02624693 0.015387064 -0.014721265 -0.18311268 -0.53237003 -0.8264696 0.0009252163
0.038151376 0.015043228 -0.014714672 0.18366313 -0.49133727 -0.85138446 0.0034058916
-0.042845033 0.020446325 -0.012421877 -0.40332907 -0.59507865 -0.695131 0.0012751933
-0.040429268 0.019673437 -0.013021357 -0.36775836 -0.57670659 -0.72949529 0.0011841409
-0.037685107 0.019319039 -0.013949617 -0.29433331 -0.5186637 -0.80271786 0.00089489121
-0.03485572 0.018745538 -0.014584896 -0.25129476 -0.48683673 -0.83656496 0.0020948781
-0.032757174 0.01814815 -0.014832167 -0.23449814 -0.53711432 -0.81025851 0.0009516119
-0.046067998 0.023166424 -0.012695762 -0.42680499 -0.55893439 -0.71093589 0.0011223595
-0.043471873 0.022473527 -0.013534787 -0.37978196 -0.4979142 -0.7796455 0.0012032338
-0.040802546 0.021940179 -0.014414985 -0.32764116 -0.45984763 -0.82534319 0.0012514045
-0.038799472 0.021377668 -0.014850171 -0.27408668 -0.47180989 -0.83801663 0.0028332523
0.0019789843 0.023769915 -0.01477256 0.01567946 0.46486998 -0.88524014 0.0043901391
0.0044462071 0.023678299 -0.014830289 -0.017910654 0.52782285 -0.84916556 0.0012088588
0.0077036135 0.023705829 -0.014928089 -0.040488426 0.47765571 -0.87761366 0.0041990327
-0.051381566 0.02670973 -0.012279625 -0.45202276 -0.55616838 -0.69738948 0.0017311487
-0.049257148 0.025890682 -0.012896751 -0.42194977 -0.50805205 -0.75089377 0.0024064411
-0.046606064 0.025363442 -0.013869494 -0.38369319 -0.45628917 -0.80285722 0.0013554123
-0.04423726 0.024745638 -0.014601672 -0.32022241 -0.42118579 -0.84856361 0.0018715478
-0.009010979 0.024828311 -0.014945954 0.100274 0.34209284 -0.93430054 0.0021423821
-0.0072265691 0.026134944 -0.013951024 0.083202042 0.37230623 -0.92437303 0.0020135634
-0.00446939 0.025315305 -0.014135749 0.052858673 0.38947821 -0.91951764 0.0015153581
-0.0012836488 0.025213055 -0.013966646 0.02661483 0.50994521 -0.85979503 0.0011144298
0.0013497716 0.024915453 -0.014086998 0.018319294 0.56743395 -0.82321519 0.0029908561
0.0043871407 0.025435543 -0.01369089 -0.018237542 0.59053195 -0.80680817 0.0024946686
0.0075652185 0.025426021 -0.013791992 -0.027011018 0.58413643 -0.8112058 0.002545058
0.010551235 0.025315011 -0.014088415 -0.075545661 0.59026003 -0.80367035 0.0019190991
0.013430426 0.02585947 -0.014021656 -0.11577161 0.58964556 -0.79932165 0.0029646864
0.016416484 0.025957311 -0.014412272 -0.13910003 0.54061973 -0.8296876 0.0018464604
0.019341189 0.026382398 -0.014666182 -0.15442795 0.54974335 -0.82093495 0.0035057089
-0.054363389 0.02946445 -0.012310628 -0.4750503 -0.48362046 -0.73514515 0.0018178208
-0.052400425 0.028679524 -0.01296942 -0.43672809 -0.4734773 -0.76491028 0.0020304697
-0.049718756 0.02837643 -0.014142073 -0.3707355 -0.40304339 -0.83672649 0.0014103189
-0.047365244 0.027544487 -0.014741989 -0.31999359 -0.35206175 -0.87957758 0.0032269338
0.0033068585 0.027032143 -0.01242133 0.0013404523 0.62814081 -0.77809858 0.0011689843
0.006904419 0.027145443 -0.012405431 -0.034570064 0.63667089 -0.77036029 0.0011241104
0.010793785 0.027551249 -0.012325244 -0.075019121 0.69171274 -0.71826565 0.0016465641
0.013864098 0.027541505 -0.012740795 -0.10385624 0.65987211 -0.74416578 0.0024866038
0.016389417 0.027955774 -0.012812607 -0.15001267 0.67697698 -0.72055429 0.0013112379
0.019378353 0.028173679 -0.013279316 -0.18191864 0.64233011 -0.74452519 0.0024746484
0.022466438 0.028558126 -0.013735741 -0.19362479 0.62213862 -0.75858611 0.0020286792
0.0255046 0.028847376 -0.014307169 -0.2114495 0.60153961 -0.7703501 0.0028616979
0.028066823 0.029545499 -0.014457564 -0.20618588 0.60669363 -0.76773059 0.0013822928
0.030299069 0.029896623 -0.014787789 -0.19476481 0.57474446 -0.79481786 0.0015316892
-0.057241946 0.032469578 -0.012184769 -0.52008951 -0.4138175 -0.7471692 0.0023750574
-0.055391725 0.031602588 -0.012845521 -0.4548474 -0.38814083 -0.80153638 0.0028850846
-0.052647043 0.031396002 -0.014162352 -0.39263937 -0.31280738 -0.86486173 0.0017582672
-0.050481923 0.030601297 -0.014805235 -0.32319692 -0.27670914 -0.90497279 0.00368608
0.022404643 0.030253798 -0.012209603 -0.21112515 0.71593416 -0.66548061 0.0014480619
0.025465675 0.030743694 -0.012681532 -0.22376852 0.69345802 -0.68486762 0.0010889554
0.028588921 0.031332292 -0.013110449 -0.23835067 0.6508916 -0.72078371 0.0019001092
0.03137752 0.031460054 -0.013859046 -0.21538222 0.5934909 -0.77548629 0.00089838705
0.034380343 0.032051973 -0.014316136 -0.2403764 0.56202459 -0.79142123 0.0014675853
0.03740032 0.032637648 -0.01480891 -0.24027316 0.58036399 -0.77810436 0.0016620556
-0.058079503 0.034689076 -0.012598959 -0.48022106 -0.29742318 -0.82518315 0.0031305433
-0.0555708 0.034469675 -0.01382974 -0.38799125 -0.21923022 -0.89521003 0.0018565624
-0.053225812 0.034139391 -0.014735191 -0.34395045 -0.17799219 -0.92196357 0.0034318748
0.031913258 0.033406291 -0.012281284 -0.24719971 0.67276162 -0.69734073 0.0014047294
0.034402926 0.033724915 -0.012907452 -0.27184868 0.64376652 -0.71530616 0.0016085901
0.037313342 0.03426528 -0.013514207 -0.27311826 0.60499525 -0.74792188 0.0015748023
0.040351648 0.034915112 -0.01412747 -0.25945431 0.54448438 -0.79763412 0.0012644115
0.042912766 0.035521004 -0.014574437 -0.2327899 0.51807046 -0.82305032 0.0032340288
-0.060436226 0.038127426 -0.012303439 -0.50322473 -0.23606242 -0.83128786 0.0028162766
-0.058533687 0.037418101 -0.013119246 -0.4103131 -0.1634618 -0.89717519 0.00387144
-0.055533152 0.037386131 -0.014361908 -0.31468999 -0.028373705 -0.94877034 0.0065809102
-0.053516138 0.037623312 -0.01496308 -0.24296945 0.0017397726 -0.97003233 0.0044733309
0.0386586 0.036318451 -0.012286805 -0.34156537 0.64586622 -0.68278098 0.00091113365
0.040900297 0.036972906 -0.012732882 -0.34215564 0.62427562 -0.70228863 0.001498724
0.04354395 0.037392426 -0.013459244 -0.29777119 0.56831193 -0.76704228 0.001345346
0.046316054 0.03761733 -0.014198153 -0.21916375 0.50394261 -0.83546942 0.0011790375
0.048983891 0.038143851 -0.014532047 -0.16076547 0.44759098 -0.87966859 0.0023404078
0.052224431 0.038553618 -0.014774217 -0.077965029 0.37199855 -0.92495322 0.0030231182
0.055645611 0.038422678 -0.014831027 -0.0012363846 0.3345395 -0.94238091 0.0020386688
-0.060911123 0.040548787 -0.01245378 -0.435821 -0.075946622 -0.89682335 0.0039623599
-0.058546394 0.040448643 -0.013429792 -0.32173038 0.02237214 -0.946567 0.0037447361
-0.0555472 0.040381365 -0.014297542 -0.21525849 0.11994007 -0.96916366 0.0067455582
-0.052722529 0.040677767 -0.014602154 -0.065846987 0.25359076 -0.96506786 0.0022174236
-0.049924638 0.040513292 -0.014709616 -0.035256941 0.26541194 -0.96349025 0.0034586957
-0.046418093 0.039632261 -0.014728829 -0.0055500478 0.26717114 -0.96363306 0.0015702882
0.044228356 0.039248876 -0.012288393 -0.32813331 0.63436788 -0.69993269 0.0018887935
0.046595462 0.039916806 -0.012711813 -0.2724548 0.58458859 -0.76421511 0.0023960192
0.049487825 0.040542424 -0.01320885 -0.23905492 0.52222192 -0.81861895 0.0022066135
0.052247994 0.0405991 -0.013783993 -0.092227913 0.44405982 -0.89123785 0.0020664996
0.055012014 0.040717509 -0.014004049 -0.053558689 0.42347977 -0.9043209 0.0011330687
0.057721108 0.040654663 -0.013968006 -0.067219205 0.37741801 -0.92360014 0.0028944286
-0.061155546 0.043301549 -0.012374226 -0.34819907 0.084214643 -0.93363017 0.0035463166
-0.058594123 0.043431774 -0.013125028 -0.20590238 0.18492882 -0.96093988 0.0055055395
-0.055644717 0.0432695 -0.013617442 -0.12227229 0.28448972 -0.95084971 0.0033058731
-0.052663226 0.043149304 -0.013696097 -0.039419707 0.34513286 -0.9377256 0.00089236547
-0.050199423 0.042381391 -0.013893948 -0.011095486 0.29213461 -0.95631289 0.0016023979
0.050943822 0.04261988 -0.012215937 -0.25508097 0.59050775 -0.76565933 0.0018733377
0.052626319 0.04280002 -0.012555776 -0.2040363 0.54949105 -0.81020296 0.0030777906
0.055446304 0.043415166 -0.012725614 -0.10826696 0.48527274 -0.86763394 0.0023386942
0.058316749 0.043943293 -0.012669386 -0.090735622 0.47299603 -0.87637997 0.0012456183
-0.060741354 0.045619451 -0.012154171 -0.22858647 0.29415578 -0.9280197 0.0040039187
-0.058689587 0.045789696 -0.012446919 -0.10584296 0.34529868 -0.93250525 0.0048085507
-0.055550467 0.045611784 -0.012660241 -0.055218175 0.38826948 -0.91989005 0.0011032912
-0.015607075 0.0058384212 -0.0093536004 -0.21736763 -0.76800239 -0.60243148 0.0012855045
-0.013387341 0.0054426468 -0.0095066857 -0.17450452 -0.7642203 -0.6208989 0.0012692714
-0.010493878 0.0052174525 -0.0099436091 -0.14449127 -0.75972658 -0.6339857 0.0011574217
-0.0074169161 0.0050151846 -0.010286039 -0.11387923 -0.75379038 -0.64717197 0.0010711374
-0.0043489924 0.0047040922 -0.01034045 -0.082672723 -0.75844347 -0.64647412 0.0017846348
-0.0013059011 0.0046670297 -0.010593412 -0.056921456 -0.7534644 -0.65502006 0.0017658577
0.0018229968 0.00455323 -0.010661406 -0.033262346 -0.75649226 -0.65315622 0.0017747417
0.0046318043 0.0043050349 -0.010438631 -0.010113298 -0.75984305 -0.65002787 0.0018915583
0.0073939585 0.0044904402 -0.010645642 0.016166413 -0.78546721 -0.6186921 0.00066930399
0.010531687 0.0047923597 -0.010850387 0.053295244 -0.76694107 -0.63950062 0.0015430177
0.013608545 0.0047221738 -0.01048483 0.074458443 -0.77685726 -0.62525904 0.0019253024
0.01657664 0.0048711514 -0.010283385 0.10626849 -0.79130429 -0.60211676 0.0017177444
0.019223828 0.0050139176 -0.009961932 0.10174309 -0.79412538 -0.59917712 0.001837227
0.022190576 0.005605001 -0.0100369 0.15624517 -0.79058152 -0.5920881 0.0015409166
-0.024569342 0.0087892227 -0.0092648407 -0.29477218 -0.75583047 -0.58466196 0.0013039515
-0.022336142 0.0083971713 -0.0098376488 -0.27560306 -0.74114752 -0.61216283 0.0012227272
-0.019505639 0.0077988608 -0.010266094 -0.22986419 -0.73533577 -0.63752955 0.0015867248
-0.016729852 0.0072755809 -0.010621363 -0.19926448 -0.73703837 -0.6458081 0.00098599377
-0.013694652 0.0068555158 -0.011029233 -0.16060157 -0.73724341 -0.65626156 0.0013026777
-0.010745153 0.0065818364 -0.011398373 -0.13136481 -0.6723749 -0.72846091 0.0012362448
-0.0075941384 0.0062948638 -0.0116417 -0.10013665 -0.72095102 -0.68571305 0.0011700353
-0.0051378068 0.0061263284 -0.011798482 -0.059862614 -0.68234497 -0.72857529 0.0024140291
0.020054206 0.0064578014 -0.01166313 0.10982846 -0.74213278 -0.66119337 0.0019303212
0.023531191 0.0069618365 -0.011481918 0.17009725 -0.73982531 -0.65094197 0.0023835308
0.025828106 0.0068497024 -0.010593574 0.18751886 -0.76726907 -0.6132983 0.0024342104
0.028068751 0.007529371 -0.010763797 0.19335014 -0.74726903 -0.63577104 0.0010360237
-0.031083707 0.011607653 -0.0096220756 -0.31839782 -0.74511635 -0.58602428 0.00103918
-0.028320286 0.010960611 -0.010168427 -0.29513407 -0.74506778 -0.59813869 0.0019267333
-0.02559373 0.010325777 -0.01064807 -0.27986139 -0.71048588 -0.64566821 0.0021254646
-0.022752849 0.0097648036 -0.011197566 -0.25699699 -0.70153737 -0.66467881 0.0007593456
-0.019939158 0.0093142698 -0.011749294 -0.21664546 -0.69799703 -0.68254298 0.0011829471
0.032525711 0.0098057427 -0.011930743 0.18367837 -0.63649386 -0.74909133 0.0012099098
-0.037314259 0.01446219 -0.009697943 -0.37837392 -0.71715629 -0.58525205 0.00088305958
-0.034434162 0.013792168 -0.010489169 -0.31593397 -0.69686395 -0.64386833 0.00076461473
-0.031761143 0.012979983 -0.01089023 -0.29566094 -0.72791451 -0.61864775 0.0014086178
-0.029182333 0.012431538 -0.011452271 -0.25048199 -0.66387802 -0.7046451 0.000853548
-0.042801682 0.017549895 -0.0095653338 -0.46045464 -0.67692083 -0.57424706 0.0011603942
-0.040306151 0.01670076 -0.010351571 -0.39979938 -0.6823467 -0.61201584 0.0016503074
-0.037686337 0.01589405 -0.011064257 -0.35541442 -0.70010096 -0.61930537 0.0015243021
-0.035555571 0.015359339 -0.011633407 -0.32929707 -0.68945968 -0.6451425 0.00075923599
-0.046110786 0.020182729 -0.0099291885 -0.48197836 -0.64600074 -0.59192902 0.0013426926
-0.043689504 0.019283388 -0.010778661 -0.42525524 -0.61957729 -0.65975899 0.0011114989
-0.041310292 0.018450372 -0.011529613 -0.40768817 -0.65797466 -0.63313478 0.00084782118
-0.051484361 0.023680352 -0.0093321931 -0.50896603 -0.64556181 -0.56938869 0.0015291194
-0.049246293 0.022823168 -0.010221042 -0.47422227 -0.63823253 -0.60644233 0.001646384
-0.046872579 0.021923309 -0.011122392 -0.45714393 -0.5896945 -0.66579264 0.001910471
-0.044914823 0.021150485 -0.011771959 -0.42830789 -0.58461612 -0.68904018 0.0025180029
-0.054555986 0.026380509 -0.0096328352 -0.54093784 -0.59655756 -0.59287894 0.0012742222
-0.052420974 0.025508799 -0.010469943 -0.47851548 -0.61506861 -0.62666863 0.0024382931
-0.050114971 0.024708407 -0.011435641 -0.44268268 -0.60905653 -0.65808982 0.0016313879
-0.057676628 0.029236173 -0.0095612742 -0.58154148 -0.54589385 -0.60316622 0.0022461945
-0.055618938 0.028478298 -0.010633408 -0.51764297 -0.52235311 -0.67763782 0.0010744035
-0.053371079 0.027456608 -0.011543613 -0.50190496 -0.57730699 -0.64405602 0.0010584861
0.0038435012 0.028422305 -0.011020359 -0.00054276938 0.67270005 -0.73991501 0.0032237957
0.0075880932 0.028570993 -0.010955939 -0.036923237 0.72222036 -0.69067681 0.0022260607
0.010430833 0.028668579 -0.011163794 -0.087198623 0.72719121 -0.68087393 0.0024391653
0.013507782 0.029118557 -0.011062535 -0.11844765 0.75964582 -0.63945943 0.0012617026
0.016585449 0.029579004 -0.011228244 -0.17231247 0.74243736 -0.64737552 0.0010603725
0.019221611 0.029741053 -0.011785712 -0.19200854 0.68485123 -0.70293063 0.0012902346
-0.060564518 0.032385852 -0.0094653061 -0.61941385 -0.50448763 -0.60151362 0.0015690995
-0.058497734 0.031465989 -0.010571063 -0.54774547 -0.45762393 -0.70039642 0.001150279
-0.056498762 0.030657956 -0.011627009 -0.55056816 -0.45749074 -0.69826704 0.0010941066
0.010795376 0.030198656 -0.0092861131 -0.083441369 0.76966107 -0.63297665 0.00065689691
0.014332008 0.030276461 -0.0098116891 -0.10545353 0.77509218 -0.62298614 0.001545278
0.016741242 0.030682955 -0.0099042915 -0.16926381 0.78098577 -0.60117477 0.001609089
0.01959111 0.031184141 -0.010168616 -0.20774485 0.79903263 -0.56425965 0.0008574847
0.022572407 0.031613052 -0.01070655 -0.23079906 0.77950877 -0.58232117 0.00093575876
0.025376441 0.032361489 -0.010888269 -0.23807003 0.76636738 -0.59666044 0.0011769162
0.027862355 0.032576922 -0.011609177 -0.245528 0.69854528 -0.67212391 0.00094559917
-0.063139893 0.035695456 -0.0093018468 -0.62976557 -0.44060189 -0.63973838 0.0019595602
-0.061339088 0.034635812 -0.010235102 -0.59053713 -0.37951577 -0.71220332 0.00224988
-0.05937371 0.034050737 -0.011487431 -0.56581646 -0.35261059 -0.74533051 0.0021358614
0.025624476 0.033369705 -0.0096482784 -0.2507247 0.78419083 -0.56761068 0.0010757623
0.028787274 0.033906419 -0.010331817 -0.26222286 0.77291816 -0.57778597 0.0013913517
0.031416547 0.034793153 -0.010403619 -0.28413409 0.77445823 -0.56522757 0.0011725276
0.034023885 0.035222664 -0.011139411 -0.29956111 0.7168439 -0.62960142 0.0030000091
0.036717862 0.03582966 -0.011815862 -0.31639817 0.69759315 -0.64284992 0.0021510541
-0.0639088 0.037768945 -0.0097114434 -0.62390798 -0.34034756 -0.70349294 0.0029845757
-0.061822943 0.037332796 -0.011153595 -0.53840357 -0.27748826 -0.79568958 0.0010887583
0.034945346 0.036599547 -0.0098942192 -0.33886465 0.74865282 -0.56981552 0.0012662748
0.03761559 0.037582278 -0.010286369 -0.37283713 0.73153394 -0.57083321 0.0015887523
0.040220223 0.03816833 -0.011227122 -0.34373847 0.66079795 -0.66722566 0.00061753258
0.042429343 0.038961738 -0.011674736 -0.36556423 0.66684788 -0.64936632 0.0012444246
-0.066298142 0.041432451 -0.0091318181 -0.64934009 -0.25813377 -0.71534914 0.0030906931
-0.06445238 0.040515501 -0.010285474 -0.57356292 -0.22023886 -0.78899962 0.0045230328
-0.062309097 0.040363282 -0.01168673 -0.49649838 -0.14606728 -0.85565984 0.0027537933
0.040776797 0.039651871 -0.0098980581 -0.40089926 0.70536989 -0.58457947 0.0016003847
0.043275919 0.040494882 -0.010525784 -0.37377283 0.6948263 -0.61441863 0.0015624156
0.046036635 0.041297812 -0.011291363 -0.3274636 0.66380292 -0.67240858 0.0014014778
-0.066481151 0.04368582 -0.0094896303 -0.60598463 -0.12447984 -0.78567648 0.0037632708
-0.064521924 0.043422498 -0.010735811 -0.47925603 -0.02916513 -0.87719047 0.0036672724
-0.062519632 0.043725688 -0.011795666 -0.41351518 0.012518824 -0.91041118 0.0039426601
0.044186052 0.04208447 -0.0093367025 -0.41693068 0.70343316 -0.57563066 0.0016476641
0.046738055 0.04291844 -0.010029598 -0.3900691 0.69020832 -0.609474 0.0014254573
0.049490247 0.043668248 -0.010700023 -0.31426921 0.64211935 -0.69922638 0.0014692527
0.052448671 0.044207837 -0.011476633 -0.26570582 0.58044213 -0.769732 0.0017980874
0.054221727 0.04432724 -0.011941368 -0.1599443 0.53788763 -0.82770449 0.0019928366
-0.06668096 0.046541452 -0.0095240269 -0.54357308 0.023053072 -0.83904523 0.0044462513
-0.064545833 0.046381336 -0.010649851 -0.38767439 0.13309044 -0.91213787 0.0053321151
-0.061896507 0.046583276 -0.011569795 -0.28139806 0.2635656 -0.92268544 0.0086441245
-0.058791332 0.047403079 -0.011763606 -0.0732283 0.38469464 -0.92013466 0.0014224575
-0.05608895 0.047300443 -0.011758302 -0.055220056 0.38827646 -0.91988707 0.0011039084
0.050193556 0.045357276 -0.0094121918 -0.37181255 0.6697067 -0.6428439 0.0017661182
0.052570652 0.045967698 -0.010022659 -0.31639344 0.6527186 -0.68837023 0.0014692538
0.055482972 0.046637896 -0.010570891 -0.2721051 0.61072731 -0.74362016 0.0018321687
0.058425505 0.046804059 -0.011167171 -0.14101967 0.53938234 -0.83016872 0.00091188808
0.061029706 0.046730373 -0.011340685 -0.13144743 0.5395906 -0.83160305 0.00088826014
-0.066556096 0.049266092 -0.0092640081 -0.3365202 0.22327039 -0.91482478 0.0080042174
-0.064751796 0.049356211 -0.0098918146 -0.26257756 0.31629214 -0.9115988 0.0076568751
-0.061744776 0.049211405 -0.010617046 -0.18068521 0.37936401 -0.90743363 0.003321266
-0.059169061 0.049237009 -0.010769144 -0.076052025 0.43935904 -0.89508647 0.0014627086
-0.05689048 0.04846533 -0.011125471 -0.073250979 0.38468352 -0.92013747 0.0014259919
0.056417629 0.048452005 -0.0094707496 -0.30238429 0.63859034 -0.70764822 0.0019975142
0.058671791 0.048863605 -0.0098210676 -0.20796821 0.61175168 -0.76322281 0.0044434406
0.061211217 0.049980748 -0.009531077 -0.16049501 0.56793356 -0.80727494 0.001976748
0.06386859 0.05015903 -0.0095259082 -0.17882885 0.54826808 -0.8169592 0.0020091841
-0.064247705 0.051400363 -0.0091591263 -0.22054796 0.3675223 -0.90348548 0.004979054
-0.062823735 0.051014178 -0.0095565934 -0.16253339 0.39926744 -0.90231282 0.0020573114
-0.009969119 0.0028052526 -0.0064147478 -0.1640543 -0.87190795 -0.46137041 0.0015283143
-0.0073378049 0.0025510441 -0.0067229844 -0.11835726 -0.87187457 -0.4752118 0.0019900959
-0.0047406531 0.0024761998 -0.0071167625 -0.081011362 -0.87541413 -0.47653669 0.0018269423
-0.0015790053 0.0023381242 -0.0072974353 -0.047444709 -0.87607306 -0.47983858 0.0019596817
0.0015561185 0.0022187834 -0.0073520429 -0.025049683 -0.8774457 -0.47902149 0.0017678275
0.0045101941 0.002137335 -0.0072856224 0.0019109856 -0.8835305 -0.46836981 0.0014004463
0.0074590202 0.0022589038 -0.007384398 0.02939273 -0.8831588 -0.46815228 0.0015910675
0.010594617 0.0024628029 -0.0074858735 0.051325936 -0.88098508 -0.47035196 0.0020303086
0.013796317 0.0025239931 -0.0070273876 0.085931256 -0.88395011 -0.45961735 0.0017303551
0.016308038 0.0025748119 -0.0065547889 0.12830396 -0.88439637 -0.44875515 0.0013584028
0.018561626 0.0028307659 -0.0064178901 0.13737579 -0.87546086 -0.46335325 0.0011155005
-0.021374723 0.0056917877 -0.0061267833 -0.31512526 -0.83680332 -0.44772357 0.0015534341
-0.019291513 0.0054856432 -0.0070878747 -0.27791432 -0.84231633 -0.46180823 0.001831603
-0.016474035 0.004877218 -0.0075013456 -0.22389793 -0.83395433 -0.50437087 0.0014396706
-0.013558438 0.0041431147 -0.0074988496 -0.19734903 -0.85535008 -0.4789882 0.0013225845
-0.010657349 0.0036929597 -0.0077606644 -0.15395409 -0.84547621 -0.51133955 0.0014263815
-0.0077267424 0.0034970674 -0.0082167806 -0.11452298 -0.84257096 -0.5262686 0.0017254506
-0.0044189179 0.0033127922 -0.0085432502 -0.085275955 -0.80037737 -0.59340048 0.00076586404
-0.0022907343 0.0032722312 -0.0087449048 -0.046785746 -0.84532124 -0.53220582 0.0019987714
0.00074113847 0.0031476365 -0.0088359071 -0.030490641 -0.80145371 -0.59727919 0.0007465831
0.0041378313 0.0030625588 -0.0088329986 -0.00051364693 -0.80411476 -0.59447396 0.00069840974
0.0086625312 0.0031020297 -0.0087690149 0.021217633 -0.80061889 -0.59879804 0.00079464127
0.010691316 0.0033282922 -0.0089408923 0.049623773 -0.81046313 -0.58368397 0.0011657468
0.013447304 0.0031725855 -0.0084011303 0.080607496 -0.85197717 -0.51733685 0.0015636947
0.016312879 0.0033442173 -0.0080904271 0.10980239 -0.86277264 -0.49352491 0.0015151353
0.019806013 0.0039050349 -0.0081247902 0.15320471 -0.85134751 -0.50173283 0.0013558493
0.023251604 0.004079747 -0.0071472609 0.16130312 -0.84519887 -0.50952953 0.0012484401
0.025754435 0.0050877207 -0.0080045769 0.17070323 -0.79650694 -0.58003187 0.00077510049
-0.027901616 0.0085762767 -0.0068580965 -0.33608073 -0.83056849 -0.44407851 0.0014147994
-0.025344653 0.0079161776 -0.0074521126 -0.30617198 -0.81392783 -0.49374095 0.0014650865
-0.022507142 0.0069392342 -0.0076289978 -0.2928097 -0.81991476 -0.49193716 0.0015210835
-0.020097071 0.0064804298 -0.008319715 -0.27329376 -0.79844087 -0.53647244 0.0011106955
-0.017733587 0.006050563 -0.0088076545 -0.25202009 -0.76670134 -0.59046996 0.0019521294
-0.036216553 0.01177475 -0.0062111951 -0.40248808 -0.81363654 -0.41952229 0.0009898874
-0.034298994 0.011371076 -0.0071077598 -0.36418062 -0.81330764 -0.45376554 0.0017031273
-0.031428836 0.010399789 -0.0075464766 -0.33497098 -0.81306994 -0.47614238 0.0020140063
-0.02889381 0.0095821209 -0.007930587 -0.32479677 -0.81407171 -0.4814502 0.0017639209
-0.026379729 0.0091656083 -0.0088108387 -0.29598525 -0.77422422 -0.55943692 0.00052407099
-0.042059962 0.014871113 -0.0062935548 -0.47257447 -0.77574438 -0.41820335 0.0010041302
-0.040172022 0.014286938 -0.0071450328 -0.43908709 -0.77566922 -0.45336503 0.0016385798
-0.037523437 0.013152662 -0.0075977752 -0.39747882 -0.79544193 -0.45747435 0.0018634127
-0.03487372 0.012435296 -0.008469522 -0.34815621 -0.76208264 -0.54590964 0.00074364571
-0.045527637 0.017485989 -0.0067794411 -0.53295141 -0.72942704 -0.42883435 0.0016761092
-0.043504238 0.016550357 -0.0075068576 -0.49699637 -0.75347501 -0.43042994 0.00075470452
-0.04113555 0.015561766 -0.0083385827 -0.42181966 -0.72196871 -0.54847908 0.00068205659
-0.049065638 0.020264188 -0.0070765791 -0.53507906 -0.72635233 -0.43139622 0.0020244287
-0.046762828 0.018991731 -0.0077463873 -0.53125775 -0.72744197 -0.43427327 0.000946321
-0.044759128 0.018266689 -0.008776037 -0.49407712 -0.68167615 -0.53963459 0.0018982461
-0.05411876 0.023723438 -0.0064839893 -0.55375421 -0.71004194 -0.4349674 0.0010107235
-0.052304015 0.02284201 -0.0073003764 -0.53923708 -0.71872604 -0.43892622 0.0022743102
-0.050068263 0.021683905 -0.0080994722 -0.51824695 -0.71197098 -0.47383276 0.0019448496
-0.057458963 0.02664659 -0.0067460616 -0.59537441 -0.65930104 -0.45918557 0.00095682376
-0.055477798 0.025446137 -0.0074669374 -0.57779843 -0.69230771 -0.43227196 0.00087773369
-0.053511631 0.024462834 -0.0083357301 -0.55044067 -0.65427196 -0.51859736 0.0021450548
-0.060372353 0.029397886 -0.0066103069 -0.64712894 -0.59633076 -0.47498813 0.0010945844
-0.058653079 0.028452067 -0.0076264101 -0.63019657 -0.63090754 -0.45255718 0.00097297376
-0.056621309 0.027296044 -0.0085886968 -0.55423862 -0.60974729 -0.56659317 0.000621285
-0.063386463 0.032643318 -0.0063191801 -0.68407303 -0.53726381 -0.49334741 0.0012733574
-0.06152048 0.0314737 -0.0075006108 -0.66914678 -0.57800353 -0.46707031 0.0010163493
-0.059692193 0.030373633 -0.0085864365 -0.59573597 -0.54376918 -0.5911122 0.00075506011
0.0089742905 0.030685253 -0.0082847569 -0.067096993 0.7725246 -0.63142997 0.00092418434
0.013850207 0.031286731 -0.0081570726 -0.10491107 0.8302567 -0.54741883 0.001126114
0.016793448 0.032152176 -0.0075731664 -0.18507326 0.84455603 -0.50246698 0.0019113446
0.019597745 0.032673143 -0.0079415264 -0.23131944 0.84412652 -0.48367524 0.0012183192
0.02202587 0.03292669 -0.0086871861 -0.25153527 0.82629186 -0.50395602 0.00083742529
-0.064187057 0.034683544 -0.0073180604 -0.69583595 -0.48781675 -0.52711219 0.0026891171
-0.062525436 0.033606797 -0.0083891694 -0.63047582 -0.4764294 -0.61279303 0.0010069608
0.020297781 0.033402625 -0.0069200615 -0.21412106 0.85910308 -0.46485913 0.0017048442
0.022822149 0.033837736 -0.0074225408 -0.24043681 0.85869503 -0.45258477 0.0017103726
0.025931686 0.034694389 -0.0075980625 -0.27885604 0.84785205 -0.45098373 0.0017143015
0.028533282 0.035391707 -0.0079291612 -0.29499665 0.84429491 -0.44737351 0.0015844685
0.030188303 0.035939083 -0.0080010779 -0.3120383 0.84481758 -0.43464392 0.0024228848
-0.066731349 0.037893284 -0.0067985165 -0.71115589 -0.42339873 -0.56124038 0.0027568599
-0.065197445 0.037162289 -0.0081048515 -0.6891346 -0.39326051 -0.60863745 0.0026505301
0.029206349 0.036372922 -0.006421187 -0.2937811 0.8817758 -0.36900416 0.0044176062
0.031760547 0.036769036 -0.0074627353 -0.29729906 0.84165478 -0.45081088 0.0023522251
0.034607552 0.037829593 -0.0077222306 -0.39353165 0.80307925 -0.44743329 0.0029744885
0.036920868 0.038554817 -0.0084329816 -0.40565076 0.74889857 -0.52402133 0.001195611
-0.069145508 0.04167971 -0.0062120473 -0.7526983 -0.34898204 -0.55826229 0.0028772191
-0.06749662 0.040505275 -0.0075298324 -0.7205357 -0.29769802 -0.62626213 0.0029226327
-0.065855548 0.039494142 -0.0087917801 -0.68534267 -0.29929712 -0.66387248 0.0016496846
0.035716496 0.039122455 -0.0062157027 -0.43375143 0.79353154 -0.42681062 0.0018303265
0.03783698 0.039842702 -0.0070772464 -0.43520382 0.79033202 -0.4312458 0.0021981099
0.040305834 0.040850483 -0.0078147631 -0.43435785 0.76925659 -0.46859109 0.0018612584
0.042612258 0.041848999 -0.0083979033 -0.4556624 0.71656859 -0.52811092 0.0010834372
-0.069528006 0.0438064 -0.0066789119 -0.73536748 -0.23553959 -0.63541782 0.0032470603
-0.06806045 0.043372396 -0.0080751479 -0.6495412 -0.17034301 -0.74099904 0.0021723162
0.041462701 0.042278871 -0.0065396815 -0.45259276 0.77464426 -0.4416855 0.0011008207
0.043703113 0.043223698 -0.0072776168 -0.44204798 0.78154677 -0.44020253 0.001550289
0.046134487 0.044289507 -0.0079137273 -0.42417902 0.75715756 -0.4967742 0.0030829667
-0.069919966 0.046520557 -0.006920353 -0.72384512 -0.12139404 -0.67919934 0.0052334024
-0.068185247 0.046425037 -0.0084746797 -0.5921616 -0.044980023 -0.80456287 0.0030551422
0.047138881 0.045661014 -0.0067467126 -0.45179325 0.75400782 -0.47681764 0.0017226774
0.049524274 0.046421759 -0.0076697497 -0.41548419 0.72731364 -0.54624885 0.0024773788
0.051985543 0.047486547 -0.0081281234 -0.40353259 0.71886259 -0.56603718 0.0045681526
-0.070150957 0.049520127 -0.0070073963 -0.63128924 -0.018801447 -0.77531952 0.0084254211
-0.067972317 0.049510725 -0.0084908605 -0.45796749 0.17254047 -0.87206399 0.012434376
0.052803811 0.048877381 -0.007013896 -0.42004919 0.72408354 -0.54704803 0.0031259817
0.055226617 0.049662825 -0.0077144299 -0.33532557 0.6921581 -0.63911968 0.0024649738
0.058158845 0.050321538 -0.008475462 -0.30562592 0.63016999 -0.71377772 0.0029028237
-0.070532657 0.052474171 -0.0067044063 -0.4976145 0.081579886 -0.8635534 0.0091539798
-0.067732528 0.052321538 -0.0079918569 -0.31967914 0.23387676 -0.91820854 0.0071402062
-0.065120555 0.052508175 -0.0084596975 -0.19853623 0.34044188 -0.91906625 0.0047451719
-0.062197588 0.052331682 -0.0086681703 -0.16162288 0.39823559 -0.90293217 0.0021824352
0.056462586 0.05130275 -0.0065979906 -0.40095469 0.71518689 -0.57248849 0.0027291391
0.058789037 0.052105568 -0.0070247944 -0.3640289 0.66095263 -0.65621996 0.0044476474
0.061613694 0.052768871 -0.0075939107 -0.22448064 0.57530546 -0.78653163 0.0045245765
0.064185075 0.052680802 -0.0081958147 -0.25549468 0.56417352 -0.78513092 0.0041190903
-0.070474952 0.055173587 -0.0063808225 -0.43863839 0.13599269 -0.88831437 0.0090114474
-0.067885518 0.055281259 -0.0068723289 -0.33285737 0.18771355 -0.92410475 0.006590785
-0.065818787 0.054294869 -0.0074752215 -0.22599538 0.29007459 -0.92993701 0.0039191269
0.062093604 0.054671407 -0.0062597804 -0.33568174 0.62322563 -0.70633388 0.0057613831
0.064238138 0.055293493 -0.0066464073 -0.34020096 0.57001817 -0.74789202 0.0049366592
0.066421494 0.056036644 -0.0066511412 -0.37450182 0.53215718 -0.75931352 0.0044162655
0.066740304 0.057695739 -0.0060120588 -0.46725059 0.44788703 -0.76228213 0.0091157379
-0.015357491 0.0028547791 -0.0034956653 -0.29356733 -0.91234714 -0.28537855 0.0042060819
-0.013385059 0.002599396 -0.0041840924 -0.19658862 -0.93741673 -0.28740704 0.0020972518
-0.010562391 0.002151869 -0.0045076446 -0.16083744 -0.94219196 -0.29394835 0.0018885025
-0.0075667319 0.0016766321 -0.0045319931 -0.12695341 -0.94208336 -0.31042188 0.0024183167
-0.004371292 0.0013218552 -0.0045765289 -0.087282471 -0.94050139 -0.32838842 0.0025133949
-0.0013578623 0.0011023514 -0.0046053538 -0.057127833 -0.9398613 -0.33674496 0.0026749033
0.0014706373 0.00094134838 -0.0044435631 -0.041304126 -0.93715364 -0.34646362 0.0024129597
0.0044506234 0.00095921487 -0.0046100593 0.012998071 -0.94325495 -0.3318148 0.0030509541
0.007347818 0.0010222053 -0.0045463899 0.049018785 -0.94206566 -0.33182746 0.002162256
0.010649765 0.0012291165 -0.004644664 0.054172181 -0.94282174 -0.3288655 0.0024783087
0.013609099 0.001668492 -0.0051260721 0.087464586 -0.93599355 -0.34097815 0.0014890924
0.016230192 0.0018867301 -0.0047830753 0.10552038 -0.94031584 -0.32352978 0.0016725105
0.020169577 0.0025638856 -0.0049213129 0.16085611 -0.9071067 -0.38895079 0.0038691908
-0.024315789 0.0058664326 -0.0037405081 -0.35155943 -0.88573545 -0.30311501 0.0027055242
-0.022466676 0.0054311273 -0.0044624927 -0.32097417 -0.89778739 -0.30158487 0.0024515449
-0.01968636 0.0044677597 -0.0045048017 -0.2955614 -0.90438563 -0.30778247 0.0024329566
-0.016754003 0.0036318398 -0.0046859942 -0.28253287 -0.91032523 -0.30246156 0.0015700929
-0.013708927 0.0032038286 -0.005634685 -0.20622243 -0.9114992 -0.35586715 0.0020086018
-0.031078098 0.0087030102 -0.0040274807 -0.371169 -0.88996923 -0.2649309 0.0021757062
-0.028523469 0.0078227678 -0.0044999304 -0.34587458 -0.88706928 -0.30574298 0.0018015439
-0.02571943 0.0067381724 -0.0046312399 -0.37025461 -0.88252866 -0.289922 0.0016471636
-0.023254722 0.0062249787 -0.005773759 -0.31697768 -0.8582778 -0.4035894 0.00047176785
-0.037238412 0.011483111 -0.0042119664 -0.40961426 -0.8677488 -0.28147522 0.0016875226
-0.034596041 0.01036196 -0.0044875322 -0.38588744 -0.87514353 -0.29191563 0.0015087632
-0.032075863 0.0094594732 -0.0050316653 -0.36899242 -0.87355435 -0.31740743 0.0016714807
-0.042740054 0.014469104 -0.0042305132 -0.50260347 -0.81781626 -0.28029674 0.0017904224
-0.040511519 0.013292289 -0.0045551052 -0.46404633 -0.84069192 -0.27910241 0.0018556027
-0.038232349 0.012280712 -0.0051646857 -0.44830814 -0.84768361 -0.28364104 0.0015722007
-0.048143364 0.017976947 -0.0035509777 -0.56530696 -0.78010798 -0.2680662 0.0015638849
-0.04638458 0.016966784 -0.0043519908 -0.5527187 -0.78384209 -0.28300819 0.0020615703
-0.044162855 0.015603684 -0.0047847289 -0.53863752 -0.79659837 -0.27440938 0.001513562
-0.051453132 0.020587785 -0.0039282641 -0.57674259 -0.76748419 -0.27988553 0.001495699
-0.049579252 0.019423557 -0.0045918175 -0.58201009 -0.77196425 -0.25560769 0.001291354
-0.04759166 0.018280307 -0.0054711034 -0.5511663 -0.76043141 -0.34345275 0.0026188525
-0.054961212 0.0233659 -0.0043100505 -0.58440793 -0.76000416 -0.28436065 0.0017982053
-0.052852124 0.021893138 -0.00462515 -0.58391243 -0.76646543 -0.26753908 0.0013369202
-0.058132548 0.025988379 -0.0043947431 -0.61743325 -0.7222386 -0.31168503 0.0024199777
-0.056264769 0.02461483 -0.0049010939 -0.60758168 -0.74331903 -0.27985963 0.0016464292
-0.06103307 0.02876842 -0.00437102 -0.68616289 -0.64146316 -0.34308231 0.0020982609
-0.059523862 0.027525803 -0.0049653747 -0.659132 -0.68612915 -0.30785021 0.0023787422
-0.063887052 0.031972773 -0.0043403096 -0.73045743 -0.59585732 -0.33374542 0.0025106324
-0.062418185 0.030517066 -0.0048232959 -0.71300453 -0.62692988 -0.31398001 0.0020552608
-0.066527717 0.035304178 -0.0042228098 -0.76031345 -0.55390763 -0.33927858 0.0021162082
-0.065302253 0.034019761 -0.0047714966 -0.75224286 -0.58166671 -0.30950677 0.0018519848
0.017384849 0.033318408 -0.0053327465 -0.2001497 0.86533952 -0.45948625 0.0012724202
0.019313635 0.033829454 -0.0052932673 -0.23202811 0.86169457 -0.45127085 0.0012851935
0.0228933 0.035066128 -0.0044838833 -0.25375062 0.89640403 -0.36341494 0.00090692204
0.02545768 0.035683334 -0.0049964329 -0.2718769 0.89688349 -0.34883088 0.0025736629
-0.069168024 0.038699403 -0.0033941539 -0.80856037 -0.47002518 -0.35398647 0.0024419685
-0.067837685 0.037468169 -0.0045873742 -0.77762336 -0.50195986 -0.37860036 0.0049778763
0.028081775 0.036670677 -0.0044862283 -0.30181149 0.90123278 -0.31094897 0.0014795027
0.03131083 0.037848812 -0.0043820976 -0.36363894 0.89926332 -0.24308902 0.0041375272
0.033654444 0.038682196 -0.0047581913 -0.40487409 0.86557442 -0.29471672 0.003150942
-0.069818527 0.04069243 -0.0043009496 -0.84246761 -0.38828799 -0.37347132 0.0031761786
-0.068663664 0.039694082 -0.0055067912 -0.7836684 -0.41532549 -0.46191835 0.0061532655
0.035197858 0.039582204 -0.0042111115 -0.41962606 0.86595374 -0.27209941 0.0023168968
0.037521344 0.040787317 -0.0044438713 -0.47350112 0.8409996 -0.26175654 0.0023642234
0.039370865 0.041405015 -0.0057540177 -0.47475773 0.8156836 -0.33055303 0.0022115062
-0.07204698 0.044917915 -0.0031889742 -0.87229812 -0.31978828 -0.3699072 0.015412814
-0.070891626 0.0435194 -0.0045155981 -0.84476388 -0.28328219 -0.45401016 0.0041861865
0.040748436 0.04273136 -0.004455463 -0.49421674 0.82177597 -0.28360894 0.0018554741
0.043074138 0.044137727 -0.0046349769 -0.53556252 0.78963494 -0.29941496 0.0025495917
-0.072378784 0.046837494 -0.0036912134 -0.84767127 -0.25587198 -0.46473968 0.004587716
-0.071388707 0.046356823 -0.005089907 -0.81954819 -0.19262639 -0.53966284 0.0057577733
0.044371452 0.045207966 -0.0040253531 -0.49933302 0.81064212 -0.30582005 0.0023973745
0.046515651 0.046374995 -0.004526258 -0.5161593 0.80316228 -0.297506 0.0026094464
0.048781104 0.047390796 -0.0054496848 -0.49403974 0.78917873 -0.36485845 0.0037759733
-0.072886772 0.049573895 -0.0041290983 -0.79054672 -0.25578767 -0.5564248 0.0074511571
-0.071601942 0.049221948 -0.0056141331 -0.67583287 -0.13902763 -0.72382408 0.0051677679
0.04975358 0.048582926 -0.0041681002 -0.51528621 0.79300606 -0.3249945 0.0030490502
0.052258335 0.049974654 -0.0047424668 -0.5008781 0.76297337 -0.40864769 0.0041237506
0.054501411 0.050780606 -0.0058139977 -0.44296458 0.76211274 -0.47219327 0.0074136704
-0.075037003 0.053668283 -0.0033369348 -0.86456603 -0.206958 -0.45792347 0.027794534
-0.073507115 0.052490909 -0.0044766674 -0.7129395 -0.18302651 -0.67691845 0.006196565
-0.071937203 0.051535454 -0.0057161637 -0.64856017 -0.077446438 -0.75721318 0.0088317282
0.053570122 0.05126996 -0.0038359736 -0.48937726 0.78113431 -0.38773587 0.0040816576
0.055486076 0.052122276 -0.0044397777 -0.45477802 0.78855723 -0.4139497 0.0044829356
0.057952542 0.053411037 -0.00479441 -0.46944711 0.77392 -0.42504969 0.0036987164
-0.075325616 0.055444133 -0.0033101731 -0.82293767 0.12638469 -0.55389583 0.044695619
-0.073650427 0.055455055 -0.004792734 -0.62325639 0.19688517 -0.75682741 0.015992902
-0.071516335 0.056436058 -0.0058524543 -0.44805086 0.13036039 -0.8844527 0.010061668
0.059219502 0.054685622 -0.0040116552 -0.51217383 0.73225397 -0.4488675 0.0051128962
0.0612824 0.055758581 -0.0045609772 -0.47985664 0.68491167 -0.54830062 0.0089699849
0.063682005 0.056386966 -0.0056662187 -0.38715494 0.57288468 -0.72243631 0.0053957193
-0.073328346 0.057908181 -0.0042339861 -0.54507983 0.56050235 -0.62347811 0.024615269
-0.07083974 0.058433134 -0.0049465522 -0.32140213 0.66123575 -0.67784065 0.035345972
0.062557682 0.057547398 -0.0037006671 -0.53113592 0.62816972 -0.56859243 0.010826468
0.064351 0.058487963 -0.0044816202 -0.52724808 0.48264948 -0.69932747 0.018130871
0.066932932 0.059068929 -0.0054022586 -0.46127319 0.44533983 -0.76739788 0.0070722704
0.065258317 0.061200079 -0.0036194681 -0.56736887 0.34789142 -0.74636728 0.01416744
0.067228094 0.061736096 -0.004610748 -0.5211302 0.35500273 -0.776142 0.013410651
0.069143474 0.062819891 -0.0048526363 -0.40431735 0.21424739 -0.88917124 0.005464735
0.065950617 0.063368663 -0.0034070318 -0.53993589 0.1775586 -0.82276499 0.020583553
0.067282505 0.064600118 -0.0039550774 -0.47979543 0.21114601 -0.85159475 0.015893523
0.070010439 0.064735427 -0.0046411366 -0.50279361 0.18039244 -0.84537393 0.014418713
0.067772582 0.067462943 -0.0037403244 -0.58546454 0.12141951 -0.80155391 0.017274179
0.069957718 0.067840002 -0.0045171538 -0.51531315 0.12291414 -0.84814179 0.0088752313
0.067986473 0.070659257 -0.0034967761 -0.69411922 0.080409944 -0.71535492 0.015258786
0.070123978 0.070629895 -0.0045740856 -0.57854402 0.076899439 -0.81201798 0.014850386
0.068421155 0.073514476 -0.0036139518 -0.61244518 0.067351043 -0.78763872 0.021310171
0.070133924 0.073532887 -0.0047195042 -0.61245483 0.067406021 -0.78762645 0.021300502
0.072553776 0.073891938 -0.0052131764 -0.58950061 0.065916389 -0.80507392 0.018028887
0.068607226 0.075847372 -0.0036043203 -0.8027814 0.24316545 -0.54443777 0.076475158
0.070089601 0.075720549 -0.0047160471 -0.72891986 0.20847249 -0.65208519 0.064013675
-0.016048178 0.0026799957 -0.0014533423 -0.24517548 -0.96053308 -0.13139725 0.0012429731
-0.01355223 0.0021006742 -0.0015919141 -0.19371672 -0.96966004 -0.14910863 0.001753423
-0.010422522 0.0014355972 -0.0013029508 -0.1624984 -0.97453278 -0.1545317 0.0027319528
-0.0075008045 0.00099813216 -0.0014615986 -0.12607898 -0.97959554 -0.15651399 0.0036791053
-0.0045768255 0.00065875257 -0.001544869 -0.077081919 -0.99398875 -0.07774803 0.003317826
-0.0015360429 0.00045700217 -0.00170523 -0.066328794 -0.99506962 -0.073735617 0.0032692959
0.0015434375 0.00030687262 -0.0014510095 -0.018244727 -0.99384397 -0.10927612 0.0015368367
0.0039510112 0.00037892879 -0.0023791031 0.016091425 -0.98122162 -0.19221099 0.0039670253
0.0075180782 0.00032919124 -0.0010301943 0.034385286 -0.99154317 -0.1251388 0.0010348958
0.010724359 0.00064084318 -0.0020814261 0.062298845 -0.96931112 -0.23781267 0.0031180426
0.013664032 0.00095482578 -0.0022139363 0.076288566 -0.95603883 -0.28314289 0.00134792
0.016573818 0.0012822985 -0.0018541092 0.11926747 -0.95329565 -0.27749345 0.00054914254
-0.024828989 0.0056615532 -0.001530748 -0.35551411 -0.91869831 -0.17205535 0.00085257337
-0.022471342 0.0047783758 -0.0015140848 -0.32057256 -0.932078 -0.16871215 0.0002681574
-0.019575331 0.0037751675 -0.001650046 -0.30674896 -0.93661457 -0.16928741 0.0005428525
-0.017539468 0.0031287875 -0.0015415474 -0.28569981 -0.946199 -0.15193075 0.00085914938
-0.033064209 0.0089130178 -0.00026626003 -0.38534036 -0.90245938 -0.19256096 0.0024483998
-0.03152604 0.0083657904 -0.001580768 -0.38684535 -0.89371073 -0.22722648 0.0011176697
-0.028552555 0.0071453308 -0.0015120527 -0.35112557 -0.91203535 -0.21190175 0.0011247679
-0.026343316 0.0062777251 -0.0016979959 -0.36441898 -0.90952492 -0.19990779 0.0014520072
-0.039421454 0.011964682 -0.001494477 -0.47752893 -0.84770745 -0.23099394 0.0016553495
-0.037539914 0.011056954 -0.0015363219 -0.43938231 -0.87571549 -0.20016366 0.0010863843
-0.034567915 0.009681738 -0.0016461367 -0.38717154 -0.89365321 -0.22689679 0.0011450938
-0.043268818 0.014186786 -0.0013946417 -0.52451503 -0.82833534 -0.19683622 0.0023615514
-0.040867414 0.012798301 -0.0016315853 -0.46841061 -0.8519581 -0.23400639 0.0017486223
-0.048466336 0.01780556 -0.0016145069 -0.58794391 -0.77681392 -0.22557047 0.0020616802
-0.046586782 0.016430805 -0.0014757391 -0.55059654 -0.79851151 -0.24335746 0.0036533147
-0.044700116 0.015172761 -0.0018015696 -0.54802364 -0.80193114 -0.23785831 0.0036021778
-0.051881235 0.020336738 -0.0014391956 -0.5934667 -0.7810334 -0.19438121 0.0018728068
-0.049955692 0.018910309 -0.0015338834 -0.58077282 -0.78015465 -0.23251173 0.0020981445
-0.05538531 0.022997035 -0.0015237897 -0.60464859 -0.7763651 -0.17792515 0.0014880027
-0.053348944 0.021465443 -0.0016506054 -0.59492767 -0.77715993 -0.20514239 0.0014833368
-0.060066566 0.026820512 -0.0007293509 -0.67728484 -0.71556479 -0.17103331 0.00089570152
-0.058505207 0.025536895 -0.001533922 -0.63370293 -0.75280744 -0.17804958 0.00085024588
-0.056871794 0.024158351 -0.0013873132 -0.62866265 -0.74993992 -0.20584786 0.0021392496
-0.06155771 0.02843835 -0.0015294942 -0.71323144 -0.67665464 -0.18286444 0.00086974492
-0.059992082 0.027130267 -0.0029331977 -0.68184191 -0.68689102 -0.25153968 0.0015845774
-0.064337686 0.031534582 -0.0015106864 -0.76297891 -0.62694037 -0.15750855 0.001516679
-0.062903352 0.030009406 -0.0024020281 -0.74164051 -0.65258163 -0.15526249 0.00099098054
-0.066948175 0.034804214 -0.0015037246 -0.80550909 -0.57624137 -0.13820648 0.0024416454
-0.06578657 0.033349317 -0.0015184153 -0.77466464 -0.61659223 -0.14038797 0.0016462258
-0.069429807 0.038306441 -0.0013207189 -0.85189199 -0.50910836 -0.12283619 0.0039999951
-0.068433627 0.036881968 -0.0016639081 -0.81494737 -0.56722522 -0.11881207 0.0025658193
0.026421286 0.036617994 -0.0024446859 -0.28294265 0.90975356 -0.30379599 0.0012670952
0.02946366 0.037718348 -0.0018268784 -0.3332254 0.92141503 -0.19988838 0.0014263658
0.032242663 0.038758386 -0.001557711 -0.35253116 0.92242622 -0.1576443 0.0011011724
-0.070635267 0.040497027 -0.0015312011 -0.88503182 -0.44115236 -0.14867161 0.0039129984
0.034981642 0.040024847 -0.0014279953 -0.45314229 0.88320017 -0.12091124 0.0023274922
0.037556805 0.041401975 -0.0018725423 -0.49420702 0.85979313 -0.12851138 0.0028720314
-0.072304443 0.044302475 -0.0013182274 -0.93492329 -0.33360657 -0.12093405 0.0060752816
-0.071681775 0.042825438 -0.001687999 -0.90337944 -0.40896195 -0.12905656 0.0049927104
0.038425785 0.042046171 -0.00086427253 -0.49793509 0.86659926 -0.03265461 0.0039438424
0.040436313 0.043206833 -0.0015320651 -0.51811361 0.85076863 -0.088038974 0.0027086495
0.042115904 0.044305958 -0.0014561949 -0.52325809 0.84724331 -0.091540925 0.0024505062
-0.07299792 0.046489652 -0.0015263048 -0.93145072 -0.29950497 -0.20663089 0.0097433114
0.043880787 0.045444507 -0.00150961 -0.52166224 0.84796304 -0.093953177 0.0023356518
0.046277773 0.047007088 -0.0015412364 -0.54292679 0.82910764 -0.13345779 0.0035438873
-0.074091434 0.049432024 -0.0015476401 -0.90849793 -0.35831097 -0.21504599 0.012757455
0.047896594 0.048146103 -0.00093935267 -0.54697055 0.82602543 -0.13603406 0.0042311382
0.04949956 0.049116831 -0.0016441111 -0.54312599 0.82715696 -0.14431022 0.0048175366
0.051372223 0.050421923 -0.0016453227 -0.54399252 0.83168101 -0.11126029 0.0037769743
-0.075591952 0.052660309 -0.0014378132 -0.9381187 -0.30251622 -0.1685745 0.019138377
-0.074775331 0.05148698 -0.0023877372 -0.89435345 -0.36512068 -0.25849319 0.013148027
0.053039346 0.05155481 -0.0015943003 -0.52999234 0.83937532 -0.12065333 0.0041763731
0.055580661 0.053190883 -0.0016138298 -0.52354938 0.83872229 -0.14980319 0.0040456606
-0.076152585 0.055447508 -0.0015867974 -0.95016807 0.19354141 -0.24438164 0.045244779
0.058482859 0.055175703 -0.0014836467 -0.60605532 0.77515876 -0.17839776 0.0098149572
0.060521517 0.056696538 -0.001689436 -0.68183649 0.7128998 -0.16392969 0.010240466
-0.075518735 0.057302978 -0.0015108464 -0.81533569 0.51655376 -0.26153365 0.038683578
-0.073548131 0.058477808 -0.0014961903 -0.58420205 0.79746759 -0.15084228 0.015602451
-0.070765227 0.059849851 -0.0023520393 -0.42486465 0.86376876 -0.27091241 0.023189589
0.062008269 0.058340676 -0.0014358711 -0.75955224 0.62955046 -0.16354406 0.024304545
0.063313149 0.059267718 -0.0027505748 -0.74312824 0.55840981 -0.36869887 0.021397168
-0.070190944 0.060129773 -0.0010273951 -0.42486894 0.86377358 -0.27089044 0.023141744
0.064009041 0.061356403 -0.0015637362 -0.90008801 0.39984861 -0.17309695 0.024637867
0.065098993 0.064404815 -0.0015873822 -0.89772487 0.2666083 -0.35072786 0.020946926
0.066127755 0.065722562 -0.0028039839 -0.90567178 0.18093555 -0.38343313 0.02309951
0.06559553 0.067293786 -0.00093211437 -0.95264089 0.20967129 -0.22025725 0.036714409
0.066330627 0.06776797 -0.0023468642 -0.85640979 0.19200186 -0.47926763 0.014051568
0.065945745 0.069279015 -0.00028936999 -0.93764699 0.24045117 -0.251001 0.037089933
0.066597007 0.070524126 -0.0016103758 -0.91330272 0.17811258 -0.36627057 0.017398855
0.067190364 0.073513255 -0.0016624766 -0.92877173 0.17273277 -0.32794273 0.032557704
0.067568667 0.076117218 -0.0015661418 -0.99611527 0.0089867385 -0.087599263 0.09401416
-0.016568182 0.0025779575 0.0014987662 -0.2250234 -0.9739365 0.028497078 0.0028683802
-0.013573839 0.0019342564 0.0015344388 -0.19729665 -0.98002136 0.02514381 0.0016766707
-0.010743329 0.0014313341 0.0014018959 -0.15634824 -0.98057234 0.11846114 0.0047712629
-0.0073441565 0.00094791385 0.0014556765 -0.11744643 -0.98920172 0.087671272 0.0011845012
-0.004243582 0.00064895139 0.0016181469 -0.11561842 -0.99312657 0.018223858 0.0049147862
-0.0010824002 0.00043294797 0.0013049779 -0.076266423 -0.99703068 -0.010639587 0.0033572502
0.0022029974 0.00030695304 0.0010963368 -0.032914519 -0.99795449 -0.054803871 0.0026315432
0.0070311297 0.00034022145 0.00084712979 0.034385324 -0.99154317 -0.12513874 0.0010348958
-0.027420606 0.0057028099 0.0021201645 -0.33781838 -0.93982762 -0.051018059 0.013396545
-0.025426833 0.005264638 0.0015827393 -0.28957322 -0.95215952 -0.097670883 0.0055125649
-0.022462554 0.0043422538 0.0013662246 -0.31897178 -0.94708794 -0.035798118 0.0026220004
-0.019529585 0.0034063945 0.0014089856 -0.30289283 -0.95284486 -0.018509792 0.0015917415
-0.01793116 0.0031498175 0.00026244676 -0.27178961 -0.96163571 -0.037244294 0.002113332
-0.034121137 0.0083864657 0.0018169372 -0.38279971 -0.91736197 -0.10913954 0.0059794029
