# .PCD v0.7 - Point Cloud Data file format
VERSION 0.7
FIELDS x y z normal_x normal_y normal_z curvature
SIZE 4 4 4 4 4 4 4
TYPE F F F F F F F
COUNT 1 1 1 1 1 1 1
WIDTH 567
HEIGHT 1
VIEWPOINT 0 0 0 1 0 0 0
POINTS 567
DATA ascii
0.0073143132 0.032842405 0.0018846123 -0.056056228 0.9902879 0.12723027 0.0031323251
0.0099620232 0.032935809 0.0023564508 -0.10175374 0.98462397 0.14199209 0.0025334996
-0.067024745 0.034707356 0.0015275091 -0.80851817 -0.58812225 0.020265736 0.00047629987
-0.065940209 0.033282515 0.000684392 -0.80423236 -0.59430969 0.002505512 0.00092453999
-0.0043125846 0.033315957 0.0027038697 0.12682778 0.92647713 0.35433707 0.0019439048
-0.00099428638 0.033189058 0.0014154519 0.087873235 0.97541118 0.20211703 0.0012653333
0.0026323753 0.03302744 0.00027961872 0.066319823 0.98267788 0.17304845 0.0022435775
0.0056592012 0.033019479 9.7668191e-05 0.0085109752 0.99992651 0.008637283 0.0011021491
0.0086430935 0.033064689 0.00070822384 -0.029967438 0.99947453 0.012349742 0.0014259788
0.010858891 0.033165134 0.0012766836 -0.079118043 0.99052113 0.11228651 0.0027500682
0.013629196 0.033452574 0.0013231152 -0.12631638 0.98443711 0.12217885 0.0028663436
0.016551459 0.033960711 0.0015076747 -0.20351307 0.96775228 0.14845178 0.0031236964
0.019464511 0.034667209 0.0015630976 -0.25662589 0.9586705 0.12285828 0.0018005003
0.022473589 0.035480633 0.0016147341 -0.27236485 0.95308423 0.13208997 0.0022350866
0.024182905 0.035787616 0.0027839378 -0.29662493 0.94239444 0.15461713 0.0033023474
-0.069381632 0.038205277 0.0014556061 -0.86226875 -0.49425504 0.11047444 0.0031060735
-0.068483464 0.036825467 0.0015845521 -0.83718681 -0.54287314 0.066385441 0.0016767882
0.02554455 0.036416378 0.0014274701 -0.28972724 0.94925565 0.12235925 0.0022277986
0.028559051 0.037389033 0.0014967298 -0.31830859 0.9377749 0.13877331 0.0024975073
0.031404771 0.038368687 0.0016949811 -0.36517698 0.9208414 0.13673654 0.0027430274
-0.070611387 0.040461384 0.0015237156 -0.8885715 -0.44575825 0.10835254 0.0019580924
0.032828685 0.039069835 0.00077560212 -0.35285854 0.92679995 0.12857947 0.0031285323
0.034527071 0.039741058 0.0015688203 -0.4255898 0.89424217 0.13857979 0.0031693692
0.03743748 0.041331708 0.0015779486 -0.50103647 0.85506862 0.13349186 0.0024893878
-0.072289467 0.044242296 0.001181621 -0.9379915 -0.32686037 0.11547396 0.0095498292
-0.071672611 0.042992353 0.001876227 -0.90912294 -0.37282819 0.18572751 0.0045902953
0.0389219 0.042387426 0.00033722949 -0.53903872 0.83113426 0.13657644 0.0025193009
0.040507454 0.043232668 0.0014665074 -0.53546482 0.83509928 0.12604217 0.0030198528
0.042448919 0.044435345 0.0017524753 -0.52939433 0.8387478 0.1274506 0.0028059245
-0.073016368 0.046676926 0.0015537672 -0.92696041 -0.2908411 0.23697223 0.0076876129
0.043992296 0.045490053 0.0015015018 -0.52053154 0.84381419 0.13047819 0.0027572757
0.046371456 0.047016967 0.0015822211 -0.53467727 0.83070248 0.15509222 0.003658612
-0.07512746 0.050993424 0.00040861857 -0.95684326 -0.28921533 0.028380476 0.015746303
-0.074069701 0.049611911 0.0016243513 -0.88398695 -0.3413761 0.31942046 0.013773561
0.047856759 0.048129916 0.00074739632 -0.56763202 0.80744743 0.16069341 0.003647092
0.049515739 0.049106147 0.001496981 -0.5288431 0.83052665 0.17478698 0.0036105376
0.051702842 0.050577667 0.0016378018 -0.57175201 0.8061375 0.15245372 0.0030300189
-0.075587422 0.05275495 0.0013534863 -0.89394069 -0.28516188 0.34576401 0.010727404
-0.074788369 0.051810548 0.0023254396 -0.88156664 -0.29941326 0.36495477 0.010598449
0.053237569 0.051682424 0.0013058318 -0.556117 0.81386614 0.16839223 0.0047954563
0.055429488 0.05301404 0.0016679856 -0.53889334 0.81614119 0.20858462 0.0069344016
-0.0761059 0.055528056 0.0014463372 -0.94315112 0.17573245 0.28210664 0.041127689
0.056771588 0.054072496 0.00097392197 -0.51765203 0.82687712 0.21979706 0.0062387916
0.058586277 0.055168789 0.0015168764 -0.52043909 0.81959611 0.23959431 0.0066705528
0.060660053 0.056638297 0.0019093435 -0.67517334 0.70565754 0.21491459 0.010551251
-0.075474672 0.057347752 0.0013705436 -0.80435753 0.51623505 0.29412654 0.035041269
-0.073602192 0.058437165 0.0016067211 -0.5780918 0.77358794 0.25956032 0.030251533
-0.071228065 0.059642445 0.001494696 -0.41068876 0.90014493 0.14516827 0.0057043885
0.062074918 0.058315612 0.001321919 -0.75757301 0.6044749 0.24636009 0.019478509
0.063485518 0.059530996 0.0022169177 -0.73902804 0.62081695 0.26157981 0.020986855
-0.069818124 0.060296353 0.0015208913 -0.29830638 0.90569919 0.30120143 0.033516131
-0.068337336 0.060795356 0.0011472285 -0.29836637 0.90569746 0.30114713 0.033400383
0.064338669 0.061579235 0.0015699263 -0.78704429 0.43230078 0.44008791 0.026621928
0.065096214 0.064307392 0.0012857885 -0.87911326 0.25965267 0.39967522 0.020141048
0.066305891 0.06477318 0.0026008876 -0.60707599 0.32683384 0.72431922 0.056416783
0.071757026 0.065189548 0.0029957953 -0.15458108 0.099964991 0.98290986 0.01380327
0.06560915 0.067317493 0.00068894698 -0.94906634 0.2234832 0.22209987 0.023951884
0.066977061 0.067595117 0.0022010198 -0.5579949 0.33128908 0.76084775 0.046967223
0.069883101 0.068060905 0.0029040121 -0.24253665 0.070735477 0.96755999 0.013408642
0.065899022 0.069377124 3.4909481e-05 -0.94411021 0.29778615 -0.14134775 0.072884448
0.067212157 0.07041584 0.0016156903 -0.70955032 0.14589238 0.68938655 0.041720137
0.069627389 0.070792124 0.0028089494 -0.38694873 0.0065709027 0.92207778 0.010282745
0.067526944 0.073448867 0.0014158756 -0.84955132 0.066131957 0.5233441 0.031343672
0.069359317 0.07284461 0.0028631734 -0.45508495 -0.13417611 0.88028091 0.0066836607
0.067821823 0.076168925 0.0013325155 -0.92666471 0.13161761 0.35209274 0.062222995
0.069420263 0.076762147 0.0029549012 -0.79494089 -0.071619019 0.60244477 0.045838073
-0.015794573 0.002911275 0.004820623 -0.20344271 -0.87951237 0.43019658 0.0015593808
-0.01264403 0.0024230171 0.0050644726 -0.16327895 -0.86893481 0.46721748 0.001302212
-0.025285671 0.005359259 0.0042038402 -0.20539373 -0.96400166 0.16886139 0.015759796
-0.022853225 0.0048316494 0.0048709339 -0.27369323 -0.88397664 0.37904793 0.00098953047
-0.02010522 0.0040666955 0.0049639065 -0.22954196 -0.88617337 0.4025012 0.0008113918
-0.01721026 0.00324481 0.0047771023 -0.20344275 -0.87951225 0.43019676 0.0015596029
-0.036028162 0.0089888806 0.0032197898 -0.26095319 -0.96420157 0.047103647 0.035674389
-0.034265872 0.00858026 0.0041868128 -0.36629158 -0.87160182 0.32579237 0.0010252614
-0.031601582 0.007684961 0.0045400788 -0.32265669 -0.87905663 0.3509303 0.00081933616
-0.028757909 0.0066827904 0.0046154549 -0.30443901 -0.88684791 0.34758812 0.00071861874
-0.026952608 0.0063017178 0.0052278759 -0.30772468 -0.88502312 0.34934181 0.0007218722
-0.040150899 0.011245518 0.0042241397 -0.46572605 -0.8564719 0.22260988 0.013576997
-0.037651949 0.010199436 0.0046325335 -0.40579829 -0.86073828 0.30733931 0.00072185975
-0.035079952 0.0093957353 0.0055060936 -0.36967054 -0.86742097 0.33305335 0.0010648615
-0.045682278 0.014326257 0.0040378529 -0.51988697 -0.83365428 0.18638113 0.011598622
-0.043435678 0.013160338 0.0045643528 -0.48851871 -0.83599007 0.24994011 0.0066463989
-0.041249447 0.012178012 0.0052192286 -0.46695754 -0.85104758 0.24014291 0.014810818
-0.051115721 0.017857663 0.0033151617 -0.60366148 -0.79399228 0.071896382 0.03351137
-0.049398828 0.017002204 0.0044167172 -0.50185704 -0.83613598 0.22139594 0.0091693392
-0.046872325 0.015466784 0.0049506351 -0.57503957 -0.79315758 0.2005759 0.0086400174
-0.05456803 0.020694207 0.0041298419 -0.58848959 -0.80666637 0.05449079 0.025260935
-0.052545954 0.019391526 0.0046234815 -0.61349308 -0.74915856 0.24977519 0.0096689733
-0.050670147 0.018349072 0.0054450831 -0.59876114 -0.76576185 0.23472078 0.011684163
-0.057721674 0.023420308 0.0043338616 -0.63791519 -0.76071233 0.1199208 0.017894546
-0.055914491 0.022056185 0.0048007262 -0.62000668 -0.75600457 0.20987807 0.015526341
-0.060543206 0.026150636 0.004264351 -0.74990726 -0.64737159 0.13619517 0.01635292
-0.059115581 0.024943264 0.0048317658 -0.69271278 -0.70532393 0.15055622 0.012644948
-0.063343696 0.029427484 0.0041669905 -0.79257673 -0.57299864 0.20855393 0.01354126
-0.061992228 0.028018504 0.0046634125 -0.75926489 -0.63221186 0.15435326 0.0098911896
-0.064557575 0.031346377 0.0045731734 -0.78941923 -0.54857296 0.27547225 0.0096405922
-0.0045475466 0.032630444 0.0050178366 0.14198357 0.89287996 0.42732435 0.0015617241
-0.0015650282 0.032520138 0.0042887912 0.10680608 0.92580473 0.36259899 0.0017750036
0.0013103692 0.032130517 0.0047923815 0.046619602 0.92403698 0.37945005 0.0027077291
0.0043414305 0.03208629 0.0046188468 0.0074782232 0.94610262 0.32378078 0.0028996004
0.0073343553 0.032183569 0.0043854713 -0.029756038 0.94126493 0.33635536 0.0024933915
0.010496658 0.032322593 0.004575965 -0.11107577 0.93808103 0.3281253 0.0028007021
0.013403702 0.032547724 0.004794626 -0.13763307 0.92140096 0.36342475 0.0027610008
0.01601162 0.032710973 0.0055323392 -0.19642566 0.90981805 0.36557919 0.002705297
-0.066850603 0.034833159 0.0043761097 -0.83539999 -0.4903084 0.24840388 0.0095540369
-0.065745585 0.033408578 0.0050478997 -0.80806446 -0.55187076 0.20608383 0.0084378244
-0.012136807 0.033809904 0.0056371139 0.21880937 0.85362405 0.47270325 0.0007835849
-0.0093733054 0.033542145 0.0047764913 0.18460292 0.88961077 0.4177494 0.00053890224
-0.0072094514 0.033172477 0.0045980923 0.18193218 0.89789557 0.40085426 0.00055030163
-0.0056232209 0.033123251 0.0041066306 0.17514051 0.89325219 0.41403657 0.0019666555
0.013962393 0.033172112 0.0032104496 -0.12229026 0.97715151 0.17383899 0.0037729929
0.01664803 0.033379119 0.0041362778 -0.19570078 0.92749953 0.31850556 0.0026399384
0.019487651 0.03395994 0.0044540842 -0.22611922 0.91861176 0.32407188 0.0020491807
0.022485092 0.03473511 0.0045517487 -0.26758689 0.90375423 0.33410391 0.0017788557
0.025171842 0.035410684 0.0049007009 -0.28170633 0.89334899 0.3500987 0.0024139255
0.027544396 0.03592376 0.0054967795 -0.29005885 0.89256728 0.34523836 0.0020167492
-0.069154635 0.038551819 0.003560978 -0.84795922 -0.40966082 0.33636746 0.0041257371
-0.068148546 0.037407868 0.0046502412 -0.83320528 -0.47567919 0.28195447 0.0048072981
0.026410101 0.036184523 0.0038009149 -0.28387725 0.90644759 0.31267613 0.0024551505
0.028791759 0.03677335 0.0044035148 -0.28763214 0.90131122 0.32389167 0.002163983
0.031619739 0.037747014 0.004494939 -0.34631515 0.89055473 0.29492068 0.0026868861
0.034152847 0.038598057 0.0050693708 -0.40217206 0.85067219 0.33854759 0.0026793941
-0.069764905 0.040649939 0.0043458142 -0.84918517 -0.34399527 0.40068907 0.0056150034
-0.068714075 0.039517537 0.0054986086 -0.85055512 -0.3360787 0.40448368 0.0052887397
0.035021767 0.039422896 0.0039825109 -0.42038482 0.85676551 0.29871294 0.0024944921
0.037492353 0.040551689 0.0045300988 -0.46902937 0.81019384 0.3515642 0.0030646683
0.039622072 0.041697092 0.0048305527 -0.51608771 0.8035593 0.29655668 0.0027796263
-0.070728444 0.043537382 0.0045066094 -0.84982288 -0.281654 0.4455021 0.0045325062
0.041071586 0.042818017 0.0042552445 -0.49009973 0.80000162 0.34612104 0.0023991771
0.043434378 0.04412258 0.0047279522 -0.4937228 0.79265225 0.35768735 0.0030016045
0.045316592 0.04492503 0.0055582877 -0.48717558 0.76928657 0.41334993 0.0044143079
-0.072289437 0.046897832 0.0035758859 -0.83269507 -0.26807177 0.48451683 0.0032115306
-0.071228296 0.046362411 0.0049692034 -0.8268137 -0.21546863 0.5195694 0.0071155764
0.044296928 0.045231722 0.0033978112 -0.4954389 0.83635014 0.2346459 0.0042980146
0.046556812 0.046226516 0.0044380613 -0.51190984 0.78210843 0.35532349 0.0025747456
0.048885316 0.047414865 0.004973663 -0.50923413 0.79058844 0.34007445 0.0031713825
-0.07278838 0.049667742 0.0040098769 -0.76993549 -0.23264216 0.59420282 0.006970448
-0.071505994 0.049311876 0.005426846 -0.74729526 -0.13727537 0.65015793 0.0074235331
0.049945317 0.048507344 0.004163865 -0.48740458 0.77989894 0.39267609 0.0045709792
0.052357655 0.049852394 0.0046028378 -0.48926181 0.76355416 0.42143556 0.0033676613
0.054562911 0.050718457 0.0054648947 -0.45479834 0.76425833 0.45723912 0.0041356268
-0.075124159 0.053950906 0.0030083878 -0.82698637 -0.06427025 0.55853629 0.024791431
-0.073456645 0.052552588 0.0043000723 -0.7488054 -0.23148865 0.6210503 0.0051401653
-0.071623281 0.052463394 0.0057834489 -0.52979612 -0.03700025 0.84731758 0.0069313338
-0.057607885 0.053700849 0.005797158 0.18974122 0.73875189 0.64671779 0.00067187141
0.053662989 0.051284362 0.0035042653 -0.48250094 0.78396994 0.39062002 0.0021351089
0.055700827 0.051998921 0.0044544069 -0.45193589 0.77352273 0.4443157 0.0044284449
0.058242381 0.053240914 0.0048567103 -0.44287196 0.75204635 0.48815042 0.0078370506
0.060531743 0.053835448 0.0057807062 -0.35247788 0.62517774 0.6963563 0.0058042654
-0.075186737 0.055658564 0.0032045632 -0.79747254 0.12252758 0.59078306 0.037841696
-0.073612943 0.055500589 0.0045525683 -0.62229186 0.12040365 0.77346992 0.012006681
-0.071137205 0.055718541 0.0057673496 -0.24602634 0.30036283 0.92154932 0.0088871717
-0.067203999 0.056753904 0.0057172929 -0.044980157 0.46885559 0.88212883 0.0031018092
-0.065412782 0.056010675 0.0059369253 0.078681454 0.47902417 0.87426829 0.006880377
-0.061447393 0.055042643 0.0053943046 0.17249443 0.65971148 0.73145503 0.0049087522
-0.058430571 0.054409873 0.0049852696 0.17486581 0.73321146 0.65713239 0.0010917136
0.059063546 0.054520383 0.0037333108 -0.47147453 0.74493212 0.47200415 0.0046717739
0.061501902 0.055611294 0.0044901138 -0.44400135 0.65269047 0.61388761 0.0069787926
0.063909031 0.056248501 0.0054941797 -0.30116078 0.52330887 0.79715121 0.008031874
0.067242838 0.056949973 0.0059415284 -0.35557047 0.43206781 0.82878649 0.0067418059
-0.073269613 0.057966664 0.0039730379 -0.58122665 0.54150182 0.60741371 0.030383175
-0.070693731 0.058606125 0.004599689 -0.2524302 0.65999258 0.70759368 0.028050771
-0.068019129 0.057893414 0.0050836694 -0.024836091 0.60438347 0.79630637 0.016298465
0.062639087 0.057504009 0.0034278482 -0.5840928 0.54452246 0.60193926 0.0085240025
0.064595491 0.058363054 0.0042846468 -0.52076715 0.47787046 0.70741886 0.015444481
0.067079276 0.058634553 0.0051600942 -0.40918678 0.45378283 0.79161054 0.012483791
-0.069322273 0.060098976 0.0032770555 -0.033172317 0.8816148 0.47080243 0.035300449
0.065393038 0.060774468 0.003436699 -0.54776555 0.36360404 0.7534886 0.007921569
0.067099907 0.06160732 0.0039934269 -0.46992943 0.379262 0.79707378 0.014709628
0.067650065 0.064493619 0.0033393891 -0.23816183 0.24941252 0.93865454 0.019247463
0.070365705 0.064769529 0.003366973 -0.25390148 0.14472629 0.95634115 0.024287704
0.070692487 0.06722606 0.0030992175 -0.24255182 0.070734322 0.96755636 0.013406144
0.070931092 0.070658177 0.0033931423 -0.46019641 -0.055754509 0.88606471 0.0062218723
0.072365403 0.070616096 0.0036358498 -0.34499505 -0.11488155 0.9315474 0.002357272
0.070544779 0.073611014 0.0037451577 -0.49469328 -0.12793803 0.85959899 0.0073637418
0.07230138 0.073903374 0.0044687889 -0.49463645 -0.12781177 0.85965043 0.0073752115
0.068978742 0.07598161 0.0030785359 -0.76318002 -0.0034554712 0.64617676 0.045077592
0.07026542 0.075647958 0.003906603 -0.58328009 -0.072527379 0.80902672 0.0080608362
-0.0086613102 0.0028503849 0.0070609953 -0.10170835 -0.81080306 0.57641453 0.0017201354
-0.024236448 0.0059926175 0.0065243347 -0.29494891 -0.84981465 0.43682981 0.0031642746
-0.021955675 0.0056189112 0.0071329004 -0.2605049 -0.84772903 0.46205273 0.001293022
-0.019047728 0.0049693324 0.0073822285 -0.21746415 -0.84742463 0.48433551 0.0010770665
-0.016174791 0.0042936536 0.0073954887 -0.19097418 -0.84478295 0.49987057 0.00099819619
-0.013101271 0.0040851654 0.0080457265 -0.13799472 -0.83282638 0.53605747 0.0013648657
-0.0082092965 0.00329686 0.0079182414 -0.10170817 -0.81080335 0.57641417 0.0017201167
-0.0049306555 0.0030246086 0.0079270573 -0.057480127 -0.75388134 0.65449136 0.0014715591
-0.031570051 0.0085687479 0.0066791275 -0.32537287 -0.84964985 0.41500315 0.0020159453
-0.028547028 0.0080274539 0.0076598241 -0.2898885 -0.83968049 0.45923993 0.00091817888
-0.025417816 0.0068687703 0.0074423417 -0.2821705 -0.84956741 0.44566235 0.00058665214
-0.022749521 0.0064785555 0.0082279034 -0.23867431 -0.82907063 0.50564456 0.0010792973
-0.020221248 0.0061735972 0.0088928379 -0.20172802 -0.81556004 0.54237235 0.0017790884
-0.039718319 0.011906394 0.0063405726 -0.42540577 -0.82951057 0.36185923 0.00095138123
-0.037241802 0.011256582 0.0073564737 -0.3769812 -0.81123239 0.44697559 0.0010932327
-0.034517292 0.010205624 0.0075816703 -0.3462761 -0.81532156 0.46405137 0.0013679238
-0.031646706 0.0094418889 0.0082228323 -0.30372939 -0.82766825 0.47192553 0.0008678069
-0.045165174 0.014954296 0.0063116294 -0.48792702 -0.79305196 0.36468589 0.0020159634
-0.043261647 0.014240972 0.0070880083 -0.454797 -0.78385782 0.4227607 0.00084647426
-0.040728226 0.013140867 0.0076637319 -0.42886078 -0.79642665 0.42636028 0.00066739967
-0.038306367 0.012294563 0.008328883 -0.37869188 -0.80204624 0.46185952 0.00084420195
-0.048437018 0.01744489 0.0068327202 -0.53668451 -0.73339069 0.41726235 0.0011297379
-0.04650455 0.016579002 0.0075938012 -0.48781481 -0.73061395 0.47774458 0.00077611883
-0.044151258 0.015545694 0.0083955731 -0.44392109 -0.72969186 0.52008069 0.0007289456
-0.051983792 0.020185962 0.0070746173 -0.54573268 -0.71506298 0.43687624 0.001022494
-0.049680933 0.018896207 0.0077300631 -0.51978433 -0.7274124 0.44799045 0.0013066349
-0.057015944 0.023715215 0.0063058827 -0.62254924 -0.68084931 0.38584536 0.005175326
-0.055210225 0.022894746 0.0073816841 -0.57294565 -0.68352705 0.45224357 0.0020615449
-0.053145505 0.021646613 0.0080323238 -0.5590151 -0.70717627 0.43290171 0.00091977365
-0.060240161 0.026972972 0.0063319393 -0.68562716 -0.61530191 0.38899744 0.006885143
-0.05836197 0.025756732 0.0073217214 -0.64351237 -0.61150599 0.46038273 0.0023472733
-0.056423377 0.024585677 0.0082629854 -0.60399604 -0.65031928 0.4607316 0.0015678179
-0.06111078 0.028869465 0.0073704235 -0.68813056 -0.53187174 0.49354717 0.0019040729
-0.059431683 0.027671732 0.0082552647 -0.64867938 -0.59347236 0.4764511 0.0017158369
0.0014513666 0.029916562 0.0087929359 0.033118673 0.80854177 0.58750623 0.0037543518
0.0043200064 0.029757526 0.0088730054 0.014933354 0.77205694 0.63537788 0.0012235102
0.0065791458 0.029858295 0.008718648 -0.018724488 0.75966221 0.65004814 0.0014114087
0.010453019 0.029957581 0.008866827 -0.067197621 0.76117933 0.6450507 0.0015418688
-0.063748352 0.032086525 0.0069983369 -0.71778077 -0.484285 0.50025868 0.0021089457
-0.062357601 0.031061484 0.0079154922 -0.70887113 -0.47574216 0.52074093 0.0035816191
-0.012878487 0.032431729 0.0085513042 0.2277925 0.79972833 0.55546832 0.0017198989
-0.010400263 0.032431342 0.0075502275 0.21625014 0.85225683 0.47633412 0.00074787292
-0.0076089255 0.031854298 0.0075444966 0.15624133 0.86729616 0.47263736 0.0011040744
-0.004473397 0.031491473 0.0072868732 0.12327226 0.86110455 0.4932574 0.0020347061
-0.0014193379 0.030935857 0.007586034 0.082181491 0.85139829 0.51804167 0.0021723828
0.0014411585 0.030920409 0.00723247 0.025286691 0.85213655 0.52270824 0.0022246279
0.004455382 0.03077051 0.0073401835 0.01933307 0.85964972 0.51051795 0.0022136844
0.0076522813 0.030797994 0.0073032812 -0.025510795 0.86013043 0.50943589 0.0023638469
0.010495362 0.030937094 0.007355928 -0.072317645 0.85562611 0.51251751 0.0023964054
0.013501637 0.031159468 0.0075594364 -0.12912969 0.83799762 0.53017491 0.0026101398
0.016579827 0.031711295 0.0075542205 -0.18474418 0.84791493 0.4969002 0.0017043924
0.019315848 0.032302693 0.0076961699 -0.21069947 0.82665539 0.52177262 0.0016762384
0.021982538 0.032544903 0.0084364982 -0.22592014 0.75945026 0.61007822 0.0012293699
0.024627009 0.03295419 0.0089585921 -0.24153873 0.73134732 0.63780117 0.0015555614
-0.066262729 0.035503689 0.0063817012 -0.75234306 -0.38620517 0.53369051 0.0018091779
-0.064723596 0.034413557 0.0076057385 -0.73802936 -0.38965651 0.55089074 0.0026601769
-0.062991783 0.033209849 0.0088691646 -0.662664 -0.40220866 0.63174736 0.00062614254
-0.018868122 0.034161888 0.008694523 0.25041404 0.7425741 0.62118965 0.00092894281
-0.015474677 0.033545334 0.0078885322 0.25247124 0.80104011 0.54276425 0.00084057503
-0.014050131 0.033293702 0.0076930164 0.23571895 0.81359321 0.53150994 0.0010689938
-0.011668003 0.033300657 0.0064706202 0.21881291 0.85362518 0.47269967 0.00078388874
0.020094508 0.033238597 0.0064886943 -0.22307913 0.84810811 0.48057097 0.0017072011
0.022754068 0.033661418 0.0070212772 -0.23850629 0.83597624 0.49422511 0.0021469938
0.025486186 0.034141127 0.0075901044 -0.24143648 0.81189877 0.53153443 0.0021644665
0.02837362 0.035076994 0.0075851767 -0.29323509 0.82416141 0.48453179 0.0013265798
0.031346038 0.035554264 0.0084801577 -0.29465654 0.74624938 0.59689987 0.0013866794
-0.066844203 0.037776314 0.0070961774 -0.7419498 -0.34483474 0.57497782 0.003648794
-0.065458603 0.037104152 0.008396565 -0.69665956 -0.29032508 0.65603101 0.0016626569
0.029395461 0.036199458 0.0062896935 -0.30377576 0.83039349 0.46708354 0.0015787393
0.031604875 0.036594115 0.0069906209 -0.31478611 0.81346411 0.48906636 0.0021376531
0.034523811 0.037530292 0.0074195839 -0.35738945 0.80696499 0.47019187 0.0025397583
0.037082188 0.038348097 0.0080876453 -0.39764109 0.75497776 0.52143079 0.0025215519
-0.069032513 0.041690208 0.0062563089 -0.77013963 -0.2864317 0.56994897 0.0033966203
-0.067540891 0.040544268 0.0075325528 -0.73835009 -0.22532843 0.63566208 0.0028554932
-0.065761559 0.039189737 0.008989309 -0.66682589 -0.24695034 0.70310646 0.0040416135
0.037988275 0.039623078 0.0069520804 -0.42322525 0.76649189 0.48308444 0.0020143164
0.040483415 0.040651385 0.0075738863 -0.42258731 0.75307697 0.50427675 0.002157673
0.042823564 0.041383486 0.0084610442 -0.39845282 0.67080545 0.62550402 0.0014584907
-0.069436796 0.043662518 0.0064391945 -0.74933469 -0.19952419 0.63141716 0.003138792
-0.06789428 0.043470569 0.0079858806 -0.65745324 -0.12257718 0.74345815 0.0015365994
0.041740097 0.042261429 0.006286555 -0.46124709 0.74855626 0.47635567 0.0011033914
0.043738257 0.042816795 0.0072857966 -0.44202518 0.72961146 0.52180535 0.0023902287
0.046232149 0.044030666 0.0076816333 -0.42869377 0.71597642 0.55099869 0.0029770874
0.048364639 0.044485819 0.0086281635 -0.37837517 0.65684879 0.65221316 0.0032862471
-0.069754392 0.046496652 0.0067192726 -0.70438498 -0.10255987 0.70236981 0.005877818
-0.06803748 0.046610702 0.0081778606 -0.59225446 -0.027458627 0.80528307 0.0030394557
0.047368761 0.04553831 0.0065848916 -0.4738397 0.72187597 0.50435203 0.0018462387
0.049659088 0.046184544 0.0074840616 -0.40464586 0.70979446 0.5765878 0.002501857
0.052280497 0.047309041 0.0079405392 -0.39755625 0.67993003 0.61615264 0.0033008067
0.054448068 0.047647726 0.008814984 -0.29141438 0.59123373 0.75201088 0.0029120792
-0.070078634 0.049470801 0.0067032441 -0.60506654 -0.021495441 0.79588467 0.0086583663
-0.067662142 0.049496766 0.0082231099 -0.47538084 0.088299155 0.87533784 0.0051117507
-0.065494135 0.050640125 0.0088190688 -0.17466854 0.37992254 0.90837753 0.007511457
-0.057980638 0.050945595 0.0089966292 0.084989034 0.62353086 0.77716547 0.0023692858
-0.056277022 0.050694253 0.0088569298 0.19166693 0.66771555 0.71931899 0.0019950958
-0.052321859 0.049474023 0.0086244419 0.20336708 0.6356051 0.74474692 0.00039092932
0.053014696 0.048765626 0.0068099457 -0.44600564 0.67681992 0.5856567 0.0016834419
0.055468868 0.049443632 0.0075708251 -0.3331286 0.65616786 0.6771034 0.0014879064
0.058266852 0.050218079 0.0081601646 -0.26048383 0.59588981 0.75964689 0.0018718374
0.061373483 0.050608885 0.0087509286 -0.1371036 0.50902438 0.8497628 0.0056441496
0.064760536 0.050778728 0.0088775521 -0.097784631 0.48852068 0.86705583 0.0026063449
-0.070157185 0.052421514 0.006628972 -0.47373456 0.086084627 0.87645024 0.009097483
-0.067585237 0.052381624 0.0076427907 -0.27849326 0.25191852 0.92681092 0.014366657
-0.064608127 0.052343648 0.008141865 -0.10562254 0.46774915 0.87752753 0.010586765
-0.061494272 0.052531797 0.0079551321 0.041799333 0.65699852 0.7527321 0.0021786154
-0.058802854 0.052273855 0.0078554647 0.12135935 0.7323485 0.67002803 0.0019008793
-0.056362163 0.051917635 0.0075655305 0.16124608 0.71069539 0.68477136 0.0025532229
0.056383222 0.051080704 0.0063514141 -0.40364176 0.70447713 0.58376813 0.002289148
0.058704276 0.05183797 0.0068347873 -0.33643767 0.66208482 0.66966659 0.0033146557
0.061468236 0.05256759 0.0073418766 -0.23542218 0.60146248 0.76342601 0.0071088118
0.064223528 0.052703418 0.0078828139 -0.19034977 0.52432775 0.82996821 0.0033611145
0.066190675 0.053836316 0.0073632789 -0.16892895 0.48171455 0.85989189 0.0013035589
-0.070058793 0.05498914 0.0063244337 -0.25888026 0.31502968 0.9130922 0.0093638217
-0.067790866 0.055147659 0.0066192565 -0.11414955 0.38867325 0.91427732 0.006249215
-0.064768516 0.054671474 0.0067121764 0.080020994 0.50358456 0.86023206 0.0076061813
-0.061835121 0.054303706 0.0064018928 0.17004178 0.65837371 0.73323238 0.0051221824
-0.059876174 0.054025609 0.0061513833 0.15002477 0.71240425 0.68554556 0.0025241498
0.062412933 0.054375324 0.0062982738 -0.31924394 0.59900898 0.7343511 0.0090258634
0.064665049 0.055102933 0.0065295431 -0.2384869 0.54975057 0.80056125 0.0048171096
0.067188181 0.055878758 0.0063394103 -0.27634439 0.53617167 0.79759246 0.0070919567
-0.016354114 0.0058058379 0.0096515138 -0.16920455 -0.78534722 0.59548265 0.00078031549
-0.01386086 0.0054831831 0.0098725986 -0.14434379 -0.76556933 0.62695175 0.0013156015
-0.010940406 0.0050508264 0.0098956684 -0.08599373 -0.76985586 0.63239777 0.0013467908
-0.007903263 0.0052036582 0.010471617 -0.070350282 -0.75944132 0.64676082 0.0014318338
-0.0043078717 0.0052174502 0.010736479 -0.034434486 -0.70782411 0.705549 0.0030259958
-0.00122472 0.004284854 0.0098324865 -0.012411439 -0.70240355 0.71167082 0.0028651988
-0.027717071 0.0089068124 0.00954415 -0.24986342 -0.77398747 0.58181757 0.0010157358
-0.025517302 0.0083332555 0.0097331665 -0.24367872 -0.77549475 0.58243334 0.0010217517
-0.022611264 0.0079764854 0.010401891 -0.21107712 -0.76561493 0.60768437 0.0012842736
-0.01955514 0.0073344121 0.010624949 -0.19118825 -0.77194834 0.60625297 0.00073953689
-0.016595853 0.0069140256 0.010942045 -0.15276691 -0.76234788 0.62887841 0.0011572726
-0.013504962 0.0065845978 0.011234274 -0.11244228 -0.7415641 0.66139209 0.0010848868
-0.01075986 0.0063296943 0.011398398 -0.094862044 -0.73659599 0.6696474 0.0013666768
-0.0078054378 0.0064113825 0.011759577 -0.053959675 -0.70354593 0.7085982 0.0027622392
-0.034250427 0.011416369 0.0097164894 -0.32353386 -0.76289791 0.5597434 0.00069123524
-0.031389326 0.010870244 0.010444241 -0.28491113 -0.75385386 0.5920558 0.001014786
-0.028662436 0.010004356 0.010575085 -0.258279 -0.76344955 0.59197694 0.00079577259
-0.02556446 0.0096097533 0.011329706 -0.22380759 -0.71428514 0.663104 0.00078707089
-0.023072727 0.0094192615 0.011934007 -0.19572152 -0.691773 0.69508499 0.0011445273
-0.042442285 0.014987193 0.0091012781 -0.43661153 -0.72631502 0.53088313 0.0011037952
-0.040196575 0.014329394 0.0099022351 -0.39979771 -0.72639114 0.55903286 0.0010450509
-0.037526298 0.013556424 0.010613387 -0.34341145 -0.73115492 0.58947521 0.0013509839
-0.034753866 0.01264431 0.011028544 -0.30790514 -0.7469151 0.58933198 0.001214841
-0.032375928 0.012463734 0.011945909 -0.26333991 -0.69304752 0.67107171 0.00077838352
-0.045779835 0.017499141 0.0096738888 -0.47382098 -0.6907025 0.54628175 0.00079269399
-0.043539196 0.016711522 0.01045959 -0.44251463 -0.67981219 0.58483863 0.0012768363
-0.040992599 0.015851418 0.011227084 -0.3750582 -0.6854285 0.62411469 0.00046438837
-0.038478699 0.015206815 0.011992639 -0.32980597 -0.65514475 0.67971557 0.001175153
-0.051066708 0.020897204 0.0092217727 -0.49416384 -0.66091818 0.56479144 0.001347056
-0.049145516 0.020092105 0.0099655585 -0.48138458 -0.67734617 0.55630124 0.0014332986
-0.046716593 0.019149132 0.010857057 -0.45969501 -0.67322254 0.57918215 0.0012867275
-0.044175446 0.01824536 0.011737258 -0.40727976 -0.66238719 0.62878174 0.001418354
-0.054460142 0.023820378 0.009467802 -0.54480296 -0.63380343 0.54907453 0.00074407039
-0.05235194 0.022787997 0.010236174 -0.51951104 -0.61194867 0.59634471 0.0013914423
-0.049987163 0.021863993 0.011223616 -0.45499951 -0.59832692 0.6595304 0.00085983548
-0.057420511 0.026442297 0.0092861978 -0.59669602 -0.58075523 0.55378443 0.00086905184
-0.055427376 0.025681123 0.010423242 -0.54335988 -0.54364944 0.63969147 0.00089810038
-0.05326407 0.024724578 0.011394651 -0.52590287 -0.57709342 0.62481153 0.00053830474
0.0015047312 0.026986286 0.011956817 0.048019309 0.68500543 0.72695369 0.0013048055
0.0050875535 0.026840826 0.011935779 0.015215965 0.68249857 0.73072845 0.0011293571
0.0072314534 0.026950737 0.011830064 -0.020954534 0.68136036 0.73164815 0.0012953152
0.010268264 0.026923584 0.011985498 -0.055162612 0.67315364 0.73744231 0.0013976443
-0.060145371 0.029488418 0.0091929818 -0.62471199 -0.50576401 0.59492671 0.0013685233
-0.058294922 0.028616801 0.010289538 -0.6020366 -0.46887329 0.64630473 0.0014184439
-0.056264237 0.027820364 0.011497968 -0.53724182 -0.46065572 0.70651788 0.0017909722
-0.012117536 0.029631155 0.011734396 0.18851848 0.67415261 0.71412814 0.0029469789
-0.0099996822 0.029472888 0.011350479 0.17365733 0.6636247 0.72762996 0.0014810259
-0.0069347057 0.029053694 0.011076353 0.14066534 0.74249977 0.65491021 0.0017085241
-0.0043217693 0.029071158 0.010576434 0.12417978 0.72514743 0.67730385 0.0036159137
-0.001537621 0.028693572 0.010557489 0.087901287 0.72436476 0.68379009 0.0022594035
0.0016859666 0.02834636 0.010606949 0.044399232 0.737055 0.67437279 0.0024668768
0.0045820442 0.028386509 0.010469958 0.016363762 0.75091076 0.66020095 0.0010931857
0.0077849505 0.028408846 0.010445604 -0.026956048 0.72947139 0.68347996 0.0026616675
0.010678785 0.028487928 0.010533724 -0.0702255 0.72083783 0.68953681 0.0028276339
0.013354963 0.028612658 0.010717122 -0.10212129 0.68106544 0.72506636 0.0011912786
0.016262339 0.028950175 0.010888838 -0.144967 0.65526199 0.74136102 0.0016274863
0.019275552 0.029271787 0.011272807 -0.1687012 0.62661898 0.76084715 0.0019455319
0.022073783 0.02959829 0.011682945 -0.1863063 0.67090172 0.71776104 0.0015756702
-0.060988635 0.031768594 0.0099718403 -0.64613563 -0.43932816 0.62409902 0.0010391384
-0.05919838 0.031167408 0.01122324 -0.57948679 -0.39061284 0.7152738 0.0012581879
-0.017580705 0.03218136 0.010706847 0.26624829 0.71722662 0.64397037 0.0016175477
-0.013958635 0.031017801 0.010790226 0.20399614 0.75444573 0.6238566 0.0016290415
-0.01052157 0.030999267 0.0097439047 0.17908792 0.79523325 0.57925099 0.0010342023
-0.0072740591 0.030337699 0.0096801454 0.14770713 0.76756114 0.62372464 0.0017659214
-0.0049471259 0.030384712 0.0091100112 0.12250387 0.8038345 0.58210212 0.0032069776
0.013911502 0.0301433 0.009150872 -0.10904995 0.75388461 0.64789361 0.0014671467
0.016561011 0.030388786 0.0094247768 -0.15543355 0.7419402 0.65220022 0.0016408302
0.019554168 0.030760854 0.0098359175 -0.19191553 0.72442102 0.66210473 0.0017217596
0.022715237 0.031282216 0.01019622 -0.19978246 0.71705228 0.66777462 0.0026845476
0.025539976 0.031599939 0.010757188 -0.23003384 0.68185455 0.69437653 0.0028090121
0.028361918 0.032076202 0.011189864 -0.2190145 0.62632227 0.7481665 0.001967239
0.031203913 0.032574184 0.011657141 -0.2301929 0.65967906 0.71542639 0.0016756709
-0.063498862 0.035181135 0.0094926134 -0.65926945 -0.35681912 0.66184896 0.0020836049
-0.061673433 0.034340266 0.010738849 -0.60053688 -0.30488127 0.7391907 0.0012190782
-0.05986499 0.033212129 0.011758758 -0.59700537 -0.36678684 0.71347886 0.0011967606
-0.022020089 0.033434864 0.011099217 0.25858963 0.68919861 0.67685795 0.0015476955
-0.020694708 0.034061912 0.0097374581 0.25545374 0.70325387 0.66345859 0.0016833717
0.026306935 0.033218578 0.0092745945 -0.24271642 0.73814404 0.62946981 0.0014617406
0.028737638 0.033615716 0.0097520603 -0.25271666 0.71487963 0.65198267 0.0015703796
0.031572528 0.034160674 0.010244398 -0.2605862 0.7024681 0.66229403 0.0028348709
0.034430008 0.034734059 0.010778296 -0.28155255 0.63655764 0.71799892 0.0018605096
0.037261672 0.035426546 0.011351956 -0.29057124 0.60923278 0.7378372 0.004477168
-0.064075969 0.037666518 0.0099917799 -0.64936757 -0.26260319 0.71369547 0.0027234606
-0.062170118 0.037276037 0.011422822 -0.56979102 -0.19578519 0.79812676 0.001885039
0.03499414 0.036377523 0.0093301181 -0.31652901 0.70470381 0.63498181 0.0019725109
0.037637539 0.036952637 0.010090409 -0.36170304 0.67833829 0.63955295 0.002619171
0.040306788 0.037710339 0.010736438 -0.34404299 0.60294002 0.7197901 0.0022324643
0.043103851 0.038296577 0.011534033 -0.30325735 0.56940275 0.76407814 0.0015364237
0.045105781 0.03888768 0.011879047 -0.29335168 0.57269377 0.76548451 0.0014911831
-0.066154428 0.041143496 0.0091373296 -0.67001241 -0.17711708 0.72091115 0.0024510585
-0.06456919 0.040483121 0.010291446 -0.60816008 -0.16513571 0.77644801 0.0021056253
-0.062648267 0.040369377 0.011644671 -0.55399013 -0.067719668 0.82976443 0.0028186631
-0.04225957 0.041805368 0.011834852 0.25331944 0.58413368 0.77111423 0.00013307335
-0.041088283 0.041180655 0.011916168 0.24442448 0.5769037 0.77938366 0.00028438566
0.040995713 0.039440077 0.009466622 -0.38322404 0.65779418 0.64841819 0.0019133056
0.043652087 0.04027161 0.01011836 -0.38114777 0.62633985 0.68001813 0.0020100439
0.046329796 0.040767059 0.010951795 -0.28167683 0.55042732 0.78593129 0.00088314264
0.049164321 0.041495599 0.011495191 -0.25200784 0.53578264 0.80587167 0.001553044
0.05119817 0.041775376 0.011898196 -0.17950441 0.4839572 0.85648328 0.0019596226
-0.066281907 0.043562774 0.0093957921 -0.62302774 -0.066739038 0.77934742 0.0035129639
-0.064575717 0.043460958 0.010540142 -0.53622866 -0.01297846 0.84397298 0.0017832416
-0.062400874 0.04375596 0.01169934 -0.4215565 0.075452261 0.90365762 0.0039844005
-0.046589419 0.044217762 0.011421785 0.21224675 0.56160492 0.79971951 0.00066655985
-0.043826174 0.04270421 0.011657023 0.24030641 0.57506579 0.78201807 0.00020373109
0.047005121 0.042713154 0.0096282875 -0.36386967 0.63942319 0.67730117 0.0023816857
0.049560808 0.043461207 0.010158705 -0.30077121 0.59037757 0.7489934 0.0022350876
0.052322023 0.043696009 0.010988352 -0.21829927 0.50886607 0.83270693 0.00097872922
0.055453751 0.044180911 0.011511018 -0.16760556 0.46171293 0.87105083 0.0021541086
0.058465388 0.04423454 0.01184184 -0.063568696 0.40841579 0.9105798 0.0026878924
0.060836446 0.044116955 0.011794799 -0.013273964 0.38145608 0.92429161 0.00082951447
-0.066467069 0.04611164 0.0093023106 -0.53910595 0.06556917 0.83968174 0.0049980422
-0.064536773 0.046484713 0.010301735 -0.39790443 0.18771017 0.89801836 0.0070946831
-0.061656896 0.046571773 0.011334168 -0.1993849 0.34645253 0.91663319 0.0042746845
-0.058646489 0.047017731 0.01162059 -0.037453458 0.45189044 0.89128685 0.0029106117
-0.055603161 0.047117267 0.01148689 0.068333335 0.52999479 0.84524328 0.0016255877
-0.052474432 0.046925839 0.011016253 0.18187499 0.59768146 0.78083187 0.00114579
-0.049538255 0.04594937 0.01094978 0.17790231 0.60117787 0.7790609 0.00080434303
0.052700747 0.045712054 0.009654941 -0.31953487 0.60669166 0.72788912 0.0024791413
0.055522863 0.046470046 0.010105154 -0.24816573 0.54225898 0.80272597 0.0038078933
0.058325045 0.046565536 0.01068712 -0.12046511 0.46110615 0.87912989 0.0023517665
0.061383989 0.046658736 0.01083059 -0.031086417 0.41596839 0.90884751 0.0014527737
0.063997313 0.047653213 0.010217524 -0.042952109 0.43384394 0.89996362 0.00078313309
-0.066193886 0.048418585 0.0091935433 -0.41595757 0.21925741 0.8825562 0.0065241619
-0.064401537 0.049330723 0.0095801931 -0.2811988 0.31404707 0.9068085 0.0057142214
-0.06147242 0.049396958 0.010146162 -0.12889726 0.470245 0.87307221 0.006735615
-0.058630094 0.049365055 0.010244031 0.059529439 0.57694608 0.81461 0.0011080439
-0.055713426 0.049019113 0.010117668 0.15607685 0.60641629 0.779679 0.002460436
-0.051791102 0.048573621 0.0093349004 0.18084782 0.61994267 0.76352155 0.00098425208
0.055718906 0.048040174 0.0090279933 -0.29607409 0.60649335 0.73790646 0.0025397784
0.058576725 0.04879332 0.0093800742 -0.19708166 0.5602091 0.80456489 0.0035154233
0.061338127 0.04914438 0.0096480036 -0.090427101 0.50182027 0.86023211 0.00258412
0.063673384 0.049475949 0.0095398827 -0.075912215 0.47363874 0.87744153 0.0015231995
-0.061645769 0.051062778 0.0091562252 -0.036971234 0.55374318 0.83186626 0.0036514499
-0.059365194 0.051146284 0.0090308776 0.078203395 0.65166205 0.75446719 0.0030542475
-0.019588273 0.0086350748 0.01208356 -0.16658343 -0.70929855 0.68494207 0.0010989191
-0.016123522 0.008253661 0.0124511 -0.13518487 -0.68481654 0.7160666 0.00089779904
-0.013160962 0.0081853559 0.012839316 -0.099589102 -0.66379178 0.74125731 0.0013285531
-0.010423576 0.0080633583 0.013015253 -0.068901487 -0.61500549 0.78550678 0.00089780847
-0.0072674151 0.0075845625 0.012835013 -0.032795615 -0.61607397 0.78700531 0.0017503006
-0.0044137514 0.0076884995 0.012997128 -0.024732692 -0.61117405 0.79110968 0.0017480104
-0.0014492482 0.0075164773 0.012894009 0.022327619 -0.5974806 0.8015725 0.0029472553
0.0017977278 0.008059144 0.013217248 0.030402711 -0.49080369 0.87073952 0.00022740297
0.0044543482 0.0082250657 0.013219373 0.026756408 -0.45346591 0.89087194 0.0012476062
0.0075128241 0.0083065201 0.013118496 0.04389647 -0.4289085 0.90228081 0.000702021
-0.027998278 0.011519453 0.012577725 -0.23636812 -0.68966824 0.68446177 0.0013368736
-0.025334029 0.010995897 0.012858661 -0.21306515 -0.66979116 0.71132481 0.0020802594
-0.022380002 0.010642209 0.01329058 -0.18038942 -0.64335734 0.74401003 0.0016882896
-0.019442644 0.010507475 0.013759969 -0.13869812 -0.60633886 0.78301728 0.00088085252
-0.016506281 0.010214607 0.014001325 -0.12284979 -0.59952706 0.79086995 0.0020635726
-0.013584974 0.010022749 0.014212071 -0.07566651 -0.55327386 0.82955569 0.0014573496
-0.010793814 0.010307085 0.014585179 -0.050988138 -0.51398081 0.85628504 0.0016111576
-0.0078928452 0.0097740386 0.01436366 -0.024360824 -0.56440991 0.82513517 0.00062106154
-0.0043029059 0.0097171636 0.01436386 0.002395598 -0.49415591 0.86936998 0.0016330366
-0.001528573 0.0098514855 0.014402439 0.017722106 -0.46262226 0.88637841 0.0021569233
0.001938046 0.010091488 0.014422304 0.054896846 -0.41969654 0.90600282 0.0013788469
0.0050914558 0.010667124 0.014541362 0.060289964 -0.42282709 0.90420264 0.0013763965
0.0072076917 0.010712962 0.014457411 0.051941101 -0.4007391 0.91471875 0.0011553434
0.010248823 0.01068716 0.014250253 0.056500848 -0.38309187 0.92198062 0.00083285721
0.012694928 0.010533502 0.013958473 0.065448143 -0.34833071 0.9350841 0.00021650623
0.015504327 0.010964198 0.013954396 0.061223067 -0.30197236 0.95134872 0.0010410582
-0.036448665 0.014633832 0.012437731 -0.32549927 -0.66324317 0.673913 0.0011206801
-0.034217034 0.014088157 0.012845841 -0.28746727 -0.6487965 0.70457476 0.0011342762
-0.031378601 0.013559068 0.013378212 -0.24769506 -0.6481427 0.72010988 0.0016522795
-0.028760441 0.013305482 0.013959018 -0.20722042 -0.60582918 0.76813459 0.0010019955
-0.025870927 0.012764325 0.014258964 -0.17001848 -0.62714714 0.7601186 0.0010905786
-0.022944303 0.012643989 0.014758789 -0.14371152 -0.60123515 0.78604269 0.0010592807
-0.020391816 0.012329292 0.014959736 -0.10969092 -0.49577007 0.86149865 0.0024854024
0.01080716 0.012503295 0.014975877 0.055725072 -0.26931837 0.96143764 0.002102874
0.014034927 0.01284454 0.014857052 0.063497193 -0.30500388 0.95023197 0.0014251126
0.016863002 0.012761851 0.014601771 0.061192263 -0.27697006 0.95892811 0.0012298817
0.020088088 0.013381582 0.014499022 0.059704982 -0.26617888 0.96207285 0.00044930892
0.023001414 0.014086677 0.014489759 0.048499089 -0.18219307 0.98206598 0.0010763962
-0.042255964 0.017723469 0.012422194 -0.37633756 -0.6530903 0.65714777 0.0011533056
-0.040062897 0.017007533 0.01292476 -0.35361418 -0.63006246 0.69135976 0.0015355181
-0.03749596 0.016386207 0.013562704 -0.29347417 -0.59611946 0.74733824 0.00087069708
-0.034760319 0.015978443 0.014300301 -0.25124207 -0.57328385 0.7798866 0.0014561325
-0.032010164 0.015492235 0.014800564 -0.21642075 -0.60049361 0.76978534 0.0010529297
0.022298181 0.015277616 0.014928708 0.030720709 -0.16302982 0.98614275 0.0014896452
0.025178619 0.015915444 0.014850006 0.048667949 -0.16841571 0.98451394 0.00075826276
0.028687472 0.016881337 0.014785478 0.066410542 -0.18278371 0.98090768 0.0002076754
0.031402577 0.017138083 0.014593889 0.059653003 -0.1510932 0.98671794 0.00079565513
0.033092085 0.01787206 0.014673017 0.053230215 -0.15277623 0.98682624 0.00063364336
-0.045868244 0.02033155 0.012635843 -0.42988113 -0.59916764 0.67542613 0.0013408544
-0.043397039 0.019580839 0.013384175 -0.38641527 -0.58248621 0.71511757 0.0018947565
-0.040909521 0.019106966 0.01425581 -0.34344333 -0.54215366 0.76688731 0.0017089698
-0.038610537 0.01828289 0.014653347 -0.31663367 -0.58646297 0.74552292 0.00077024708
0.031911593 0.018629348 0.014975576 0.059649412 -0.15109091 0.98671854 0.00079968659
0.034850985 0.018860294 0.014735007 0.045647036 -0.14694069 0.98809147 0.00062176195
0.037471972 0.020232124 0.014840156 0.040058535 -0.11465564 0.99259734 0.00060111668
-0.051328391 0.023768751 0.01202176 -0.48196265 -0.5822143 0.65478116 0.0011902231
-0.049212798 0.02303664 0.012810681 -0.43777514 -0.56189197 0.70187634 0.0019593362
-0.046662923 0.02239209 0.013785539 -0.40472728 -0.5185107 0.75322139 0.0014643638
-0.044148892 0.021660525 0.014583963 -0.33372661 -0.47993308 0.81135118 0.0018875303
-0.0044394322 0.023541553 0.014829356 0.083360359 0.45833397 0.88486212 0.0038095922
-0.0014882651 0.023396047 0.014618963 0.077259429 0.43253684 0.89829993 0.0021847533
0.0015031551 0.023101106 0.014534912 0.049454913 0.43996432 0.89665246 0.0019848926
0.0044330237 0.022922119 0.014502414 0.023386607 0.44047245 0.89746147 0.001982396
0.0075154318 0.022778876 0.014527917 -0.0023588543 0.43518603 0.90033752 0.0017867297
0.010589807 0.022925954 0.014509588 -0.028183149 0.41870162 0.90768647 0.002227148
0.013687512 0.023064235 0.014574322 -0.0510935 0.39468467 0.917395 0.002299574
0.016523879 0.023316914 0.014654572 -0.068157762 0.34922901 0.93455529 0.0032844783
0.019212617 0.023410216 0.014832433 -0.078574099 0.30446225 0.94927806 0.0030724416
0.022027954 0.023760658 0.014934224 -0.073205598 0.24360427 0.96710795 0.0027330064
0.040103413 0.021880057 0.01494598 0.047986411 -0.094045542 0.99441081 0.00037685953
0.042021066 0.023136318 0.014977545 0.049489982 -0.074785665 0.99597079 0.00027189095
-0.054216839 0.026774377 0.012302689 -0.51134557 -0.51311874 0.68937278 0.0011812062
-0.052240033 0.025759047 0.012916389 -0.47698468 -0.51332128 0.71343321 0.0013557855
-0.049698681 0.025265597 0.014078947 -0.41202682 -0.45737177 0.78806412 0.0014393093
-0.047571201 0.024481267 0.014718685 -0.35700962 -0.41599065 0.83635867 0.0029479582
-0.013077835 0.026225265 0.014599264 0.16690983 0.52476299 0.83472437 0.0027924892
-0.010134604 0.025775 0.014329892 0.15747933 0.50926095 0.84608126 0.0010741454
-0.0073212674 0.025554514 0.014007355 0.13410546 0.55958533 0.81785083 0.0020865679
-0.0043487279 0.02561643 0.013553792 0.10652626 0.56458646 0.81847072 0.0031448295
-0.0014067877 0.025524743 0.013295875 0.072643951 0.56334668 0.82302088 0.0029671656
0.0015337426 0.02557618 0.013037442 0.052285537 0.57744622 0.81475282 0.0014727995
0.0044663865 0.025386734 0.01304765 0.024194207 0.57213145 0.81980503 0.0016906118
0.007549651 0.025537943 0.012926687 -0.0083299028 0.56851053 0.8226338 0.0019449074
0.010555437 0.025412511 0.013120302 -0.045512632 0.55620545 0.82979763 0.0019614543
0.013468332 0.025587596 0.013201679 -0.072854735 0.54287261 0.836649 0.0020355512
0.016478501 0.025568638 0.013513414 -0.094655491 0.46736833 0.87898082 0.001305579
0.019476021 0.025541466 0.013906677 -0.10991941 0.43863413 0.89191806 0.0017419263
0.022544568 0.025638673 0.014263601 -0.09377604 0.39926705 0.91202629 0.0031987473
0.025424743 0.025827423 0.014530409 -0.1147055 0.37273368 0.92082143 0.0022929367
0.028256303 0.026061609 0.01475615 -0.10522441 0.31010485 0.94486129 0.0032671492
0.031057689 0.02656127 0.014866566 -0.077811159 0.22483401 0.97128522 0.0029185968
0.044245191 0.024347445 0.014934796 0.050393764 -0.058540922 0.99701226 0.0004633053
0.046050109 0.026177825 0.014996469 0.049617015 -0.039451439 0.99798888 0.00045294964
-0.057015929 0.029693732 0.012122463 -0.55802965 -0.44356534 0.70132214 0.0016600812
-0.055179436 0.028730402 0.012861281 -0.50927293 -0.43109593 0.74484718 0.0018897684
-0.052687131 0.028348127 0.014166467 -0.43815249 -0.37285155 0.8179267 0.001552205
-0.050659258 0.027446739 0.014802396 -0.43039346 -0.40797371 0.80518252 0.00070286932
-0.022121863 0.029481268 0.014625217 0.20754136 0.5015617 0.83985859 0.0017574446
-0.01922089 0.02878104 0.014323258 0.21287087 0.53785253 0.81572092 0.00094753632
-0.016430933 0.028403295 0.013877401 0.17974401 0.53766161 0.82377917 0.00078928214
-0.013782328 0.028487841 0.013166079 0.18567774 0.59977889 0.77832448 0.0015306731
-0.010598981 0.027964309 0.012856147 0.16406767 0.5953033 0.78657216 0.00094244571
-0.0075240452 0.027548019 0.012587131 0.13796911 0.65060747 0.74677598 0.0014206314
-0.0051522828 0.027542038 0.012224194 0.098140284 0.67768347 0.7287755 0.0016394107
-0.0024436547 0.027211292 0.012098499 0.079288468 0.61903143 0.78135347 0.0015887662
0.014275678 0.027235232 0.012136781 -0.086013325 0.65412956 0.75147605 0.00148443
0.016669475 0.027420692 0.012326121 -0.12045317 0.62667871 0.76991224 0.0020258278
0.019767439 0.027831309 0.012555227 -0.14167686 0.59074259 0.79432416 0.0021427134
0.022599416 0.028168099 0.012858773 -0.1524355 0.55576497 0.81724459 0.0024566292
0.025493313 0.028557872 0.01316188 -0.15396224 0.51664382 0.84224391 0.0022635085
0.028619984 0.028541513 0.013744512 -0.14937085 0.42913142 0.8908056 0.0016430994
0.03159507 0.028574774 0.014199102 -0.11718883 0.37150806 0.92100412 0.0030102639
0.034473337 0.028493673 0.014584238 -0.098927818 0.31180543 0.94498181 0.0038626869
0.037393063 0.029099192 0.014724627 -0.11988755 0.26687762 0.95624435 0.0024247856
0.040391184 0.029337155 0.014934096 -0.086763717 0.18962578 0.97801536 0.0028472834
0.04202082 0.029997949 0.014910267 -0.042864215 0.12584773 0.99112308 0.0015277314
0.04858806 0.028160576 0.014874108 0.042413492 0.025514266 0.99877435 0.00065450993
-0.057779923 0.031760879 0.012622795 -0.53568906 -0.3442376 0.77106267 0.002631105
-0.055510122 0.031457145 0.013893521 -0.45448002 -0.27534926 0.84713084 0.0014755143
-0.053473298 0.03082509 0.014771783 -0.39502469 -0.23628525 0.88776392 0.0029547894
-0.030678414 0.032641668 0.014910839 0.23853374 0.52463657 0.81722581 0.00078868668
-0.028339121 0.03198415 0.014672007 0.22995968 0.51952577 0.82292861 0.0013579382
-0.025437538 0.031612821 0.014034571 0.25748554 0.57609367 0.77576882 0.0017502659
-0.022424832 0.031535078 0.013127482 0.25958273 0.6279698 0.7336694 0.0026080816
-0.020085651 0.030655421 0.013142619 0.21221024 0.62025023 0.75515324 0.0017901934
-0.017564371 0.030632176 0.012388407 0.22292241 0.63237995 0.74189037 0.0011249154
0.025603283 0.030147193 0.012102842 -0.18226722 0.6313507 0.75377387 0.0016204463
0.028551588 0.030587777 0.012479672 -0.18242137 0.58809865 0.78794825 0.0024762282
0.031534061 0.031127857 0.012826708 -0.18307841 0.534365 0.82518864 0.0033720315
0.034536224 0.03155876 0.013227378 -0.18199323 0.48510689 0.8553068 0.003242607
0.037413169 0.031583667 0.013819247 -0.15966983 0.37181112 0.91447359 0.0023614399
0.040419396 0.031608529 0.014313628 -0.11618592 0.32730114 0.93774986 0.0037957672
0.043552548 0.031549975 0.014681949 -0.058368251 0.21005167 0.97594649 0.0012359332
0.046285074 0.032062612 0.014787002 -0.04903999 0.1431302 0.98848814 0.0043294248
0.048356604 0.031664155 0.014896247 -0.00021439721 0.11267263 0.99363214 0.0019539965
