# .PCD v0.7 - Point Cloud Data file format
VERSION 0.7
FIELDS x y z normal_x normal_y normal_z curvature
SIZE 4 4 4 4 4 4 4
TYPE F F F F F F F
COUNT 1 1 1 1 1 1 1
WIDTH 574
HEIGHT 1
VIEWPOINT 0 0 0 1 0 0 0
POINTS 574
DATA ascii
0.0085278573 0.033044357 0.0013225987 -0.050224859 0.98451835 0.16793142 0.0016754502
0.010353274 0.033121418 0.0016464513 -0.096531361 0.97255379 0.21170932 0.00042866744
0.012915567 0.03333373 0.0022078685 -0.13521248 0.93580115 0.32556686 0.0021381152
0.07036671 0.03446627 0.0015657812 0.91569036 -0.36919194 0.15877201 0.0040902593
-0.024276799 0.038987104 0.0006240959 0.40475309 0.91038871 0.085833177 0.0022708571
-0.02256576 0.038245138 0.0015711916 0.35909337 0.92874199 0.09214244 0.0021748859
-0.019551259 0.037142389 0.0014928759 0.3261154 0.93981212 0.10198936 0.0023623575
-0.016863979 0.036265772 0.0015019467 0.27777374 0.95825094 0.067800388 0.0032753195
0.071467653 0.037581705 0.0015460131 0.9571383 -0.25992623 0.12776816 0.0043555582
-0.030610291 0.041715946 0.0018238255 0.45678261 0.88600963 0.079601847 0.002147042
-0.028514234 0.040763523 0.0015144834 0.41652587 0.90592611 0.076184154 0.0022288188
-0.025684068 0.039506972 0.0015401822 0.37575719 0.92309469 0.081870161 0.0023649212
0.071898386 0.039896559 0.0023014222 0.96984398 -0.20983207 0.1239885 0.0045242398
0.072208606 0.040824998 0.0012416303 0.98237133 -0.16876465 0.080405287 0.0040533841
-0.036405504 0.044684649 0.0016549727 0.49105597 0.86681187 0.086610056 0.002263315
-0.034518234 0.043701712 0.001592367 0.46139672 0.88304126 0.085739367 0.0023036709
-0.03207342 0.042472299 0.001438465 0.42548737 0.90110284 0.083511755 0.0023350425
0.072536677 0.043641254 0.0016202682 0.99001271 -0.076689065 0.1182946 0.0039320802
-0.042165972 0.04770584 0.0027356185 0.4881956 0.8563484 0.1683225 0.0054293745
-0.040482648 0.046942305 0.0014690666 0.48572919 0.86847782 0.099062577 0.0023043046
-0.037909832 0.045509595 0.001494889 0.46023133 0.88321018 0.090149462 0.0024079925
0.072727226 0.04655752 0.0015349432 0.99144894 -0.036104601 0.12540127 0.0052812663
-0.046363462 0.050224435 0.0016818158 0.49196988 0.86165464 0.12456698 0.0029860588
-0.043674201 0.048741676 0.0014360745 0.48111811 0.87345695 0.074822396 0.0040795668
0.072783552 0.049474698 0.0015839355 0.9899174 -0.018593101 0.14042045 0.0063420427
-0.052304715 0.053482063 0.0014628062 0.45246071 0.8792302 0.14910904 0.0044611162
-0.049479559 0.051957093 0.0016285564 0.44759312 0.88480622 0.12953153 0.0033803438
-0.047900274 0.051218875 0.00056608499 0.42851737 0.90118742 0.065069214 0.0087793125
0.072867386 0.052377544 0.0014252111 0.9860912 -0.014361444 0.16558357 0.008534696
-0.060551226 0.056810062 0.0017872102 0.50394338 0.85227102 0.14026806 0.010245983
-0.058528129 0.055983022 0.0014994399 0.38039246 0.91507727 0.13392256 0.0089714006
-0.055475701 0.054848108 0.0016118778 0.32583946 0.93307614 0.15230787 0.0046573426
-0.053878319 0.054339971 0.00082747504 0.346921 0.93439466 0.080947533 0.011797602
0.072940156 0.055485692 0.0014825055 0.97779405 -0.021222418 0.20849065 0.012767143
-0.06429293 0.059205614 0.001664542 0.51338106 0.83480555 0.19884573 0.0089366762
-0.062062368 0.057842042 0.0014093436 0.47426695 0.8653971 0.16173677 0.012602065
0.073072538 0.058592223 0.0015619493 0.96052819 -0.04683518 0.27421182 0.022184303
-0.067073248 0.060608614 0.0017551288 0.41494703 0.86637539 0.2778717 0.017373664
-0.065673932 0.060262665 0.00094592338 0.42045516 0.88833517 0.18460269 0.030030284
0.07334993 0.061493691 0.0014764762 0.94321883 -0.081622027 0.32198754 0.02913757
0.073722109 0.064403363 0.0016434685 0.91547734 -0.15010141 0.37332392 0.039561089
0.074316829 0.067269742 0.0017220587 0.88557321 -0.26169941 0.38376224 0.02620212
0.075136699 0.068424292 0.00061536895 0.9256137 -0.29175404 0.24107847 0.050004922
0.074680187 0.06984853 0.0025177845 0.81865704 -0.19721882 0.53935635 0.034500174
0.075627394 0.070686489 0.0013218843 0.93499213 -0.29341888 0.19923607 0.03720605
0.076580696 0.073593512 0.0015732612 0.96039176 0.12674265 0.24816114 0.077945396
0.068317138 0.077325217 0.00041838645 0.31714618 0.93947875 0.12960677 0.0211403
0.0704327 0.076686405 0.0015401487 0.31769806 0.93931216 0.12946253 0.021040142
0.073508307 0.075741477 0.0014603153 0.41519302 0.90394223 0.10248493 0.014311069
0.07556957 0.075106755 0.0013628409 0.58411223 0.79426897 0.16718169 0.044118725
0.015271326 0.0022744606 0.0054332754 0.13609532 -0.81655294 0.56099844 0.00017762149
0.022365261 0.0028775486 0.0039539682 0.18433735 -0.82901245 0.52797538 0.0013969279
0.01970686 0.0031094137 0.0058227731 0.15978241 -0.82863057 0.53650814 0.00088004535
0.023438349 0.0034538629 0.0050306371 0.1817722 -0.83535033 0.51879537 0.0015144984
0.025868809 0.0037229061 0.0040938058 0.22633281 -0.87261045 0.43281001 0.0036603925
0.028873174 0.004867401 0.0050607407 0.24718301 -0.88236266 0.40042043 0.0028971904
0.031371258 0.0054646893 0.0045791822 0.29580656 -0.89304668 0.33906665 0.0028172976
0.033089947 0.0056202044 0.003292202 0.33119118 -0.92207366 0.20023115 0.0083541293
0.032253552 0.0060511422 0.0054269917 0.28874543 -0.87257469 0.3940044 0.0042546657
0.034657363 0.0067202067 0.0049747014 0.32928616 -0.88313872 0.33412057 0.0029160911
0.037488822 0.0076429727 0.0044838544 0.34144273 -0.88467038 0.31745109 0.0024708696
0.040064402 0.0086165164 0.0041736662 0.3812874 -0.87806207 0.28918338 0.0020978451
0.041223437 0.0094041927 0.0049152314 0.39952186 -0.86205775 0.311831 0.0020505502
0.043523669 0.010410996 0.0046832077 0.40743604 -0.85453826 0.32211834 0.001523894
0.04585351 0.011322458 0.0038872315 0.44897634 -0.84537745 0.28940868 0.0022438467
0.047143824 0.012357913 0.0048328056 0.45915338 -0.82707065 0.32424104 0.0029394832
0.049588032 0.013677874 0.0045356443 0.49298507 -0.80879408 0.32065204 0.0023415626
0.051501013 0.014519764 0.003617784 0.5025562 -0.80668879 0.31095099 0.0023308659
0.052687488 0.015686924 0.0046737739 0.51031119 -0.79828542 0.31987941 0.0021982938
0.055126615 0.017258415 0.004328893 0.54121095 -0.77194619 0.33345142 0.0029486071
0.056440644 0.018548213 0.0051078959 0.56516272 -0.7580263 0.32555676 0.0029987961
0.058423456 0.019857589 0.004391856 0.6200403 -0.71603853 0.32068494 0.0024432598
0.060135096 0.020838236 0.0032288483 0.65509576 -0.6986748 0.28758126 0.0022183002
0.059685569 0.021438252 0.0054497365 0.63496351 -0.67079854 0.38321102 0.0039647911
0.061398417 0.022585196 0.0044202316 0.68164879 -0.67583096 0.28036997 0.0010271269
0.062639952 0.024279108 0.005200644 0.7049222 -0.63100445 0.32391053 0.002298014
0.064200953 0.025639141 0.0043882844 0.72128385 -0.59620667 0.35254386 0.0026074478
0.065457776 0.027680501 0.005045821 0.7626394 -0.55492502 0.33232409 0.0019947612
0.066676788 0.028910466 0.0042711501 0.78958756 -0.50264877 0.35198832 0.002324766
-0.006344079 0.032811284 0.0056598391 0.15903664 0.93522304 0.31633094 0.0026372212
-0.0043707811 0.032682911 0.0052571287 0.14212126 0.93523735 0.32424188 0.0022537871
-0.0015116192 0.032583341 0.0045650806 0.092165262 0.94021857 0.32786366 0.001944411
0.001603501 0.032335036 0.0045682434 0.049600895 0.94753748 0.31577295 0.0023902555
0.0047245435 0.032272391 0.0045253555 0.0064488482 0.95062786 0.31026608 0.003273488
0.0076508466 0.032264665 0.004664829 -0.030287407 0.94683671 0.32028577 0.0025394605
0.0104691 0.032438379 0.0047072889 -0.10392718 0.94604808 0.30690736 0.0028547756
0.013127974 0.032702912 0.0047503863 -0.14666204 0.92656606 0.34636042 0.0018632995
0.067984909 0.031369023 0.0046032448 0.8247295 -0.46521017 0.32155988 0.0019409624
0.069141001 0.032596085 0.0033963546 0.84374541 -0.42064932 0.33338848 0.0022988864
-0.018625284 0.035932209 0.0054438622 0.32589582 0.90361738 0.27797034 0.0022573266
-0.016293066 0.035404757 0.0047599641 0.28348863 0.91333771 0.29231581 0.0020755813
-0.013421611 0.03468129 0.004551182 0.23817284 0.92281967 0.30278289 0.0022450744
-0.010484204 0.033977259 0.0045655644 0.20340553 0.92988992 0.30648139 0.0022092387
-0.007697538 0.033462133 0.0044513945 0.15795211 0.94691449 0.28000706 0.0019248071
-0.0045680976 0.033213187 0.0037361863 0.11972852 0.94557005 0.30259269 0.0024405585
0.01369623 0.03307455 0.0039387485 -0.14664307 0.92657471 0.34634542 0.0018416885
0.016392542 0.033393264 0.0044543515 -0.21860547 0.87371635 0.43454731 0.0025214786
0.019693114 0.033702407 0.005812387 -0.24655791 0.83585352 0.49046722 0.00076021597
0.068731897 0.033720016 0.0054642116 0.84345686 -0.34716666 0.40994605 0.0026183624
0.069679447 0.03462306 0.0042378488 0.86057913 -0.3493576 0.37061146 0.0035782342
-0.025157116 0.038589012 0.0047646975 0.37800956 0.88714099 0.26474449 0.0024661303
-0.022422075 0.037592195 0.0044971369 0.34428924 0.89911574 0.27028838 0.0016056573
-0.019658132 0.036643472 0.0043043983 0.30942285 0.91136211 0.27143419 0.002088235
-0.017573159 0.036112674 0.0037571874 0.3039937 0.91098064 0.2787509 0.0020668786
0.070574932 0.037573762 0.0045500388 0.88124633 -0.25721288 0.39654323 0.0032339634
-0.031205487 0.041344125 0.0047408901 0.42987567 0.8650583 0.25861397 0.0013288445
-0.028501265 0.04016044 0.0044687996 0.39180851 0.87772501 0.27583498 0.0017736247
-0.026447644 0.039441548 0.003820464 0.37343544 0.89009005 0.26131532 0.0025519375
0.071278863 0.040629078 0.0044518081 0.90200931 -0.16354971 0.39953819 0.0030114495
-0.036996599 0.044303603 0.0046685808 0.44554803 0.84913582 0.28364652 0.002181767
-0.034507584 0.043043155 0.0045570522 0.42504463 0.86143583 0.27796653 0.0019814698
-0.032547437 0.042230848 0.0040170667 0.40874931 0.86975688 0.27649042 0.0019077345
0.071448766 0.043559242 0.0049034241 0.8908487 -0.089265153 0.44544396 0.0028646355
0.072123013 0.043815713 0.0034360175 0.92204988 -0.098149002 0.37442049 0.00322928
-0.042862464 0.047395471 0.0049085431 0.47411585 0.82956749 0.29501179 0.0019748411
-0.040476367 0.04622604 0.004530441 0.47131783 0.83173293 0.29339358 0.0020473895
-0.03838243 0.045193098 0.0042106933 0.43636572 0.85239726 0.28810391 0.0019275784
0.07147681 0.046472259 0.005089358 0.87906379 -0.009963695 0.47659993 0.0034240854
0.072188355 0.046723194 0.0036365893 0.91493642 -0.026170768 0.40274864 0.0038359386
-0.048776947 0.050604388 0.0048746816 0.46330106 0.8303411 0.30965424 0.0027466388
-0.046564665 0.049550634 0.0045648771 0.43215933 0.82345897 0.36763251 0.0021097041
-0.044136818 0.048364934 0.004189082 0.44243255 0.84138215 0.31037015 0.001713163
0.071456894 0.049469087 0.0050483956 0.86239487 0.038075272 0.50480217 0.0039304215
0.072211221 0.049400646 0.0035961494 0.90471077 0.0086943088 0.42593753 0.0039976332
-0.054976083 0.053528722 0.0049846852 0.31915882 0.85851443 0.40136078 0.0045506558
-0.052422922 0.052628886 0.0044938307 0.40940979 0.8340435 0.36980411 0.0029117046
-0.049948357 0.051489275 0.0042228517 0.43700281 0.84196126 0.31643286 0.0031461744
0.071303219 0.052491117 0.0050133928 0.83482087 0.070985042 0.54592603 0.0055887471
0.07225994 0.052378349 0.0033785421 0.87919813 0.026218999 0.4757345 0.0047759707
-0.063999072 0.056503307 0.0054884627 0.2657319 0.69139481 0.6718331 0.0080476291
-0.061522562 0.056039125 0.0045960257 0.31790921 0.805632 0.49989071 0.0087870825
-0.058537766 0.054935098 0.0045826882 0.29094124 0.85711271 0.42510125 0.0040421369
-0.056005441 0.054422688 0.0039377376 0.34087521 0.87125844 0.35314694 0.0029193719
0.071059488 0.055637971 0.0048469291 0.73350704 0.09732043 0.67267829 0.014089867
0.072263204 0.05530823 0.003290992 0.83058941 0.028599748 0.55615038 0.0069045592
-0.069976367 0.058654927 0.0052604238 0.27508473 0.66862363 0.69084787 0.014884216
-0.067139007 0.058589209 0.0046872408 0.2004315 0.64884531 0.73404831 0.0078939237
-0.064548112 0.05796231 0.0041625318 0.40248522 0.74706066 0.5290615 0.0056373267
-0.062578551 0.057345543 0.0034904943 0.42568716 0.74399781 0.51503175 0.0059587439
0.067947984 0.058782846 0.0055820909 0.37140921 0.2269149 0.90031374 0.0097447913
0.070646487 0.058400892 0.0046827472 0.48325881 0.17157771 0.85849983 0.012693055
0.072244048 0.058552768 0.0032096452 0.89747387 0.023975581 0.44041541 0.025677061
-0.069142796 0.060034808 0.0040019909 0.31018513 0.66238827 0.68192893 0.016335556
-0.067845508 0.060137954 0.0034890813 0.28196046 0.80320805 0.52474296 0.027098222
0.068076409 0.06136167 0.0047537265 0.38077608 0.13420263 0.91487664 0.0070415256
0.070667893 0.061476424 0.0040836236 0.45673695 0.1128954 0.88240927 0.017829178
0.072261713 0.061180402 0.0031526336 0.56863469 0.01795835 0.82239413 0.020540243
0.068444259 0.064306699 0.0040242877 0.17215972 0.10714705 0.9792245 0.0071211825
0.070637554 0.064333938 0.0036738568 0.31203884 0.065968178 0.94777632 0.018389262
0.072396114 0.064758472 0.0031900897 0.44391596 -0.028840622 0.89560425 0.021691993
0.068589382 0.066981599 0.0034754621 0.071472563 0.089564361 0.99341327 0.011558402
0.070294611 0.067390837 0.0034986665 0.16441023 -0.038209621 0.98565167 0.030165238
0.07285893 0.067733936 0.0033450613 0.54878706 -0.18347633 0.81557906 0.023117289
0.068684362 0.069650032 0.0030964219 0.13988242 -0.11355905 0.98363471 0.022245526
0.071820498 0.070188686 0.0040206136 0.18328735 -0.30417508 0.93481719 0.019134112
0.073562339 0.070684254 0.0036488711 0.57190245 -0.27476746 0.77293622 0.016406368
0.071952462 0.074083678 0.0049612522 -0.018737454 0.25779292 0.9660185 0.11423409
0.073790394 0.073411502 0.0044657043 0.59937024 0.0058767851 0.80045038 0.094008878
0.075492583 0.073819935 0.0035640516 0.7087158 0.055302896 0.70332313 0.090427347
0.070985444 0.076356977 0.0039847796 0.29313734 0.91457403 0.27861232 0.038293589
0.073398024 0.075584464 0.0042101867 0.39828885 0.81248635 0.42571339 0.046827246
0.075263619 0.075135008 0.0033901576 0.54257512 0.30533272 0.7825498 0.087666318
0.014400362 0.0028935203 0.0066580321 0.1268034 -0.80612695 0.57799685 0.00060891436
0.011836552 0.0039272797 0.0088682147 0.11597708 -0.80628508 0.58004624 0.00063616928
0.012809053 0.0033298964 0.0076667042 0.11597665 -0.8062855 0.58004582 0.00063653523
0.016812433 0.0041669104 0.0080149993 0.13110349 -0.80695719 0.57587492 0.00041376165
0.019575629 0.0044776062 0.0077510877 0.17298421 -0.80695701 0.56470966 0.0015072715
0.022236496 0.0047085923 0.0074290298 0.16798164 -0.80749643 0.56544834 0.002192389
0.025214562 0.0051292991 0.0071958974 0.18786967 -0.80440086 0.56359929 0.0028877233
0.028232493 0.0054193297 0.0065520704 0.21907848 -0.81819361 0.53156739 0.0026090771
0.023032175 0.0060351654 0.0088138236 0.17358896 -0.77191776 0.6115635 0.00098411064
0.025806392 0.0065131616 0.0086986739 0.17804295 -0.73203772 0.65758759 0.00045699984
0.028480364 0.0067924499 0.0083222231 0.19867189 -0.75149983 0.62910849 0.0025597776
0.031546179 0.0071630627 0.0076913764 0.24463122 -0.80141693 0.54578972 0.0024347112
0.034523092 0.0079412023 0.0073965336 0.25590411 -0.78467709 0.56461936 0.0024047019
0.037244916 0.0085393256 0.0067582773 0.33961478 -0.80917543 0.47947565 0.0020444226
0.035629384 0.0094347028 0.0089002512 0.26078144 -0.68721938 0.67802835 0.0023064916
0.037808076 0.0096211741 0.0080689453 0.2899175 -0.78501755 0.54744434 0.0034599823
0.040572315 0.010391749 0.0074563683 0.34977308 -0.80424935 0.48045996 0.002083187
0.043142114 0.011465959 0.0072694509 0.38896096 -0.78957248 0.47464156 0.002566949
0.045343924 0.011939555 0.0061723115 0.44722086 -0.80829889 0.38294452 0.0046918448
0.044035725 0.012589698 0.0083106998 0.35622084 -0.75886679 0.54518622 0.0030265825
0.04665225 0.013546337 0.0076313382 0.4244788 -0.76006448 0.49205664 0.0020235099
0.049076218 0.014421811 0.0068180063 0.46540371 -0.75657445 0.45934141 0.0019718669
0.049821783 0.015704848 0.0080649881 0.44746041 -0.73213464 0.51357377 0.0030880792
0.052318536 0.016895115 0.0073923687 0.48068973 -0.70543909 0.52085805 0.001804972
0.054225851 0.017558187 0.0063999807 0.51441526 -0.71521127 0.47312769 0.0014740182
0.053451777 0.018412 0.0083807977 0.51786458 -0.6907056 0.50471979 0.0022110953
0.055551972 0.019420901 0.0076087001 0.51636386 -0.69235826 0.5039925 0.0023372944
0.057542205 0.020474672 0.006857249 0.5621087 -0.66160846 0.49629435 0.0013471101
0.056663636 0.021346074 0.0088272253 0.50827795 -0.58261234 0.63420528 0.0015400698
0.058733955 0.022239706 0.0077356431 0.59288996 -0.64404726 0.4834094 0.0015357909
0.060680725 0.023312241 0.0067846635 0.61553735 -0.59701151 0.51448143 0.0014573052
0.059750106 0.024179164 0.008749472 0.58615685 -0.57125962 0.5745281 0.0014611578
0.061796427 0.025368214 0.0076940116 0.65274483 -0.52564812 0.54554397 0.0027949968
0.063436978 0.026371185 0.0067541054 0.66974682 -0.53002137 0.52011204 0.0015506808
0.06271477 0.027487684 0.0086516384 0.65363723 -0.48715502 0.57917041 0.0015553263
0.064435109 0.028538458 0.0074865171 0.70638919 -0.44947147 0.5467996 0.0023389244
0.066124827 0.029630568 0.0062859165 0.72633106 -0.44490018 0.52393419 0.0016152844
-0.012926238 0.032801505 0.0084390789 0.22514862 0.84621733 0.48293298 0.0020867321
-0.010403391 0.032432482 0.0080184359 0.19625039 0.83609861 0.51227415 0.0030981346
-0.0075931493 0.032122269 0.0075184535 0.16246065 0.86415261 0.47628441 0.0013528834
-0.0044606561 0.031534355 0.0076634777 0.12330315 0.86549401 0.48550642 0.0031840513
-0.001543883 0.031270973 0.007490451 0.10958347 0.85854888 0.50088435 0.001828625
0.001389556 0.030981326 0.0075910715 0.056712776 0.86082721 0.50572735 0.0019505532
0.0044757184 0.030830342 0.0076781334 0.015752867 0.84055609 0.54149544 0.0034652753
0.0073930854 0.030906511 0.0075486694 -0.041929662 0.85646158 0.51450509 0.0020996311
0.010412144 0.031122759 0.0074855252 -0.085199229 0.87857795 0.46993816 0.0040082834
0.013418343 0.031509425 0.0074185971 -0.12152502 0.86371118 0.48911628 0.0030691435
0.016575968 0.032002423 0.007535113 -0.18998207 0.85159272 0.48856589 0.0014559273
0.019796649 0.032212712 0.0085202735 -0.20665464 0.79712546 0.5673489 0.001891199
0.02209319 0.032840483 0.0084981164 -0.23143744 0.8013196 0.55165529 0.00080433831
0.065409958 0.031075791 0.0082604457 0.67550743 -0.35828975 0.64445186 0.001348906
0.066805914 0.031776484 0.0069800406 0.73485821 -0.40899006 0.54102725 0.0022212514
-0.021982646 0.035658542 0.0085161291 0.31025743 0.83156466 0.46069565 0.001829173
-0.019300237 0.035170253 0.0076369555 0.30812472 0.85252875 0.4222011 0.0013233247
-0.016540153 0.034316178 0.0075348504 0.24581984 0.86404711 0.43931204 0.0023720337
-0.013743836 0.033690829 0.0072119888 0.22614832 0.86620653 0.4455817 0.001968449
-0.011038828 0.033282142 0.0066880174 0.19211955 0.87346494 0.44738021 0.0018752158
0.018853361 0.033125956 0.0065260106 -0.21075782 0.84455067 0.49225536 0.0019315297
0.021715198 0.033422023 0.0074140374 -0.23045459 0.80820662 0.54193425 0.00081227266
0.024484701 0.034133211 0.0075497217 -0.25013915 0.78585172 0.56556827 0.00076448766
0.027117379 0.034609169 0.0081319641 -0.25680342 0.72118354 0.6433866 0.0010634735
0.065908767 0.033157844 0.0088840853 0.67400014 -0.32988602 0.66098338 0.0043361345
0.06761498 0.034536928 0.0076013585 0.76152945 -0.29040676 0.57942802 0.0021163041
0.069125548 0.035500631 0.0060562231 0.79263318 -0.32482213 0.5159682 0.002274652
-0.030503454 0.03899464 0.0089673307 0.36188686 0.75708401 0.54393166 0.0011638319
-0.027986407 0.038430884 0.0079857232 0.36987495 0.81830913 0.43995747 0.0018340334
-0.025531188 0.037595157 0.0075320019 0.34104267 0.83414084 0.43347323 0.0025489642
-0.022659171 0.036616638 0.0071982187 0.32079792 0.84702343 0.42383975 0.0017502654
-0.020582831 0.036197167 0.0064567793 0.310642 0.86174846 0.4011125 0.0017890019
0.068244338 0.037254829 0.0080291582 0.76039141 -0.20035964 0.617787 0.0021476171
0.069454104 0.037747864 0.0066645057 0.80265772 -0.22283812 0.55324835 0.0026085414
-0.036389422 0.041838177 0.0089582345 0.37532157 0.74349838 0.55348343 0.0014418229
-0.034321699 0.041420821 0.0079783807 0.38695022 0.79952025 0.45938748 0.0017624507
-0.031550601 0.040343858 0.0074779266 0.38808605 0.81650835 0.42743793 0.0022123749
-0.029014474 0.039458271 0.0068911128 0.3827624 0.8303656 0.40495163 0.0015630249
0.068523474 0.04025219 0.0084849698 0.6844641 -0.11020225 0.72066939 0.0021211682
0.06981197 0.040573988 0.0070007094 0.80025351 -0.12985389 0.58543336 0.0022130017
-0.042219047 0.044767138 0.008996997 0.35410398 0.72981501 0.58479083 0.0015343924
-0.040148489 0.044455618 0.0078328969 0.40558207 0.78846294 0.46241689 0.002698381
-0.037476853 0.043291382 0.0074703475 0.38467512 0.80544484 0.45086989 0.0018483294
-0.034968175 0.042454697 0.0066541238 0.40451097 0.82624733 0.39202827 0.00076452736
0.068565838 0.043442991 0.0087712826 0.63961166 -0.020619029 0.76842159 0.0033186199
0.069918476 0.043476433 0.0072652651 0.78521007 -0.05296794 0.61695987 0.00276174
-0.046127182 0.047463994 0.0079745427 0.37924895 0.7744354 0.50637925 0.0032043345
-0.043530229 0.046400577 0.0075483564 0.3844083 0.79364014 0.4715566 0.0013828498
-0.04125645 0.045624785 0.0068380623 0.41966373 0.79225039 0.44296923 0.0014448097
0.068573803 0.046719328 0.0086566508 0.58262122 0.075982183 0.80918425 0.0043435148
0.069972105 0.046398114 0.0072666779 0.74728882 0.031781189 0.66373903 0.0035777115
-0.054622717 0.05075407 0.0087034469 0.22598505 0.69483125 0.68274474 0.0020524387
-0.052287344 0.05033195 0.0080628339 0.30265644 0.75259012 0.58481389 0.0025359571
-0.049486402 0.049450971 0.0075077168 0.35653368 0.77119792 0.52738744 0.0019870135
-0.047129087 0.048655305 0.0069509381 0.39530781 0.77947098 0.48595962 0.0018193392
-0.044969317 0.048025947 0.0060588121 0.44549334 0.79666537 0.40848491 0.0020194673
0.058876161 0.050283432 0.0087846564 -0.11709155 0.50182486 0.85700732 0.0020908462
0.068125896 0.049754828 0.0084532574 0.44527778 0.19686268 0.87348318 0.010427692
0.06997434 0.049444858 0.0070298132 0.68216491 0.10223749 0.72401553 0.0058994498
-0.066922218 0.053216495 0.0080382805 0.10775711 0.55996341 0.82147998 0.0017371812
-0.064455613 0.05301208 0.0082656844 0.068108909 0.5943476 0.801319 0.0026739743
-0.061224278 0.053065419 0.0079638185 0.096032716 0.63553298 0.766078 0.004328941
-0.058327924 0.052748151 0.0077245673 0.17216747 0.72831231 0.66326433 0.0034273816
-0.055617571 0.052246336 0.0073539093 0.25178051 0.74462616 0.61817348 0.0015769554
-0.052832067 0.051583856 0.0067326752 0.35190693 0.77064693 0.53128606 0.0020287167
-0.050881512 0.051079869 0.0060951659 0.3613137 0.78196794 0.50791585 0.0013175632
0.061770637 0.051703252 0.0085305655 0.0062865415 0.41389734 0.91030186 0.0050437837
0.064762607 0.052568976 0.0083826613 0.12613145 0.3666625 0.92176431 0.0050735096
0.067675412 0.052496869 0.0079032695 0.31678373 0.28856656 0.90353602 0.0098953638
0.069840714 0.05242949 0.0066723088 0.67800289 0.14967136 0.71966004 0.0083130449
-0.069266185 0.056238487 0.0065613985 0.13899109 0.56134599 0.815826 0.0016726749
-0.067174129 0.055718951 0.0068190629 0.158833 0.57797194 0.80045015 0.0028973976
-0.064520292 0.055161621 0.0068013878 0.15511668 0.66574788 0.72987568 0.0086522885
-0.061804239 0.054635383 0.0065262024 0.1959165 0.72272217 0.66278917 0.0052781161
-0.058633886 0.054021329 0.0062398235 0.24394581 0.77390534 0.58443218 0.0021343993
0.065156728 0.055158477 0.0070340601 0.19111806 0.29570147 0.93596715 0.0063130767
0.067890465 0.055475768 0.0068173776 0.3102113 0.28632757 0.90652382 0.0069321631
0.069560453 0.054963823 0.0063103247 0.55912501 0.23976649 0.79365695 0.010115799
-0.069924273 0.057264987 0.0060987226 0.17261551 0.57136512 0.80233771 0.0026667239
0.067408137 0.057390399 0.0061238869 0.32449856 0.27832434 0.90401119 0.0065609738
0.0008912771 0.0053374851 0.011438174 0.042012833 -0.57819235 0.81481802 0.0010445316
0.0054109315 0.005074623 0.010974792 0.054996401 -0.62478572 0.77885705 0.0010570657
0.0079304185 0.0043376666 0.0099564958 0.076984756 -0.71973586 0.68996638 0.0017110583
0.010346008 0.0051833647 0.010616051 0.090757452 -0.71878833 0.68927962 0.0017401215
0.014025041 0.0049928832 0.0098522408 0.11674674 -0.76432627 0.63417321 0.002278147
0.016724071 0.0054516909 0.0098368814 0.15399285 -0.7350598 0.66028261 0.0012224524
0.019521523 0.0057478179 0.0094527351 0.16249007 -0.75026119 0.64086282 0.00057843176
0.013243159 0.0063965349 0.011515813 0.096415624 -0.72552621 0.68140721 0.0018670264
0.016356541 0.0065959953 0.011201248 0.13190505 -0.72009212 0.68122572 0.0013964315
0.019322623 0.0070167016 0.010982688 0.16018496 -0.69604391 0.69990271 0.0029985798
0.022400534 0.0074548153 0.010616003 0.18118732 -0.70302624 0.68769562 0.001246718
0.025411619 0.0080882451 0.010424861 0.17714645 -0.70126772 0.69053799 0.00058235577
0.028555358 0.008236872 0.0097427564 0.19804236 -0.681319 0.70468694 0.00036958986
0.031277299 0.0086232349 0.009437318 0.20846871 -0.68023509 0.70272398 0.0010296432
0.033492088 0.0089602079 0.0091761723 0.23929645 -0.71635038 0.65542299 0.0017548203
0.026458219 0.009562253 0.011633218 0.17471284 -0.63117921 0.75570375 0.0024110561
0.028685737 0.0097378092 0.011099095 0.19689348 -0.66293758 0.7223205 0.00024908723
0.031465165 0.010495774 0.010996588 0.20128596 -0.62771094 0.75197262 0.0003314827
0.034517564 0.010580647 0.010291002 0.23135416 -0.66854566 0.70676863 0.0013660617
0.037583362 0.011110948 0.0098517109 0.25879005 -0.69137663 0.67455614 0.0026066874
0.040028688 0.011558332 0.0093578314 0.30137596 -0.67577267 0.67268395 0.0019766479
0.035065744 0.012601297 0.011723983 0.21110648 -0.60922927 0.76437801 0.00023302856
0.037731543 0.012902314 0.011282175 0.22296748 -0.5837968 0.78068352 0.00052272464
0.040636048 0.013399631 0.010750464 0.24421681 -0.58639079 0.77233672 0.00051620131
0.043338139 0.013849527 0.010088919 0.3178598 -0.6466589 0.69339556 0.0023743215
0.045813784 0.014555517 0.0095422966 0.37997419 -0.67377585 0.63375515 0.0034462374
0.041728169 0.015161572 0.011770013 0.24854766 -0.57923734 0.77634275 0.0005668404
0.043730211 0.015814407 0.011519924 0.2800425 -0.57217884 0.77083564 0.00064208574
0.046487406 0.016396962 0.01083886 0.34117785 -0.60347748 0.72070283 0.0032767281
0.049161583 0.016974207 0.0099643059 0.41744545 -0.62866467 0.65614027 0.0028059022
0.051135749 0.017756904 0.0094867004 0.43442371 -0.62721902 0.64643049 0.0037586298
0.04720436 0.018180499 0.011886814 0.30052558 -0.52098238 0.79891282 0.0012153678
0.049816824 0.01910547 0.011363088 0.35447779 -0.51940161 0.77753931 0.0011664218
0.052452486 0.019593159 0.010277836 0.43337479 -0.58376205 0.68659168 0.0031275807
0.054661587 0.020454032 0.0095928293 0.48531643 -0.57750595 0.65647155 0.0024487409
0.05315898 0.021846766 0.011561845 0.37415951 -0.47189525 0.79832292 0.0015488836
0.055534791 0.022446163 0.01056651 0.44236088 -0.500516 0.74417776 0.0010480175
0.057761062 0.02324003 0.0096520847 0.53399938 -0.56132543 0.63226449 0.0017620054
0.056265816 0.024608681 0.011563431 0.4249413 -0.46858263 0.77450323 0.0027547199
0.058592357 0.02544306 0.010575158 0.48829246 -0.43700138 0.75538087 0.0010193475
0.060648739 0.026227171 0.0095832692 0.57887357 -0.49436069 0.64846969 0.0019431941
-0.010451822 0.029697111 0.01167497 0.18000156 0.74195969 0.64582908 0.0015301104
-0.0076911463 0.029342726 0.011374569 0.14618741 0.68988341 0.70900643 0.0014639574
-0.0045665866 0.02907468 0.011069582 0.11573641 0.75938308 0.64026737 0.0012978264
-0.0016778671 0.028959872 0.010737257 0.090335749 0.73542798 0.67155439 0.0035892981
0.0014975386 0.028801246 0.010590643 0.062288523 0.74562937 0.66344327 0.0026149326
0.00467148 0.028700866 0.010567284 0.013985518 0.75607234 0.65433866 0.0023835078
0.007220563 0.028661868 0.010613337 -0.043006126 0.74369973 0.66712898 0.0024624818
0.010475625 0.028734148 0.010728698 -0.073765539 0.72836214 0.68121004 0.0033657937
0.013979392 0.029081246 0.010813594 -0.11250136 0.75192404 0.64957964 0.0017903933
0.016575975 0.02919207 0.011204012 -0.14553186 0.66270882 0.73460031 0.0022562253
0.019499315 0.029496811 0.011588983 -0.15732847 0.66246027 0.73238927 0.0033523396
0.059234422 0.027958209 0.011560867 0.46154884 -0.34943402 0.8153947 0.0015307545
0.061484184 0.02856338 0.010337411 0.55543327 -0.42095605 0.71714014 0.0024317305
0.063352264 0.029441714 0.0093219066 0.63137388 -0.42044288 0.65160948 0.001945687
-0.019125439 0.032467112 0.011474788 0.25505468 0.69822359 0.66890275 0.0011134815
-0.016304491 0.032142513 0.010722677 0.23946925 0.76643246 0.59601671 0.0011931033
-0.013585243 0.031456243 0.010556367 0.21403411 0.76252037 0.61053425 0.0024083625
-0.01057383 0.03091621 0.01029399 0.18052728 0.7820192 0.59653652 0.0024028234
-0.0075178482 0.030629182 0.0098077459 0.15045679 0.778162 0.60977596 0.0015445127
-0.0047111795 0.030298283 0.0096333036 0.11643706 0.78499871 0.60845655 0.0013397329
-0.0017014338 0.030126527 0.0093172789 0.086567245 0.77967799 0.62016797 0.0012727627
0.011601519 0.030121919 0.009228806 -0.072747678 0.77163965 0.63188607 0.0015720383
0.014033458 0.030388484 0.0093000093 -0.11802126 0.77372444 0.62243199 0.0015186993
0.016427532 0.030508896 0.0096922787 -0.17021058 0.75404888 0.63438058 0.0016888041
0.019018564 0.03088201 0.0099864732 -0.20120931 0.75027239 0.6297667 0.0033363036
0.02261308 0.031324442 0.01058965 -0.2169566 0.72027308 0.65889037 0.0020142023
0.026454851 0.03209937 0.01103647 -0.24930061 0.69316 0.67629766 0.0035859931
0.029554898 0.032667823 0.01150672 -0.23948245 0.65579742 0.71594548 0.0047929371
0.061906289 0.031267654 0.011277343 0.50912017 -0.29609871 0.80815977 0.00097680849
0.06406042 0.03170092 0.0098812087 0.62206358 -0.34414142 0.70328057 0.0020502668
-0.027494734 0.035712611 0.011501784 0.3195146 0.70966512 0.62792182 0.0024025596
-0.025172571 0.035207924 0.010934758 0.30342081 0.75088555 0.58660603 0.0014137332
-0.022600694 0.034489188 0.010521507 0.28710487 0.75365359 0.59125048 0.0022477277
-0.019676946 0.03377521 0.010080561 0.27177149 0.76912522 0.57843477 0.00122808
-0.016906092 0.033334449 0.0093887877 0.24698389 0.78729582 0.56494629 0.0010472798
0.026100475 0.033348046 0.0094916224 -0.23508546 0.7281155 0.6438809 0.001526083
0.029609989 0.034419142 0.009623481 -0.26951113 0.69553798 0.66602606 0.0016319082
0.031101724 0.033607025 0.011112292 -0.24608454 0.66990227 0.70048076 0.0024122642
0.034602225 0.034683898 0.011409837 -0.24652129 0.58220804 0.77476513 0.0018394141
0.036936589 0.035980675 0.01119974 -0.24230899 0.51338977 0.82323593 0.0014537434
0.06262774 0.033939198 0.011704803 0.54008245 -0.20556551 0.81612122 0.001637822
0.064532019 0.034495082 0.010536455 0.56862921 -0.24324399 0.78580737 0.0019756821
0.066330515 0.035129998 0.0093027819 0.66090328 -0.27078292 0.69991678 0.0018266432
-0.033805601 0.038557407 0.011548457 0.32868046 0.68086028 0.65452152 0.0013265517
-0.031165002 0.037944511 0.010803547 0.34117734 0.74092132 0.57847524 0.0014879727
-0.028581409 0.037162252 0.01029877 0.32252267 0.75559974 0.57013011 0.0019779624
-0.02585325 0.036438234 0.0096713845 0.32290983 0.76708835 0.55435079 0.0011466801
0.040955108 0.037154932 0.011993242 -0.23701859 0.45430347 0.85873777 0.0017861889
0.064711377 0.037397001 0.011108169 0.53784227 -0.13552712 0.83208054 0.0010436154
0.066778556 0.037742253 0.009644853 0.65929312 -0.17552742 0.73111057 0.0022158991
-0.040095259 0.041601826 0.011514863 0.3141782 0.6560474 0.68621701 0.0011680298
-0.037240554 0.040848508 0.010790507 0.35273433 0.72439605 0.59230804 0.0016229679
-0.034565065 0.039977882 0.010266074 0.35496652 0.7311312 0.58262002 0.001407498
-0.032268256 0.039496418 0.0094442219 0.36522847 0.75649464 0.54251629 0.0011081804
0.046800606 0.040558115 0.011778593 -0.20293948 0.4578689 0.865547 0.00036366488
0.049382072 0.041644409 0.011922753 -0.20144445 0.45999524 0.86476845 0.00044688809
0.065017641 0.040510055 0.011254757 0.50327414 -0.035997689 0.86337674 0.0019284141
0.06714844 0.040542521 0.0097849816 0.62585777 -0.075536124 0.77627075 0.0033427847
-0.045994047 0.044543173 0.011324694 0.29700306 0.66051531 0.68957144 0.0012853532
-0.043160968 0.043712266 0.010798036 0.32081217 0.70400089 0.63361055 0.001284451
-0.040482186 0.042977959 0.010148619 0.35287362 0.71597046 0.60238403 0.0016864464
-0.03813092 0.042362414 0.0094560208 0.3855775 0.73466235 0.55821258 0.0010909932
0.050072148 0.042607442 0.011466209 -0.21598068 0.49961111 0.83889282 0.00033670172
0.052617483 0.043878533 0.011435522 -0.17388995 0.45696238 0.87232322 0.0015797396
0.055451315 0.044486668 0.011790412 -0.14967558 0.45103419 0.87986672 0.0016875069
0.062425643 0.044431306 0.011896658 0.14529076 0.23525572 0.96101272 0.0058010425
0.064678095 0.043544888 0.011302957 0.4302828 0.078191966 0.89930123 0.0033493196
0.067185186 0.043473747 0.0098904846 0.57633448 0.027422726 0.81675369 0.0042082989
-0.060367528 0.046963815 0.011999027 -0.065071695 0.45694959 0.88710922 0.00094944262
-0.058094896 0.047763638 0.011725772 0.0047473107 0.48406982 0.87501645 0.0028223451
-0.055041406 0.04744374 0.011668691 0.11923165 0.5483284 0.82771963 0.002225308
-0.052229118 0.047195736 0.011228535 0.2083815 0.64356971 0.73647487 0.0015760192
-0.049330078 0.046660218 0.010661379 0.26618716 0.66292089 0.69977158 0.0017533089
-0.046591111 0.046043117 0.010043536 0.31248873 0.71147609 0.62940657 0.0015603474
-0.044025369 0.045301311 0.0094922483 0.36415276 0.72005409 0.59069008 0.001532305
0.053763073 0.046160907 0.010195758 -0.21448623 0.52598244 0.8230055 0.00035762318
0.055943362 0.046265014 0.010823837 -0.16765574 0.49921173 0.8501054 0.0015487069
0.058546141 0.046414282 0.011257956 -0.070648506 0.43437153 0.89795887 0.0053553493
0.061607052 0.046390876 0.011375263 0.10715944 0.35170296 0.92995805 0.0060990923
0.064619221 0.046431713 0.010795827 0.2869494 0.2490443 0.92500651 0.0072346716
0.067093767 0.046414714 0.0097129121 0.5060333 0.13705926 0.85155445 0.0052764071
-0.063628927 0.048721522 0.010605085 -0.029119531 0.50196183 0.86439937 0.002000737
-0.061466329 0.049818449 0.010417369 -0.031373076 0.5305112 0.8470971 0.0014468812
-0.058465645 0.04967881 0.010480057 0.068214737 0.57282269 0.81683594 0.0026538889
-0.055522233 0.04940648 0.010225971 0.18908273 0.63495111 0.74905592 0.0025823694
-0.052774012 0.048897758 0.0098432628 0.2722103 0.67174691 0.68895406 0.0022972936
-0.050256647 0.048274688 0.0094740214 0.31927618 0.70943242 0.62830585 0.0015319291
0.056238852 0.04884252 0.0090083554 -0.15897508 0.51235503 0.84393084 0.0013484649
0.058946401 0.048728697 0.0099574765 -0.13038501 0.49985296 0.85623986 0.002288654
0.061769281 0.049379922 0.0099769812 -0.030192234 0.43518302 0.89983565 0.004028047
0.064634904 0.04935256 0.0098630423 0.18349478 0.36451533 0.91293937 0.0073833955
0.066740908 0.049118418 0.0093229348 0.3863976 0.28208187 0.87813824 0.0070422399
-0.064479686 0.051319513 0.0092404401 0.0072104121 0.561553 0.82740933 0.0034338494
-0.061166648 0.051500097 0.0093321279 0.010594365 0.59192914 0.8059203 0.0046789828
-0.058914848 0.051380545 0.009257148 0.12126675 0.67475533 0.72801077 0.0029992131
-0.056553781 0.051090807 0.0090320623 0.22599787 0.69479746 0.68277478 0.002073562
0.064186811 0.051203091 0.0091165556 0.1355063 0.38415495 0.91327047 0.0047989101
-0.010056426 0.0089528821 0.014230975 -0.010752195 -0.45134345 0.89228553 0.00064584037
-0.0071122795 0.0088179987 0.014269034 -0.00039322989 -0.47230947 0.88143271 0.00081149029
-0.0045833574 0.0083269337 0.01394817 0.0013216477 -0.46684664 0.88433725 0.0011439034
-0.001875178 0.0076211318 0.013434994 0.03395097 -0.54881847 0.83525187 0.0012803839
0.0011931971 0.0075283521 0.013284099 0.036806639 -0.57096523 0.82014871 0.0014376105
0.0049735168 0.0073498525 0.013017065 0.058015566 -0.59657854 0.80045503 0.0019377091
0.007877131 0.0079270853 0.013261938 0.070117362 -0.57244456 0.81693995 0.0023463098
0.010556591 0.0076776841 0.01287397 0.046115659 -0.59403712 0.80311471 0.0026159137
0.013486229 0.0080036959 0.012816655 0.093390554 -0.58417386 0.80623752 0.0032497467
0.016362417 0.0084011192 0.012754765 0.11317937 -0.61047345 0.78390849 0.0019550195
0.0191512 0.008437668 0.012353365 0.13697383 -0.63464063 0.76057178 0.0023766207
0.02136318 0.0087665068 0.012198231 0.16917042 -0.6696232 0.72317773 0.0015518294
-0.004796762 0.0098549165 0.014898973 0.0053468067 -0.45155028 0.89222968 0.0013633425
-0.0014894254 0.0092818365 0.014547504 0.027502563 -0.46246645 0.88621014 0.0019503508
0.0012398799 0.0098828552 0.014798631 0.011865661 -0.43734145 0.89921731 0.0020535735
0.0044992724 0.0097773541 0.014607687 0.039878312 -0.45900935 0.88753599 0.0020505607
0.0077543883 0.010186265 0.014626647 0.053477723 -0.46311685 0.88468248 0.0018579743
0.010523179 0.0099705867 0.014341663 0.071749926 -0.45912671 0.88546854 0.001667593
0.013547505 0.010501659 0.014351973 0.080929495 -0.4651663 0.8815161 0.001243277
0.016428968 0.010683804 0.01415379 0.095908813 -0.47321895 0.87570846 0.0010851227
0.019384611 0.010473282 0.013686785 0.11830532 -0.4810088 0.86869693 0.0010546747
0.022407219 0.010504573 0.013232403 0.15213215 -0.55006403 0.82114881 0.0018421374
0.025296057 0.010598303 0.012754939 0.16828431 -0.5669421 0.8063851 0.0018770879
0.028334422 0.01131082 0.012599132 0.18256411 -0.59426326 0.78327614 0.001767696
0.030696588 0.011822662 0.012360167 0.19927372 -0.60597849 0.77011698 0.00053547503
0.017270355 0.012359592 0.014879338 0.085261397 -0.33296043 0.93907815 0.0016282382
0.019598525 0.012467446 0.014679539 0.10505733 -0.36678734 0.92435378 0.0021967413
0.022480156 0.013099346 0.01461611 0.12585637 -0.40332714 0.90635943 0.0019477617
0.025638387 0.013390205 0.0143206 0.13206212 -0.43275005 0.89178866 0.0012913651
0.028703403 0.013516495 0.013900784 0.13482369 -0.43579501 0.88989061 0.0019992297
0.031583261 0.013485448 0.013304053 0.18409984 -0.52458066 0.83121747 0.0014384589
0.034250323 0.013791998 0.012841318 0.1983781 -0.54426253 0.81512225 0.00085805292
0.037166554 0.01432701 0.012418759 0.21338624 -0.55620044 0.80318576 0.0004997892
0.039663088 0.01472376 0.012055919 0.23651606 -0.57363945 0.78421801 0.00076792436
0.028641451 0.015516758 0.014830667 0.12427523 -0.32609013 0.93713439 0.0025508795
0.031523388 0.015992871 0.014634758 0.14360577 -0.38140267 0.91318643 0.002969885
0.034440406 0.016296847 0.014302903 0.16395636 -0.43686911 0.88445675 0.0024044297
0.037457749 0.01644166 0.013712915 0.19950633 -0.45724377 0.86667484 0.00098067301
0.040404584 0.016681354 0.013064666 0.22296883 -0.50540596 0.83357638 0.00058363081
0.043211624 0.017131995 0.012562392 0.25668183 -0.51527888 0.8176809 0.001116213
0.045543823 0.01784646 0.012280259 0.30174208 -0.54103267 0.78500664 0.0016481811
0.035347983 0.018113455 0.014942793 0.12254927 -0.3261528 0.93733978 0.0017822026
0.037776206 0.018614709 0.014742385 0.17177849 -0.33933222 0.92484903 0.0036169256
0.040750451 0.019313268 0.014409616 0.20607226 -0.39777747 0.89403987 0.0012461825
0.043541089 0.019556701 0.013773344 0.23013739 -0.41665238 0.87945294 0.00046590369
0.046499103 0.019648634 0.012951749 0.27480999 -0.45743257 0.84571564 0.001033189
0.049099192 0.020264931 0.012416879 0.33281672 -0.48140934 0.81085026 0.0017842939
-0.0032776566 0.023892431 0.014971084 0.08623407 0.51370645 0.8536213 0.001334446
-0.0010641725 0.0237932 0.014827827 0.077614576 0.48493052 0.8711018 0.0004932537
0.0013860834 0.023623461 0.014757838 0.050742641 0.43683776 0.89810801 0.0023908587
0.0044381954 0.023490822 0.014697869 0.025282046 0.44041696 0.89743733 0.0024698167
0.007412598 0.023397082 0.014709632 -0.005343766 0.43449533 0.90065819 0.0024978388
0.010222145 0.023346987 0.014766978 -0.029373711 0.41249287 0.91048712 0.0029048144
0.013319735 0.023549136 0.014791914 -0.050363086 0.38798562 0.92028838 0.0025624165
0.016362568 0.023813887 0.01489383 -0.073732741 0.34207177 0.93677658 0.0028457572
0.043826912 0.021810524 0.014738854 0.21413091 -0.32203186 0.92219496 0.0021961378
0.046526376 0.022429349 0.0142412 0.25637904 -0.36061063 0.89678854 0.00085738837
0.049531646 0.022562409 0.013372291 0.3013179 -0.4031696 0.86409593 0.00060592935
0.052206691 0.022853868 0.012566144 0.34777638 -0.43270251 0.83175725 0.0019600652
0.054235183 0.023687527 0.012102696 0.41441846 -0.45982462 0.7853781 0.0019679985
-0.01313528 0.026641168 0.014811661 0.17250627 0.49964708 0.84887832 0.0019854836
-0.010359583 0.026153918 0.014592771 0.15046747 0.52347183 0.83865178 0.0017560193
-0.0074142036 0.025900424 0.014259682 0.12865317 0.53826976 0.83289492 0.0013266678
-0.004467085 0.025695955 0.013976944 0.10692188 0.54295522 0.83292699 0.0013290284
-0.0015347918 0.025469523 0.013799383 0.074739784 0.54723841 0.83363307 0.0011479751
0.0014345208 0.025534403 0.0135226 0.049320318 0.54996294 0.83373147 0.0010422618
0.0044036619 0.025571991 0.013363034 0.023251554 0.54578263 0.83760417 0.0011099244
0.0075043812 0.025637908 0.013300626 -0.011879424 0.59364992 0.80463576 0.0017157944
0.010463944 0.025483843 0.013524586 -0.040459115 0.52979583 0.84715962 0.0012781407
0.013485304 0.025543444 0.013692136 -0.070748776 0.51736039 0.8528381 0.0012658881
0.016652843 0.025561363 0.013997997 -0.10554957 0.49399796 0.86303264 0.0016158667
0.019798867 0.025694882 0.014349327 -0.12257279 0.46788764 0.87524688 0.0018911056
0.02269729 0.026093187 0.014555022 -0.12351132 0.42509261 0.89668345 0.0024589337
0.024833875 0.0261961 0.014783993 -0.12345739 0.36475262 0.92288345 0.0036638596
0.027428227 0.026692478 0.014913489 -0.10356116 0.28524211 0.95284414 0.0030218672
0.047414526 0.024565395 0.014818475 0.19945779 -0.24808355 0.94798267 0.0033155147
0.049675215 0.025405331 0.014447442 0.27190006 -0.30315763 0.9133268 0.0011379829
0.052536558 0.025468115 0.01353571 0.32677615 -0.34608975 0.87945402 0.00077891583
0.055351388 0.025836665 0.012606204 0.37228844 -0.37399259 0.84942973 0.0023845294
0.05728218 0.026941892 0.012200168 0.45278439 -0.40366751 0.79500872 0.002029473
-0.021763008 0.029770814 0.014810422 0.21953468 0.55865258 0.79981983 0.00074377563
-0.019361474 0.029221134 0.014530486 0.2133735 0.55128998 0.80656749 0.0016074065
-0.016419498 0.028762441 0.014072455 0.19935194 0.57861429 0.79086304 0.0010621694
-0.013564507 0.028602548 0.013450413 0.19454354 0.61985457 0.7602191 0.0023132893
-0.010676846 0.028266586 0.013065675 0.15781936 0.63426811 0.75683361 0.0022343621
-0.0076335417 0.027901689 0.012764934 0.1386188 0.66495031 0.73391134 0.0014857524
-0.0046458612 0.027609302 0.012543817 0.11254979 0.67163515 0.73228323 0.0013389076
-0.0015928834 0.027425917 0.012308213 0.080543444 0.68170309 0.72718197 0.0015265201
0.0017276624 0.027261987 0.012161617 0.04617843 0.63592458 0.7703684 0.0014857283
0.004648312 0.027126497 0.012164015 0.013709456 0.63417715 0.77306628 0.0016331637
0.0078186058 0.027200788 0.012082958 -0.020605065 0.62649345 0.7791543 0.001734776
0.010789439 0.027257113 0.01220387 -0.051320575 0.672616 0.7382099 0.0013529748
0.01350023 0.027508114 0.012257272 -0.087874502 0.65766662 0.74816626 0.0018616788
0.016601978 0.027839588 0.012434441 -0.12228334 0.63169378 0.76551276 0.0020517693
0.01942748 0.027828367 0.012943824 -0.14316924 0.58737284 0.79655236 0.0029700582
0.022479769 0.028425137 0.013106318 -0.1601481 0.55218107 0.8181985 0.0025581142
0.02571095 0.028354052 0.013779631 -0.11948268 0.46467456 0.87738323 0.0018356745
0.028856078 0.028451618 0.014289913 -0.14065467 0.43206301 0.89080739 0.0031478375
0.031669024 0.028721329 0.014618648 -0.14516747 0.36878031 0.91811085 0.005134264
0.034241904 0.029335968 0.014742739 -0.14148234 0.34413528 0.92819917 0.0040220316
0.036883283 0.029835291 0.014917857 -0.12165889 0.31814185 0.94020468 0.0014994758
0.050505806 0.027510904 0.014837667 0.21286312 -0.15976273 0.96393216 0.0030565646
0.052604917 0.028427158 0.01445809 0.28540495 -0.22849996 0.93076944 0.0013692207
0.055534795 0.028568225 0.013493923 0.34120852 -0.26354787 0.90228558 0.00086780899
0.058084302 0.028818479 0.012530614 0.42129293 -0.30918443 0.85259449 0.0022333737
-0.028033128 0.032674231 0.014550947 0.25478345 0.6041857 0.75501329 0.0013961219
-0.025294347 0.031925593 0.014212983 0.24995433 0.57610363 0.77822065 0.0011698112
-0.022419797 0.031524628 0.013577267 0.24541193 0.61162484 0.75212234 0.001058924
-0.019522771 0.031143166 0.012971573 0.23070006 0.6608364 0.71419376 0.0021408361
-0.016557273 0.030615449 0.012535295 0.22223112 0.69902313 0.67969108 0.001344667
-0.01471738 0.030283803 0.012293439 0.18430585 0.67481393 0.71460307 0.0011935183
0.025930345 0.030455684 0.012392342 -0.18593878 0.59632373 0.78091282 0.0034489348
0.028475752 0.030924872 0.012652025 -0.20285989 0.597812 0.77554411 0.0029424122
0.031636998 0.031510793 0.013030222 -0.20147364 0.54315478 0.81510198 0.001365097
0.034456436 0.031397481 0.013763692 -0.14743742 0.47039509 0.8700521 0.0038235695
0.037452087 0.031516127 0.014313117 -0.15368445 0.41657117 0.89601874 0.0019004114
0.040475648 0.0319 0.014685602 -0.16192175 0.33884886 0.92680246 0.0027181238
0.043542866 0.032627743 0.014871918 -0.11866025 0.25864232 0.95865732 0.0020096076
0.053290132 0.03131764 0.01480019 0.18099877 -0.094143093 0.97896707 0.0041195769
0.055563543 0.031563863 0.014225178 0.27789304 -0.15660788 0.94776016 0.0021573475
0.058556624 0.031452712 0.013099999 0.36852562 -0.21263011 0.90497363 0.0020210242
0.060612477 0.032124609 0.012330979 0.46723345 -0.26474491 0.8435657 0.0018573777
-0.036329504 0.035818893 0.014920405 0.22416964 0.53999752 0.81126487 0.0010182465
-0.034131505 0.035378397 0.014575991 0.25773492 0.57446253 0.77689475 0.00063829985
-0.031338166 0.034799099 0.014015848 0.27174678 0.61134273 0.74324536 0.0021871056
-0.028541682 0.034385499 0.013287468 0.28965703 0.64532983 0.70685798 0.00195879
-0.025754588 0.033781186 0.01276976 0.27940577 0.6909855 0.66668701 0.00094724557
-0.02327748 0.033249196 0.012286424 0.26082566 0.67286342 0.69226068 0.0013219523
0.035813451 0.033602845 0.012720533 -0.21994658 0.51176882 0.83049154 0.0022188746
0.03795943 0.034291256 0.012915842 -0.22661951 0.48869321 0.84250969 0.0027549486
0.040503737 0.034325909 0.013625185 -0.23328908 0.44335732 0.8654539 0.0031907747
0.04330812 0.034496754 0.014166905 -0.17757662 0.38594884 0.90526795 0.0026451573
0.046280894 0.0346574 0.014576054 -0.12921469 0.31637403 0.93979305 0.0020268187
0.049423575 0.035128016 0.014750232 -0.07107088 0.24704704 0.96639371 0.0026675155
0.052721944 0.034881603 0.014818115 0.032445818 0.1385227 0.98982763 0.0035452056
0.05545919 0.034412473 0.014507609 0.20179294 0.0016732805 0.97942674 0.005408763
0.058538206 0.034409661 0.013655785 0.31908628 -0.081668518 0.94420028 0.0028390174
0.061223127 0.034679197 0.012604474 0.42301503 -0.15037431 0.89355803 0.002319209
-0.042659108 0.038605351 0.014892051 0.18956371 0.47962567 0.85675246 0.0022109584
-0.040419064 0.038310844 0.014446225 0.23888679 0.53906333 0.80767798 0.0014488931
-0.03744933 0.037710555 0.013901472 0.25118661 0.57133073 0.78133637 0.00050118001
-0.034583889 0.037267216 0.01317634 0.29012775 0.63469994 0.71622753 0.0016851701
-0.031637616 0.036604524 0.01256403 0.30714402 0.66586804 0.67991352 0.001851322
0.043647315 0.037105508 0.012952428 -0.18139815 0.41120404 0.8933118 0.0017430495
0.046442151 0.03755255 0.013429445 -0.16150162 0.39135915 0.90595537 0.0015698
0.04953916 0.037480239 0.014028094 -0.10793259 0.32297406 0.94023305 0.0020539975
0.052482713 0.037486862 0.014294126 -0.025037395 0.24813958 0.96840066 0.0035111555
0.055504035 0.037382267 0.014260821 0.094823278 0.16210894 0.98220628 0.0050698821
0.058592506 0.037495654 0.013755226 0.24253426 0.05452209 0.96860957 0.0038679428
0.061621714 0.037495095 0.012758457 0.35614073 -0.041873705 0.93349361 0.0033016428
0.063392937 0.038193017 0.012021814 0.49022046 -0.088619716 0.86708164 0.0023775275
-0.057188015 0.040384874 0.014527679 -0.077929206 0.34051466 0.93700421 0.0010089059
-0.054983184 0.040954776 0.014788549 -0.056040931 0.33694834 0.93985385 0.0013093895
-0.052590385 0.041270025 0.014826857 0.031114586 0.40469497 0.91392231 0.0023206577
-0.049244288 0.041278251 0.014603755 0.11469841 0.4575007 0.8817808 0.0022774909
-0.046360478 0.040951982 0.014248986 0.18127429 0.5157125 0.83736509 0.0011825933
-0.043430034 0.04052189 0.013743836 0.24125282 0.5691036 0.78607774 0.0013479994
