# .PCD v0.7 - Point Cloud Data file format
VERSION 0.7
FIELDS x y z normal_x normal_y normal_z curvature
SIZE 4 4 4 4 4 4 4
TYPE F F F F F F F
COUNT 1 1 1 1 1 1 1
WIDTH 562
HEIGHT 1
VIEWPOINT 0 0 0 1 0 0 0
POINTS 562
DATA ascii
-0.055218339 0.049117204 -0.0099409577 0.14044817 0.61940116 -0.77240956 0.0033270626
-0.052169506 0.048680358 -0.0094451206 0.24050984 0.653795 -0.71743095 0.002329601
-0.050321374 0.048055314 -0.0093626538 0.30909398 0.69602364 -0.64808327 0.0015480487
0.062363029 0.048776425 -0.0097946804 0.18897806 0.33161256 -0.92429459 0.0027552731
0.064739592 0.048945304 -0.0094056427 0.28917176 0.31487003 -0.90401137 0.0074623753
0.066104673 0.048108637 -0.0092799161 0.28896126 0.31471783 -0.90413171 0.0075067095
-0.0076064337 0.0027031358 -0.0064858794 -0.1336509 -0.85672784 -0.49815148 0.0017759188
-0.0044771582 0.0025801165 -0.0068929959 -0.08282271 -0.86322635 -0.49797645 0.0020178559
-0.0013274282 0.0023079203 -0.006810592 -0.059832063 -0.86465067 -0.49879798 0.0016583941
0.0016393777 0.0023599439 -0.0071878824 -0.027710963 -0.86309099 -0.50428766 0.0015770814
0.0044276975 0.0023401603 -0.0072072046 0.00091855886 -0.86590153 -0.50021362 0.0017501534
0.0075624646 0.0023959079 -0.0072171292 0.030612772 -0.8715322 -0.4893817 0.0017464913
0.010691321 0.0024602329 -0.0070399311 0.062042411 -0.87582952 -0.47861624 0.0017469642
0.013415722 0.0026042012 -0.006851308 0.088173598 -0.87905759 -0.46849033 0.0016538225
0.016131697 0.0026799564 -0.0063978792 0.11772779 -0.88231635 -0.45569503 0.0014457869
0.019090697 0.0029599301 -0.006102928 0.16461344 -0.88616025 -0.43315399 0.0014058782
-0.013245311 0.0047697863 -0.0081074974 -0.16987848 -0.7915985 -0.58695233 0.0028380204
-0.010275897 0.0037116173 -0.0073720114 -0.14107536 -0.83119726 -0.53778148 0.00231886
-0.0074808123 0.0035007799 -0.0077958754 -0.1255559 -0.84006238 -0.52776039 0.0020000807
-0.0047795251 0.0035387895 -0.0083239246 -0.081312418 -0.79321623 -0.60348678 0.00073803018
-0.0018566538 0.0032827538 -0.008332287 -0.054438449 -0.83139831 -0.55300391 0.0015285317
0.0013959781 0.0032988612 -0.0086152051 -0.029034814 -0.83344358 -0.55184114 0.0015991938
0.0048662624 0.0032531014 -0.008641555 -0.0037286654 -0.83524007 -0.54987282 0.0016739238
0.007966822 0.0032494932 -0.0085725328 0.022231407 -0.79906327 -0.60083586 0.00068499689
0.010450869 0.0033365129 -0.0085280994 0.05250581 -0.80634964 -0.589104 0.00079134869
0.013717372 0.0034671314 -0.0083375853 0.079730861 -0.8528493 -0.51603401 0.0016556258
0.01680262 0.003508532 -0.0078177433 0.10885423 -0.85736322 -0.50306964 0.0014230566
0.0195913 0.0038219532 -0.0075995675 0.15102565 -0.86258519 -0.48284379 0.0011635536
0.022584096 0.0042902939 -0.0074194777 0.18454653 -0.87613142 -0.44534972 0.0013843304
0.025446568 0.005000337 -0.0075378306 0.19630252 -0.86224687 -0.46689993 0.0012114648
0.028313115 0.0054628868 -0.0069969995 0.24373077 -0.86573887 -0.43714014 0.0018642829
0.03027498 0.0056949677 -0.0062822783 0.27812204 -0.86335784 -0.42102417 0.0015205488
0.026546538 0.0060704984 -0.0089001777 0.20262215 -0.79335392 -0.57405043 0.00096824719
0.028890328 0.0063935327 -0.0084200669 0.23196015 -0.84474313 -0.48228982 0.0017642501
0.031605311 0.0067750337 -0.0075948173 0.29207623 -0.8523227 -0.43386355 0.00089240284
0.034536943 0.0077459528 -0.0075288424 0.30855986 -0.83655977 -0.45272347 0.0014815667
0.037050739 0.0084485309 -0.0070463857 0.33286858 -0.84141743 -0.42569375 0.0014945084
0.039231986 0.0089924596 -0.0063555948 0.35311341 -0.82992744 -0.43189266 0.0015675178
0.037997544 0.0093766246 -0.0080820639 0.34510326 -0.82969534 -0.43875894 0.0014731045
0.040571455 0.010208813 -0.0075489902 0.37658045 -0.81162727 -0.44659629 0.0017550311
0.043261431 0.011300749 -0.0072056791 0.38912469 -0.80898869 -0.44058955 0.0012701156
0.045240551 0.011697037 -0.0060147662 0.43134704 -0.83544618 -0.34054291 0.0025678892
0.044362228 0.012411864 -0.008227516 0.41961664 -0.77733117 -0.46869835 0.0025971422
0.046523254 0.013238395 -0.0076001594 0.429553 -0.78698307 -0.44287899 0.0012768181
0.049029563 0.014373534 -0.0070377444 0.4771657 -0.76570493 -0.43128744 0.0011496051
0.049993668 0.015618346 -0.0081244633 0.47559717 -0.73819381 -0.47841117 0.0021305389
0.052356228 0.016756382 -0.0074166059 0.5052641 -0.73652166 -0.4497155 0.0019068845
0.05436166 0.017605394 -0.0064996928 0.53238499 -0.72394669 -0.43871111 0.0011069315
0.053703044 0.018422244 -0.0085047213 0.53137749 -0.6685068 -0.52032357 0.0019676813
0.055630755 0.019242169 -0.0075316578 0.55899471 -0.70460689 -0.43709734 0.00095413212
0.057742383 0.020473544 -0.0068049976 0.57535422 -0.66970992 -0.46952751 0.0011173669
0.056847502 0.021194393 -0.0087950444 0.53755671 -0.62302369 -0.56822026 0.00053173525
0.058873229 0.022225285 -0.0077903275 0.6118452 -0.64059454 -0.46398699 0.0012426982
0.06071109 0.02331093 -0.0068860869 0.62607348 -0.60254735 -0.49494332 0.0010968143
0.059606638 0.02400147 -0.0089649698 0.58100426 -0.58563894 -0.56520891 0.0019690099
0.061831623 0.025303252 -0.0077639949 0.6614601 -0.52931428 -0.53131628 0.0021306449
0.063486464 0.026314106 -0.0067385049 0.67899984 -0.53247184 -0.5054037 0.0012179238
0.00024969573 0.029994763 -0.0088797575 0.071149178 0.71062589 -0.69996327 0.0015979172
0.062821835 0.027497936 -0.0087021142 0.63632077 -0.45180839 -0.62527198 0.00104347
0.064488687 0.02850651 -0.0075139864 0.71475244 -0.45181996 -0.53384233 0.0019572894
0.066092931 0.029637126 -0.0064151115 0.73300093 -0.44502139 -0.51445657 0.0014512859
-0.013055927 0.032582484 -0.008386666 0.22790657 0.82883501 -0.51097077 0.001348422
-0.010253509 0.032278799 -0.0077895233 0.19139412 0.8307147 -0.52276319 0.00097613054
-0.0074150003 0.031904679 -0.0074226982 0.13531797 0.81929976 -0.55716878 0.001887586
-0.0045733429 0.031128673 -0.0079880785 0.086243816 0.8007887 -0.59270537 0.0011134814
-0.002818288 0.030547695 -0.0084954444 0.090971828 0.75478864 -0.64962929 0.00099488976
0.065463044 0.031072134 -0.0082959374 0.68914962 -0.34975296 -0.63462245 0.0013201137
0.066802807 0.03175443 -0.0070283408 0.7419517 -0.40476459 -0.53448415 0.0017870871
-0.022196075 0.03559817 -0.0083162077 0.31439635 0.81828648 -0.48120916 0.0017970263
-0.019368669 0.035062511 -0.007489745 0.29791233 0.83315772 -0.46593621 0.0014352835
-0.016461961 0.033979952 -0.0076870983 0.24662866 0.83769029 -0.48728764 0.0022439796
-0.013676258 0.033521932 -0.0071238866 0.21097532 0.84708506 -0.48778725 0.0015123913
-0.010840381 0.033047695 -0.00669285 0.18256684 0.83992445 -0.51107359 0.0013193301
0.065948948 0.033077776 -0.008856711 0.69250816 -0.32256177 -0.64528006 0.0029244693
0.06761834 0.03445125 -0.0075614038 0.76058221 -0.27587229 -0.58771515 0.001909325
0.069203995 0.035981752 -0.0062129768 0.77336037 -0.2987659 -0.55915356 0.0035855756
-0.028260341 0.038339805 -0.0080060456 0.3697232 0.79255885 -0.48492798 0.0029298968
-0.025546126 0.037408568 -0.007525207 0.34882852 0.80396491 -0.48162135 0.0019373046
-0.022897761 0.036566243 -0.0071337833 0.31040666 0.82329988 -0.47521043 0.0019119415
0.068199709 0.037341658 -0.0080228373 0.75670755 -0.17308968 -0.63042337 0.0022348901
0.069455959 0.037775893 -0.0066069337 0.7920742 -0.20802408 -0.57388538 0.0024725266
-0.036059234 0.04162468 -0.0086993417 0.38508731 0.76083857 -0.52233374 0.0037047656
-0.034117598 0.041223288 -0.0077958643 0.38867235 0.78800577 -0.47747332 0.0020107911
-0.031547438 0.040145043 -0.0075256103 0.3683064 0.81084746 -0.45483699 0.0020400176
-0.028995985 0.039502896 -0.006524357 0.36577857 0.84551769 -0.38898054 0.00095697312
0.068438478 0.040350866 -0.0083846757 0.74415725 -0.075392067 -0.66373646 0.0026466476
0.069720119 0.040592242 -0.0069643003 0.7846989 -0.1082702 -0.61034846 0.0022339663
-0.042577539 0.044992518 -0.00861404 0.38127592 0.75236303 -0.53719509 0.0013097918
-0.040392324 0.044294812 -0.0079882946 0.38241613 0.76924646 -0.51187688 0.0020532866
-0.037648086 0.043180387 -0.0075283377 0.38940486 0.77104408 -0.50384015 0.0017503893
-0.035489425 0.042420533 -0.0069612083 0.41974261 0.78145379 -0.46167761 0.0022976839
0.068516456 0.043623142 -0.0084349038 0.70764279 0.030502014 -0.70591176 0.0028027496
0.069988094 0.043463614 -0.0068821586 0.75701469 -0.015665986 -0.65321004 0.0028633587
-0.048356887 0.047715098 -0.0087626306 0.30920947 0.68661261 -0.65799141 0.0017257183
-0.046106093 0.04734014 -0.007831296 0.37267381 0.75431305 -0.54048681 0.0025585219
-0.043562084 0.046293948 -0.0074573583 0.39546365 0.76243758 -0.51214975 0.0022213988
-0.040838595 0.045434695 -0.0065606199 0.41317487 0.79488415 -0.4443486 0.0010434364
0.068172976 0.04656997 -0.008396727 0.57827759 0.11466588 -0.80774182 0.0034830368
0.069873832 0.046368707 -0.0068844012 0.70263863 0.068045124 -0.70828587 0.0036875363
-0.054548025 0.050387297 -0.0086558536 0.20683619 0.66396135 -0.71859175 0.0016972075
-0.052190226 0.050236087 -0.0077761495 0.31809226 0.74188465 -0.59027487 0.0029659844
-0.049542949 0.049305275 -0.0074430872 0.35543358 0.75103694 -0.55642653 0.0024715408
-0.04716282 0.048609972 -0.0067736679 0.39334524 0.77061695 -0.50142699 0.0019360654
0.062578224 0.05032181 -0.0089629879 0.18275331 0.35842714 -0.91549504 0.0024295927
0.064920604 0.05035942 -0.0087755118 0.22989237 0.33393502 -0.91413176 0.002982225
0.067684449 0.049498137 -0.0080613438 0.40084162 0.27319187 -0.87446672 0.0036466727
0.0697001 0.049476009 -0.006661193 0.6885944 0.12814535 -0.71373427 0.0046898429
-0.064291686 0.05309106 -0.0077681374 0.15795568 0.66599572 -0.72904027 0.0025731272
-0.062038332 0.053229634 -0.0074940915 0.1903336 0.69701499 -0.69133437 0.0028526862
-0.058272302 0.052351449 -0.0077047581 0.18236282 0.72199583 -0.66743231 0.0023179583
-0.055461798 0.052119795 -0.0070919641 0.22325806 0.75623029 -0.61503786 0.0042721434
-0.053017549 0.051657163 -0.0064479848 0.35138547 0.76148832 -0.54466856 0.0013945372
0.06502112 0.052065387 -0.0079956269 0.19976091 0.35079223 -0.91489911 0.001923851
0.067695513 0.052455269 -0.0072096796 0.40086168 0.24537845 -0.88266599 0.0090138419
0.069468297 0.052262742 -0.006316117 0.6243242 0.17063095 -0.76230204 0.0044904682
-0.067539617 0.055522881 -0.0063814465 0.18782777 0.63071525 -0.75294024 0.0026760288
-0.064646527 0.054936729 -0.0065491642 0.19272012 0.63110226 -0.751378 0.0030503192
-0.061037727 0.054231234 -0.0063387044 0.21203545 0.72744364 -0.65258473 0.0062894383
0.065379694 0.054601904 -0.0067599383 0.25150761 0.27709138 -0.92734259 0.0026219843
0.067844905 0.054981947 -0.0063717896 0.3893652 0.18599647 -0.90210861 0.0072048539
-0.010601556 0.0023651822 -0.0045859045 -0.17975774 -0.90782553 -0.37886673 0.0046465034
-0.0073661818 0.0017693195 -0.0043472387 -0.097155981 -0.93617553 -0.33784038 0.0036198653
-0.0047390577 0.0014786349 -0.0043662139 -0.10808801 -0.93905711 -0.32632592 0.003481562
-0.0016932633 0.0013253235 -0.0046875975 -0.067694463 -0.93638271 -0.34439057 0.0031277623
0.0013798557 0.0012118717 -0.0047320966 -0.010591598 -0.9280737 -0.37224594 0.0020614029
0.0044310968 0.0011709085 -0.0047318018 0.010239 -0.9327938 -0.36026505 0.0021409381
0.0075287214 0.0012078908 -0.0046340646 0.038612641 -0.93539715 -0.3514843 0.0020257568
0.010605036 0.0013412194 -0.0045216419 0.069972001 -0.93829978 -0.33867002 0.0022207582
0.013596123 0.0016156698 -0.0045048059 0.095911764 -0.9411611 -0.32406294 0.0020312218
0.016561499 0.0019560566 -0.004447225 0.12352947 -0.94571996 -0.30058983 0.0016448572
0.019615792 0.0024897058 -0.004575911 0.16164233 -0.94441432 -0.28627512 0.0015000082
0.022529826 0.0027906187 -0.0037316608 0.20070188 -0.94100517 -0.27244809 0.0013326178
0.022740819 0.0032724505 -0.005102633 0.20614924 -0.92620492 -0.31566894 0.0018383373
0.025656587 0.0037748136 -0.0045571267 0.24190123 -0.92298001 -0.29931867 0.0014504869
0.028496845 0.0045182952 -0.0044932803 0.25833043 -0.91785741 -0.30133566 0.0019484338
0.03144547 0.0054000029 -0.0044594477 0.28765002 -0.91553032 -0.28117937 0.0016685299
0.03343422 0.0058408561 -0.0037626533 0.32092458 -0.90346795 -0.28417102 0.0020575731
0.032883421 0.0062853168 -0.0057033221 0.33361337 -0.88522071 -0.32417044 0.0037973945
0.034699954 0.0065804687 -0.0046679843 0.35119078 -0.89524084 -0.27424252 0.0012980137
0.037523784 0.0076265433 -0.00454946 0.33763868 -0.89222437 -0.29989305 0.0012873618
0.03999421 0.0085746562 -0.0042812955 0.38364753 -0.88594621 -0.26060298 0.0015903526
0.041367367 0.0094029969 -0.0049459501 0.41738209 -0.86935133 -0.2646139 0.0014604992
0.04354839 0.010295994 -0.004490667 0.42983514 -0.86972284 -0.24253651 0.00093828572
0.046160314 0.011525615 -0.0041692592 0.45302737 -0.85175252 -0.26321825 0.0017842298
0.047170766 0.012432002 -0.0051731644 0.46831685 -0.8312816 -0.29941648 0.0018537813
0.049513523 0.013553776 -0.0045058848 0.49789739 -0.82184517 -0.2768912 0.0020518349
0.051522501 0.014612416 -0.0040471624 0.50838244 -0.8082028 -0.29724655 0.0016810315
0.052837908 0.015735608 -0.0047089327 0.52960378 -0.79448998 -0.29716235 0.0018039526
0.055201877 0.017231477 -0.0043089166 0.56086087 -0.77660257 -0.28692093 0.0017482362
0.056510314 0.018477408 -0.0049957302 0.58810854 -0.75677007 -0.28535494 0.0015318834
0.058378983 0.019758044 -0.0044284784 0.61489183 -0.74329311 -0.26348323 0.0010486481
0.060114913 0.020777341 -0.0033312773 0.64326531 -0.7061404 -0.2959314 0.0017476405
0.059709202 0.021311907 -0.0053566298 0.63666487 -0.69133759 -0.34162894 0.0016175041
0.06138641 0.022500673 -0.0044445577 0.67526597 -0.68113494 -0.2829684 0.0014643443
0.063094765 0.023689637 -0.0032449812 0.70334959 -0.64223576 -0.30468443 0.0017596731
0.062661 0.024340736 -0.0054336991 0.69827062 -0.62576419 -0.34761655 0.0020357098
0.064194672 0.025523458 -0.0043666032 0.71998835 -0.60975778 -0.33137929 0.0021956752
0.065490797 0.027536027 -0.0049106954 0.76153374 -0.56062037 -0.32522485 0.0022033532
0.066692039 0.028850537 -0.0043091187 0.78684539 -0.51636946 -0.3379896 0.0028379932
0.068027489 0.031337183 -0.0045924298 0.82146692 -0.41709912 -0.38887063 0.0031249803
0.069148734 0.032541335 -0.0035636353 0.84073383 -0.4087238 -0.3551217 0.0023881458
-0.018110773 0.035982054 -0.0046015615 0.29167715 0.89356548 -0.34126997 0.0016194234
-0.016398761 0.035421688 -0.0045700748 0.24998824 0.88445944 -0.39400166 0.0028026397
-0.01311961 0.034355372 -0.0049971933 0.20632264 0.88893503 -0.408932 0.001065659
-0.010581028 0.033574991 -0.0054760501 0.16944841 0.86943817 -0.46407375 0.0021555463
-0.0084456066 0.033206269 -0.0053244038 0.18367603 0.85968989 -0.47665122 0.00077850645
0.068760902 0.033682186 -0.0054489803 0.83711851 -0.35439834 -0.41669452 0.0030581492
0.069714725 0.034701332 -0.0043309149 0.85618913 -0.34061942 -0.38848245 0.0031530547
-0.025178064 0.038618505 -0.0045718681 0.3847402 0.87106532 -0.30531982 0.0015265065
-0.022583148 0.037558705 -0.004642738 0.36392555 0.86712426 -0.34007892 0.0017097467
-0.019922769 0.036564071 -0.0046082176 0.2986123 0.89071196 -0.34272864 0.0017808289
0.070608519 0.037499409 -0.0044924538 0.86875439 -0.25445461 -0.42487493 0.0038474745
-0.031298414 0.041346855 -0.0047609322 0.41681936 0.85407597 -0.31115261 0.002175109
-0.028548324 0.040113121 -0.0045592077 0.39423135 0.86449945 -0.31180486 0.002285816
-0.02676864 0.039481785 -0.0040775756 0.384727 0.86711019 -0.316394 0.0020248124
0.071185358 0.040418934 -0.0045930585 0.88033438 -0.13410865 -0.45500132 0.0024388588
0.072114363 0.041962486 -0.0030098492 0.90985548 -0.12984186 -0.39408648 0.0050384402
-0.037319131 0.044431329 -0.004662226 0.45757625 0.83683681 -0.30054641 0.0015927152
-0.034723964 0.043130983 -0.0045513613 0.42358509 0.85062474 -0.31146935 0.0018968035
-0.032562196 0.042332333 -0.0037064021 0.40365121 0.85842001 -0.31651354 0.0017913972
0.071426742 0.04341089 -0.0048210286 0.87008345 -0.048110243 -0.49055088 0.0033245217
0.072173573 0.043786097 -0.0033541156 0.90850008 -0.075787388 -0.41095477 0.0035412677
-0.042966422 0.047311403 -0.0050854059 0.45184386 0.81342828 -0.36629429 0.0030345088
-0.040465701 0.046188518 -0.0045245937 0.45873958 0.82143009 -0.338837 0.0025810869
-0.038744565 0.045441996 -0.0039898809 0.43458733 0.84186286 -0.32000118 0.0024977729
0.071334407 0.046580922 -0.0050401576 0.84994435 0.020603299 -0.52646947 0.0036084051
0.072243631 0.046611123 -0.0034596729 0.89184201 -0.01294462 -0.45216182 0.0038320119
-0.048938949 0.050631851 -0.0048250658 0.41887632 0.81816739 -0.39388412 0.0031372048
-0.046516955 0.04946959 -0.0045668366 0.44613764 0.81455821 -0.3707507 0.0025190618
-0.044006761 0.048429001 -0.0037595143 0.44456321 0.82616842 -0.34613469 0.002265088
0.071183324 0.049511991 -0.0050329175 0.81842554 0.063839898 -0.57105529 0.0044750408
0.072240785 0.049560174 -0.0034113873 0.86519992 0.022048723 -0.50094205 0.0044240672
-0.055181116 0.053530533 -0.0048536393 0.3235282 0.84510648 -0.42558733 0.0053902902
-0.05233182 0.052421376 -0.0046223002 0.37160873 0.83310765 -0.40968114 0.0028681462
-0.050310425 0.051687546 -0.0040310048 0.41763923 0.8209461 -0.38939041 0.0031010974
0.071030177 0.052482206 -0.0048334333 0.73487973 0.084675349 -0.67289072 0.010765652
0.072268367 0.052551627 -0.0032131248 0.82628596 0.033329435 -0.56226385 0.0054765856
-0.066320345 0.056756534 -0.005556386 0.22515924 0.66992378 -0.7074641 0.0058302558
-0.063946888 0.056116305 -0.0054225205 0.24835753 0.69080949 -0.67904401 0.0093100239
-0.061466035 0.05594657 -0.0043840916 0.33530307 0.75460631 -0.56404001 0.0076944642
-0.058617264 0.054881603 -0.0044187829 0.26445621 0.81361127 -0.5177834 0.0059079244
-0.055925015 0.05451414 -0.0034344748 0.36633191 0.86822218 -0.33465099 0.0043591098
0.068546616 0.056374542 -0.0057984344 0.43396354 0.19399318 -0.87979674 0.010094402
0.070725851 0.05539589 -0.00471516 0.65686691 0.092436589 -0.74831897 0.011552755
0.072101988 0.055495411 -0.0033326682 0.73247939 0.040397123 -0.67958963 0.012039908
-0.069990419 0.057807278 -0.0051910314 0.20875861 0.69693756 -0.6860742 0.0058587454
-0.067687638 0.058870688 -0.0041594864 0.20876038 0.69693738 -0.6860739 0.0058615487
-0.064702317 0.057890926 -0.0039750845 0.35947254 0.71563756 -0.59886748 0.0045216447
0.068170175 0.05844136 -0.0052932533 0.38618436 0.14088541 -0.9115991 0.0043384014
0.07067322 0.058419477 -0.0043856367 0.55230016 0.086092241 -0.82918787 0.014109877
0.072070427 0.058324993 -0.0032971557 0.64197469 0.017374916 -0.76652896 0.014976645
0.068586811 0.060696907 -0.0047077592 0.49199823 0.089464784 -0.8659873 0.010066018
0.070715219 0.061523937 -0.0040804301 0.46334472 0.031196285 -0.88562882 0.012299659
0.072107576 0.061358336 -0.0032848667 0.52039689 -0.013606382 -0.85381603 0.019439049
0.068794861 0.063084349 -0.0043156156 0.47974756 -0.0081549706 -0.87736863 0.010953574
0.070885047 0.064545006 -0.0039261472 0.51223928 -0.098464675 -0.85317969 0.012479634
0.072507411 0.064602464 -0.003196544 0.53392559 -0.083341151 -0.84141415 0.013172586
0.070946716 0.06736283 -0.0040177535 0.51175648 -0.18734451 -0.83845526 0.0062222644
0.072716668 0.067488588 -0.0034542754 0.61314654 -0.16282201 -0.77300733 0.011438575
0.071478873 0.070292547 -0.0042758221 0.49509847 -0.21191534 -0.84259677 0.014325473
0.073431775 0.070610419 -0.0036881031 0.49506041 -0.21195823 -0.84260839 0.014328302
0.071284488 0.073734209 -0.0046771211 0.45992815 -0.15254131 -0.87475556 0.014554433
0.073730625 0.073448129 -0.0043309177 0.46014979 -0.15246579 -0.87465221 0.014505243
0.075464062 0.073739357 -0.0034533115 0.503052 -0.18113025 -0.84506249 0.020503035
0.071820609 0.075750068 -0.004853799 0.46004507 -0.15251929 -0.87469786 0.014525969
0.073617861 0.075405441 -0.0044175135 0.46004507 -0.15251929 -0.87469786 0.014525969
0.075021625 0.07531438 -0.0033330293 0.50312865 -0.18110847 -0.84502143 0.020481763
-0.0072993501 0.00091334566 -0.00045070387 -0.11853743 -0.97412163 -0.19244745 0.0024251642
-0.0039354903 0.00054851896 -0.00046205474 -0.09529113 -0.97337949 -0.20845133 0.0034295055
-0.00150843 0.00069368933 -0.0027250927 -0.10762563 -0.96712273 -0.23041327 0.0044071632
0.0017500271 0.00037209981 -0.001710214 -0.027363736 -0.99120706 -0.12945966 0.0026063325
0.0044348664 0.00039485053 -0.0017886112 0.0015298654 -0.99499059 -0.09995719 0.0046272199
0.00746236 0.00046030339 -0.0017367194 0.033731371 -0.99354261 -0.10832937 0.0037001257
0.010501842 0.00062690146 -0.0016189297 0.08296711 -0.97898352 -0.18630049 0.0042831688
0.013507113 0.00089275039 -0.0013770068 0.11237888 -0.99153543 -0.065028124 0.0051977136
0.016596848 0.001318402 -0.0016733982 0.1405044 -0.97801197 -0.15411429 0.0032714827
0.019451488 0.0017837897 -0.0015665129 0.16462338 -0.97682947 -0.13676018 0.0027294466
0.022506833 0.0023664506 -0.0014198415 0.1838298 -0.97556102 -0.1203633 0.0016839785
0.02477856 0.0029059548 -0.0016504789 0.21558593 -0.96923989 -0.11872968 0.0021331443
0.026239483 0.00328393 -0.0018067178 0.26398271 -0.95786858 -0.11314131 0.0016221717
0.028619027 0.0038896215 -0.0013757925 0.28285906 -0.95296979 -0.1088085 0.0016608197
0.031518064 0.0047932053 -0.0015716597 0.28880376 -0.95205826 -0.10088332 0.0012732104
0.033921681 0.0055987691 -0.0014850077 0.31812242 -0.94262326 -0.10128861 0.0017902112
0.035540428 0.0062031262 -0.001657289 0.36544767 -0.92481732 -0.10564554 0.0016322234
0.037529003 0.0069659171 -0.0015915915 0.37496391 -0.92072254 -0.10803735 0.0015850738
0.040476784 0.0082026236 -0.001508642 0.38512325 -0.9155947 -0.1156135 0.0016109069
0.04209112 0.008836708 -0.00079565885 0.42230076 -0.90193564 -0.090411492 0.0032294411
0.043663386 0.0096920906 -0.0015630381 0.44559312 -0.88795418 -0.11394767 0.0016687157
0.04650332 0.011157009 -0.0016275746 0.4475444 -0.88558972 -0.12423677 0.0016920338
0.048150256 0.011949491 -0.00078744226 0.48148593 -0.86704606 -0.12807137 0.0020354083
0.049649954 0.012923378 -0.0015625663 0.51362807 -0.84837699 -0.12822877 0.0020306578
0.05192389 0.014303527 -0.0014784337 0.52464527 -0.84460914 -0.10668987 0.0017045885
0.053466763 0.015336801 -0.0016223493 0.56423718 -0.81847328 -0.10834102 0.0015464725
0.055548325 0.016762471 -0.0015053822 0.56456751 -0.81433344 -0.13462774 0.0018752066
0.057265788 0.017930984 -0.00098752056 0.59942144 -0.78955334 -0.13152744 0.0024183902
0.058705933 0.019196233 -0.0015859185 0.62749207 -0.76779771 -0.12938486 0.002342554
0.060389213 0.020586699 -0.0014369254 0.6614033 -0.73923159 -0.1268162 0.0033914603
0.061931469 0.022078868 -0.0016033809 0.69522077 -0.71207982 -0.098033167 0.0017609039
0.063383684 0.023470363 -0.0011554991 0.73098749 -0.67285091 -0.11370563 0.0026778162
0.064895906 0.02527927 -0.0015599349 0.77188909 -0.62170011 -0.13295162 0.0029910356
0.066159323 0.026691446 -0.00074911187 0.79594666 -0.58840966 -0.14227766 0.0028856157
0.067217067 0.028358418 -0.0015388404 0.83245045 -0.5337534 -0.1487737 0.0030904387
0.068580002 0.030568553 -0.0015983725 0.85501641 -0.50159359 -0.13172251 0.0027077112
0.069457196 0.032103766 -0.0014544335 0.89247793 -0.4204776 -0.16334525 0.0051306379
-0.01506199 0.035534594 -0.0028631056 0.24627927 0.9020319 -0.35452062 0.0011044124
0.070542723 0.034546126 -0.0015004242 0.919276 -0.35611638 -0.16766872 0.0041633439
-0.024298778 0.038754079 -0.0028227458 0.35593927 0.92196339 -0.15261297 0.00097715552
-0.022823695 0.038346499 -0.0018486042 0.35670859 0.91982937 -0.16331859 0.0010092427
-0.019661661 0.037194509 -0.001775429 0.3009977 0.91111004 -0.28156501 0.0022299748
0.071561366 0.037436996 -0.0015665629 0.93741596 -0.27659982 -0.211527 0.004044936
0.072080657 0.038725153 -0.00059088762 0.96671873 -0.2326376 -0.10646404 0.0078026364
-0.030198619 0.041418687 -0.0027494868 0.44900244 0.87347221 -0.18826331 0.0024694996
-0.028716998 0.040934812 -0.0014064806 0.40442887 0.90773326 -0.11161389 0.0022918067
-0.025871305 0.039636429 -0.0015668423 0.3742525 0.91617662 -0.14337187 0.0011966352
0.071874842 0.039651673 -0.0026329714 0.96274161 -0.17958896 -0.20217891 0.0045937416
0.072301134 0.04068587 -0.0013726243 0.97160989 -0.15951614 -0.17472486 0.0037874642
-0.036416132 0.044787336 -0.0015358931 0.48136684 0.86763877 -0.12445442 0.0022593217
-0.034102816 0.04354142 -0.0016437983 0.46273676 0.87788349 -0.12326901 0.0020726526
-0.031543493 0.042268258 -0.0015554692 0.43678278 0.89517248 -0.088808723 0.0023154218
0.072695963 0.043589853 -0.001393006 0.98330295 -0.092324324 -0.15681687 0.0045625479
-0.040229797 0.046862155 -0.00156505 0.47139499 0.87152719 -0.13500747 0.0023971763
-0.037969407 0.045630246 -0.0013724985 0.45026353 0.88373798 -0.12755333 0.0020742218
0.072870322 0.046610247 -0.0014721154 0.98069978 -0.035628643 -0.19224602 0.0057597859
-0.04617038 0.050196469 -0.0015812265 0.46636134 0.87204677 -0.14846359 0.0019369236
-0.043221757 0.048559919 -0.0014356413 0.49094641 0.8631826 -0.11784524 0.0033668412
0.072928563 0.049605049 -0.0014651355 0.97578311 -0.011457657 -0.21843995 0.007718164
-0.051711559 0.053234968 -0.0014644024 0.44773257 0.87863433 -0.16594377 0.0030113899
-0.049307689 0.051919069 -0.0015584751 0.45946687 0.87308741 -0.16312124 0.0026584186
0.072949722 0.052641034 -0.001479724 0.96893853 -0.0048258984 -0.24725462 0.0099866046
-0.060600456 0.056645989 -0.002474529 0.44499198 0.85209447 -0.27553079 0.017441835
-0.058810048 0.056096263 -0.0016058892 0.370819 0.91059405 -0.18251495 0.0083304485
-0.055576473 0.054896425 -0.0016006116 0.3302618 0.92348075 -0.19521929 0.0035801665
-0.053524129 0.054186642 -0.00096987421 0.38471204 0.91519809 -0.1200384 0.010439896
0.072942548 0.055628769 -0.0016358951 0.95600486 -0.019020731 -0.29273358 0.014719634
-0.064211197 0.059142519 -0.0016651101 0.45794711 0.84152645 -0.286562 0.015725283
-0.061868869 0.057771176 -0.0013368623 0.48001939 0.84891319 -0.22119628 0.0090067545
0.073083133 0.058599386 -0.001631501 0.94149572 -0.050943907 -0.33315226 0.017770749
-0.066748813 0.060602628 -0.0013706704 0.39264515 0.82667798 -0.40303004 0.022459211
-0.065927193 0.060051188 -0.0019342614 0.39267293 0.82666105 -0.40303785 0.022476289
0.073288053 0.061565056 -0.0017351113 0.92109287 -0.10048664 -0.37615204 0.022141958
0.073862366 0.06447456 -0.0014809852 0.85453767 -0.21796596 -0.47144055 0.027497113
0.074321374 0.067282818 -0.0018025283 0.87833112 -0.25118417 -0.40674436 0.025087584
0.075211793 0.068390585 -0.00068875268 0.91746414 -0.28694347 -0.27554128 0.047554161
0.074648961 0.069941647 -0.002561287 0.68596143 -0.32742134 -0.64980942 0.020964868
0.075680569 0.070643194 -0.001268261 0.89665604 -0.26833254 -0.35214442 0.018314265
0.076592758 0.073243484 -0.00154419 0.8584255 -0.17959566 -0.48046961 0.031600211
-0.0031182135 0.00053783256 0.0018294175 -0.033824008 -0.99898237 -0.029835787 0.0077951653
-0.0023594529 0.0004130234 0.00057544664 -0.033824001 -0.99898237 -0.029835809 0.0077951374
0.0023457361 0.00045598418 0.0026346298 -0.0085824244 -0.99433762 0.10591911 0.0017831534
0.0039594788 0.00021872669 0.0008636447 -0.031467337 -0.99939567 0.014768279 0.0073570129
0.0073397597 0.00033228303 0.0010398298 0.058486164 -0.99576169 0.070979081 0.0019230254
0.010370044 0.00056319992 0.0013929004 0.079267599 -0.99294192 0.08822187 0.0017033543
0.013647275 0.00087065343 0.0013381959 0.11651067 -0.98056054 0.15788065 0.0060097752
0.016527427 0.0012749274 0.0015307385 0.11921676 -0.98070747 0.1549204 0.0061554871
0.019219223 0.0016894843 0.0014778305 0.18078543 -0.97789663 0.10504684 0.0025320307
0.022404131 0.0023005353 0.0015001732 0.19441392 -0.97622991 0.095803648 0.0027292275
0.024797769 0.0027955959 0.00091170921 0.23671858 -0.96947539 0.063888915 0.0021504196
0.026310222 0.0032361723 0.0015565837 0.26111728 -0.96106076 0.090443008 0.0023550056
0.028645081 0.0038752151 0.0015702876 0.28136966 -0.95502824 0.093553357 0.002157734
0.031620771 0.0047840676 0.001522161 0.28688532 -0.95451897 0.081181489 0.0016750119
0.034100529 0.0055966754 0.0012642501 0.31586596 -0.94546413 0.079538047 0.0024145574
0.035716251 0.0062147412 0.0016148727 0.36828259 -0.92588031 0.084342048 0.0023864133
0.037562799 0.0069330893 0.0014784357 0.37612495 -0.92206186 0.091279753 0.0022265057
0.040337678 0.00808712 0.0014110327 0.3876538 -0.9147833 0.11356127 0.0021549172
0.042205632 0.0089109885 0.0012656703 0.42098799 -0.90169042 0.098607443 0.003124926
0.041965444 0.0090199504 0.0029879673 0.43952343 -0.88284838 0.16552338 0.0066317311
0.043781724 0.0097159855 0.001610428 0.44153291 -0.88986725 0.11482585 0.0022079139
0.046449859 0.011063096 0.0013743767 0.44911769 -0.88745797 0.10349695 0.0019306811
0.048300967 0.011978468 0.00031283256 0.49937347 -0.86256599 0.081278116 0.0021123658
0.04944722 0.012758347 0.0015282085 0.51362896 -0.85133165 0.10686328 0.0020532988
0.052041728 0.014334767 0.0014291827 0.5265733 -0.84565687 0.087092571 0.0020029026
0.053644191 0.015379041 0.0014274279 0.55121458 -0.82974291 0.08768896 0.0020113313
0.055693094 0.01681825 0.0014704455 0.56473583 -0.81702715 0.11636122 0.0025166445
0.057433397 0.017983042 0.00054057065 0.61551493 -0.78344053 0.085803382 0.0025338535
0.058591727 0.019054908 0.001591156 0.62589526 -0.77181315 0.11206931 0.0029810397
0.060465846 0.020586947 0.001262606 0.67238516 -0.73500681 0.08754003 0.0027540377
0.06195448 0.022042174 0.0015764079 0.69745791 -0.71249121 0.076869063 0.0019024012
0.063420519 0.023490876 0.0013734431 0.73363119 -0.6730178 0.093980551 0.0030286629
0.064989187 0.025313813 0.0015183347 0.77159202 -0.6242919 0.12208755 0.0031766451
0.066188894 0.026820319 0.0014787014 0.79563493 -0.59268016 0.12528124 0.0032720838
0.067399822 0.02854085 0.0014723418 0.82687241 -0.55049211 0.11506727 0.0030080932
0.068703324 0.030658534 0.0015582328 0.85546482 -0.50775439 0.10181064 0.0030565385
0.069521971 0.032105938 0.0014080351 0.89292747 -0.43769449 0.10537636 0.0037391977
0.070583709 0.034494713 0.0014810404 0.92882359 -0.35524872 0.10528614 0.0029277173
-0.023350544 0.038748756 0.00010742438 0.34963411 0.92351395 -0.15772729 0.00082317513
0.071596324 0.037343644 0.0015554097 0.9351536 -0.33223575 0.12291132 0.0031820731
0.072070017 0.038702331 0.00077683444 0.97063851 -0.22927661 0.072753876 0.0076366137
-0.030559426 0.041774839 0.0022344554 0.41149026 0.91138166 0.0076974314 0.001592477
-0.028696215 0.041008998 0.0010522881 0.39595497 0.91655421 -0.056107964 0.0031821104
-0.02593114 0.039787184 0.00086918782 0.36603048 0.92175323 -0.1280338 0.0012131497
0.071893513 0.03943805 0.0028231686 0.9576382 -0.19029576 0.21614051 0.0021132992
0.072325289 0.040525291 0.0014312855 0.97757983 -0.15700881 0.1403065 0.0033093221
-0.0364176 0.044917937 0.00065819337 0.48890269 0.86934918 0.072153702 0.0019151958
-0.034395866 0.043778419 0.0014462548 0.44773757 0.89112139 0.073714323 0.001786432
-0.031963326 0.04252822 0.0015578672 0.43172345 0.9017483 0.02155822 0.0017007049
0.072750561 0.043464385 0.001404144 0.98811257 -0.089678191 0.12486564 0.0050493968
-0.042001046 0.047738552 0.0028179984 0.44285467 0.8780176 0.18156222 0.0041135717
-0.040405322 0.047046226 0.001433812 0.48443934 0.87073374 0.084506109 0.0023678367
-0.037895862 0.045621533 0.0017258729 0.4559198 0.88596183 0.084904328 0.0023792202
0.072953902 0.046452187 0.0013858126 0.98938549 -0.033392113 0.14142618 0.0054604667
-0.046307631 0.050397918 0.0012530009 0.46934366 0.87700623 0.1028423 0.0022380503
-0.043340933 0.048701052 0.0014069317 0.48325336 0.87147754 0.083624303 0.0021533428
0.073023908 0.049449205 0.0013920292 0.98736542 -0.007757578 0.15826979 0.0071268827
-0.051829554 0.053344477 0.0016774386 0.45023733 0.88187885 0.13991441 0.0039965366
-0.049112018 0.051915612 0.0014803867 0.46316448 0.87872142 0.11544406 0.0029727053
0.073065266 0.052461796 0.0014092366 0.98661292 0.0031420109 0.16304924 0.008504563
-0.060144346 0.056819674 0.0017036643 0.38996887 0.92034775 0.029736545 0.0075346157
-0.058833405 0.056247901 0.0013424687 0.38099048 0.92384636 0.036796603 0.0061211237
-0.055815428 0.05507578 0.0013664409 0.3750369 0.92213231 0.094970301 0.0035299689
-0.053461328 0.054280192 0.00071313023 0.36081821 0.92957485 0.075503141 0.0096859653
0.073150761 0.05550617 0.0013945554 0.97070849 -0.0085969381 0.24010637 0.01659645
-0.064202964 0.059410326 0.001242689 0.5406757 0.84086293 0.024885153 0.0056126611
-0.061753016 0.057834979 0.0013515376 0.51165122 0.85708135 0.060204808 0.010253311
0.073303007 0.058534652 0.0013857965 0.96555245 -0.021855971 0.25928885 0.023514798
-0.06652119 0.060679443 0.0014141179 0.58620661 0.78236455 -0.21039863 0.027260313
-0.065311201 0.060138837 0.0013760248 0.54059684 0.8409124 0.024926933 0.005655786
0.073612802 0.061520636 0.0012963328 0.98115814 -0.16978471 0.092205711 0.043954425
0.074094251 0.064515963 0.0013884094 0.95718539 -0.24474035 0.15459062 0.01641532
0.074538693 0.067221813 0.0016706188 0.93048716 -0.2900399 0.22376464 0.024291836
0.075235672 0.068176158 0.00063329487 0.94088441 -0.31355923 0.12812954 0.036705084
0.074755438 0.069746837 0.0026419684 0.9065485 -0.24382055 0.34455943 0.013654415
0.075793304 0.070618533 0.0013063671 0.93385899 -0.26455632 0.2406601 0.015080221
0.076792821 0.073276326 0.0014504426 0.97424036 -0.14999402 0.16839698 0.040118299
0.00034449328 0.0012523939 0.0053058434 -0.0096082604 -0.9950068 0.099343486 0.0016470826
0.0056745037 0.00058663212 0.0030750842 0.0679354 -0.98316199 0.16963893 0.0080202157
0.0077882605 0.00085070578 0.0036428487 0.065965712 -0.97639018 0.20569584 0.005253308
0.010373741 0.0012163547 0.0042106719 0.085389137 -0.93354374 0.34814462 0.0027429089
0.013517126 0.001405097 0.0039999429 0.079171263 -0.95537782 0.28457889 0.0077860951
0.016602332 0.0019243398 0.0042916145 0.13919857 -0.90563226 0.40056708 0.003802648
0.019734237 0.0023297474 0.004038244 0.16015954 -0.93770462 0.30831626 0.012672258
0.022503335 0.0027317316 0.0036507156 0.2047496 -0.92632174 0.3162365 0.004512364
0.022709155 0.0032531458 0.0050113588 0.17877616 -0.9143936 0.3632127 0.0067355055
0.025481498 0.003647584 0.0043421322 0.24836551 -0.92969966 0.2719799 0.0013815246
0.028577991 0.0045114872 0.0044469167 0.27115428 -0.91431391 0.30084124 0.0016538836
0.031505261 0.0053318823 0.004289126 0.28647244 -0.91165805 0.29464063 0.0026211061
0.033432737 0.0056772199 0.0033483065 0.30264497 -0.91145092 0.27868143 0.0022230139
0.032842092 0.006304652 0.0057069198 0.31075335 -0.86755055 0.38831487 0.0053809187
0.034649007 0.0065120985 0.0045973505 0.32633737 -0.89158803 0.31396598 0.0026439035
0.037470229 0.00754862 0.0044628875 0.34559447 -0.88383353 0.31528205 0.002864392
0.040019318 0.0085160341 0.004214711 0.37251437 -0.88411504 0.2820878 0.0023799697
0.041345354 0.0093147671 0.0048208297 0.41144148 -0.86530942 0.28627881 0.0025053418
0.043502159 0.010230035 0.0045038341 0.40959701 -0.86245131 0.29733476 0.0020430107
0.046024695 0.011417116 0.0042197071 0.46032616 -0.84857661 0.26080185 0.0023059261
0.047269259 0.012346671 0.0049027056 0.45220104 -0.83349866 0.31748095 0.0025737474
0.049638718 0.013546103 0.0044374671 0.49414918 -0.81086564 0.31354991 0.0022081693
0.051668182 0.014624346 0.0039991201 0.5042249 -0.80942053 0.3009913 0.0023270494
0.052991129 0.015742131 0.0046316083 0.52796638 -0.79443634 0.3002041 0.0025867994
0.055242196 0.017160183 0.0042430349 0.56341076 -0.77682132 0.28127733 0.0026547194
0.056491025 0.018482674 0.0052237664 0.58767819 -0.75158805 0.29958266 0.0016264191
0.058452103 0.019716956 0.0043962584 0.6204927 -0.71877229 0.31361622 0.0024713743
0.060125697 0.020714799 0.0034407205 0.64067507 -0.71000707 0.29227608 0.0021022554
0.059768844 0.021480432 0.0057053491 0.60234314 -0.67080522 0.43266991 0.00094053039
0.06152181 0.022522988 0.00444155 0.67278159 -0.68442947 0.28092909 0.0017282527
0.063333631 0.023801057 0.0031846212 0.734981 -0.64227754 0.21744518 0.0048581096
0.062772654 0.024398735 0.0055136359 0.69938827 -0.60067868 0.38735151 0.0040396908
0.064357199 0.025612643 0.0044223703 0.74412131 -0.58683091 0.31923816 0.0028925645
0.065640181 0.027600529 0.0049616769 0.76005191 -0.56276399 0.3249889 0.0022576579
0.066796593 0.028799057 0.0042771446 0.79003292 -0.51076758 0.33906418 0.0027344192
0.068154149 0.031314839 0.0045904615 0.82136023 -0.46833536 0.32562152 0.0020460731
0.069217674 0.032497223 0.0036120496 0.84348941 -0.41714075 0.3384068 0.0026141601
0.068724297 0.033449523 0.0056445999 0.80976313 -0.36917523 0.45606279 0.0066438508
0.069829479 0.034621947 0.0043264511 0.86232084 -0.34765872 0.36815241 0.0033712152
0.070778012 0.037436005 0.0044478662 0.89814073 -0.25394487 0.35896415 0.0031182531
0.071390666 0.04045843 0.0045814686 0.90800315 -0.19249877 0.37212154 0.0031049771
0.072127193 0.041557491 0.0032049238 0.94403964 -0.16839284 0.28360701 0.0017769351
-0.037208054 0.044619281 0.004471743 0.44612053 0.86373794 0.2343782 0.0015301123
-0.034610294 0.04343107 0.003978102 0.44061208 0.87592983 0.19648898 0.00062718772
-0.031792797 0.042087682 0.0036901892 0.42134777 0.90569323 0.0467529 0.00085192703
0.071497403 0.043399539 0.0051706322 0.88705194 -0.072647475 0.45591795 0.0032223971
0.072254889 0.043657806 0.0035572469 0.94742876 -0.08476533 0.30853453 0.0013111572
-0.042720575 0.0476152 0.0045157489 0.47274238 0.83303791 0.2873368 0.0014550128
-0.040387221 0.046250802 0.0047151586 0.45138872 0.84765059 0.278813 0.0014577964
-0.038259797 0.045445979 0.0036742417 0.45477757 0.85585469 0.24635382 0.0019132941
0.071599007 0.046512179 0.0052371966 0.88111317 -0.01206426 0.47275159 0.0036646482
0.072379865 0.046549235 0.0036142084 0.91892225 -0.027466934 0.39348125 0.0036026745
-0.048700258 0.050805856 0.0047517833 0.44670975 0.84284979 0.30009118 0.0013837536
-0.046480451 0.049867153 0.0040171701 0.45088878 0.84498328 0.28758055 0.0018031672
-0.044249803 0.048535794 0.0043077483 0.42658335 0.84389907 0.32536274 0.0027865479
0.071504757 0.049443755 0.0053099673 0.87055737 0.028353786 0.49124935 0.0040796367
0.072375432 0.049504589 0.0036508113 0.90805596 0.0047822753 0.41882154 0.0040531578
-0.054590929 0.053639468 0.0047367108 0.40660226 0.90073949 0.15278402 0.0035071929
-0.052301634 0.052620053 0.0046537262 0.42637444 0.85660505 0.29057291 0.0018583401
-0.050206605 0.051639169 0.0044787247 0.43509778 0.84056216 0.32271543 0.00089522428
0.071533076 0.052721828 0.0049645472 0.84342539 0.062015276 0.53365511 0.0053844051
0.072360046 0.052343331 0.0035844941 0.88999444 0.019985396 0.45553309 0.0042881118
-0.061333932 0.056624688 0.0037662298 0.53538728 0.83276749 0.14092147 0.0063749705
-0.054552961 0.054120213 0.0035820438 0.40661806 0.90073401 0.15277457 0.0035039203
0.07124652 0.055441514 0.0049423003 0.85100532 0.011131527 0.52503908 0.0057752328
0.072303191 0.055469278 0.0035412197 0.85350418 0.014354067 0.52088827 0.0057514538
-0.063004114 0.058058344 0.0030694541 0.52354962 0.83556956 0.16649093 0.0057607135
-0.062252574 0.057359159 0.0034420625 0.51272124 0.85113525 0.11263029 0.0086098853
0.071517438 0.058255594 0.0042325975 0.82704467 0.0026037749 0.56213015 0.0033219103
0.072375908 0.058376707 0.0033050906 0.93733764 -0.0063539464 0.34836435 0.0205814
0.071465686 0.061084546 0.0039094994 0.82811499 -0.040934987 0.55906165 0.0037182828
0.072134919 0.06085474 0.0034257229 0.96052045 -0.10868798 0.25610045 0.025547193
0.073113605 0.066452868 0.0031174382 0.93047506 -0.2900781 0.22376524 0.024261553
0.074151382 0.070331573 0.0033859257 0.82979923 -0.30211937 0.46920905 0.0085096909
0.074397527 0.073199205 0.0042844289 0.9226954 -0.22266135 0.31473014 0.019484948
0.075546704 0.073497012 0.0035452095 0.92271048 -0.22257778 0.31474507 0.019505821
0.0095525831 0.002436344 0.0068185395 0.067425072 -0.91440117 0.39915454 0.0035782796
0.013914544 0.0026269129 0.0063508097 0.13525283 -0.90031749 0.41368487 0.0034910808
0.012182856 0.0033626202 0.0079354644 0.1059037 -0.87217253 0.47759768 0.00088892685
0.016040606 0.0041799005 0.008280565 0.13308536 -0.85745078 0.49705777 0.0001548638
0.019041367 0.0045933365 0.0080742836 0.15547514 -0.84346551 0.5141921 0.00037881258
0.022234289 0.004723791 0.0074623139 0.17427862 -0.81857806 0.5473178 0.0020903735
0.025367787 0.0045252531 0.0063740611 0.21361658 -0.84534329 0.48965567 0.0091902399
0.028484246 0.0055331266 0.0067487112 0.20220327 -0.80977744 0.55079424 0.0033351313
0.030442141 0.005715488 0.0060649253 0.2928873 -0.89375681 0.33972892 0.0023774067
0.025154311 0.0062645786 0.0086511839 0.19398727 -0.78118658 0.59339404 0.0029183237
0.03178253 0.0067872833 0.007162788 0.30490655 -0.81128365 0.49884957 0.0044457261
0.034634057 0.0078653554 0.0073328302 0.28833398 -0.79695606 0.53077734 0.003329651
0.037293088 0.008479544 0.0067682364 0.32327947 -0.81698799 0.47751546 0.0019334176
0.0377829 0.0095700156 0.008130827 0.33929783 -0.77362323 0.53514874 0.0049981773
0.040579241 0.010276848 0.0074179522 0.34633467 -0.80560601 0.48067784 0.0019513434
0.043390077 0.011293301 0.0069564409 0.38305324 -0.77841252 0.49733719 0.0034265374
0.044003539 0.012454728 0.0082958387 0.37370664 -0.7507053 0.54477972 0.0062985714
0.046666317 0.013311347 0.0074415421 0.4238129 -0.77753395 0.46456826 0.0016569118
0.04908013 0.014341586 0.0068779881 0.46619448 -0.75575274 0.4598918 0.0016778994
0.050031498 0.015613044 0.0079187164 0.46718976 -0.74958944 0.46888104 0.0015533841
0.052416719 0.016747471 0.0072891084 0.4950538 -0.72660565 0.47640944 0.0024984672
0.054426648 0.017587077 0.0064425422 0.51898837 -0.71673733 0.46576664 0.0014296289
0.053409498 0.018338751 0.0085265972 0.46791869 -0.64224964 0.60709757 0.0016650902
0.055622961 0.019258397 0.0075364728 0.51585114 -0.69549465 0.50018483 0.0023105086
0.057689112 0.020403009 0.0068327789 0.56138456 -0.66211355 0.49644035 0.0013575518
0.056618225 0.021185698 0.008882408 0.49870494 -0.58190864 0.64239848 0.0017863296
0.05881381 0.022101786 0.0077080862 0.59431469 -0.64254653 0.48365697 0.0014227716
0.060724799 0.023273055 0.0069199097 0.60976976 -0.59749579 0.52074909 0.0011083989
0.061785761 0.025162909 0.0077294875 0.64268941 -0.55159378 0.53169024 0.0033223648
0.063495539 0.026182314 0.0067268796 0.67074668 -0.52754915 0.5213356 0.0014544274
0.06270802 0.027273238 0.0086818524 0.59750426 -0.47850463 0.64344537 0.0045636469
0.064576209 0.028448023 0.0074805417 0.70499676 -0.45531213 0.54375577 0.0022113058
0.066201068 0.029557506 0.0063794204 0.71706259 -0.44686913 0.5349105 0.0023249264
0.065442622 0.030989958 0.0084025795 0.65686041 -0.35920438 0.66295296 0.0014100111
0.066861838 0.031663895 0.0070825545 0.73284227 -0.39856616 0.55144101 0.0023883509
0.067803703 0.034381997 0.0075339656 0.75148082 -0.30216074 0.58649409 0.0018736124
0.069150768 0.035561189 0.0063688974 0.77677721 -0.30903184 0.5487408 0.0038534922
0.068346113 0.037396196 0.0081861606 0.75920075 -0.20489495 0.617764 0.002457412
0.069611646 0.037716772 0.0067125289 0.79942065 -0.22785226 0.55588663 0.0026127731
0.06870757 0.040193278 0.0084949732 0.72491837 -0.10752252 0.68039119 0.0051238886
0.069911346 0.040434837 0.0070982827 0.78766197 -0.11922929 0.6044609 0.0032951687
-0.038123861 0.044483207 0.0061283135 0.44789365 0.85923678 0.24719097 0.0017461946
0.069973856 0.043449499 0.0074296244 0.77269852 -0.042007592 0.63338172 0.0025559412
-0.046575844 0.047576047 0.0083712423 0.42359668 0.80445635 0.41643238 0.00031833092
-0.043258935 0.046853695 0.0068204394 0.42917341 0.81925637 0.38030136 0.00083395169
-0.041360456 0.045691151 0.0070954477 0.42703265 0.82569671 0.3686029 0.00074827916
0.068774432 0.047090489 0.0086262859 0.69617867 0.036329504 0.71694875 0.0036287976
0.070156194 0.046361595 0.0072834678 0.77726513 0.016579071 0.62895477 0.0036445605
-0.048919454 0.04960604 0.0070824102 0.43305594 0.82275212 0.36815953 0.0015772757
-0.046481878 0.04881677 0.0063651321 0.44024116 0.82468587 0.35507894 0.0025165388
0.068427399 0.049137909 0.0085624121 0.69837779 0.036154702 0.71481568 0.0031630485
0.070149362 0.049451455 0.0070533543 0.76433122 0.040619392 0.64354312 0.002433412
0.070193164 0.052170884 0.0065724123 0.77408046 0.057304468 0.63048846 0.0022915751
0.069932178 0.054914281 0.006233979 0.77263206 0.074155428 0.63050824 0.00082074723
0.013080771 0.0042520096 0.0091314437 0.10590246 -0.87217218 0.4775984 0.00088893622
0.02545381 0.0079172254 0.01026608 0.20083062 -0.71854746 0.66585022 0.00062933215
0.026459195 0.009225918 0.011384343 0.20331137 -0.70528919 0.67914051 0.00075397384
0.029843261 0.01062906 0.011636122 0.20353651 -0.68937325 0.69522482 0.00070121419
0.032862961 0.0096831741 0.010048763 0.18494059 -0.71933043 0.66959745 0.0019094937
0.034080815 0.0090190405 0.0091218092 0.20286937 -0.72215152 0.66131777 0.0026257273
0.037035841 0.010685693 0.0097412169 0.27828151 -0.71618217 0.64003325 0.0010757573
0.039545543 0.011452514 0.0095452955 0.3093147 -0.72067773 0.62044179 0.0010372036
0.038123336 0.01263281 0.011034042 0.25281495 -0.61913484 0.74347603 0.0022812579
0.04116562 0.01324836 0.010487988 0.3150124 -0.69277346 0.64871579 0.0011892702
0.043846361 0.01376263 0.0098760417 0.3468551 -0.66593617 0.66046995 0.0021682035
0.04627201 0.01460502 0.0094528692 0.37655544 -0.65469766 0.6554212 0.0026066734
0.04327352 0.015503579 0.011528309 0.29835248 -0.61094457 0.73330247 0.0039872928
0.046643883 0.016155314 0.010674208 0.36637047 -0.62964928 0.68506533 0.0020896427
0.049209986 0.016810479 0.0099096783 0.40297931 -0.64337802 0.65090114 0.0028187123
0.051577862 0.017643746 0.0092098732 0.44557878 -0.63294876 0.63311565 0.0027347645
0.049760964 0.01894057 0.011377178 0.39032918 -0.56459016 0.72724217 0.0010087319
0.05256008 0.019420423 0.010192543 0.43179727 -0.59317595 0.67948031 0.0033735891
0.054967713 0.020448092 0.0095033441 0.48530358 -0.57714039 0.65680248 0.0026318196
0.053117871 0.021489689 0.011463066 0.40886509 -0.50540316 0.75986636 0.00059195259
0.055498466 0.022265786 0.010588541 0.44551566 -0.49867141 0.74353391 0.0010516781
0.057800703 0.023065528 0.0096302964 0.53198075 -0.52725965 0.66256601 0.0030746672
0.056307148 0.024470869 0.0115861 0.44774777 -0.47214481 0.75934261 0.0017549515
0.058620252 0.02536061 0.010640006 0.50136673 -0.44553915 0.741705 0.0022918221
0.060821254 0.026156414 0.009561399 0.57504702 -0.49867934 0.64856756 0.0014450931
0.059496742 0.028014168 0.011546887 0.49405801 -0.3719531 0.78584826 0.0013392
0.06168611 0.028472446 0.010286872 0.56724513 -0.40248895 0.71849537 0.0029872518
0.063484736 0.029336989 0.0093197273 0.63166708 -0.42754155 0.64668763 0.0018194251
0.062161751 0.031111771 0.011188919 0.51681024 -0.29938167 0.80204594 0.0009245447
0.064272784 0.031633962 0.0098417904 0.62378484 -0.34528458 0.70119262 0.001650774
0.062540188 0.033616155 0.011809467 0.49673507 -0.2263428 0.83786827 0.0012159767
0.064746641 0.034373052 0.010492675 0.57235032 -0.24903877 0.78127766 0.0013393721
0.066428177 0.034865815 0.0092909578 0.67153704 -0.26840436 0.69064975 0.0018936849
0.064659715 0.037415396 0.011276211 0.54813832 -0.13664117 0.82515067 0.00089634239
0.066813618 0.037358385 0.0096847713 0.65605074 -0.17977786 0.73299205 0.0021551154
0.065042876 0.040285744 0.011372819 0.58248729 -0.074875064 0.80938381 0.0022508681
0.067301013 0.040425882 0.0098128263 0.64107811 -0.081770986 0.76310706 0.0017869421
0.064889804 0.042082448 0.011458714 0.55956835 -0.047710232 0.82740992 0.0013532523
0.067681305 0.043398563 0.0096712876 0.6348725 -0.03010983 0.77203 0.0019389662
0.065912761 0.045300599 0.010640625 0.61390901 0.01271804 0.78927439 0.0012469554
0.067830294 0.046069507 0.0094385343 0.66855472 0.00057379942 0.74366271 0.0039510429
0.029110543 0.011226877 0.012394937 0.19578016 -0.69373441 0.69311094 0.00076261844
0.032477058 0.012125922 0.0121443 0.2139034 -0.67323381 0.70781457 0.0007099366
0.040040161 0.017474007 0.013720799 0.26728895 -0.56934899 0.77743065 0.00051197573
0.045160525 0.017494487 0.012260623 0.28688261 -0.56097847 0.77653176 0.00078903383
0.047240268 0.018962221 0.012432084 0.35181391 -0.56457812 0.74664491 0.00063695433
0.050699405 0.02060242 0.012069564 0.3838076 -0.53882897 0.74990338 0.00070830889
0.050898258 0.021940123 0.01271308 0.37895587 -0.49873409 0.77952343 0.0005785448
0.052796911 0.022931512 0.012460694 0.40305716 -0.48766264 0.77442235 0.00052660232
