# .PCD v0.7 - Point Cloud Data file format
VERSION 0.7
FIELDS x y z normal_x normal_y normal_z curvature
SIZE 4 4 4 4 4 4 4
TYPE F F F F F F F
COUNT 1 1 1 1 1 1 1
WIDTH 561
HEIGHT 1
VIEWPOINT 0 0 0 1 0 0 0
POINTS 561
DATA ascii
0.058723085 0.022062128 -0.0075283712 0.59402364 -0.64898431 -0.47534746 0.0018888101
0.060553469 0.0232266 -0.0067463489 0.62773108 -0.60569227 -0.48896888 0.0011350424
0.059888814 0.024144227 -0.0086133033 0.58502656 -0.55740041 -0.58910841 0.00062116503
0.061724819 0.02511871 -0.0074721742 0.66691095 -0.55426443 -0.49801669 0.0022902833
0.063388497 0.026187621 -0.00648356 0.67967021 -0.56758273 -0.46464851 0.0016861054
0.062538892 0.027226448 -0.0085531268 0.64760149 -0.49339938 -0.58066285 0.0019762623
0.064286344 0.028309293 -0.0073469901 0.70999444 -0.48214293 -0.51327008 0.0015291715
0.065310612 0.030587705 -0.0079062423 0.72435457 -0.44651663 -0.52529341 0.0012596048
0.066800542 0.031879071 -0.0068475255 0.7615872 -0.4133862 -0.49909604 0.0012899517
0.065791234 0.033019617 -0.0087675164 0.75687516 -0.36297634 -0.54349619 0.0010333686
0.067844614 0.034509357 -0.0070363996 0.78832674 -0.35299259 -0.50392175 0.001035947
0.068416342 0.036853932 -0.0074105076 0.81854898 -0.29336739 -0.49387556 0.00243107
0.069288343 0.037212282 -0.0063840211 0.87284112 -0.26981902 -0.40662768 0.001632237
-0.013709622 0.002663807 -0.0038373368 -0.20229076 -0.95472646 -0.21811855 0.0023290487
-0.010519124 0.0020925191 -0.0040420443 -0.1489841 -0.93760884 -0.31415504 0.001672987
-0.0076682903 0.0017931378 -0.0044773361 -0.12001225 -0.93890941 -0.32256189 0.0015256652
-0.0045435834 0.0013866507 -0.0043275487 -0.096946441 -0.94040704 -0.32593867 0.0014953705
-0.0013415189 0.0011350494 -0.0042996537 -0.052005947 -0.938164 -0.3422626 0.0020901887
0.0014973778 0.0010070459 -0.0042399443 -0.034472033 -0.93863726 -0.34317884 0.0020447797
0.0045847287 0.00099546579 -0.0043196115 0.0025053772 -0.94591892 -0.32439348 0.0011588664
0.0076682032 0.001067661 -0.0042945882 0.042251233 -0.93865192 -0.34226805 0.0025326007
0.010276129 0.0013009084 -0.0045138728 0.075155713 -0.93928826 -0.33479711 0.0021890949
0.013287971 0.0014967298 -0.0042957976 0.10079028 -0.94358093 -0.31543046 0.0016948401
0.016450845 0.0018984787 -0.0043093734 0.12999873 -0.94422764 -0.30254656 0.0017820565
0.019489683 0.002443068 -0.0044719316 0.16042413 -0.946271 -0.28077617 0.0013133863
0.02207477 0.00270971 -0.0037378534 0.19768532 -0.93806875 -0.28451279 0.001867682
-0.022538139 0.0053424002 -0.0038460398 -0.31783226 -0.93165058 -0.17609614 0.00034023973
-0.016754529 0.0035190794 -0.0040790695 -0.26683366 -0.94196367 -0.20372596 0.001550987
-0.01335909 0.0032320088 -0.0055021401 -0.19640142 -0.93886906 -0.28275675 0.0010844474
0.022889432 0.0032544099 -0.0049000205 0.21650186 -0.92837387 -0.30207428 0.0018509022
0.025480736 0.0037248044 -0.0044525042 0.24107668 -0.92507964 -0.2934444 0.0015146051
0.028523402 0.0045465352 -0.0044676741 0.26249892 -0.91675717 -0.3010824 0.0016360439
0.031444762 0.0053852666 -0.0042999047 0.29119754 -0.92066377 -0.25996575 0.0013457909
0.033550005 0.0058633983 -0.0035402484 0.30664295 -0.9144246 -0.26419267 0.0013122874
0.032725792 0.0061662775 -0.005407223 0.28535649 -0.90863544 -0.30488241 0.0026101083
0.034728695 0.0066372491 -0.0046623931 0.33394817 -0.89496005 -0.29584652 0.0016578584
0.037510902 0.007626513 -0.0043861177 0.35543028 -0.892416 -0.27796245 0.00125952
0.039941713 0.0085498337 -0.0040799165 0.38886863 -0.88367397 -0.26057911 0.0014848559
0.041063152 0.0093194395 -0.0049052034 0.40160674 -0.87390757 -0.27385679 0.001452339
0.043514449 0.010336937 -0.0044496884 0.43378523 -0.85827243 -0.27422413 0.0017557397
0.045958359 0.011512702 -0.004217369 0.43636328 -0.8493439 -0.29698825 0.0015082228
-0.039437715 0.012274884 -0.0030590647 -0.46864462 -0.86378771 -0.1850487 0.0041808174
0.047249854 0.012440216 -0.0048458073 0.46239629 -0.83407772 -0.30083907 0.0017031888
0.049505673 0.013614877 -0.0044406969 0.50193572 -0.81653696 -0.28518057 0.0018551876
0.051523592 0.014614281 -0.0037654659 0.51956159 -0.80979168 -0.27256766 0.001552894
0.050943889 0.015032494 -0.0058415332 0.49264434 -0.77053756 -0.40444231 0.0010529095
0.052837476 0.015787538 -0.0045678415 0.55105501 -0.78789574 -0.27487943 0.0013109053
0.055009294 0.017193079 -0.0042800638 0.56241268 -0.77391142 -0.29112378 0.0019187693
0.05633384 0.018450217 -0.0049552214 0.58519316 -0.75703007 -0.29061055 0.0019143864
0.058302823 0.01977708 -0.0043011531 0.62126756 -0.72613466 -0.2945421 0.002619497
0.060237087 0.020929622 -0.0030206994 0.66577196 -0.69605428 -0.26880518 0.001570963
0.05974276 0.021409655 -0.005150001 0.64973193 -0.68965816 -0.31971866 0.0019140831
0.061459377 0.022697909 -0.004356795 0.68467015 -0.65968108 -0.30991548 0.0027791436
0.06316793 0.023973191 -0.0032758627 0.70221049 -0.64547354 -0.30044034 0.0014778788
0.062650844 0.024484154 -0.0053351512 0.70134473 -0.60350406 -0.3793394 0.0036969199
0.064168923 0.025710847 -0.0043885852 0.7251699 -0.5958789 -0.34504619 0.0027145741
0.065434366 0.027702242 -0.0048963642 0.77619767 -0.52436912 -0.35007739 0.0032941552
0.066601075 0.028879832 -0.0041689589 0.78484941 -0.50480402 -0.35942236 0.0030553301
0.067965634 0.031334512 -0.0043356447 0.81951225 -0.44246206 -0.36417991 0.002998203
0.069207713 0.032781478 -0.0031729178 0.85344458 -0.42778295 -0.29771462 0.0092107551
0.068650715 0.033527333 -0.005162322 0.85338557 -0.33748332 -0.39728835 0.0031449446
0.069619305 0.034819752 -0.0042498112 0.85682088 -0.33630806 -0.39083865 0.003133306
0.070501551 0.03751542 -0.0043210406 0.87622446 -0.27972132 -0.39241126 0.0020035424
0.071264163 0.040431365 -0.0040311445 0.94049484 -0.16689955 -0.29599673 0.0057302299
0.071481459 0.043267388 -0.0043769758 0.93753499 -0.10310809 -0.33226025 0.00093899656
0.071383253 0.045002583 -0.0046905056 0.94234294 -0.060234357 -0.32918325 0.00061646849
0.072190076 0.04656966 -0.0031640159 0.97296232 -0.038950618 -0.22765599 0.0042695738
0.071722135 0.049185902 -0.0040241024 0.97267693 -0.044133157 -0.22792944 0.0037624796
0.072036326 0.048079766 -0.0035184163 0.94207054 -0.027968282 -0.33424667 0.00051570957
0.072167143 0.051946402 -0.0030666082 0.98368829 -0.026945412 -0.1778516 0.0038017333
-0.015959654 0.0026213774 -0.0011647316 -0.24947608 -0.95907646 -0.13391802 0.00088153686
-0.013533614 0.0020688204 -0.0013428261 -0.21092011 -0.96350795 -0.16481863 0.001918893
-0.010588116 0.0014974212 -0.0014977808 -0.16843142 -0.9700551 -0.17499673 0.0030203292
-0.0074233473 0.00097749499 -0.0013644716 -0.1280683 -0.97674465 -0.17195487 0.0030852838
-0.0044397926 0.00063509098 -0.0013070775 -0.089672059 -0.97871631 -0.18458933 0.0044093123
-0.0015136178 0.00042957973 -0.001399309 -0.058343731 -0.9820382 -0.17943519 0.0046054246
0.0015090789 0.00031047218 -0.0014122034 -0.025421951 -0.99157387 -0.12702389 0.0016562137
0.0045418711 0.00028044201 -0.0012889513 0.014329442 -0.9987275 -0.048354726 0.0072758719
0.0074472288 0.0003989918 -0.0015154404 0.04734971 -0.98237294 -0.18083516 0.0053135082
0.010494054 0.000586265 -0.0014219936 0.078654379 -0.98162746 -0.1738418 0.0050226636
0.01348287 0.00088381622 -0.0014866319 0.1073228 -0.98061419 -0.16394417 0.0042043244
0.016536798 0.001277725 -0.0014355638 0.15535285 -0.97771305 -0.14121874 0.0026719123
0.019509619 0.0017722425 -0.0014646145 0.16344923 -0.97705859 -0.13653164 0.0028497523
0.02248909 0.0023572624 -0.0013977278 0.19009997 -0.97541797 -0.11145321 0.0019302058
0.024693672 0.0028270236 -0.0010872802 0.2182128 -0.96942198 -0.11226805 0.0020950297
-0.024818081 0.0056815273 -0.0015597881 -0.33803263 -0.93102545 -0.13757019 0.0016087589
-0.022427082 0.0046728612 -0.0010816907 -0.31805688 -0.93469459 -0.1587007 0.00042679769
-0.019319946 0.0036571037 -0.0013104358 -0.29925826 -0.94174325 -0.15350613 0.00071976701
-0.017850835 0.0032866409 -0.001790856 -0.26233855 -0.9539789 -0.14526755 0.00067642081
0.026008179 0.0032290886 -0.0017451833 0.2541168 -0.95929927 -0.12316528 0.0022303339
0.028575333 0.0038988485 -0.0014184786 0.28286016 -0.95280623 -0.11022875 0.0015701501
0.031449679 0.0047888462 -0.0015087851 0.30611387 -0.94304746 -0.13021426 0.0019818461
0.034022592 0.0056353966 -0.0012670967 0.32234186 -0.94150788 -0.098278843 0.0019296055
-0.033137456 0.0088972496 -0.00016604358 -0.3329747 -0.92719507 -0.17157242 0.005063307
-0.031396527 0.0082717706 -0.0012012003 -0.3644748 -0.91460711 -0.17507707 0.0039316947
-0.028477136 0.007091125 -0.0013052989 -0.35983956 -0.91756248 -0.16909948 0.0022606053
-0.026358103 0.0063225841 -0.0017731015 -0.35036668 -0.92568165 -0.14267702 0.0016281814
0.035486732 0.006217544 -0.0016981126 0.36632231 -0.92504382 -0.10050829 0.0018301969
0.037503865 0.006963172 -0.0013148225 0.37528846 -0.92112631 -0.10336815 0.0017282659
0.040476438 0.0082357014 -0.0014258192 0.38369864 -0.91612661 -0.11613574 0.001589023
0.042169139 0.0089169694 -0.00080697471 0.41699538 -0.90135151 -0.11696301 0.0018264601
-0.037593953 0.011217976 -0.0024463516 -0.41772103 -0.88437623 -0.20829774 0.0033355691
-0.03480918 0.0098234285 -0.0019898927 -0.38204634 -0.89471644 -0.23135081 0.003376177
0.043633707 0.0097298818 -0.0015089766 0.4489443 -0.88550323 -0.11971996 0.0017477856
0.046451427 0.011171459 -0.0014426076 0.46308142 -0.87749374 -0.12474104 0.0017422511
0.048043121 0.011911208 -9.4569383e-05 0.45491064 -0.89037091 -0.017204689 0.0041454029
0.047850259 0.012059214 -0.0023514875 0.49405634 -0.86165226 -0.11603303 0.0024311075
0.049480852 0.012893238 -0.0015081911 0.5030272 -0.85536736 -0.12373473 0.0018975064
0.051919643 0.014367363 -0.0013319069 0.52882087 -0.84269822 -0.101036 0.0017743742
0.053411942 0.015373721 -0.0015491928 0.55843526 -0.82346022 -0.10031614 0.0017427263
0.055514902 0.01683219 -0.0014661159 0.56936431 -0.81386763 -0.11594725 0.0026314345
0.057134394 0.017929874 -0.00092417112 0.60631186 -0.78539032 -0.12469131 0.0030749501
0.056884084 0.018022235 -0.0025909806 0.60157049 -0.78116882 -0.16699761 0.0013237701
0.058577687 0.019204408 -0.0015584128 0.64176971 -0.76138866 -0.0917546 0.0016290336
0.060321372 0.020612389 -0.0011756641 0.66664863 -0.73460221 -0.12625059 0.0033208104
0.061817948 0.022097873 -0.0014994739 0.68648463 -0.71653885 -0.12373727 0.003143437
0.063320667 0.023584338 -0.0012371518 0.73481452 -0.66820705 -0.11639175 0.0024836245
0.064801827 0.025354467 -0.0015501393 0.77221584 -0.6198585 -0.13949269 0.0029323609
0.066122301 0.026845787 -0.00071571587 0.79588437 -0.58733904 -0.14697275 0.0027987401
0.067185938 0.028523613 -0.0014273818 0.83300829 -0.53320384 -0.14761749 0.0029034507
0.06855958 0.03078747 -0.0015594173 0.85378736 -0.50552529 -0.12446428 0.0026958457
0.069377698 0.032162007 -0.0012046313 0.89412153 -0.41966683 -0.15628964 0.0052426476
0.070319913 0.034391187 -0.0014461725 0.91255897 -0.3674981 -0.17939141 0.0038226526
0.071396716 0.037360538 -0.001403295 0.94784749 -0.28108552 -0.15025298 0.0034623833
0.071871407 0.03996719 -0.0021183663 0.96975917 -0.18951996 -0.15378369 0.0057276799
0.072195061 0.040599015 -0.00093666511 0.98156875 -0.14950638 -0.11904041 0.0052141836
0.072500125 0.043452114 -0.0013334163 0.97662497 -0.098666042 -0.19096778 0.0042173606
0.072758481 0.046501171 -0.0010883433 0.98391366 -0.044738974 -0.17295173 0.005668343
0.072782718 0.04936884 -0.0013218945 0.98717999 -0.018933412 -0.15848412 0.0042588431
0.072820619 0.052331116 -0.0013359431 0.99553502 -0.06870468 -0.06472858 0.0086481357
0.072977781 0.055524111 -0.00092227547 0.99352282 -0.082805581 0.077817552 0.0087429071
0.073288485 0.058559634 -0.00062022498 0.9344033 -0.056293137 0.35174081 0.017892085
0.073590703 0.061393484 -0.00067613163 0.90910077 -0.06741298 0.41108543 0.019629724
0.074063867 0.065025263 -0.0009736158 0.96729457 -0.17200345 0.18642965 0.019239845
0.07458654 0.067220673 -0.00096883014 0.9691475 -0.24632129 0.0088838264 0.013563347
0.075135648 0.068540059 -0.00053394883 0.95868903 -0.28316262 0.027096689 0.015401511
0.074542537 0.069848396 -0.002373483 0.95868456 -0.28317794 0.027096087 0.015403466
0.075651407 0.070627093 -0.00091563433 0.94365227 -0.33091438 -0.0040260791 0.015849605
0.076499589 0.072892748 -0.0011152216 0.95552081 -0.28658116 0.069651425 0.020075753
-0.018101837 0.002760303 0.0029268237 -0.2840299 -0.95881039 0.0031102803 0.0061387997
-0.016397102 0.0025226504 0.001533004 -0.23724821 -0.97130388 -0.016795391 0.0056524454
-0.013599591 0.0018919677 0.0016163385 -0.19409859 -0.98089415 0.01312747 0.001222745
-0.010511911 0.0013351737 0.0014463277 -0.15966754 -0.98293 0.091405109 0.0043669571
-0.0075155217 0.00089805719 0.0015822205 -0.12040038 -0.9856953 0.11793441 0.0051470795
-0.0044603748 0.00057992659 0.0015697315 -0.079982288 -0.99667287 0.01568871 0.0057223402
-0.0014124132 0.00037797575 0.0015972659 -0.050684124 -0.99406302 0.096279696 0.0016548805
0.0014869431 0.00027314291 0.0015454073 -0.015491161 -0.99904937 0.040748436 0.0069222297
0.0044658659 0.00025593516 0.0015150585 0.02436753 -0.99270284 0.11809848 0.0021532539
0.0075343787 0.00035816076 0.0015455676 0.053892989 -0.9971416 0.05295315 0.0074255811
0.010505847 0.00055340043 0.0015936213 0.08055535 -0.98010045 0.18142191 0.0067280843
0.013465292 0.00084697013 0.001540866 0.1128765 -0.97849143 0.17266552 0.005877607
0.016479556 0.0012414147 0.0015210281 0.14018051 -0.97708255 0.16018446 0.0050650137
0.01946073 0.0017320671 0.0015747708 0.17266034 -0.97590196 0.13343087 0.0035259437
0.022480899 0.0023267234 0.0015539328 0.18719262 -0.97556782 0.11500568 0.0027494601
0.0247501 0.0028301498 0.0014503143 0.21131793 -0.97118574 0.11019569 0.0033407763
-0.025263634 0.005163582 0.0019346247 -0.32326013 -0.9459489 -0.026145088 0.0077228402
-0.022006726 0.0042763157 0.0011027417 -0.31469384 -0.94673461 -0.068274163 0.0017000381
-0.019654464 0.0034605162 0.0014051101 -0.30972382 -0.94794303 -0.073994614 0.0019265126
-0.017724657 0.003022355 0.00064957532 -0.24237812 -0.96669227 -0.082213163 0.0015064814
0.026273884 0.0032299482 0.0015897019 0.26401696 -0.95918363 0.10130064 0.0024424095
0.028524635 0.0038499644 0.001585084 0.28119531 -0.95483172 0.096050009 0.0023357286
0.031589683 0.0047841012 0.0014898347 0.29788053 -0.94851226 0.10766508 0.0028619813
0.034062505 0.0056247306 0.0014681644 0.31791076 -0.94445795 0.083258048 0.0023978639
-0.034607027 0.0082497541 0.0028048195 -0.3267307 -0.94495112 0.017732866 0.017014116
-0.032035243 0.0072994027 0.0024365354 -0.36206666 -0.92979515 -0.066247471 0.014124944
0.035493687 0.0061755353 0.001812737 0.36920804 -0.92489827 0.090821862 0.0022749291
0.037482236 0.0069359723 0.0015710768 0.37733328 -0.9213962 0.092997968 0.0021238571
0.040465649 0.0081949113 0.0015199007 0.38351172 -0.91711539 0.10871047 0.0018505753
0.042193629 0.0089200726 0.0010283079 0.41572362 -0.90328437 0.10607152 0.0022002126
-0.037665799 0.009581035 0.0027768691 -0.39797309 -0.86945856 0.29267585 0.00075478235
0.043673281 0.0097112739 0.0016637509 0.45114914 -0.88605374 0.10664559 0.0021270646
0.04646603 0.011132451 0.0014820962 0.46663016 -0.88141567 0.073230639 0.0031283486
0.04809764 0.011990963 0.0013059769 0.49244541 -0.86600846 0.086757384 0.0036807102
0.049557816 0.012890738 0.0015581573 0.51770669 -0.8487528 0.10769624 0.0022851522
0.051983103 0.014369571 0.0015056352 0.526559 -0.84541643 0.089479484 0.0021722082
0.053472627 0.0153814 0.0017349005 0.55285966 -0.82852358 0.088853016 0.0022229387
0.055519201 0.016783997 0.0015234614 0.58225417 -0.80696672 0.098917849 0.0023762689
0.057163525 0.017918169 0.0011499824 0.60909784 -0.78828746 0.087193161 0.0038255274
0.058599342 0.019153947 0.0015324294 0.62717336 -0.77154541 0.10663594 0.0026042752
0.060396172 0.020670837 0.0014906554 0.66231406 -0.74404544 0.087957531 0.0026980774
0.061896514 0.022108538 0.0015885805 0.70205289 -0.70808697 0.075726561 0.0018670387
0.063341387 0.023563638 0.0014386262 0.73528546 -0.67198777 0.088247575 0.0029411213
0.064890906 0.025360169 0.0015345337 0.77135712 -0.62524849 0.11862738 0.0035453213
0.066138238 0.026890034 0.0013650092 0.79740775 -0.59050941 0.12425546 0.003508575
0.067180417 0.028438758 0.0015718789 0.82955426 -0.54603338 0.11699311 0.0030931486
0.068564132 0.030694788 0.0016823558 0.85673642 -0.50478005 0.10582937 0.0028628029
0.069388092 0.032134298 0.0014164448 0.89174449 -0.43925121 0.10885796 0.0037743635
0.070433654 0.034510322 0.0015580094 0.92988533 -0.35089064 0.11040366 0.0027219306
0.071484029 0.037487142 0.0015637128 0.95814031 -0.25903499 0.12193481 0.0048347982
0.071885191 0.039717484 0.0024345445 0.96628386 -0.19167487 0.17191933 0.0046507753
0.072216734 0.040772598 0.0014238142 0.98436052 -0.13166621 0.11703981 0.005532736
0.072533831 0.043487228 0.0018284811 0.98862118 -0.086842515 0.1228277 0.0033685472
0.072735406 0.046425212 0.0017666051 0.99004334 -0.038137082 0.13549845 0.004885484
0.072835408 0.049409423 0.0015772041 0.98707187 -0.0066313129 0.16014096 0.006180184
0.072888069 0.05250556 0.0014768381 0.98305547 -0.020229084 0.18218875 0.0073587359
0.072919957 0.055488616 0.0017604169 0.96842581 -0.049774237 0.24428272 0.010713337
0.073072933 0.058545742 0.0017131346 0.93436968 -0.056380942 0.35181594 0.017987685
0.073307946 0.061532203 0.0017118056 0.90914643 -0.067260504 0.41100958 0.019555187
0.073730148 0.064527109 0.0017715801 0.8718375 -0.13508618 0.47079843 0.034434039
0.067086518 0.067447551 0.0029645546 -0.093573168 0.10291959 0.9902786 0.0066157808
0.07436052 0.06737072 0.0018771896 0.88655174 -0.32536936 0.3288781 0.016430946
0.075146593 0.06845177 0.00073513435 0.93712705 -0.30127522 0.17614259 0.038905602
0.067927405 0.070818819 0.0027888441 -0.34854406 0.038767599 0.93649036 0.0065408475
0.074665964 0.069690667 0.0025865491 0.84499967 -0.34716928 0.40675423 0.020498412
0.075641885 0.070722029 0.0014711089 0.90254641 -0.28639385 0.32154083 0.021872327
0.068294562 0.072529249 0.0027303721 -0.52354896 0.0030796849 0.85199004 0.0081014642
0.076481543 0.072975487 0.0017566031 0.86536396 -0.27317891 0.42014104 0.029610623
0.068048656 0.075996913 0.0026095572 -0.49156794 -0.043335747 0.86976033 0.0063720476
-0.018591708 0.0028855072 0.0031284792 -0.28077096 -0.95897692 0.03912757 0.0045898976
-0.016310355 0.0025742257 0.004138099 -0.19548994 -0.96337616 0.18354838 0.010179576
-0.013648351 0.0022388068 0.0046883938 -0.18973134 -0.94520104 0.26570088 0.0050512264
-0.010579289 0.0017063547 0.004565944 -0.13151059 -0.95522714 0.2650398 0.0041634655
-0.0075040427 0.0013474784 0.0045655617 -0.098114274 -0.95136863 0.2920126 0.0039718091
-0.0044862768 0.0011309352 0.0046237237 -0.062088236 -0.94785541 0.31259435 0.0033373861
-0.001462566 0.0010091268 0.0046327431 -0.031494774 -0.94438374 0.32733387 0.0028709506
0.0015501139 0.00095160038 0.0045394604 0.0013734956 -0.94038689 0.34010381 0.0024870478
0.0045354441 0.00099988643 0.0045229127 0.026986338 -0.93669409 0.34910753 0.0022761123
0.0074835056 0.0011467654 0.004591485 0.052648269 -0.93232548 0.35776719 0.0022165084
0.010438617 0.0013092523 0.0045070471 0.078137212 -0.92955017 0.36032078 0.0023489292
0.01356741 0.0016377547 0.0045947633 0.10132422 -0.92837161 0.35757461 0.0027723883
0.016562063 0.0020098574 0.0045866822 0.12120711 -0.92952329 0.34827471 0.0031750859
0.019477274 0.0024213754 0.0044789142 0.14934328 -0.93056077 0.334295 0.0037402424
0.022290647 0.0027297423 0.0038480808 0.21173972 -0.92492306 0.31572717 0.0039589526
-0.027664583 0.0057460363 0.0035148878 -0.29879695 -0.91791469 0.26106152 0.0041510453
-0.025419492 0.0053688041 0.0047287312 -0.26400277 -0.91919553 0.2922022 0.0055930899
-0.022575179 0.0044022338 0.0045293262 -0.26147676 -0.94004184 0.21897778 0.0073606893
-0.019604251 0.0035629999 0.0046238215 -0.26119491 -0.92266333 0.28367156 0.0065539172
-0.017213937 0.0032325538 0.0053684721 -0.2131225 -0.93115211 0.29586238 0.0050766286
0.020395251 0.0031404332 0.0057985308 0.16027661 -0.83808607 0.52146244 0.0015040379
0.022824956 0.0033534251 0.0052260291 0.20321172 -0.90546292 0.37261501 0.0051107933
0.025511604 0.0037174595 0.0045481939 0.22897808 -0.91213328 0.33997333 0.0036116964
0.028416511 0.0045116865 0.0046040039 0.25282991 -0.90647894 0.33819079 0.004047764
0.031365622 0.0053099403 0.0043466548 0.28862348 -0.9052707 0.31173941 0.0035383399
0.033459768 0.0057954779 0.0036944195 0.31939441 -0.90192729 0.29071355 0.0026090459
-0.036056541 0.0089980941 0.0038581868 -0.35156193 -0.889566 0.29167885 0.0019883132
-0.034029406 0.0084221177 0.0046041021 -0.33220097 -0.89667529 0.29260212 0.0013848551
-0.031425159 0.0074936491 0.0048097582 -0.33941948 -0.88408899 0.32121795 0.0016462955
-0.028817929 0.0065147136 0.0046956432 -0.32917887 -0.88602334 0.32650256 0.0014374972
-0.026601776 0.0061055664 0.0056883981 -0.29421961 -0.91239673 0.28454712 0.0050337068
0.032504406 0.0061181681 0.005552832 0.29444325 -0.89829731 0.32613659 0.0037501124
0.034690902 0.0065680495 0.0046915691 0.3526054 -0.8880859 0.29491162 0.0021681497
0.037505958 0.0076114065 0.0045841401 0.32592508 -0.88489741 0.33276016 0.0024927717
0.040083405 0.0085750455 0.0042340704 0.38334674 -0.88207048 0.27385569 0.0024499069
-0.040298082 0.011234513 0.0045825881 -0.40982276 -0.84736937 0.33765432 0.0010284885
-0.0375214 0.0098970737 0.0045824754 -0.38381231 -0.86936241 0.31128278 0.0010598506
-0.03567088 0.0092556067 0.0051005096 -0.37453038 -0.87369698 0.31045222 0.0011459071
0.041251708 0.0093541928 0.0049919635 0.41999814 -0.86300749 0.28074843 0.0022291865
0.043475561 0.01027293 0.0045664152 0.40573269 -0.86739522 0.28810862 0.0020248373
0.045988899 0.0114404 0.0042280457 0.44745317 -0.84956592 0.27932659 0.0022437572
-0.045952357 0.01443913 0.0044348324 -0.50386375 -0.78642225 0.35729736 0.00029095548
-0.04361799 0.013087114 0.0046712486 -0.46976909 -0.80489486 0.36257574 0.00029417058
-0.041614529 0.012197694 0.0053873919 -0.42877036 -0.81577724 0.38815382 0.00055669097
0.04728619 0.012394774 0.0049089906 0.484806 -0.82931495 0.27784857 0.0019266603
0.049486753 0.013536537 0.0045316732 0.48445681 -0.82890183 0.27968431 0.001921537
0.051622204 0.014625633 0.0039185183 0.50195009 -0.80833477 0.30763793 0.0023759208
-0.049791366 0.017107051 0.0046000853 -0.53864372 -0.76182616 0.35983852 0.00017285868
-0.047470372 0.015657965 0.0050550001 -0.51737899 -0.77425772 0.36447775 0.00032396891
0.052792162 0.015750105 0.0048434497 0.52738398 -0.79239446 0.30655691 0.0026372059
0.055070717 0.017134545 0.0043249037 0.55999118 -0.7750476 0.29276448 0.0023027461
-0.054726209 0.020819537 0.0048886072 -0.5610413 -0.71493471 0.41725409 0.00042159157
-0.052528787 0.019298026 0.005060948 -0.55619472 -0.74139315 0.37547791 6.6689216e-05
-0.050574817 0.018087538 0.0055934843 -0.53765339 -0.73777193 0.40819278 0.00052963546
0.056400977 0.018389914 0.0049948432 0.58920634 -0.75546187 0.28655401 0.0019849185
0.058339428 0.019727647 0.0044452087 0.61286098 -0.73123175 0.29950237 0.0032056442
0.060160205 0.020843621 0.0033816136 0.6429581 -0.70973283 0.28789595 0.0020179194
-0.055976212 0.022015521 0.0052504153 -0.58487076 -0.70208341 0.40620825 0.00046025426
0.059671074 0.021374699 0.0055181189 0.63815188 -0.67025763 0.37883633 0.0041076331
0.061414547 0.022533851 0.0044614426 0.67597944 -0.68227589 0.27848074 0.0015517572
0.063144736 0.023757847 0.0032348861 0.7068277 -0.64136642 0.29840201 0.001975215
-0.059164297 0.024958009 0.0054480922 -0.62309641 -0.63242739 0.46020252 0.0015252359
0.062653989 0.024385618 0.0055065588 0.69652593 -0.62507427 0.3523263 0.0020969145
0.064256944 0.025592454 0.0043543177 0.74324548 -0.60698277 0.28135043 0.0011394424
0.065485366 0.027617289 0.0050569479 0.76102495 -0.56330276 0.32176235 0.002195206
0.06671074 0.028871503 0.0043044481 0.7900638 -0.51267916 0.33609417 0.0027670553
0.068016373 0.031361438 0.0046749571 0.82782215 -0.41839862 0.3737019 0.0033982976
0.069162823 0.032632612 0.003560055 0.84454542 -0.42001355 0.33216193 0.0024267712
0.06878455 0.033637505 0.0054424186 0.85222113 -0.35914743 0.3804369 0.0039782599
0.069726057 0.034662742 0.0043134294 0.86052245 -0.35105067 0.36914021 0.0036894237
0.070632152 0.037546281 0.0045497171 0.88039821 -0.26005039 0.39657629 0.003508691
0.071257129 0.040452763 0.0045849886 0.90176553 -0.1654854 0.39929134 0.003061671
0.071516849 0.043363314 0.0048638303 0.89959526 -0.099827677 0.4251622 0.0036181065
0.072125651 0.043909006 0.0035943834 0.91990465 -0.10014851 0.3791382 0.0029112215
-0.042884674 0.046975814 0.0059502875 0.38364005 0.74050206 0.55179435 0.00065665517
0.071543828 0.046563499 0.0050957836 0.87873924 -0.011270187 0.47716898 0.0028029929
0.072221138 0.046618603 0.0036825875 0.9168452 -0.0233893 0.39855704 0.0030045998
0.071432553 0.049575146 0.0052106567 0.86599249 0.0372141 0.49867025 0.0042614685
0.072233848 0.049505651 0.0036645485 0.90577364 0.0098907836 0.42364648 0.003591029
0.071351573 0.052420624 0.0050703338 0.83390695 0.073800229 0.54694855 0.006242801
0.072237127 0.052439671 0.003552859 0.87970096 0.018418983 0.47517043 0.0049078329
-0.072424099 0.056391671 0.0057983426 -0.090729214 0.31023338 0.94632101 0.011471304
-0.06398847 0.056208443 0.0058055562 0.1383156 0.60519689 0.78396779 0.009481539
0.071088731 0.055484794 0.0049648127 0.71215701 0.10990725 0.69336343 0.014261942
0.072230965 0.055567045 0.0034512992 0.82464027 0.033840198 0.56464446 0.007694189
-0.070356086 0.057828892 0.0057577342 0.029629445 0.44523266 0.89492464 0.017896032
-0.067321137 0.058500081 0.0048864884 0.10607883 0.58950287 0.80077064 0.014267445
-0.064144053 0.057654914 0.004371651 0.18714494 0.6715259 0.7169587 0.0025176471
-0.062571928 0.057110831 0.0038976886 0.13832469 0.605196 0.78396696 0.0094804531
0.065901265 0.057515707 0.0059924456 0.27826804 0.29981753 0.91251105 0.0091705322
0.067894422 0.058962904 0.0055834167 0.37058845 0.25276396 0.89374191 0.014216328
0.070627116 0.058501121 0.0047594588 0.58159244 0.13942467 0.80144304 0.018038979
0.07230781 0.058243506 0.0032388051 0.86857057 0.028449027 0.49474806 0.01787504
0.067997806 0.061547223 0.004728891 0.25255764 0.20096327 0.94648218 0.0047559422
0.070763968 0.061446995 0.0041182176 0.41863123 0.12844646 0.89902687 0.018794257
0.072271362 0.061354708 0.0032439113 0.80379128 -0.0044854353 0.59489453 0.026485331
0.068095773 0.064683236 0.0039238897 0.13276681 0.14313899 0.98075694 0.0094287992
0.070569761 0.064396769 0.0037808758 0.26566252 0.079114482 0.96081442 0.019668842
0.072392039 0.064683817 0.0032753623 0.39717835 -0.020847421 0.91750467 0.023219535
0.06827759 0.067418709 0.0034139287 -0.045422856 0.064829446 0.99686205 0.010271
0.070578292 0.067570083 0.0035819141 0.11668888 0.059221707 0.99140131 0.025665632
0.072845161 0.067650884 0.0034183345 0.49095356 -0.11300414 0.86382556 0.027373197
0.068638459 0.070126466 0.0031142093 -0.20694274 0.010177864 0.97830015 0.01299361
0.070674494 0.070532165 0.0037957397 -0.17041703 -0.027853806 0.98497826 0.015696978
0.07345777 0.070591599 0.0037543289 0.38606921 -0.27827236 0.87949699 0.037413258
0.068804964 0.073270917 0.0030242919 -0.49155444 -0.043398105 0.8697648 0.0063694329
0.07069505 0.07344342 0.0043515055 -0.37282702 -0.18535721 0.90919894 0.021029618
0.073631778 0.073469833 0.0046017305 0.3461566 -0.28392002 0.89418405 0.031109605
0.075546823 0.073509075 0.0035283866 0.66015077 -0.012782491 0.75102443 0.07411132
0.068724476 0.075962409 0.0034103098 -0.40292314 -0.080216929 0.91171169 0.015240526
0.070727594 0.075202651 0.0048808935 -0.23390968 -0.1263366 0.96401525 0.049798239
0.072651066 0.075251944 0.0052302955 -0.20590959 -0.12659088 0.97034836 0.046198111
-0.013013693 0.0028138258 0.0064112479 -0.16588746 -0.87858099 0.44785798 0.0011455641
-0.010528953 0.0026277986 0.0068029976 -0.11845214 -0.87918967 0.46151331 0.0014887574
-0.0073481072 0.0023953568 0.0070608589 -0.084218845 -0.87968725 0.46803582 0.0016994523
-0.0044147884 0.0023216663 0.0073350524 -0.051557217 -0.88030231 0.47160324 0.001783693
-0.0015149375 0.0022220048 0.0073550404 -0.018727418 -0.8810395 0.47267181 0.0016887262
0.0014559235 0.0022103784 0.0073600761 0.0095894961 -0.87845755 0.47772422 0.0017757589
0.0044654482 0.0022997505 0.0073738792 0.034971606 -0.87562454 0.48172471 0.0017158613
0.0074540759 0.0023468188 0.0071089175 0.060989048 -0.87126273 0.48701298 0.0013785154
0.010523704 0.0025304612 0.0069172573 0.085226119 -0.86312979 0.49773833 0.0010171084
0.013376423 0.0026388105 0.006547533 0.10475213 -0.85516018 0.50766927 0.00077405607
0.016287727 0.0028456566 0.0063159247 0.12270249 -0.84566027 0.51942557 0.00066314731
-0.024709817 0.0058106813 0.0064237406 -0.28745088 -0.87885469 0.38077086 0.00051148346
-0.022411009 0.0054004188 0.0070362468 -0.25188836 -0.85995156 0.443887 0.0010679443
-0.019452859 0.0048345812 0.0075357072 -0.22982591 -0.85665792 0.46186277 0.0011960813
-0.016406855 0.0040538791 0.0074686599 -0.19257392 -0.86756414 0.45852774 0.001012043
-0.013577683 0.0036880926 0.0078314934 -0.15898094 -0.85616976 0.49162835 0.0011014306
-0.010553028 0.003450684 0.0082650976 -0.11213695 -0.85307026 0.5096041 0.0014986029
-0.007650815 0.0033055809 0.0085790455 -0.081197359 -0.81281936 0.5768289 0.00070936867
-0.0045801015 0.0031464917 0.0086987801 -0.045382064 -0.80335808 0.59376454 0.00088777189
-0.0016750641 0.0030822568 0.0087918993 -0.015504333 -0.79891461 0.60124463 0.00087817269
0.0017201824 0.0030944496 0.0088472422 0.010708747 -0.79639816 0.60467792 0.00091135461
0.0048109517 0.0031501565 0.0087622749 0.038318716 -0.84700245 0.53020608 0.0020916171
0.007697673 0.0032553833 0.00863038 0.069622338 -0.80052221 0.59524518 0.00098867447
0.010595377 0.0033822849 0.0083781779 0.091526426 -0.84054011 0.53396189 0.0010908237
0.013597419 0.003570684 0.0080199623 0.11257749 -0.83300918 0.54168433 0.00064683176
0.016584808 0.0038791657 0.0077739954 0.12946689 -0.82473588 0.5504989 0.00052192499
0.0195549 0.0042167539 0.0075320522 0.15264493 -0.81616986 0.55728471 0.0007584035
0.022489246 0.0047246539 0.0074998178 0.15864009 -0.78450769 0.59948391 0.00068306684
0.025427807 0.0050993031 0.0072137555 0.1888992 -0.80663127 0.56005633 0.0027806095
0.028329644 0.0055341758 0.0068247519 0.22021537 -0.82038385 0.52770787 0.0033673709
0.03055761 0.0058321282 0.0062418017 0.28850192 -0.82295692 0.48939618 0.0026143568
-0.033014487 0.0088003399 0.0065802839 -0.36474669 -0.84950948 0.38117391 0.0020042465
-0.031141235 0.0084022721 0.0072338749 -0.31047878 -0.84771252 0.43010053 0.0011235777
-0.028549302 0.0076522697 0.0075359461 -0.29076433 -0.84404987 0.45059505 0.0011098618
-0.025699116 0.0068049277 0.0077349897 -0.26477098 -0.84420419 0.46606392 0.00090107298
-0.022732306 0.0062606577 0.0084368652 -0.24361396 -0.84243655 0.48057562 0.0012118511
0.023498919 0.0061649885 0.0089548286 0.17477229 -0.73437673 0.65585476 0.00023034502
0.02587036 0.0063707652 0.0086338595 0.17320502 -0.74031293 0.64956659 0.00023083432
0.028700957 0.00663639 0.0081801079 0.19636829 -0.78255004 0.59080869 0.0028476014
0.031561628 0.0070469268 0.0076310295 0.23141664 -0.80094528 0.55220735 0.0031866969
0.034458652 0.007886258 0.0074771405 0.25960323 -0.79058546 0.55459958 0.003114091
0.037210979 0.0085023269 0.0068459781 0.32633632 -0.81374007 0.48096952 0.0028183144
0.039114822 0.0088908384 0.0061317477 0.33998644 -0.80245274 0.49038649 0.0028868914
-0.039351538 0.011662456 0.0068045389 -0.40827984 -0.813079 0.4149819 0.00082148518
-0.037388086 0.010962276 0.0072486373 -0.37370965 -0.83187419 0.41027611 0.000701504
-0.034495525 0.0097990809 0.0074060652 -0.35613719 -0.84040332 0.40851986 0.00069041079
-0.031875592 0.0093995808 0.0085715782 -0.30245119 -0.83032304 0.46806726 0.00096420356
0.035501402 0.0091917776 0.0087822443 0.28744504 -0.699224 0.65456951 0.0036276001
0.037780873 0.0095879668 0.0081770783 0.28727698 -0.78359652 0.55086148 0.0037196798
0.040509634 0.010319724 0.0075259414 0.35842836 -0.79493868 0.48949128 0.0029242947
0.043150771 0.011306721 0.0071373349 0.38643312 -0.7871002 0.48077312 0.0025057434
0.045261066 0.011789656 0.0061379769 0.41630831 -0.79561436 0.44009674 0.0011161781
-0.045593012 0.014966447 0.0063825008 -0.48735702 -0.77443326 0.40340573 0.00076103356
-0.043309581 0.014090528 0.0073281736 -0.46928748 -0.77835703 0.41704869 0.0010859546
-0.040633824 0.012858195 0.0078229848 -0.4072333 -0.79824412 0.44381011 0.0010745755
-0.038597204 0.01233478 0.0087192301 -0.39148533 -0.79245412 0.46771324 0.00072447699
0.044113867 0.012525628 0.0082917139 0.35364506 -0.76296973 0.5411213 0.0032113162
0.046508562 0.013323904 0.0075552189 0.40720522 -0.77426338 0.4844586 0.002567159
0.049063142 0.01443957 0.0069908258 0.46419609 -0.75671721 0.46032715 0.002033493
-0.048641331 0.017414195 0.007087952 -0.52057141 -0.73207808 0.43939394 0.00096451334
-0.046616212 0.016343331 0.0076308008 -0.50280279 -0.74725813 0.43450511 0.0012147687
-0.044474591 0.015365861 0.0083787777 -0.48170972 -0.76935011 0.41959038 0.0012779951
0.047897253 0.015040128 0.0088829445 0.39126319 -0.66795653 0.63304597 0.0016348555
0.049971629 0.015756618 0.0081328042 0.44999626 -0.7345745 0.50784218 0.0035499504
0.052323733 0.016762881 0.0073362859 0.48760793 -0.74434161 0.45628291 0.0021274914
0.054434512 0.017653799 0.0064395186 0.52012789 -0.7155838 0.46626902 0.00131039
-0.052217972 0.020251503 0.0074499398 -0.54228157 -0.71593094 0.43974265 0.00066534034
-0.050012719 0.018733479 0.00762675 -0.52007163 -0.7340607 0.43666977 0.00096449809
0.053451791 0.018351926 0.0084427521 0.49892372 -0.69429016 0.51868707 0.0017974091
0.055593252 0.019314023 0.0075626113 0.54972446 -0.69790912 0.4590489 0.0012494311
0.057661016 0.020399941 0.0067532635 0.58447343 -0.65983027 0.4722445 0.0024099827
-0.055391233 0.022711301 0.0074150078 -0.56666988 -0.68184948 0.46256518 0.0011505056
-0.053358603 0.021493688 0.0081226053 -0.55563259 -0.70719516 0.43720415 0.00066657324
0.056709904 0.021132691 0.0086769965 0.54593027 -0.6205371 0.56293327 0.0010710456
0.058741465 0.022158241 0.0077627306 0.59470552 -0.64311135 0.4824242 0.0015504621
0.060728196 0.023309279 0.0068482133 0.61456883 -0.59755826 0.5150041 0.0014983602
-0.060075257 0.026282353 0.0061291978 -0.6497007 -0.61496097 0.44689161 0.0018292113
-0.057888281 0.02518647 0.0077641718 -0.61308521 -0.61612427 0.49448705 0.001077217
-0.05663275 0.024564166 0.0085792532 -0.59645861 -0.64025581 0.48405537 0.0019286912
0.059829772 0.024187345 0.0087950248 0.59325552 -0.57356697 0.56486171 0.0019430865
0.061772659 0.025291136 0.0077750366 0.65348053 -0.52202845 0.54813272 0.0030294517
0.063557938 0.026389692 0.0067431517 0.67094845 -0.53043956 0.51813316 0.0015702642
-0.061156284 0.028519984 0.0074207745 -0.66294277 -0.55709672 0.50015014 0.00093016395
-0.059555594 0.02705767 0.0079804501 -0.64349329 -0.55715692 0.52487385 0.0019245376
0.062757701 0.02750228 0.0087285638 0.62421584 -0.45813456 0.6328249 0.00086249399
0.064482555 0.028489027 0.0075083845 0.70694035 -0.45132649 0.54455465 0.0023139406
0.066259921 0.029698908 0.0062621771 0.71728539 -0.4439002 0.53707951 0.0024333708
-0.063385002 0.031028317 0.0071022934 -0.66769022 -0.48857233 0.56168222 0.0016330206
-0.062815189 0.031918451 0.0086709727 -0.64739656 -0.42955089 0.6295743 0.0021695155
0.065421693 0.030958565 0.0082844011 0.67174441 -0.36094642 0.64689821 0.00090113288
0.066832557 0.031755876 0.0070526819 0.73457229 -0.39310041 0.55306017 0.0023938429
-0.064933732 0.035890859 0.008926847 -0.66930103 -0.33385941 0.66375744 0.0031297302
0.067623191 0.034440365 0.007646943 0.75477749 -0.29926237 0.58374053 0.0018837875
0.069117345 0.035446178 0.0061588651 0.7930662 -0.32076967 0.51783478 0.0020902089
0.068312742 0.037425749 0.0081111668 0.76094091 -0.2003444 0.61711514 0.0023064949
0.069472283 0.037602708 0.0066924407 0.80074191 -0.22419804 0.55547071 0.0024765942
0.068575218 0.040355451 0.00855486 0.68393922 -0.10988073 0.72121656 0.0022397859
0.069874726 0.040548865 0.0070153815 0.80005026 -0.13165349 0.58530927 0.0022777955
0.068706848 0.043484684 0.0087319817 0.73802119 -0.024097955 0.67434716 0.0031425366
0.070000775 0.043479674 0.0072614872 0.78542364 -0.055039465 0.61650664 0.0028390004
-0.045556955 0.04756029 0.0074455687 0.37247744 0.73382705 0.56811833 0.0010988626
-0.043724999 0.04690307 0.0069370968 0.38366702 0.74050337 0.55177391 0.00065128936
0.068696834 0.046621088 0.0086562522 0.5925771 0.071349278 0.8023476 0.0043127495
0.070181839 0.046346307 0.0071081519 0.78114992 0.0041199392 0.62432992 0.0039200769
-0.06951873 0.050134379 0.0076831058 -0.30189189 0.2214255 0.92727131 0.0034046231
-0.068024114 0.049654745 0.0085368585 -0.32804641 0.25830165 0.9086616 0.0036308314
-0.054313395 0.050625399 0.0087293535 0.2440384 0.68002748 0.69138122 0.00083572499
-0.052505605 0.050325107 0.0081780031 0.27554607 0.69501615 0.66409856 0.00085636537
-0.049474485 0.049420848 0.0076163439 0.33794677 0.72003549 0.60608643 0.00021264059
-0.047081724 0.048269361 0.0075424239 0.37472948 0.72984481 0.57175559 0.0010538303
0.068223611 0.049584296 0.0085057542 0.40665394 0.24590716 0.87986493 0.005479028
0.070060417 0.049351882 0.007038509 0.72986001 0.068506286 0.68015528 0.0064238873
-0.070281424 0.052587729 0.0070820195 -0.24256733 0.22233276 0.94431418 0.0014900006
-0.067258283 0.052746136 0.0081101861 -0.2174419 0.30380821 0.92758805 0.0080796173
-0.064694874 0.052324247 0.0086379368 -0.17991164 0.43087143 0.88429725 0.0084194606
-0.061584398 0.052820846 0.0082749408 0.023818703 0.57303888 0.81918204 0.003786088
-0.054827854 0.051727843 0.0076719695 0.24246554 0.68114889 0.69083047 0.0025090633
-0.052965589 0.051380873 0.0071603875 0.27545029 0.69509178 0.6640591 0.00082053349
0.065291457 0.052259166 0.0086278571 0.26062703 0.33119577 0.90685338 0.0043670163
0.067627609 0.052450228 0.0080105215 0.34526762 0.27947578 0.89592606 0.0099999672
0.069838807 0.052317299 0.0067839921 0.66316581 0.16051652 0.73105788 0.0086391987
-0.070642978 0.055127602 0.0066095637 -0.09070719 0.31023073 0.94632399 0.01147566
-0.067829095 0.055702366 0.0068554347 -0.01715935 0.39659229 0.91783452 0.011058276
-0.064871073 0.054925129 0.0070688054 0.10379513 0.62446815 0.77412283 0.0082860775
-0.061481267 0.05467255 0.0064055035 0.081073374 0.65154457 0.75426573 0.0038071906
0.065024726 0.054787334 0.0073022884 0.24695735 0.32784483 0.91188264 0.0057647638
0.06770432 0.05537178 0.006956839 0.30279437 0.32006234 0.89770573 0.0096004205
0.069557779 0.055181384 0.006331766 0.55430919 0.23498814 0.79844958 0.0083180862
-0.070522815 0.057326406 0.0060477396 0.029605348 0.44523209 0.89492559 0.017896855
0.067803018 0.05757875 0.0061014174 0.26902196 0.24951981 0.93025106 0.0074137268
-0.019117562 0.0057626199 0.0092791971 -0.21099587 -0.80101889 0.56022263 0.00088790403
-0.016410803 0.0054228599 0.009682633 -0.17069075 -0.79346454 0.58419067 0.0010838393
-0.013387319 0.0051487912 0.010083946 -0.13872026 -0.78521919 0.6034795 0.0011874534
-0.010461858 0.0049150912 0.010342439 -0.10626678 -0.77222532 0.6263988 0.0012129908
-0.007477331 0.0047469935 0.010515437 -0.070105113 -0.77479249 0.62831664 0.0016976093
-0.0044785636 0.0045566135 0.010533307 -0.037948489 -0.77923179 0.62558591 0.00064620777
-0.0015131149 0.0044120154 0.010476811 -0.011320397 -0.77499461 0.63186646 0.00074506522
0.0014920431 0.0045009898 0.010585321 0.013779085 -0.75088042 0.66029447 0.0020396288
0.0045234477 0.0045718905 0.010553682 0.038776159 -0.74866354 0.66181517 0.0017071314
0.0075119268 0.0046600085 0.010439586 0.062217902 -0.75664759 0.65085584 0.0021906146
0.010504056 0.0048683188 0.010353879 0.091837533 -0.74652892 0.65898442 0.001392659
0.013506184 0.0050656791 0.010129134 0.11585764 -0.75270128 0.6480878 0.0014395225
0.016478648 0.0053185914 0.0098261442 0.13879554 -0.75744492 0.63797575 0.0010976614
0.01927436 0.005610303 0.0094502894 0.16031417 -0.75222999 0.63910037 0.00071977568
0.021698644 0.0058903042 0.0090534594 0.16203697 -0.74573904 0.64623308 0.00037853984
-0.028156025 0.00862158 0.0094690397 -0.27507192 -0.79445356 0.54146004 0.00072474475
-0.025353869 0.0082147382 0.010189712 -0.25290105 -0.78453743 0.56616449 0.0011372244
-0.022503376 0.0076190839 0.01053265 -0.21739846 -0.79044837 0.57265109 0.00082057976
-0.019560648 0.0070136343 0.010780559 -0.19474025 -0.77781934 0.59755611 0.0010333749
-0.016591158 0.0066228672 0.011166266 -0.15389307 -0.77018708 0.61897409 0.0012464889
-0.0136808 0.0064208675 0.011581897 -0.12054107 -0.71120065 0.69257742 0.00099805649
-0.010580245 0.0062120128 0.011828409 -0.084875658 -0.69456679 0.71440399 0.001086079
-0.007972654 0.0060155801 0.011903502 -0.054331604 -0.72873181 0.68264043 0.00094350998
0.0080858208 0.0060782377 0.011875832 0.042814542 -0.66860801 0.74238151 0.0031508228
0.01072042 0.0062539205 0.011788737 0.079175934 -0.71115965 0.69855791 0.0014707487
0.013608452 0.0064639691 0.01162737 0.10480739 -0.72135442 0.6845898 0.0016754619
0.016596111 0.0066555501 0.011307159 0.13278544 -0.72721338 0.6734454 0.0014723213
0.019595141 0.0069441185 0.010940673 0.16163294 -0.73107153 0.66287953 0.00088001532
0.022521274 0.0073794541 0.010602483 0.17939247 -0.69354826 0.69771707 0.00090864836
0.025398443 0.0078241499 0.010248605 0.18809021 -0.68774766 0.70115995 0.00039772165
0.028378109 0.0081153931 0.0097604459 0.19731794 -0.7058773 0.68029618 0.0005457885
0.031381827 0.0085178195 0.0094047217 0.20379356 -0.69717467 0.68732494 0.00072229019
0.033616919 0.0088033117 0.0090720672 0.23992398 -0.71827549 0.65308243 0.0016513321
-0.036615726 0.011721556 0.0092277611 -0.36036435 -0.78813779 0.49897531 0.00044681533
-0.034431327 0.011287108 0.009963572 -0.32312199 -0.78167719 0.53345382 0.0014488453
-0.031497244 0.010651178 0.010658665 -0.28177842 -0.76770866 0.57552099 0.0012371583
-0.028570518 0.0098079713 0.010916805 -0.26061451 -0.7755025 0.57504427 0.0010832695
-0.025900073 0.0094098952 0.011542154 -0.22731994 -0.72361422 0.65169638 0.00090549624
-0.023443662 0.0090489453 0.011958783 -0.20619854 -0.7074343 0.67603177 0.00083028316
0.025914654 0.0093940441 0.011721845 0.18722783 -0.66898215 0.71931118 0.00049457612
0.028632265 0.0097531714 0.011222653 0.19489993 -0.66472912 0.7212137 0.00029769386
0.031619567 0.010261793 0.010850375 0.1996381 -0.62899393 0.75133967 0.0003468933
0.034491125 0.010504502 0.010323952 0.21505903 -0.66016257 0.71967709 0.0011504866
0.037414741 0.011015125 0.0099123362 0.25760907 -0.69080502 0.67559302 0.0023950902
0.040059026 0.01155165 0.0094354656 0.3045325 -0.67528903 0.67174745 0.0020470286
-0.042315405 0.014628639 0.0092227291 -0.4404569 -0.73872566 0.51017851 0.00083926076
-0.040219679 0.014162326 0.010214916 -0.39709234 -0.73128891 0.55455768 0.0011586192
-0.037542235 0.01328511 0.010805248 -0.34211275 -0.72189379 0.60152161 0.00055585406
-0.034664005 0.012544949 0.011517487 -0.30224261 -0.71737248 0.62771505 0.00064884417
0.034836121 0.01236152 0.011691846 0.2096971 -0.61234128 0.76227629 0.00031512539
0.037569791 0.012853397 0.01138051 0.22298506 -0.58340973 0.78096777 0.00051270553
0.040560193 0.01329879 0.010783651 0.24473631 -0.5881567 0.77082801 0.00047097853
0.04335925 0.013824384 0.010151382 0.34410083 -0.64849776 0.67900318 0.0028139025
0.045869783 0.014427626 0.0094876979 0.37505138 -0.65505201 0.65592945 0.0027340455
-0.045948882 0.017274685 0.0097628692 -0.47149122 -0.70811951 0.52560705 0.0011505589
-0.043575935 0.01636339 0.010547553 -0.42578763 -0.71368039 0.55620605 0.00094232673
-0.040939327 0.015476948 0.011382938 -0.37713796 -0.68074173 0.62797904 0.00075340609
0.041616544 0.015118848 0.0118623 0.24962631 -0.58023947 0.77524763 0.0005236562
0.043757264 0.015731398 0.011538149 0.28234541 -0.57572961 0.76734376 0.00068879465
0.046600714 0.016285516 0.010789351 0.3301326 -0.5772602 0.74684876 0.0011791009
0.049240362 0.016969267 0.010012732 0.42007351 -0.6259166 0.65708959 0.0031694565
0.051368129 0.017618317 0.0092969323 0.45889515 -0.65520352 0.6001029 0.0012462799
-0.049167678 0.01982289 0.010148929 -0.49896735 -0.67545056 0.54295319 0.0012024611
-0.046712782 0.018756278 0.010969375 -0.46132845 -0.68961215 0.55822146 0.0014031398
0.047572669 0.018238008 0.011871599 0.3289834 -0.57385319 0.74997497 0.0012162484
0.049847413 0.018930074 0.011313524 0.35623714 -0.52440071 0.7733686 0.0013823526
0.05239632 0.019577561 0.010399849 0.42302707 -0.58123916 0.69513249 0.0030187485
0.054658569 0.020301087 0.0095546665 0.49332461 -0.59507078 0.63444591 0.0033522255
-0.054883543 0.023893826 0.0096771643 -0.55198884 -0.6245392 0.55250269 0.00096806651
-0.052397586 0.022612832 0.010538525 -0.50228101 -0.64429033 0.57671809 0.0017069503
-0.050035868 0.021540374 0.011409223 -0.45858964 -0.60100007 0.6545949 0.00059121021
0.053146359 0.021738045 0.011593497 0.37501478 -0.4710567 0.79841685 0.001670846
0.055546913 0.022366162 0.010593962 0.44528061 -0.5055387 0.73902345 0.001177204
0.057857301 0.023265978 0.0096967509 0.53456402 -0.56338495 0.62995142 0.0016896024
-0.057629496 0.026398506 0.0095551722 -0.61454111 -0.56200147 0.55361855 0.001302207
-0.05522548 0.025343785 0.010835248 -0.53796834 -0.55948162 0.63053179 0.0010848009
-0.053452183 0.024497923 0.011604089 -0.52718419 -0.54912025 0.64849341 0.0018738331
0.056434896 0.024628298 0.011572341 0.47330233 -0.46828172 0.74612147 0.00067385973
0.058523137 0.025447117 0.010721761 0.48400307 -0.44385424 0.75414479 0.0010767444
0.060718223 0.026198713 0.0096055428 0.57789224 -0.49656621 0.6476593 0.0019205647
-0.058735918 0.028362747 0.010205235 -0.61972648 -0.50842935 0.59786183 0.0018961988
-0.056713421 0.02733192 0.011294755 -0.56678569 -0.53500479 0.62651724 0.00092826562
-0.0067854305 0.029478818 0.011043716 0.1333836 0.6289376 0.76592839 0.0012555999
-0.0033033437 0.028926594 0.011013811 0.10252228 0.63079405 0.76914757 0.00082286599
0.0076202517 0.027772186 0.011607067 -0.028672105 0.54934591 0.83510298 0.0015496231
0.059294939 0.027853204 0.011566122 0.46003985 -0.34874636 0.81654102 0.0015387952
0.061459329 0.028566081 0.010450994 0.55369693 -0.37879059 0.74157768 0.0022114578
0.063329458 0.029242413 0.0093258861 0.63404369 -0.41968653 0.64950126 0.0020390842
-0.060958881 0.031362254 0.010292799 -0.63814491 -0.43245548 0.63698769 0.0024346858
-0.059223969 0.030574553 0.011401538 -0.58278519 -0.3873429 0.71437168 0.0016918989
-0.018642459 0.032060146 0.011744929 0.21987192 0.66588438 0.71291959 0.0004227146
-0.016258765 0.031719748 0.011255844 0.21950126 0.66907114 0.71004438 0.00024101236
-0.013494316 0.03100759 0.011124413 0.20161349 0.65248287 0.73049164 0.00053236505
-0.010056593 0.030257801 0.010980204 0.16808611 0.6470539 0.7436856 0.00058580807
0.06198642 0.031302545 0.01133205 0.50960112 -0.29741439 0.80737317 0.0010496817
0.064047337 0.031573724 0.0099260462 0.61130965 -0.3345874 0.71718323 0.0023794733
-0.063395254 0.03448822 0.0097538233 -0.64441693 -0.35688806 0.67628223 0.0032830501
-0.061436374 0.033821452 0.011266252 -0.60905576 -0.32780153 0.72221696 0.0012777551
-0.025529409 0.035094462 0.011293004 0.27846438 0.66696167 0.6911003 0.0003987978
-0.023041639 0.03439606 0.01082935 0.26727057 0.68200129 0.68076485 0.0003053064
-0.020434402 0.033244576 0.011151686 0.23100954 0.66496158 0.71025395 0.00043086766
0.062644638 0.033990297 0.011790464 0.47875601 -0.20255966 0.85426122 0.0018903718
0.064598076 0.034474604 0.01056946 0.58872676 -0.23404294 0.77370846 0.0018666474
0.066395849 0.035119396 0.0093329241 0.67832214 -0.27154729 0.68274528 0.0017307826
-0.064288326 0.037476253 0.010278062 -0.61584872 -0.22281294 0.75570148 0.0014111531
-0.06259878 0.037296362 0.011669273 -0.58738881 -0.21875893 0.77917832 0.0024745662
-0.034141589 0.038473394 0.011837281 0.30465072 0.66563302 0.68126398 0.00046724023
-0.031601924 0.038020112 0.010963279 0.29906943 0.66841233 0.68101567 0.00041405702
-0.028383464 0.036745075 0.010815461 0.29355282 0.6633172 0.68835825 0.00041670434
0.064711899 0.037421763 0.011200645 0.53676146 -0.13240767 0.83327985 0.0012599138
0.066827811 0.037769001 0.0096950121 0.65859944 -0.17679524 0.73143029 0.0023361915
