# .PCD v0.7 - Point Cloud Data file format
VERSION 0.7
FIELDS x y z normal_x normal_y normal_z curvature
SIZE 4 4 4 4 4 4 4
TYPE F F F F F F F
COUNT 1 1 1 1 1 1 1
WIDTH 555
HEIGHT 1
VIEWPOINT 0 0 0 1 0 0 0
POINTS 555
DATA ascii
0.04637162 0.037659399 -0.014027826 -0.21105461 0.5179112 -0.82898968 0.0012768004
0.0494751 0.037999492 -0.014544328 -0.1592534 0.45159701 -0.8778944 0.0020695205
0.05241641 0.038334701 -0.014743494 -0.060371835 0.37670353 -0.92436451 0.0030195268
0.055702474 0.038063742 -0.014778352 0.086236618 0.23546363 -0.96804965 0.0059780967
0.058621265 0.037620869 -0.014345571 0.21027011 0.15992896 -0.96447349 0.0029517319
0.061411355 0.038514093 -0.013362812 0.27107626 0.12192954 -0.95480412 0.001331458
0.063068748 0.037799284 -0.012654687 0.30169025 0.12132137 -0.94565541 0.0011442942
-0.060743023 0.040703896 -0.012396845 -0.43954852 -0.076364361 -0.8949669 0.0038838885
-0.058531392 0.040451255 -0.01329566 -0.31973377 0.029315792 -0.94705379 0.004489603
-0.055548243 0.040472452 -0.014166228 -0.20958422 0.14144611 -0.96750575 0.0074883783
-0.052529331 0.040512424 -0.014563187 -0.12882571 0.2098306 -0.9692136 0.0034624147
-0.049482163 0.040665403 -0.014522336 0.026859928 0.38779414 -0.92135459 0.005288905
-0.046471372 0.040528663 -0.014198041 0.13328534 0.47641698 -0.86905807 0.0023668818
-0.043493543 0.040446844 -0.013584686 0.21137263 0.53002799 -0.82121366 0.0018680502
-0.040649824 0.040200513 -0.012873814 0.26647827 0.60402822 -0.75109202 0.0015464501
-0.037979636 0.039516356 -0.012433857 0.29267672 0.64799958 -0.70316195 0.0017111708
0.044642534 0.039357811 -0.012184223 -0.32340488 0.60022551 -0.73153162 0.0021033317
0.046748057 0.039839469 -0.012648436 -0.28000271 0.59224594 -0.75554162 0.0023627703
0.049585842 0.040488325 -0.013106753 -0.23236875 0.52989209 -0.81560963 0.0026320922
0.052449659 0.040497966 -0.013711719 -0.10523637 0.43916562 -0.89222133 0.0022506451
0.05537251 0.040568862 -0.013946991 -0.001066562 0.35685286 -0.93415999 0.0043030847
0.058401167 0.040719673 -0.013768414 0.12279658 0.28553051 -0.95047009 0.003811236
0.061301894 0.040331487 -0.013202664 0.25296989 0.19007395 -0.94861907 0.0031555293
0.063349992 0.041204926 -0.012369063 0.24438109 0.21013348 -0.94663715 0.0040040058
-0.060947981 0.043454107 -0.012302184 -0.35443535 0.085971683 -0.93112004 0.0040370543
-0.058548067 0.043428022 -0.013018813 -0.20059933 0.18760951 -0.96154177 0.0054036351
-0.055480175 0.043495558 -0.013460069 -0.090267844 0.31193987 -0.94580406 0.0056333933
-0.052448194 0.043521181 -0.013419491 0.093970783 0.45562601 -0.8851974 0.0017214607
-0.049560647 0.043439291 -0.01310377 0.18005814 0.53001523 -0.82865125 0.001356225
-0.046778496 0.042995371 -0.01276445 0.21255761 0.56600869 -0.7965259 0.0028674859
-0.044052906 0.042397939 -0.012346664 0.26657546 0.61592025 -0.74133646 0.0018433429
0.050658859 0.042345405 -0.012143105 -0.27666795 0.59519863 -0.75444907 0.0020357426
0.052606285 0.042697005 -0.012448922 -0.20032352 0.54654813 -0.81311476 0.0031357247
0.055536736 0.043279521 -0.012658179 -0.1088001 0.47670972 -0.87230182 0.0031236031
0.058429472 0.043584052 -0.012712034 0.031844094 0.37603346 -0.92605877 0.0045590191
0.061212797 0.04343218 -0.012513523 0.16319425 0.32818484 -0.93040973 0.0046810121
-0.060696363 0.045426585 -0.012096051 -0.30908433 0.22669901 -0.92362022 0.0053802948
-0.058509313 0.04583025 -0.012347745 -0.11087296 0.36372256 -0.92488545 0.0042098649
-0.055556875 0.045785926 -0.012483438 0.011572301 0.45405784 -0.8908971 0.0039120158
-0.052707732 0.045502409 -0.01240855 0.12619503 0.51079118 -0.85039234 0.0027571907
-0.050393648 0.045208216 -0.012141872 0.20685877 0.59510136 -0.77657187 0.002333113
0.058737975 0.045002434 -0.012086946 -0.040766016 0.47791228 -0.87746108 0.003653168
-0.013210832 0.0055765575 -0.0095972363 -0.16762663 -0.74374974 -0.64709944 0.0012375469
-0.010328778 0.0052688271 -0.0099297771 -0.14289491 -0.75428104 -0.64081281 0.0010754165
-0.0073532513 0.0051722224 -0.010364726 -0.10569196 -0.75893748 -0.64252877 0.0015411277
-0.0043043341 0.0049623288 -0.01054559 -0.063903064 -0.73565102 -0.67433971 0.0013934922
-0.001526286 0.0049170884 -0.010758283 -0.067183703 -0.73416758 -0.67563617 0.0011454403
0.0010685448 0.0046578054 -0.010645015 -0.041550178 -0.72780919 -0.68451989 0.0014177583
0.0042497227 0.0050281328 -0.011184949 0.0065369173 -0.69699401 -0.71704721 0.0026345116
0.0071510021 0.004678865 -0.010766047 0.006231844 -0.72334379 -0.69045991 0.00089502073
0.010063587 0.0052868277 -0.011381049 0.011249954 -0.68921542 -0.72446901 0.0010799413
0.012834102 0.0055793682 -0.011513799 0.025182994 -0.65943098 -0.75134319 0.00051501533
0.015019788 0.0054196105 -0.011175116 0.059925709 -0.66588348 -0.74364519 0.00055369828
-0.022315918 0.0083010234 -0.0095631629 -0.27270734 -0.74501377 -0.60875702 0.00085399335
-0.01944215 0.0080744345 -0.010457898 -0.22759482 -0.72715282 -0.64764905 0.0011435599
-0.016485441 0.0073861079 -0.010684946 -0.19904371 -0.71035796 -0.67510968 0.0011645179
-0.013604939 0.0068697236 -0.010942126 -0.17682521 -0.73398668 -0.65574116 0.0011102649
-0.010568698 0.0065685855 -0.011303422 -0.13073403 -0.72345275 -0.67788255 0.0012643408
-0.0082139298 0.0064567691 -0.01160714 -0.099824324 -0.71713573 -0.68974745 0.0010807213
-0.004562675 0.0062170806 -0.011856263 -0.067124046 -0.68579608 -0.72469175 0.0030089084
0.01691268 0.0060431166 -0.011649896 0.069652796 -0.65890777 -0.74899197 0.00060369767
0.020198893 0.0060868631 -0.011166314 0.078029074 -0.64540148 -0.75984764 0.00096318871
-0.031489074 0.011744724 -0.0094090346 -0.32073402 -0.73967028 -0.59162295 0.00088865892
-0.028370542 0.010967187 -0.010005615 -0.29300651 -0.74441445 -0.5999952 0.0021372689
-0.025525045 0.010555247 -0.010786588 -0.26747629 -0.71259689 -0.64858472 0.0015636673
-0.022700194 0.0096999705 -0.011004768 -0.26202708 -0.72794855 -0.63358712 0.0017071553
-0.019912966 0.009366055 -0.011673033 -0.21757364 -0.69714493 -0.68311834 0.0011185814
-0.036959715 0.014414874 -0.0096652936 -0.3743991 -0.72882283 -0.5732736 0.0014790086
-0.034363024 0.013969834 -0.010567757 -0.32240218 -0.71480584 -0.62057191 0.0014956559
-0.031459026 0.013046999 -0.010959494 -0.30642045 -0.69311315 -0.65245742 0.0022299781
-0.028953401 0.01241387 -0.011379003 -0.26528355 -0.70131367 -0.66165227 0.0010726081
-0.042531021 0.017561967 -0.0095956661 -0.45827833 -0.66882968 -0.5853613 0.0013448565
-0.040383916 0.016790021 -0.010221035 -0.40985638 -0.68083757 -0.60702389 0.001872336
-0.037833914 0.015972545 -0.010892896 -0.35433346 -0.69087452 -0.63019055 0.0012680689
-0.035535336 0.015438817 -0.011568197 -0.30432701 -0.66060358 -0.68628567 0.0017667193
-0.045915842 0.020176923 -0.0098693687 -0.48274976 -0.65113449 -0.58564204 0.0015436955
-0.0436549 0.019383464 -0.010716674 -0.42463467 -0.61915779 -0.66055208 0.0010300251
-0.041096177 0.018507902 -0.01154221 -0.37819758 -0.61883962 -0.6884796 0.00091216242
-0.051124271 0.023448424 -0.0091533102 -0.47152334 -0.64569765 -0.60061657 0.0014215852
-0.049177613 0.022937821 -0.010199841 -0.47501799 -0.64621222 -0.59730029 0.001471055
-0.046865176 0.021916516 -0.010925329 -0.45930713 -0.63303977 -0.62313527 0.0017320652
-0.044826966 0.021322705 -0.011812557 -0.42603835 -0.58346516 -0.69141859 0.0027543262
-0.054776646 0.026663495 -0.0095242346 -0.5439617 -0.59811795 -0.58852398 0.0017201451
-0.052390203 0.025540356 -0.010326718 -0.4816938 -0.61232716 -0.62691832 0.0021488098
-0.050124124 0.024801323 -0.011326279 -0.45522839 -0.59544575 -0.66197556 0.0014970684
-0.057515297 0.029488938 -0.0097070858 -0.55697817 -0.52997613 -0.63945341 0.0010900551
-0.055530079 0.028595254 -0.010603615 -0.51994884 -0.52197635 -0.67616117 0.0012387953
-0.053237416 0.027618516 -0.011582099 -0.48116291 -0.54489982 -0.68670702 0.00036327401
-0.010288288 0.029664911 -0.011512577 0.15637468 0.72905719 -0.66635013 0.0014117195
-0.0074002356 0.029235546 -0.011282823 0.13617785 0.67232877 -0.72761905 0.0018162003
-0.0045124502 0.029066604 -0.010960666 0.10671643 0.7533201 -0.64893788 0.0015309443
-0.0014424752 0.028852502 -0.010761953 0.076537959 0.75820547 -0.64750791 0.0013210096
0.0014798656 0.028722534 -0.010671674 0.040123388 0.74038267 -0.67098701 0.0027785448
0.0044596815 0.028802974 -0.01049582 0.0031037359 0.74420643 -0.66794252 0.0024300825
0.0075102677 0.028728556 -0.010654088 -0.044386808 0.74814081 -0.66205376 0.0030207178
0.010408707 0.028847927 -0.010802654 -0.078903645 0.76991737 -0.63324678 0.0011512501
0.013428126 0.029074984 -0.010965659 -0.11576487 0.77018559 -0.62722611 0.0017501173
0.016380133 0.029308004 -0.011323523 -0.15737915 0.69814992 -0.69844007 0.0013873633
0.018783895 0.029719947 -0.011511051 -0.1842327 0.74168926 -0.64494604 0.0016188843
0.021117311 0.029942347 -0.011975163 -0.21311033 0.6976983 -0.68395984 0.0031875661
-0.060423788 0.032562252 -0.0095151793 -0.6111967 -0.49948695 -0.61396366 0.0012874184
-0.058500353 0.031578723 -0.010447881 -0.57628334 -0.44892591 -0.68290788 0.0020290713
-0.056338158 0.030656146 -0.011551103 -0.50002033 -0.42304748 -0.75565243 0.002156188
-0.021286869 0.032634746 -0.011958344 0.25928694 0.64204371 -0.72149169 0.0016416883
-0.019295108 0.032463029 -0.011375243 0.25167239 0.69972682 -0.66861308 0.00061158632
-0.01632675 0.031877685 -0.010892579 0.23292257 0.74630803 -0.62351537 0.0013418866
-0.013605357 0.031274356 -0.010647323 0.2060504 0.74648672 -0.63269329 0.0026485284
-0.010807709 0.030924939 -0.010220841 0.17838567 0.77273476 -0.60914648 0.0029378252
-0.0075541851 0.030631592 -0.0097159604 0.15083939 0.76715714 -0.62347203 0.0017275107
-0.0048060194 0.030321185 -0.0095419642 0.11044648 0.7775473 -0.61904913 0.0014034816
-0.0017306599 0.030172288 -0.0092066899 0.079830818 0.78004009 -0.62061626 0.001410977
0.0010886294 0.030087514 -0.0090407263 0.052470487 0.82429945 -0.56371737 0.0042480347
0.0076243905 0.030031325 -0.009010002 -0.048975546 0.83104706 -0.55404168 0.0045310105
0.010665361 0.030156642 -0.0091981692 -0.076422498 0.79345971 -0.60380572 0.0012886586
0.013605141 0.030291442 -0.0094797425 -0.11602612 0.79117489 -0.6004833 0.0016008501
0.016604023 0.030605787 -0.009802633 -0.17028292 0.78099716 -0.60087204 0.0016942197
0.019700782 0.030951908 -0.010337048 -0.19811513 0.75951093 -0.61959147 0.001268152
0.022587318 0.031634867 -0.010497893 -0.22963259 0.77424723 -0.58975428 0.0010827674
0.025315778 0.032107536 -0.010983911 -0.23999281 0.76135468 -0.60228115 0.0012119134
0.027972348 0.032628175 -0.011405786 -0.24608184 0.74519843 -0.61977661 0.0015271474
-0.06309361 0.03574561 -0.0091559468 -0.61701041 -0.4339205 -0.65651441 0.0029733384
-0.061223738 0.034687519 -0.010159718 -0.59177381 -0.40065908 -0.6994828 0.0015376103
-0.05919829 0.034146689 -0.011471685 -0.5409264 -0.34759134 -0.76588446 0.0017390875
-0.027923847 0.035625093 -0.011662757 0.29959941 0.70028949 -0.6479466 0.0018209752
-0.025221983 0.035078358 -0.010973064 0.30145952 0.73442513 -0.60806412 0.0015190081
-0.022405107 0.034312587 -0.010524807 0.27366033 0.71577013 -0.64248198 0.0014437728
-0.019690536 0.033724513 -0.010040871 0.26598665 0.75465083 -0.59979439 0.0016046024
-0.016775401 0.033288326 -0.0093241595 0.24075887 0.77175051 -0.58858842 0.0013420202
0.025891772 0.033336215 -0.0096315201 -0.24913882 0.78213286 -0.57113737 0.0011111246
0.028737713 0.033861931 -0.010184046 -0.2641674 0.7671448 -0.58455485 0.0011996429
0.031505395 0.034588203 -0.010511538 -0.28784916 0.76781768 -0.5723626 0.0014172802
0.034292277 0.03524242 -0.011054803 -0.30216724 0.74299896 -0.59719974 0.0018874625
0.036425672 0.035642415 -0.011656566 -0.32353982 0.69012755 -0.6473375 0.0027111031
-0.063783728 0.037828289 -0.0096448362 -0.62319112 -0.34077349 -0.70392203 0.0026792816
-0.06171136 0.03735942 -0.011048 -0.54833186 -0.26893446 -0.79183745 0.0017170273
-0.059869245 0.036353353 -0.011958601 -0.53851575 -0.22719586 -0.81140792 0.0040821689
-0.034147132 0.03859451 -0.011583753 0.31632444 0.64663845 -0.69411641 0.0013393114
-0.031353656 0.037941098 -0.010822546 0.33303556 0.72562361 -0.60212755 0.001222826
-0.028580476 0.037095092 -0.010312828 0.31962618 0.74696463 -0.58299476 0.0021048293
-0.025610784 0.036279246 -0.0096927416 0.32294846 0.75057507 -0.57649064 0.0012184618
0.032954127 0.036108602 -0.0091474559 -0.32343733 0.77125174 -0.54823261 0.00083024852
0.034918185 0.036530126 -0.00975555 -0.33484554 0.75440103 -0.56458604 0.0015042743
0.037642732 0.037247602 -0.01047036 -0.35583732 0.72179961 -0.59362042 0.0023255395
0.040232472 0.038213227 -0.01094937 -0.36599678 0.70324737 -0.60949951 0.0018137012
0.042256076 0.03856004 -0.011751213 -0.347469 0.64395642 -0.6816051 0.0024223966
-0.066053972 0.041586909 -0.0091893626 -0.65083051 -0.2603268 -0.71319669 0.0026667467
-0.064385884 0.040563431 -0.010162925 -0.5736562 -0.22012626 -0.78896326 0.0043310323
-0.062303595 0.040398076 -0.011524036 -0.49546167 -0.14373629 -0.85665488 0.0026964403
-0.040090073 0.041491535 -0.011523392 0.30812973 0.68328679 -0.66194803 0.0019880563
-0.03758033 0.040802095 -0.010968412 0.33173773 0.71319062 -0.61750227 0.001318044
-0.03479303 0.04005583 -0.010266371 0.34316659 0.71082366 -0.61397582 0.0013187143
-0.032345917 0.039555546 -0.009415553 0.36969015 0.74045193 -0.56130219 0.0010692715
0.040935177 0.039645024 -0.0097691966 -0.41658226 0.70010293 -0.57992691 0.0011761987
0.043526422 0.040409498 -0.010546155 -0.35986954 0.66501546 -0.65440685 0.0010778073
0.04621923 0.041273315 -0.011195476 -0.33061251 0.66134202 -0.67329204 0.0018196871
0.048363712 0.0417003 -0.011822091 -0.3095856 0.63985622 -0.70337814 0.0010373392
-0.066512115 0.043591831 -0.0092709716 -0.58894765 -0.12974316 -0.79768878 0.0036245561
-0.06468261 0.043512244 -0.010483477 -0.52072889 -0.070139274 -0.85083598 0.0015737436
-0.062444851 0.043638345 -0.011683554 -0.41904119 0.011764228 -0.90789104 0.0036994324
-0.048566591 0.044752236 -0.01198861 0.20732889 0.57972199 -0.7879957 0.0021516252
-0.046202157 0.044319902 -0.011524555 0.26622146 0.62987506 -0.72964621 0.0010315892
-0.043378148 0.043714285 -0.010848552 0.3253119 0.69407624 -0.64220744 0.0017817282
-0.040674534 0.042964805 -0.010236955 0.35173121 0.69699699 -0.62488413 0.0014073697
-0.037910745 0.042382564 -0.0092801107 0.37163717 0.72836006 -0.57565397 0.0014436095
0.044620886 0.042080529 -0.0093964096 -0.41679353 0.70332175 -0.57586592 0.001831771
0.046728123 0.042836331 -0.009890981 -0.38560972 0.67452931 -0.62953585 0.0015498011
0.049380641 0.043524228 -0.010582874 -0.30401576 0.63536853 -0.7098459 0.00097957894
0.052246395 0.044150684 -0.011246325 -0.26373181 0.61771911 -0.74085671 0.001798262
0.054898977 0.044626661 -0.01173163 -0.17626499 0.52009594 -0.83572173 0.0022623246
0.062410899 0.044544071 -0.011930047 0.14422838 0.30955088 -0.93988103 0.0046025733
0.064649954 0.04361584 -0.011390504 0.21224391 0.29561937 -0.93142998 0.0017676661
-0.06667994 0.046358842 -0.0093576396 -0.53703016 0.030727053 -0.84300321 0.0049391054
-0.064556606 0.046484124 -0.010482463 -0.39977878 0.13765229 -0.90621668 0.0069620223
-0.061630167 0.04663714 -0.011503635 -0.20189977 0.30390418 -0.93106318 0.0053437068
-0.058642417 0.047325272 -0.011711158 -0.035042845 0.42477426 -0.90462083 0.0038614431
-0.055433199 0.047324639 -0.011592489 0.086497895 0.51565182 -0.85242087 0.0028871717
-0.052413996 0.046947744 -0.011332492 0.17991978 0.57730585 -0.7964589 0.0018300774
-0.049401157 0.046519008 -0.010740525 0.26036164 0.64274603 -0.72047853 0.0023801548
-0.046737153 0.045961775 -0.01016608 0.31311652 0.69521701 -0.64701724 0.0017681771
-0.044369884 0.045380987 -0.0095893061 0.36220872 0.70716798 -0.60722178 0.001372147
0.050476432 0.045275811 -0.0094397794 -0.37134525 0.67160302 -0.64113343 0.0021192164
0.0526664 0.045941111 -0.0098892534 -0.31558076 0.65331167 -0.68818069 0.0017247152
0.055468079 0.046561111 -0.010456643 -0.25387275 0.5868752 -0.76884729 0.0027956003
0.058476586 0.046577942 -0.011153812 -0.096657768 0.49033627 -0.86615682 0.0038500729
0.061448492 0.046587259 -0.011261257 0.075355239 0.4048093 -0.91129088 0.0069539975
0.064373448 0.046705388 -0.01071353 0.19192913 0.34777853 -0.91772181 0.0020463758
-0.066469356 0.04895265 -0.009216045 -0.40397543 0.22719397 -0.88610768 0.0077920603
-0.064483717 0.049489502 -0.009800856 -0.28501019 0.31213072 -0.9062801 0.0054138992
-0.061533783 0.049455192 -0.010414043 -0.12636288 0.43899366 -0.88955998 0.0075346832
-0.058600806 0.049514346 -0.010452922 0.0053823763 0.50100923 -0.86542517 0.00311003
-0.055638138 0.049318112 -0.01020389 0.16559765 0.60751748 -0.77685261 0.0035432936
-0.052687697 0.048884396 -0.0097619407 0.24026136 0.67489833 -0.69770098 0.0023438775
-0.050239466 0.048270691 -0.0094290962 0.30692038 0.68063885 -0.6652298 0.0016029071
0.056273371 0.048384301 -0.0092754411 -0.30005223 0.637025 -0.71004778 0.0022354752
0.058568839 0.048876338 -0.0096305571 -0.19226864 0.58282024 -0.7895273 0.0040645557
0.061502878 0.04940813 -0.0097650615 -0.050620183 0.51004761 -0.85865545 0.0045948108
0.064267434 0.049498111 -0.0096412571 0.093572326 0.41405469 -0.90542966 0.004394033
0.066863559 0.048176266 -0.0093287742 0.20096421 0.34669882 -0.91619509 0.0031806072
-0.06393908 0.051331233 -0.0091309948 -0.18417755 0.43137902 -0.88317096 0.0072808666
-0.061511394 0.051325727 -0.0093068872 -0.0042873118 0.58755714 -0.80917132 0.0047962507
-0.058649361 0.05130351 -0.0091539286 0.10253083 0.6343233 -0.76623851 0.0026900766
-0.056753274 0.05100904 -0.0090664867 0.20937765 0.68536896 -0.69744551 0.0023708059
-0.0079848161 0.0028119585 -0.0069384207 -0.12374191 -0.8032878 -0.58259475 0.00097322057
-0.00018712622 0.0028887237 -0.0083090039 -0.045492709 -0.77173275 -0.63431776 0.00024563217
0.0046095685 0.0028141732 -0.008396754 -0.013686332 -0.74742091 -0.66420978 0.00070603477
-0.019440046 0.0057965699 -0.0074298675 -0.2934027 -0.82010448 -0.49126723 0.0015429608
-0.016705245 0.0053348504 -0.0080147069 -0.22153211 -0.82437545 -0.5208922 0.0012307003
-0.01381024 0.0044713016 -0.0078134192 -0.19878058 -0.81240886 -0.54815888 0.0011414086
-0.010628526 0.0039043631 -0.007960964 -0.16253787 -0.81755173 -0.55244052 0.0013428165
-0.0071166027 0.0035391832 -0.0082877809 -0.12374181 -0.80328739 -0.58259535 0.00097308407
-0.0048834807 0.0032071082 -0.0082043121 -0.10792775 -0.79941136 -0.59101027 0.0011802455
-0.0027542314 0.0031444593 -0.008413299 -0.082397088 -0.78553069 -0.61331254 0.00042749237
0.0064091519 0.0031859539 -0.0088963658 -0.010216453 -0.7351042 -0.67787719 0.0011322538
-0.028414777 0.0087505216 -0.0065889205 -0.34608513 -0.84138089 -0.41509455 0.0022715393
-0.025212085 0.0081572523 -0.0077529666 -0.3107264 -0.80507165 -0.50528097 0.0026476423
-0.022522124 0.0069688288 -0.0074907774 -0.30073106 -0.80342108 -0.51388276 0.0017699504
-0.019950893 0.0065448089 -0.0083135599 -0.25825334 -0.77964026 -0.5704965 0.001758865
-0.017990844 0.0061494722 -0.0086805746 -0.24556071 -0.8048957 -0.54022491 0.0012666364
-0.036305178 0.011976302 -0.0063006706 -0.41613638 -0.8247335 -0.38294262 0.002661478
-0.034475259 0.011567223 -0.007140581 -0.36247686 -0.80763346 -0.46512231 0.001494274
-0.031584587 0.010602381 -0.0076089031 -0.34269232 -0.80270398 -0.48808643 0.0015860447
-0.028775236 0.0098663243 -0.0082884124 -0.32911244 -0.78702521 -0.52180099 0.0021051427
-0.026668746 0.0091433804 -0.0084438631 -0.29797608 -0.81335866 -0.49965781 0.0023906142
-0.039965745 0.014469326 -0.0074164267 -0.41506273 -0.76852578 -0.48691997 0.0014185341
-0.037641689 0.013350415 -0.0076164687 -0.40820938 -0.77532637 -0.4819068 0.0013770505
-0.034390651 0.012400874 -0.0085532889 -0.34881467 -0.78670174 -0.50934154 0.001401552
-0.045468874 0.017601928 -0.0067846421 -0.5084247 -0.73402202 -0.45023999 0.00090883346
-0.043387406 0.016560527 -0.0073938812 -0.48673964 -0.74444586 -0.45703936 0.0012047519
-0.041304868 0.015485318 -0.0078495191 -0.44415912 -0.75359434 -0.48458058 0.0017021989
-0.048894525 0.020342441 -0.0071619009 -0.53558755 -0.71752912 -0.44530639 0.0016331883
-0.046760872 0.019133719 -0.0077079921 -0.53064978 -0.72457808 -0.43976983 0.00082222553
-0.044585347 0.018230537 -0.0086663952 -0.51225972 -0.68914258 -0.51251584 0.0022772497
-0.052266348 0.022976594 -0.0073024589 -0.54397947 -0.69669366 -0.46765843 0.0015724158
-0.050064635 0.021794725 -0.0080103679 -0.51679277 -0.71141338 -0.4762522 0.0018019095
-0.057293065 0.026389029 -0.0062715933 -0.58836079 -0.68351454 -0.43201789 0.00076576532
-0.055392094 0.025565043 -0.0074810646 -0.5570668 -0.6882484 -0.46474802 0.001239343
-0.053335104 0.024475422 -0.0082968855 -0.55398417 -0.69634539 -0.45629457 0.0012015473
-0.060387686 0.029563243 -0.0065380936 -0.64155352 -0.59398973 -0.48537123 0.001298596
-0.058487374 0.028385719 -0.0074860016 -0.62202442 -0.63489997 -0.45824412 0.0010737255
-0.056576885 0.027269159 -0.0083657401 -0.58838212 -0.62423497 -0.51394278 0.001018753
-0.063117333 0.032484446 -0.0062251049 -0.68311197 -0.53258473 -0.49971139 0.0011772292
-0.061338522 0.031455997 -0.0074494127 -0.64846689 -0.57293099 -0.50123912 0.0023904983
-0.059582304 0.030334903 -0.0084188767 -0.63168895 -0.56092584 -0.53509939 0.0010999906
-0.012682545 0.03253815 -0.0086772665 0.22086637 0.83347213 -0.50650018 0.0021334668
-0.010264201 0.032309566 -0.0081154536 0.1923572 0.83193594 -0.52046257 0.0030911686
-0.0074583068 0.032052018 -0.0075471858 0.15878463 0.85789216 -0.48868033 0.0012082029
-0.0044045104 0.031592134 -0.0075024902 0.12178157 0.88011187 -0.45888168 0.001504017
-0.0014187276 0.031172844 -0.0076071573 0.089535438 0.86224592 -0.49851325 0.0021082258
0.001607607 0.03095063 -0.0075970502 0.060696755 0.8647899 -0.49845177 0.0020018201
0.0046038101 0.03091589 -0.0075279949 0.018717142 0.87003702 -0.49263096 0.0019299809
0.0075431764 0.030947024 -0.0075282967 -0.053992417 0.86874902 -0.4923006 0.0020832149
0.010490798 0.031126648 -0.0075920504 -0.078412518 0.87427694 -0.47905248 0.0020349994
0.013483362 0.031521153 -0.0074524572 -0.12059078 0.89112002 -0.43745065 0.0015141595
0.016437083 0.031983517 -0.007564825 -0.18477646 0.86822712 -0.46047738 0.0015899845
0.019344803 0.032450687 -0.0080149183 -0.21718812 0.85100245 -0.47814655 0.0015884911
0.021570627 0.032716252 -0.0086121839 -0.24478076 0.79796582 -0.55075669 0.00077310426
-0.064071842 0.034755442 -0.0072650015 -0.69666094 -0.48422223 -0.52933198 0.0024516208
-0.062425915 0.033675194 -0.0083032092 -0.67155224 -0.51630902 -0.53145325 0.0016095153
-0.022111161 0.035720244 -0.0084414501 0.30751422 0.81745696 -0.48703083 0.001643052
-0.019293558 0.035180856 -0.0075882408 0.29257995 0.83896947 -0.45883247 0.0017355767
-0.016497033 0.03423468 -0.0076463032 0.26493636 0.83539534 -0.48158434 0.0018244021
-0.01369588 0.033659536 -0.00722714 0.22823115 0.8546347 -0.4663797 0.0020412861
-0.010887936 0.033310961 -0.0065294043 0.19013049 0.86510408 -0.46416086 0.0017390376
0.019648187 0.033288479 -0.0065810271 -0.22230434 0.86899585 -0.4420712 0.0018270847
0.022630341 0.033723231 -0.0073214574 -0.24179704 0.86241257 -0.44472319 0.0016312479
0.025507646 0.034479305 -0.0075421259 -0.28677955 0.83512193 -0.469392 0.0014530994
0.028397748 0.035226129 -0.0078956811 -0.28313529 0.84371716 -0.45604363 0.0016868396
0.030831484 0.035765294 -0.0084829303 -0.30446503 0.80201137 -0.51388603 0.00048149179
-0.066632107 0.038063169 -0.0067898254 -0.72215474 -0.44166553 -0.53237581 0.0019351797
-0.065139741 0.037377249 -0.0080655133 -0.69604683 -0.3744202 -0.61264044 0.00266143
-0.02802299 0.03832107 -0.0082353065 0.36217523 0.79227251 -0.49105331 0.0022060629
-0.025397709 0.037485462 -0.0076498697 0.35155356 0.81944853 -0.45267439 0.002407613
-0.022700915 0.036686022 -0.0071370662 0.32501456 0.83062363 -0.45213929 0.0016707572
-0.02048043 0.036205657 -0.0063922717 0.29137462 0.86836296 -0.40130606 0.0024646195
0.029157462 0.036162 -0.0065943007 -0.30300856 0.86063743 -0.40925431 0.001924884
0.03169727 0.03673818 -0.0072380262 -0.30706552 0.84241855 -0.44276607 0.001695568
0.034522802 0.037700679 -0.0076060793 -0.36205524 0.81820101 -0.44661301 0.0034078748
0.036806904 0.03851112 -0.008124535 -0.41203099 0.79136211 -0.45163766 0.00257992
-0.069024988 0.041993123 -0.0062733805 -0.72686827 -0.34483117 -0.5939309 0.0047652931
-0.067432746 0.040755488 -0.0074813673 -0.71968883 -0.30047107 -0.62591136 0.0022882279
-0.065800861 0.039792426 -0.00875853 -0.64140511 -0.26846701 -0.71869665 0.0027396141
-0.036098886 0.041742135 -0.0089216214 0.35144114 0.74217045 -0.57067686 0.0016234195
-0.03403366 0.041443609 -0.0077109518 0.4085902 0.80114633 -0.43728551 0.0013908804
-0.031487484 0.040216293 -0.0077157519 0.37478358 0.80662274 -0.45705265 0.0015930739
-0.028914258 0.039463069 -0.0068680476 0.37737709 0.81932539 -0.43161604 0.0012071204
0.037811946 0.03959471 -0.0071808184 -0.42977557 0.78914714 -0.4387936 0.0017873938
0.040338777 0.040795259 -0.0076343417 -0.47741827 0.74976361 -0.45817709 0.0019828016
0.042475671 0.041541357 -0.0084381821 -0.45447144 0.7356469 -0.50227416 0.0026512388
-0.069474347 0.043875564 -0.006522642 -0.73868066 -0.22823459 -0.63423961 0.0029269438
-0.06796281 0.043500405 -0.0079901647 -0.65427792 -0.16697709 -0.73758996 0.0017127162
-0.040237471 0.04439117 -0.008066982 0.39622182 0.7793684 -0.48537946 0.0023159257
-0.037324 0.043150093 -0.0076587875 0.37743926 0.79137665 -0.48089769 0.0017855786
-0.035102967 0.042519022 -0.0067679151 0.40413842 0.80102652 -0.44162035 0.0013422059
0.041720171 0.042369876 -0.0063360184 -0.46013135 0.77349788 -0.43586716 0.00099860178
0.043680124 0.042960379 -0.0073721055 -0.45185062 0.75767881 -0.47090745 0.0023324322
0.046272382 0.044158675 -0.0079272175 -0.41939038 0.72889602 -0.5411306 0.0026229899
0.048444159 0.04489255 -0.0086399112 -0.39183027 0.68800914 -0.61082935 0.00083966163
-0.069760434 0.046632472 -0.006880166 -0.69385636 -0.11829291 -0.71033096 0.0050847633
-0.06811595 0.046457056 -0.0083335005 -0.59529293 -0.045294549 -0.80223113 0.0029959031
-0.046230834 0.047315035 -0.0082987286 0.35876742 0.74053037 -0.56824356 0.0025847896
-0.043465894 0.046329431 -0.0076642814 0.40304276 0.75823009 -0.51248759 0.0019100485
-0.041334912 0.045784939 -0.0067531345 0.40980434 0.78432244 -0.46572396 0.0011887593
0.047045842 0.045483079 -0.0066405074 -0.45055521 0.75489467 -0.47658592 0.0019902163
0.049613189 0.046437185 -0.0074575264 -0.4190349 0.7386362 -0.52804005 0.0025589035
0.05212317 0.047212746 -0.0082827397 -0.35860297 0.67739123 -0.64229673 0.0015158221
-0.070069619 0.049422633 -0.0068723937 -0.62814313 -0.019881995 -0.77784383 0.0095988223
-0.067828536 0.049692139 -0.0083707832 -0.44088194 0.11358312 -0.89034939 0.0091545256
-0.054778457 0.050730832 -0.0087367874 0.20937662 0.68536925 -0.69744563 0.0023674248
-0.052446906 0.050242886 -0.0082351845 0.30300367 0.75083596 -0.58688509 0.0030511289
-0.049716033 0.04947846 -0.0076539945 0.34296322 0.74472117 -0.57250905 0.0015166183
-0.047084678 0.048608772 -0.0070555671 0.40594754 0.77154833 -0.4898161 0.002014338
0.050933149 0.04825351 -0.0060002031 -0.49988848 0.72530901 -0.47332692 0.0017017706
0.052862383 0.048737451 -0.0069767633 -0.41835171 0.71853358 -0.55559993 0.0029081351
0.055361848 0.049560588 -0.0076746354 -0.34184241 0.69327658 -0.63443786 0.0020421757
0.058190022 0.050316058 -0.0082967943 -0.26995489 0.66532838 -0.69603336 0.0031325512
0.060768563 0.050725456 -0.0087872446 -0.14230539 0.60584235 -0.7827543 0.0043850308
0.064869836 0.050901353 -0.0089534381 0.088469051 0.45552668 -0.88581526 0.011055107
0.066868939 0.050500613 -0.0086334767 0.24670804 0.33991012 -0.90752202 0.001945227
-0.070243366 0.052463934 -0.0067161322 -0.47924095 0.094001941 -0.87263489 0.011300206
-0.06752044 0.052479792 -0.0078754267 -0.2729167 0.28119722 -0.92002428 0.013251252
-0.064593054 0.052659754 -0.0082907137 -0.053781155 0.45954737 -0.88652343 0.009896013
-0.061436437 0.052796986 -0.0081063407 0.08584816 0.62256551 -0.77784461 0.003744686
-0.058484435 0.052790128 -0.0075965351 0.18296187 0.74800199 -0.63797969 0.0037789089
-0.055770468 0.052134067 -0.0074988855 0.2544463 0.75428241 -0.60523969 0.0025736007
-0.052934907 0.051659863 -0.0066979104 0.33963332 0.76278335 -0.55028236 0.0010972122
0.056495894 0.051213495 -0.0064733871 -0.40855697 0.71764326 -0.56397629 0.002683097
0.058746781 0.051929217 -0.0069705099 -0.36291456 0.67989177 -0.63721287 0.0028681455
0.061372802 0.052549154 -0.0074944063 -0.22360395 0.62266117 -0.74986291 0.0079919267
0.064301535 0.052587107 -0.0080836983 -0.049512099 0.46810523 -0.88228464 0.0049942834
0.067048453 0.052738719 -0.007763457 0.19001381 0.36219832 -0.91252786 0.0056059565
0.069006823 0.051549956 -0.0072568539 0.19395956 0.37578815 -0.90618044 0.0047988719
-0.070161134 0.055205714 -0.0063550482 -0.24108811 0.32864454 -0.91316444 0.01498606
-0.0675437 0.055420812 -0.0067211972 -0.09089198 0.43623164 -0.89523214 0.010117887
-0.064651273 0.055012789 -0.0068038604 0.13727939 0.57042176 -0.80979836 0.01189482
-0.061763559 0.054474492 -0.0065948335 0.18287466 0.68226904 -0.70785999 0.0059515764
-0.059420116 0.054183669 -0.0061712787 0.22911982 0.77893615 -0.58374882 0.0027574175
0.062464904 0.054502744 -0.0063609229 -0.34425285 0.62714761 -0.69869584 0.0067741312
0.064634815 0.055191785 -0.0066345907 -0.20258924 0.50874341 -0.8367424 0.0095379399
0.067259997 0.055572562 -0.006662047 0.044295281 0.33254421 -0.94204688 0.011806393
0.06924253 0.054626793 -0.0063909837 0.13759394 0.31851277 -0.93787926 0.0044524348
0.067315787 0.05723742 -0.0060798577 -0.10290157 0.36197788 -0.92648971 0.012345267
-0.0096797245 0.0025506269 -0.005820951 -0.1553591 -0.83264434 -0.53157026 0.00073816697
-0.024051495 0.0057358756 -0.0033171109 -0.36040476 -0.89444417 -0.26472241 0.003700908
-0.022604471 0.005586294 -0.0045551509 -0.32724449 -0.84879518 -0.41528043 0.0015194586
-0.019422982 0.0048821764 -0.0056144348 -0.29307684 -0.86553836 -0.40613949 0.00077353633
-0.016598107 0.0040827249 -0.0057828301 -0.2215319 -0.82437545 -0.5208922 0.0012301093
-0.014126478 0.0032517384 -0.0053474661 -0.21000022 -0.85132134 -0.48078254 0.0003800916
-0.02802906 0.0076020635 -0.0041737128 -0.33618307 -0.86281174 -0.37754041 0.00081611885
-0.025867464 0.0073071676 -0.0057022283 -0.34485728 -0.86142957 -0.37284374 0.00087841233
-0.037438571 0.011351004 -0.0030944073 -0.42697096 -0.85884446 -0.28298798 0.0016078334
-0.035058677 0.010825614 -0.0049507376 -0.38278794 -0.85714197 -0.34464625 0.0014189029
-0.031668127 0.0093065528 -0.0047953078 -0.35170224 -0.85437948 -0.38254559 0.0013655679
-0.042812407 0.014418948 -0.0035672567 -0.51131457 -0.80999774 -0.28716034 0.0019062954
-0.040581103 0.013562765 -0.0048720334 -0.47048426 -0.82592702 -0.31062701 0.0015913374
-0.037974756 0.012117852 -0.0047430173 -0.44160584 -0.83983582 -0.31568992 0.0015079629
-0.046286561 0.017154662 -0.0046624183 -0.54205662 -0.7855159 -0.29856238 0.0017160089
-0.043944072 0.015562315 -0.0047070384 -0.52440226 -0.79725617 -0.2989729 0.0017315175
-0.051115658 0.020452345 -0.0038495443 -0.58361644 -0.7615217 -0.28191602 0.0012689397
-0.049410135 0.019464672 -0.0046181441 -0.56690216 -0.77002615 -0.29271397 0.0017629281
-0.047653902 0.018347073 -0.0051711095 -0.56103915 -0.7729066 -0.29639581 0.0017168571
-0.054553617 0.023266669 -0.0044474332 -0.57977295 -0.74672449 -0.32598448 0.0017051633
-0.052621562 0.021932594 -0.0047901049 -0.58606511 -0.74317932 -0.32281896 0.0019357946
-0.05816989 0.02613047 -0.0042743804 -0.61152613 -0.72538507 -0.31599411 0.0035387613
-0.056166511 0.024655098 -0.0048067207 -0.60585874 -0.7350474 -0.30436888 0.0035137946
-0.061091743 0.029014854 -0.0043547079 -0.68364757 -0.643332 -0.34460112 0.0017037584
-0.059343863 0.027552858 -0.0049629831 -0.66524351 -0.68261427 -0.30247113 0.0014366724
-0.063824423 0.032103356 -0.0043244977 -0.7282905 -0.59103882 -0.34679392 0.0019924371
-0.062339667 0.030725075 -0.0049588284 -0.69696915 -0.63045949 -0.34169418 0.0032261068
-0.0067897933 0.032853007 -0.0057510119 0.16266648 0.9238857 -0.34637392 0.0024214031
-0.0045432737 0.032723162 -0.0052269967 0.13680136 0.92818636 -0.34605691 0.0023917472
-0.0014477872 0.032528564 -0.0046884846 0.11348595 0.93832493 -0.32659942 0.0027071789
0.0014566763 0.032308593 -0.0046897917 0.043819714 0.94566202 -0.32218486 0.0021192497
0.0045059398 0.032249302 -0.0045731836 0.010767953 0.9502759 -0.31122321 0.0028782657
0.00769444 0.032260075 -0.0046093268 -0.019962993 0.95313317 -0.30189168 0.0027146209
0.010595337 0.032421768 -0.0047203824 -0.096834116 0.93860012 -0.33113891 0.0017509186
0.013299027 0.032687552 -0.0047393353 -0.13693658 0.94036305 -0.31139335 0.0024722065
0.015997594 0.032863565 -0.0055678864 -0.19187111 0.92609382 -0.32486266 0.0025397625
-0.066476144 0.035400819 -0.0040972889 -0.76054043 -0.54514074 -0.35270348 0.0018426678
-0.065189928 0.034165587 -0.0048438786 -0.73146534 -0.58230042 -0.35480231 0.0029999174
-0.01632922 0.035434723 -0.0048699295 0.28954232 0.91007656 -0.29652333 0.0016064157
-0.013504332 0.034693472 -0.0047182748 0.24400157 0.91659194 -0.31673729 0.0028750775
-0.010523639 0.034037389 -0.0044926456 0.1930168 0.93377501 -0.30134496 0.0023365233
-0.0075992276 0.033422437 -0.0046145245 0.15941468 0.94345731 -0.29064631 0.0020643659
-0.0046778917 0.033253379 -0.0036650407 0.1311418 0.94560093 -0.29772609 0.0025376545
-0.0028429141 0.03303054 -0.0036310265 0.10674055 0.95322603 -0.28278354 0.0023200193
0.014445807 0.033191875 -0.0036575911 -0.13605493 0.94506931 -0.29720873 0.0025870679
0.016742513 0.033445209 -0.0042770263 -0.19262622 0.9399296 -0.2818287 0.0022495762
0.019583428 0.034065839 -0.0045049819 -0.22545706 0.9296509 -0.29140744 0.001981497
0.022541916 0.034852318 -0.0045390273 -0.27075312 0.91700298 -0.29291335 0.0014407167
0.025281627 0.035587687 -0.0048150383 -0.29859263 0.90876412 -0.29153076 0.0016646462
0.02714853 0.035786819 -0.0058696507 -0.32026735 0.8661862 -0.38360164 0.0012977372
-0.069077402 0.038807426 -0.0033488013 -0.80690503 -0.46267861 -0.36719593 0.0025292127
-0.0677251 0.037577435 -0.0045721726 -0.78853393 -0.51528227 -0.33570579 0.0017996436
-0.025219399 0.038542993 -0.0052261096 0.36465839 0.87172323 -0.3272962 0.0012632617
-0.022539468 0.037605114 -0.0048187468 0.35334143 0.88602257 -0.3001897 0.0014161312
-0.019361407 0.036550984 -0.0044262316 0.31927854 0.90200329 -0.29060492 0.0013004827
0.026390264 0.036275499 -0.0036500439 -0.28047284 0.92115295 -0.26983759 0.001921686
0.028564075 0.036746271 -0.0044658384 -0.30500469 0.90965176 -0.28196761 0.0022024333
0.031482834 0.03775622 -0.0045468006 -0.3598887 0.88228929 -0.3033905 0.0024020225
0.033840619 0.038570866 -0.0049800579 -0.40391672 0.86598212 -0.29483265 0.0024049368
-0.069722772 0.040936448 -0.0043533309 -0.8235116 -0.36956146 -0.43041036 0.0027645784
-0.068648696 0.039830673 -0.0053311987 -0.81780267 -0.3939442 -0.41953164 0.0041660322
-0.030930713 0.041236684 -0.0049500009 0.41767082 0.84761971 -0.32724896 0.00088685536
-0.028290261 0.040036753 -0.0048126997 0.38710666 0.8631928 -0.32410875 0.0013825992
-0.026123889 0.039285127 -0.0042091343 0.37140962 0.87771428 -0.3027747 0.0010853924
0.035092358 0.039399851 -0.0042132935 -0.40438738 0.86595964 -0.29425281 0.002331994
0.037537508 0.040605649 -0.0045557073 -0.45669451 0.83405238 -0.30949447 0.0027473206
0.039563321 0.041643094 -0.0050306628 -0.51591235 0.80968577 -0.27972007 0.0016685145
-0.070731662 0.043614443 -0.0045189192 -0.85135424 -0.29969588 -0.43055579 0.004452846
-0.037225723 0.044290617 -0.0052885176 0.42681268 0.80072641 -0.42031905 0.00051262608
-0.034379181 0.043074116 -0.0045138602 0.42989331 0.81679463 -0.3847574 0.00085518142
-0.032599717 0.042077359 -0.004883335 0.41797271 0.83950526 -0.34717399 0.00068365125
0.040828574 0.042679626 -0.0042732921 -0.490181 0.82139677 -0.29159898 0.0019118434
0.043217801 0.044046436 -0.0046707005 -0.51625419 0.81091583 -0.27549425 0.0018575541
-0.072291203 0.046909507 -0.0035435674 -0.84359699 -0.27958831 -0.45844787 0.0037847825
-0.0713 0.046311963 -0.00490076 -0.83641791 -0.22682227 -0.49895567 0.0077680717
-0.04315063 0.047681857 -0.0047878069 0.42349055 0.78886288 -0.44536623 0.00077649445
-0.040474534 0.046183217 -0.0048833448 0.40570471 0.80274898 -0.43703297 0.00072269398
-0.038340323 0.045177121 -0.0045044064 0.42661902 0.80125159 -0.41951409 0.00041436098
0.044537101 0.045208871 -0.0038666243 -0.51501065 0.80454087 -0.29576671 0.0016676519
0.046484992 0.04618356 -0.0045257169 -0.49982321 0.79719079 -0.3386201 0.0029708827
0.048880756 0.047500025 -0.0049523194 -0.52027482 0.78810334 -0.32894856 0.0023929453
-0.072770849 0.049602486 -0.0040351939 -0.788091 -0.23850289 -0.56747591 0.0065108966
-0.071535259 0.049260739 -0.0054552336 -0.76776284 -0.14489715 -0.62413549 0.0078085298
-0.049028296 0.050584819 -0.0053311787 0.4008342 0.78658593 -0.46969625 0.0026137109
-0.046378359 0.049447514 -0.0047269976 0.42515105 0.80573905 -0.41234836 0.0007668013
-0.044084895 0.048613556 -0.0036889275 0.4226366 0.81181699 -0.40290371 0.00054508471
0.050125286 0.048666909 -0.0041282438 -0.52434111 0.78634566 -0.32669079 0.0037534477
0.052385915 0.049909126 -0.0046530622 -0.48107332 0.78535056 -0.38960615 0.0046263724
0.054402679 0.050717488 -0.0055083595 -0.47420111 0.77520913 -0.4173536 0.0032028679
-0.073334135 0.052614097 -0.0044664955 -0.69228727 -0.11593548 -0.71224803 0.0089907702
-0.071668155 0.052166592 -0.0058021741 -0.54348892 -0.03883845 -0.83851737 0.0072367718
-0.055159595 0.053610612 -0.0049769389 0.29650187 0.84450495 -0.44597971 0.003078124
-0.052777011 0.05272577 -0.0047673299 0.3445996 0.83041501 -0.43779206 0.0023958618
-0.050283931 0.051442999 -0.0048851734 0.39391628 0.81554198 -0.42393544 0.0017662412
0.053618781 0.05125007 -0.0035392479 -0.49092451 0.79338431 -0.35990912 0.0024975352
0.055637825 0.052015152 -0.0044815913 -0.45113355 0.80115104 -0.39323735 0.0033286039
0.058153935 0.053205721 -0.0049677216 -0.43615001 0.75602901 -0.48805055 0.0073714107
0.060232274 0.053944238 -0.0056480048 -0.41134804 0.64322323 -0.64579922 0.0019102187
-0.075172178 0.055546295 -0.0032613052 -0.87844771 0.12456921 -0.46131575 0.03824383
-0.073572807 0.055468492 -0.0046674297 -0.63202298 0.21350725 -0.74495739 0.024888616
-0.071307302 0.056047406 -0.0058142412 -0.31909367 0.24469462 -0.91558927 0.021555739
-0.06635052 0.05692368 -0.0057871416 0.093824886 0.64287716 -0.76020116 0.013967259
-0.064212851 0.056470532 -0.0055346871 0.25222349 0.68614399 -0.6823414 0.009043999
-0.061598111 0.055814926 -0.004945491 0.29772949 0.74713534 -0.59426087 0.0055157994
-0.058633536 0.054922335 -0.0046405597 0.290512 0.83656627 -0.46449941 0.0040956344
-0.056131784 0.054489937 -0.0039007452 0.29206204 0.84945482 -0.43946135 0.0031818103
0.059135567 0.054531075 -0.00386687 -0.51723278 0.71784127 -0.46601957 0.0050337543
0.061481193 0.055575933 -0.0046426142 -0.42804673 0.71782577 -0.54909217 0.0062682535
0.063886076 0.05644574 -0.0055082547 -0.32176921 0.54977703 -0.77085 0.007441198
-0.073240057 0.057911094 -0.0040930286 -0.54881918 0.64056993 -0.53709173 0.018172242
-0.070587136 0.058601301 -0.0047996794 -0.30665523 0.65662175 -0.68906492 0.026709868
-0.067643084 0.05844529 -0.0048272316 0.17744942 0.68300831 -0.70852757 0.0091650384
-0.064752176 0.05798259 -0.0041960166 0.3209731 0.6918754 -0.64674932 0.0029905532
-0.062908359 0.057203621 -0.004055337 0.3367523 0.71185821 -0.61632442 0.0043047499
0.062411316 0.057320517 -0.0034843844 -0.51310939 0.63277954 -0.57992131 0.0098484484
0.064498857 0.058501657 -0.0043078335 -0.54999858 0.47072378 -0.68987018 0.017429274
0.067304879 0.058669645 -0.0054759234 -0.19739349 0.41165021 -0.88970786 0.00776922
0.069800809 0.058692485 -0.0052914335 -0.22331458 0.28608188 -0.93181962 0.010662545
-0.069512062 0.060183518 -0.0032152003 -0.15506376 0.94175541 -0.29841581 0.032072939
-0.068254083 0.060197961 -0.0033382785 0.018861949 0.89685017 -0.44193217 0.029765682
0.065431483 0.061167102 -0.0035170845 -0.50899875 0.29547855 -0.8084631 0.026125999
0.067218751 0.061508175 -0.0044983164 -0.3670862 0.25659585 -0.89409524 0.023770412
0.070104368 0.061518908 -0.0047024786 -0.28693336 0.22952126 -0.93004799 0.012209283
0.067540839 0.064420789 -0.003900368 -0.43692759 0.16894051 -0.88348925 0.018761611
0.070394114 0.064530462 -0.0044550197 -0.40438974 0.17546211 -0.89759791 0.020089258
0.067865595 0.067482628 -0.0035947431 -0.58157283 0.10957215 -0.80608124 0.019189952
0.069915347 0.067525573 -0.004362464 -0.32861522 0.077678844 -0.94126403 0.01367007
0.07202059 0.067849152 -0.0042287712 -0.3075256 0.024180185 -0.95123255 0.015198526
0.068255 0.070538744 -0.0034721449 -0.50334609 0.085574262 -0.85983706 0.025101079
0.070210584 0.070579253 -0.004419521 -0.39140293 0.0012206461 -0.92021859 0.024718599
0.072714239 0.070837095 -0.0044737682 -0.2568585 -0.045205187 -0.96539128 0.0063661239
0.068541981 0.073421933 -0.003446534 -0.7029503 0.093389079 -0.70508116 0.008884849
0.07035812 0.073552303 -0.0045962771 -0.35844567 0.046613533 -0.9323861 0.015966181
0.072769322 0.073755905 -0.0050755194 -0.35839742 0.046580043 -0.93240637 0.015973428
0.0686744 0.075904898 -0.0033167263 -0.77500361 0.29508623 -0.55883229 0.063447185
0.070196122 0.075805366 -0.0044821808 -0.5427714 0.11492492 -0.83198047 0.021661593
0.072834708 0.075616606 -0.0051220055 -0.46312252 0.059056669 -0.88432443 0.02876156
-0.024181919 0.0056622704 -0.0028196438 -0.33461905 -0.9123978 -0.23571235 0.0027154044
-0.029005446 0.0075311884 -0.0025760191 -0.33332151 -0.91446924 -0.22944018 0.00078796939
-0.0373438 0.01110489 -0.0021152946 -0.41448227 -0.87845314 -0.23774891 0.00082652818
-0.032926783 0.0091744922 -0.0025528751 -0.38882637 -0.89212549 -0.23005687 0.00028985957
-0.043257575 0.014308606 -0.0014914091 -0.50261176 -0.83163035 -0.23616189 0.0014473578
-0.040626161 0.0127587 -0.0015406666 -0.47604674 -0.84859872 -0.23078054 0.00062309875
-0.048256364 0.017799063 -0.0018609163 -0.58407497 -0.77886271 -0.22853751 0.00058235822
-0.046584908 0.016593855 -0.0017896522 -0.55460727 -0.79863793 -0.23364116 0.00046906929
-0.044802908 0.015293352 -0.0014521165 -0.55580753 -0.79557574 -0.24111678 0.00083367288
-0.051684164 0.020343279 -0.0016650116 -0.60102689 -0.77220398 -0.20607692 0.0012357172
-0.049866959 0.018973468 -0.0015365274 -0.58212662 -0.77825701 -0.23546675 0.00064419757
-0.055184361 0.022991704 -0.0016729968 -0.59969461 -0.77549332 -0.19742423 0.00081271183
-0.053073619 0.021419251 -0.0017944598 -0.59484547 -0.77570802 -0.21079822 0.0012219101
-0.058471765 0.025677485 -0.001697344 -0.65566671 -0.72525615 -0.21001118 0.00085025793
-0.05683212 0.024139546 -0.00055209483 -0.58649623 -0.77664989 -0.22986311 0.0023825797
-0.06149995 0.028552551 -0.0015008018 -0.71330917 -0.67673713 -0.18225528 0.00057252619
-0.064183161 0.031553537 -0.0015662415 -0.75645369 -0.63431132 -0.15945862 0.001334756
0.0018912858 0.032896355 -0.0023211672 0.053994562 0.99115396 -0.12123687 0.003983777
0.004414021 0.032869603 -0.0020509819 0.014443456 0.99426806 -0.10593572 0.0032645778
0.0071856463 0.032846622 -0.0021622907 -0.031508364 0.98873049 -0.14635281 0.0022077174
0.0098029012 0.032939222 -0.0025757225 -0.077819586 0.98722804 -0.13901442 0.0024456461
-0.06691502 0.034954652 -0.0014492633 -0.79357529 -0.59173983 -0.14171189 0.0028757358
-0.065673955 0.033470515 -0.0019142821 -0.77473938 -0.61674356 -0.13930586 0.0019498789
-0.015550033 0.035868362 -0.0019798046 0.25945657 0.9251132 -0.27721447 0.0016095093
-0.013584892 0.03540799 -0.0015116952 0.23528467 0.93048686 -0.28077623 0.0010725196
-0.010457325 0.034665156 -0.0014355187 0.23607893 0.94851303 -0.21116272 0.0012911133
-0.007295005 0.034007024 -0.001727668 0.16953409 0.97116202 -0.16763811 0.0029937068
-0.0044246577 0.03360112 -0.0016154805 0.14031886 0.98117405 -0.13269559 0.0023624422
-0.0015952885 0.033231083 -0.0018034537 0.096096374 0.98392773 -0.1505051 0.0027301931
0.00085310126 0.03312334 -0.0010132632 0.029515086 0.99418467 -0.10356483 0.0034446905
0.0045077223 0.033024333 -0.00046460572 0.0088147614 0.99993318 -0.0074788085 0.00099944614
0.0080982214 0.033020407 -0.0008039985 -0.021320485 0.99954784 -0.021202303 0.0010088463
0.010674746 0.033143107 -0.0014730432 -0.05271994 0.99229139 -0.11215365 0.0023510784
0.013525137 0.033418961 -0.0015754603 -0.11562014 0.98818547 -0.10060611 0.0022940268
0.016423399 0.033929642 -0.0015255719 -0.20017953 0.97260731 -0.11816607 0.0027987636
0.019360749 0.034629498 -0.0015636445 -0.23944877 0.96083659 -0.13949026 0.0037130988
0.022444526 0.035453074 -0.0015718366 -0.28397045 0.95296907 -0.10588156 0.0019802407
0.02433791 0.035867065 -0.0026633465 -0.29254049 0.94757456 -0.12853959 0.0035584031
-0.06933184 0.038414795 -0.0013684687 -0.8522191 -0.50450081 -0.13856907 0.0041162698
-0.068299673 0.036934067 -0.0016984151 -0.81388384 -0.56755072 -0.12441588 0.0025158902
-0.024366429 0.038861889 -0.0027748877 0.38107747 0.88229758 -0.27628055 0.0004216056
-0.022307795 0.038109489 -0.0025738426 0.36251843 0.88972372 -0.27743846 0.00086214673
-0.019890977 0.037313577 -0.001699801 0.32156202 0.90617061 -0.27468681 0.00083366118
-0.017152043 0.036384463 -0.0018716822 0.29880506 0.91154194 -0.28250095 0.0014444949
0.025459485 0.036363058 -0.0013805372 -0.30180514 0.95199037 -0.051263675 0.0033971563
0.028424639 0.037308451 -0.0014613441 -0.30029562 0.95022762 -0.083006546 0.0015076071
0.031595808 0.038409412 -0.0015915707 -0.34852815 0.93419671 -0.076187722 0.0027700488
-0.070461467 0.040508423 -0.0016351973 -0.8778289 -0.43791297 -0.19403246 0.0050482508
-0.030859869 0.041792285 -0.002854672 0.41328603 0.85433173 -0.31513795 0.00096008682
-0.028098758 0.040593248 -0.0023172628 0.40333316 0.87250125 -0.2757971 0.00060739304
-0.026217952 0.039722666 -0.0025275976 0.37719601 0.88357157 -0.27753261 0.0004684825
0.034581568 0.039710063 -0.0014992291 -0.44139433 0.8933183 -0.084578432 0.002965163
0.03738543 0.041202735 -0.0015751477 -0.50029051 0.85899502 -0.10879735 0.0026320452
-0.07220719 0.044355486 -0.0011161867 -0.93164885 -0.31432152 -0.18229736 0.0079092868
-0.071603112 0.043051016 -0.0017242883 -0.90956944 -0.38346127 -0.16012749 0.0051195314
0.038786523 0.04207173 -0.0016746274 -0.54154074 0.8340202 -0.10556451 0.0027008464
0.04053618 0.043133099 -0.0015289991 -0.50733531 0.8548823 -0.10856789 0.002655444
0.042816315 0.044582661 -0.0016925925 -0.56002569 0.82347369 -0.090896979 0.0021466445
-0.072817333 0.046483323 -0.0016233039 -0.93239206 -0.29583126 -0.20767497 0.0072656642
0.044301577 0.045602132 -0.0013688036 -0.561221 0.82143164 -0.10139648 0.0025640565
0.046514623 0.047007099 -0.0015893909 -0.55473131 0.82187039 -0.12962364 0.0034108241
0.048127476 0.047814902 -0.0029406918 -0.50999415 0.81577271 -0.27280167 0.0018045591
-0.073935777 0.04949908 -0.0015871788 -0.92726874 -0.33168897 -0.1736522 0.016995534
0.047920652 0.048047382 -0.00059435563 -0.50655878 0.85929066 -0.070836902 0.0056010503
0.049545344 0.049023457 -0.0014758256 -0.51428825 0.84571755 -0.14237082 0.003392576
0.051672924 0.050474018 -0.0015266378 -0.54536492 0.83003563 -0.1166959 0.0035433408
-0.075518206 0.052819505 -0.0013756683 -0.9330194 -0.31721637 -0.16984895 0.01901963
-0.074721545 0.051610939 -0.0021294351 -0.90834534 -0.3611159 -0.21095994 0.01793064
-0.052897532 0.053685352 -0.0023264904 0.38635522 0.86263144 -0.32649142 0.0010488298
-0.048053052 0.051111139 -0.0025813847 0.42170632 0.82130772 -0.38421002 0.00065928791
0.053217199 0.051536363 -0.0014718014 -0.53689027 0.828605 -0.15862736 0.0061530001
0.055494573 0.052984893 -0.0016149095 -0.53904605 0.82313818 -0.17852956 0.0062690326
0.057044856 0.053993713 -0.0018336532 -0.59109044 0.79534727 -0.13429403 0.0099338898
-0.075960495 0.055505704 -0.0015836159 -0.94870877 0.094064496 -0.30183369 0.040455997
-0.060420912 0.056488119 -0.0028976754 0.37334564 0.77856487 -0.50443023 0.0037503068
-0.058468636 0.05592192 -0.0019609167 0.34862727 0.83798057 -0.41981864 0.0032892171
-0.055645164 0.054921579 -0.0017635851 0.31565681 0.85128605 -0.41913345 0.0021782634
