# .PCD v0.7 - Point Cloud Data file format
VERSION 0.7
FIELDS x y z normal_x normal_y normal_z curvature
SIZE 4 4 4 4 4 4 4
TYPE F F F F F F F
COUNT 1 1 1 1 1 1 1
WIDTH 553
HEIGHT 1
VIEWPOINT 0 0 0 1 0 0 0
POINTS 553
DATA ascii
-0.02600874 0.036411718 -0.0097395638 0.31431159 0.75134361 -0.5802508 0.0012430223
0.034668002 0.036525615 -0.0095488178 -0.32331973 0.75313288 -0.57293564 0.0012500769
0.037646469 0.03713388 -0.010554122 -0.35194618 0.7152521 -0.60377836 0.0020271011
0.040323693 0.038113479 -0.011045981 -0.38169077 0.69597042 -0.60822481 0.0024159683
0.042816967 0.038737658 -0.011813033 -0.33052826 0.61969674 -0.71184754 0.0016898877
0.065103441 0.037407726 -0.011259479 0.56857806 -0.10354493 -0.81608665 0.0018981127
0.06702058 0.037653185 -0.0097417738 0.67379093 -0.15070367 -0.72339076 0.0020059068
-0.064389408 0.04057321 -0.010106293 -0.5866828 -0.21335436 -0.78120625 0.0029837338
-0.062208176 0.040406674 -0.011535763 -0.49488324 -0.14581235 -0.85663843 0.0026474232
-0.03988003 0.041477501 -0.01143954 0.31093591 0.67845148 -0.66559929 0.0018682956
-0.037247624 0.040750384 -0.010852375 0.33227354 0.71904534 -0.61038369 0.0012680703
-0.034566253 0.039837085 -0.010406817 0.3307192 0.71510828 -0.61582869 0.0011534139
-0.032049861 0.039344605 -0.0095176203 0.36708844 0.73995155 -0.56366462 0.0011877164
0.04086028 0.039587714 -0.0097214924 -0.40021646 0.70496202 -0.58553851 0.0010959326
0.043556612 0.040440835 -0.010470233 -0.36902609 0.69102675 -0.62153172 0.0011625281
0.046314001 0.041142605 -0.011302033 -0.32696742 0.65928888 -0.67707497 0.0016912227
0.048479263 0.041869115 -0.011658979 -0.30709451 0.63363713 -0.71006823 0.00056718383
0.065194525 0.040519521 -0.011379609 0.51597244 0.014950525 -0.8564747 0.0025182904
0.067289382 0.040542785 -0.0098664593 0.63677442 -0.058707993 -0.76881188 0.0019899141
-0.066358708 0.043753665 -0.0093562556 -0.60586923 -0.13668363 -0.78373468 0.0033257604
-0.064512879 0.043463059 -0.010531966 -0.53427684 -0.1041216 -0.83887249 0.0025292039
-0.06240245 0.043551136 -0.011668694 -0.41957486 0.013308753 -0.90762317 0.0038822885
-0.046248227 0.04445548 -0.011432828 0.26555124 0.65143573 -0.7107138 0.0014027664
-0.043464385 0.043776114 -0.010826259 0.32088131 0.69064796 -0.64810538 0.0016438816
-0.040856879 0.042888727 -0.010424754 0.33621314 0.70631826 -0.62295687 0.0016057245
-0.038194235 0.042363629 -0.0095092691 0.3694472 0.71647185 -0.59175748 0.00070654089
0.046668217 0.042677894 -0.0099668009 -0.38679928 0.68237323 -0.62028468 0.0013388449
0.049524423 0.043561589 -0.0105555 -0.3127667 0.65316206 -0.68960589 0.0014887541
0.052286681 0.043978956 -0.01134633 -0.25878885 0.57589298 -0.77548409 0.0017459061
0.055137537 0.044680558 -0.011696036 -0.18490121 0.57288504 -0.79850757 0.0028592187
0.057345603 0.044900969 -0.011968972 -0.057249434 0.52183861 -0.85112095 0.0055588917
0.062543958 0.044581551 -0.011858754 0.18634154 0.28597182 -0.93994522 0.0015317156
0.064508907 0.043593157 -0.011403899 0.36064839 0.20711575 -0.90941501 0.0041484805
0.06715022 0.043424338 -0.0099320542 0.57407051 0.080915943 -0.81479788 0.0041926368
-0.066605464 0.046436738 -0.0093588829 -0.54133594 0.028523758 -0.84032243 0.0052460809
-0.064471558 0.046498995 -0.010478408 -0.39774355 0.14250578 -0.90636212 0.0065827821
-0.061631463 0.046685614 -0.011454505 -0.2009555 0.30081302 -0.93227053 0.0054325201
-0.058530819 0.047242723 -0.011737731 -0.032999031 0.42891261 -0.9027431 0.0039942609
-0.055356104 0.047334488 -0.011577236 0.081414163 0.5113005 -0.855537 0.0028055832
-0.052466579 0.046975233 -0.011334555 0.18263392 0.57315308 -0.79883689 0.0022934363
-0.049451262 0.046455607 -0.010829452 0.25515461 0.65087378 -0.71502405 0.0019085208
-0.046562288 0.045918733 -0.010145831 0.32870576 0.68953073 -0.6453681 0.0017376213
-0.04417425 0.045401633 -0.0094701024 0.3604897 0.70264488 -0.61346334 0.0012590176
0.050550036 0.045370478 -0.0093112048 -0.37940398 0.66907322 -0.6390568 0.0020398358
0.052730091 0.045880273 -0.009907661 -0.3321988 0.63288236 -0.6993596 0.0016181389
0.055548955 0.04661094 -0.010386484 -0.2455321 0.58592051 -0.77227664 0.0012701355
0.058505673 0.046576463 -0.011102982 -0.11007486 0.52815956 -0.8419804 0.0016717993
0.061549753 0.046470951 -0.011253594 0.11392154 0.4338308 -0.89376324 0.0077022118
0.064450756 0.046469271 -0.010696928 0.28642818 0.30145687 -0.90944082 0.0079284329
0.066880681 0.046462875 -0.0096547706 0.49989793 0.18191954 -0.84676284 0.0051588076
-0.066427462 0.048897628 -0.0092241205 -0.3553445 0.2209022 -0.90825796 0.0099788299
-0.064465262 0.049499758 -0.009769476 -0.25782233 0.28458148 -0.92333144 0.0063995849
-0.061521024 0.04952972 -0.01037677 -0.13986006 0.43070996 -0.89158744 0.0065605328
-0.058408268 0.049436308 -0.010482998 0.075714454 0.55952537 -0.8253476 0.0026633691
-0.055432845 0.049320959 -0.010160869 0.13825524 0.61788821 -0.77401531 0.0030228791
-0.052740779 0.048785791 -0.0098783066 0.24017859 0.64312851 -0.72711754 0.0017810209
-0.050019246 0.048273645 -0.0093313446 0.30142635 0.67921472 -0.66918576 0.0016805006
0.056506202 0.048341978 -0.0093430597 -0.2815437 0.60284168 -0.74653536 0.0029144271
0.058768876 0.048786495 -0.0096906237 -0.18438831 0.57630664 -0.79616052 0.0040548109
0.061524939 0.049273923 -0.0097906208 -0.033334877 0.4993456 -0.8657614 0.0046649342
0.064474851 0.049354117 -0.0096196439 0.1690494 0.38393307 -0.90775418 0.0064422437
0.066627316 0.048730206 -0.009219992 0.38182464 0.30374655 -0.87289631 0.005923837
-0.063357025 0.051595267 -0.009050562 -0.12106079 0.53367656 -0.83697891 0.010897521
-0.061570421 0.05135132 -0.0092932712 -0.0097850338 0.58330601 -0.81219351 0.005210164
-0.059150562 0.051326677 -0.009214092 0.097588107 0.63012505 -0.77033693 0.0020020083
-0.010146532 0.0029061686 -0.0063836337 -0.16782938 -0.86829597 -0.46679264 0.0012656476
-0.0073324041 0.0026119046 -0.0066738031 -0.12040211 -0.868007 -0.48173353 0.001604888
-0.0044246372 0.0024970274 -0.0070674368 -0.085385457 -0.87026209 -0.48513204 0.0017702227
-0.0015083479 0.002370947 -0.0072473292 -0.054874036 -0.87102568 -0.48816293 0.0017323317
0.0015760018 0.0022936254 -0.0073633725 -0.026690403 -0.87324482 -0.48655018 0.0018040437
0.0044224192 0.0022478404 -0.0073731411 -4.5195146e-05 -0.87827474 -0.47815648 0.0016940414
0.0074877199 0.0022859343 -0.0073609506 0.031687573 -0.8819375 -0.47030008 0.0019318588
0.010492402 0.0024161292 -0.0073165344 0.056491662 -0.88150585 -0.46878153 0.0019437145
0.013502521 0.0024370581 -0.0068489918 0.086458527 -0.885526 -0.45647398 0.0017547327
0.016187491 0.0026723261 -0.0067242887 0.1193924 -0.88665223 -0.44675863 0.0016008832
0.019130405 0.0028535209 -0.006207685 0.15559489 -0.91069883 -0.38264593 0.0005741482
-0.021244671 0.0058017601 -0.0061874138 -0.32008123 -0.8346082 -0.44830474 0.0016559414
-0.019179739 0.0055337343 -0.007027627 -0.27913529 -0.83671731 -0.47115555 0.0018629575
-0.016463708 0.00503883 -0.007575938 -0.2224893 -0.83182234 -0.50849783 0.0014515906
-0.013485948 0.0042934562 -0.0075882389 -0.19573541 -0.85491145 -0.48043099 0.0011278928
-0.010573383 0.0038221618 -0.0078168055 -0.16067602 -0.84398669 -0.5117321 0.0012143815
-0.0076354542 0.0036288933 -0.0082758944 -0.11557978 -0.84048665 -0.52936143 0.0015327028
-0.0045765033 0.0033731519 -0.0084558744 -0.083232813 -0.8395611 -0.53685141 0.0017179088
-0.0017029032 0.003279567 -0.0086831134 -0.059478179 -0.79528409 -0.60331208 0.00073060388
0.0010372688 0.0032816152 -0.0089148143 -0.02769796 -0.79730022 -0.602947 0.00064359582
0.0048927641 0.0030375251 -0.0086836684 -0.0067125214 -0.79829347 -0.60223126 0.00070559978
0.0075024921 0.0031368004 -0.0087745348 0.026121125 -0.85087752 -0.52471435 0.0022849748
0.010373839 0.0032684461 -0.0087841526 0.052075502 -0.85471791 -0.51647395 0.0021518427
0.013455489 0.0032723059 -0.0084470203 0.077280775 -0.85566193 -0.51173264 0.0017239507
0.016769253 0.0035129644 -0.0081948694 0.10951404 -0.862634 -0.49383107 0.0016848738
0.019508669 0.0036999111 -0.0077810907 0.16403411 -0.87190783 -0.46137789 0.0010129347
0.022432363 0.0041606491 -0.0075928546 0.17503226 -0.87536186 -0.45067215 0.0014685792
0.02544375 0.0048048059 -0.0075367657 0.2109274 -0.86935353 -0.44691616 0.001547248
0.028301964 0.0054269163 -0.0072940039 0.24067989 -0.8724618 -0.42530411 0.0015533066
0.030820135 0.0057775085 -0.0064730044 0.28382051 -0.88703477 -0.36416367 0.00053355593
-0.027901594 0.0086871367 -0.0068098991 -0.33595696 -0.82682729 -0.45109829 0.0013430417
-0.025476955 0.0080674794 -0.0073876255 -0.30189908 -0.81440574 -0.49558076 0.0012789463
-0.022562731 0.007143782 -0.0076921182 -0.29347658 -0.81935525 -0.49247184 0.001568442
-0.019904146 0.0064815381 -0.0081964349 -0.25946519 -0.81324971 -0.52086729 0.0020164927
-0.017642081 0.0062390394 -0.0089057395 -0.25257078 -0.7622574 -0.59596282 0.0017737895
0.028754026 0.0062154606 -0.0085625118 0.23241748 -0.84914166 -0.47427902 0.0015878706
0.031573024 0.0067081335 -0.0078762639 0.26743323 -0.8492561 -0.45524013 0.0013760208
0.034465034 0.007544972 -0.0075640753 0.29672933 -0.83825767 -0.45746669 0.00097198447
0.037139662 0.0084135979 -0.0072874958 0.33239314 -0.84540069 -0.41810578 0.0014308316
0.039074898 0.0086933924 -0.0062400987 0.39013505 -0.85224879 -0.34852055 0.0031992227
-0.034117535 0.011430412 -0.0070983768 -0.36956602 -0.81097555 -0.45358533 0.0012314587
-0.031463131 0.010615543 -0.0076376712 -0.33301988 -0.81047833 -0.4818947 0.0019314223
-0.028798727 0.0096571259 -0.0078705959 -0.32451162 -0.81196141 -0.48519152 0.0017471346
-0.026451424 0.0093215089 -0.0087749008 -0.30276695 -0.75665516 -0.57948691 0.00077185885
0.038141686 0.0094189178 -0.008449656 0.32584938 -0.81469923 -0.47967422 0.0019426149
0.040599491 0.010029377 -0.0075756181 0.38950509 -0.82829565 -0.40275553 0.00073342386
0.043353546 0.011252332 -0.0074270563 0.38789934 -0.81492168 -0.43062356 0.0012775988
0.045337491 0.011702796 -0.0063333949 0.42650083 -0.80983967 -0.40281117 0.001045787
-0.042030748 0.014925138 -0.0060813637 -0.50704283 -0.7794466 -0.36792737 0.0035622846
-0.040048357 0.014409177 -0.0071733743 -0.43899983 -0.7751236 -0.45438129 0.0016134109
-0.037548549 0.013362429 -0.0076550827 -0.39490959 -0.79845846 -0.45443422 0.0012924492
-0.03497408 0.012457715 -0.0081780227 -0.35912216 -0.80203497 -0.47725371 0.001949529
0.044520251 0.012359871 -0.0083972113 0.41973233 -0.80431688 -0.42059386 0.0017940062
0.046653472 0.013069045 -0.0075713326 0.45506698 -0.7972098 -0.39669961 0.00072413788
0.049081203 0.014288379 -0.007218393 0.47481084 -0.77230114 -0.42202562 0.001067064
-0.045501336 0.017629867 -0.0067091957 -0.51769394 -0.73047364 -0.44542253 0.00090870564
-0.043404054 0.016676953 -0.0074891769 -0.47442693 -0.75253874 -0.45673248 0.0016138961
-0.041053951 0.015596468 -0.008174031 -0.43770263 -0.75493425 -0.48835492 0.0022105435
0.050203033 0.015536508 -0.0081958044 0.47976565 -0.75336099 -0.44974667 0.002480045
0.05251655 0.016697219 -0.0075543951 0.51277363 -0.74048936 -0.43444064 0.0021005778
0.054757338 0.017644839 -0.0064719464 0.53071302 -0.72827482 -0.43354288 0.0010889535
-0.048990261 0.020372896 -0.0070125349 -0.54292572 -0.71106869 -0.44678065 0.0012358004
-0.046706121 0.019163484 -0.0077402708 -0.53329104 -0.72722012 -0.43214765 0.00080083212
-0.044666756 0.01820912 -0.008495653 -0.50217277 -0.71940768 -0.47986984 0.0013861309
0.053577822 0.018208113 -0.0087553179 0.51248455 -0.69316244 -0.50683868 0.0011277151
0.055671196 0.019176599 -0.0078149345 0.54570627 -0.70367104 -0.45502931 0.001899551
0.057667244 0.020373436 -0.0071710567 0.58911717 -0.66941547 -0.45257482 0.0011234826
-0.054415163 0.023961583 -0.0060987417 -0.55466861 -0.70850968 -0.43629906 0.00075999968
-0.052253295 0.023023168 -0.0072981161 -0.52793092 -0.73236501 -0.43003529 0.0010212351
-0.049922708 0.021784417 -0.0080609797 -0.54472065 -0.71773511 -0.43374604 0.0011959375
0.059041604 0.022072874 -0.0078284331 0.61042517 -0.6534794 -0.44760004 0.0011295038
0.060911167 0.023165442 -0.0068604853 0.62841892 -0.62023079 -0.46947128 0.0013999278
-0.057482224 0.026755413 -0.0064967084 -0.59974027 -0.65344852 -0.46186203 0.00098990009
-0.055347186 0.025627665 -0.0075430395 -0.54939711 -0.6928091 -0.46709561 0.0016542274
-0.053194959 0.02446698 -0.0083487164 -0.54660636 -0.6925475 -0.47074363 0.0013437225
0.061958943 0.025207758 -0.0079460861 0.6409834 -0.55742693 -0.52765089 0.0021858111
0.063573048 0.02636073 -0.0071163843 0.66693038 -0.5215947 -0.53211164 0.0013703147
-0.060381562 0.02965801 -0.0065804236 -0.64775234 -0.5963608 -0.47409984 0.0010094955
-0.0585122 0.028537568 -0.0075442716 -0.6276024 -0.60625201 -0.48844013 0.0029300451
-0.056543138 0.027367977 -0.0084373979 -0.57986397 -0.63552028 -0.50977623 0.001337938
0.064655416 0.028429598 -0.0076700286 0.70341516 -0.48175707 -0.52260619 0.0026241601
0.066400364 0.029701287 -0.0064892396 0.75022262 -0.47440779 -0.46054667 0.0028649876
-0.06312073 0.032671988 -0.0063630613 -0.68529111 -0.57796782 -0.44309053 0.0027735461
-0.061397135 0.031637296 -0.0074786339 -0.66958457 -0.5443756 -0.50528389 0.0027248412
-0.059598282 0.030549282 -0.0085356971 -0.59717721 -0.54090804 -0.59228194 0.00070700905
-0.012393029 0.032606274 -0.008421069 0.23109777 0.81312817 -0.53424376 0.00047334988
-0.010233131 0.03238216 -0.0079640094 0.1993919 0.83313733 -0.51587331 0.00069714233
-0.0072857752 0.031782985 -0.0079318639 0.15171343 0.8269223 -0.54146332 0.0016272155
-0.0044313865 0.031422939 -0.0077989134 0.11355796 0.83575058 -0.5372389 0.0013852677
-0.0016567301 0.031081147 -0.0077597788 0.088063791 0.82845074 -0.55309498 0.0012857602
0.0012884444 0.030804362 -0.0078392792 0.054966468 0.84016883 -0.53953224 0.0016510728
0.0046463539 0.030734168 -0.0078237336 -0.0064434987 0.84138864 -0.54039216 0.0021406249
0.0075474922 0.030689089 -0.0079407981 -0.075130753 0.80236733 -0.5920828 0.0012963032
0.010335809 0.030859917 -0.0079904534 -0.052084625 0.82259816 -0.56623274 0.00098968926
0.013459752 0.03134235 -0.0077627138 -0.099161781 0.86327851 -0.49489102 0.0038365978
0.016309988 0.031926624 -0.0075598853 -0.18462536 0.86611456 -0.46449885 0.0016923739
0.01943548 0.032428384 -0.0080364384 -0.22052072 0.81755358 -0.53195554 0.002026018
0.021347117 0.032479353 -0.0088350344 -0.21566726 0.82859892 -0.5166347 0.0015601764
0.065609246 0.030817037 -0.0084120017 0.70648104 -0.37810528 -0.59826487 0.0019931176
0.066951148 0.031794049 -0.0073113083 0.74068248 -0.39724901 -0.54183275 0.0022295918
-0.064062215 0.0347916 -0.0072235307 -0.68182659 -0.48813951 -0.54482317 0.0021129947
-0.062454209 0.033932075 -0.0084118061 -0.63147795 -0.44561407 -0.63455784 0.001434132
-0.022271838 0.035693109 -0.0085890815 0.30760726 0.77212048 -0.55606461 0.0008129747
-0.019286914 0.035044085 -0.0078263646 0.26827666 0.78116775 -0.56374162 0.00077571924
-0.016360577 0.034223128 -0.0075668707 0.24106182 0.79226834 -0.56053543 0.00034612376
-0.013688114 0.033545725 -0.0074280845 0.22493741 0.80834341 -0.54404426 0.00064738345
-0.011223393 0.03309929 -0.0070966361 0.1934424 0.82843059 -0.52562612 0.00081244856
0.018704494 0.033090532 -0.0063947374 -0.21695369 0.84365201 -0.4911032 0.00080960302
0.022728646 0.033661064 -0.0074334973 -0.24219345 0.84331125 -0.47975889 0.0010944331
0.025565183 0.034307279 -0.0078487238 -0.25885087 0.84062672 -0.47575513 0.0011567189
0.028432326 0.035126328 -0.0080314362 -0.28009686 0.83466679 -0.47421199 0.001377168
0.030665532 0.035697386 -0.008431782 -0.30604869 0.83237034 -0.46205398 0.0014042052
0.067676626 0.034327459 -0.0078856014 0.75459725 -0.28928065 -0.58898187 0.0014170571
0.069209293 0.035766177 -0.0065667545 0.79652768 -0.28910032 -0.53100348 0.0052909157
-0.066550694 0.037983835 -0.0067508188 -0.70739293 -0.45608479 -0.53998327 0.0017730319
-0.065010354 0.03730889 -0.0080844006 -0.66867644 -0.3911843 -0.63233429 0.0026921527
-0.027843921 0.038581084 -0.0076280911 0.34339204 0.76656258 -0.54264504 0.00062270643
-0.025514424 0.037569407 -0.0075969272 0.31917623 0.77625662 -0.54364711 0.00039115787
-0.022877548 0.036450554 -0.007690575 0.31085947 0.78226799 -0.53983635 0.0003691781
-0.020854596 0.036069684 -0.0069443271 0.2941435 0.79778546 -0.52632493 0.00045159672
0.029383875 0.036200419 -0.0066205291 -0.286277 0.8480435 -0.44594577 0.0011571585
0.031997453 0.036665693 -0.0075193024 -0.29544973 0.83191937 -0.46970159 0.0020045503
0.034609679 0.03767265 -0.0076628849 -0.38785425 0.79325241 -0.46938226 0.0020088844
0.036977492 0.038494568 -0.0082291393 -0.40455067 0.77706456 -0.48219243 0.0019224813
0.068446726 0.037384659 -0.0082189431 0.75236219 -0.1804041 -0.63356566 0.0016557561
0.069648482 0.037788879 -0.0068086362 0.79790992 -0.20856717 -0.56554359 0.0021580551
-0.069077425 0.041810926 -0.0060087419 -0.77307683 -0.31754676 -0.54910499 0.0098486245
-0.067309909 0.040602259 -0.0074671651 -0.70458674 -0.30212301 -0.64208972 0.0026174893
-0.065690152 0.039682169 -0.0087415772 -0.62657273 -0.26321781 -0.73356873 0.0021967636
-0.036469012 0.041919775 -0.0089487489 0.35957783 0.72511357 -0.58729392 0.00095398707
-0.034480695 0.041396409 -0.0082245562 0.37019587 0.74381655 -0.55649966 0.00036874847
-0.031776305 0.04041801 -0.0076351245 0.3768931 0.74625993 -0.54867816 0.00039569527
-0.029145706 0.039641902 -0.0067147282 0.35957134 0.76136202 -0.53947783 0.000597128
0.038020015 0.039538246 -0.0074277227 -0.42976317 0.77177799 -0.4686816 0.0012441011
0.040387928 0.040812649 -0.0075732032 -0.45515093 0.78146082 -0.42679816 0.0010425267
0.042398781 0.041612409 -0.0082005588 -0.4671832 0.7530176 -0.4633621 0.0019446164
0.06877131 0.040310908 -0.0084761577 0.68695271 -0.075842716 -0.72273368 0.0018821433
0.070008859 0.04072142 -0.0070842193 0.78888142 -0.10973833 -0.60466814 0.0018394956
-0.069351666 0.043694217 -0.0065221284 -0.73542756 -0.23023275 -0.63729048 0.0028881603
-0.067848518 0.043428998 -0.0080054738 -0.67599916 -0.18763296 -0.71261424 0.0033707703
-0.040494028 0.044379737 -0.0083224671 0.38039798 0.74625427 -0.54626185 0.0011700072
-0.037544493 0.043330375 -0.0075682108 0.36886871 0.7618776 -0.53242701 0.00055303611
-0.035887625 0.042337049 -0.0078491699 0.37422976 0.7500633 -0.54530466 0.00024069677
0.041430123 0.042191807 -0.0062738322 -0.48910996 0.77897519 -0.392389 0.0025269727
0.043733865 0.042796168 -0.0076094312 -0.44240016 0.75473887 -0.48440838 0.0017838686
0.046237197 0.044089533 -0.0079141594 -0.44327074 0.74437785 -0.49941245 0.0031215316
0.048893638 0.044904236 -0.0088474639 -0.38856146 0.68686497 -0.61419588 0.00075858267
0.06888818 0.043415282 -0.0085419891 0.7121492 0.029162552 -0.70142221 0.0031787006
0.070166878 0.043559037 -0.0071359007 0.76294082 -0.010838338 -0.64637744 0.0031147369
-0.069785595 0.04648152 -0.0067630075 -0.71775633 -0.11887022 -0.68607271 0.0046413471
-0.068167828 0.046499409 -0.0082378676 -0.5977518 -0.051998507 -0.7999931 0.0030126066
-0.046442829 0.047329709 -0.0084449863 0.35107839 0.73178142 -0.58415735 0.0018034519
-0.043567758 0.046426546 -0.007644 0.3873581 0.75142753 -0.53414458 0.00099286728
-0.041107416 0.045572668 -0.0069614737 0.38581076 0.75182319 -0.53470731 0.00086572109
0.047082756 0.045350935 -0.0068066246 -0.44713923 0.75226653 -0.48390248 0.0017490586
0.049536999 0.046158839 -0.0077045956 -0.3992641 0.7168932 -0.57153517 0.0014579081
0.052116968 0.047363549 -0.0080319261 -0.39972368 0.71364146 -0.57527113 0.00079140905
0.054120183 0.047876354 -0.0087340819 -0.36230704 0.6847524 -0.63233525 0.0015495907
0.068353318 0.046734858 -0.0086549604 0.56827724 0.11649577 -0.81454873 0.0038099892
0.070015028 0.046565413 -0.0071524582 0.69387728 0.098231137 -0.71336174 0.0031319135
-0.070014723 0.049589049 -0.0068608103 -0.62642539 -0.025341192 -0.77906924 0.0089879502
-0.067770824 0.049478944 -0.0083826277 -0.49811691 0.075228088 -0.86384046 0.0051693544
-0.065885626 0.050975632 -0.0088919774 -0.23191756 0.32365927 -0.91731077 0.010233269
-0.054881968 0.050797369 -0.0087305903 0.20774813 0.69999611 -0.68326139 0.0021244418
-0.052289188 0.050221786 -0.008197777 0.30549246 0.72839195 -0.6132859 0.0021270001
-0.049634434 0.049310502 -0.0078659263 0.35265753 0.74678123 -0.56387091 0.0014451446
-0.047133546 0.04868092 -0.0070111766 0.35447282 0.74032521 -0.57119834 0.0013391968
0.050800119 0.048023749 -0.0061670425 -0.46696535 0.74404103 -0.47785595 0.0038122167
0.053004812 0.048683517 -0.0070951707 -0.44641668 0.71293783 -0.54076964 0.0020829597
0.055608533 0.049571119 -0.0077418708 -0.34072077 0.68702668 -0.64179718 0.002276879
0.058164321 0.050103053 -0.0084148161 -0.25422367 0.63474536 -0.72970444 0.0030031647
0.06139642 0.050844539 -0.008781299 -0.11664142 0.54569441 -0.82982665 0.0041903979
0.065456048 0.050633084 -0.0089509832 0.096288264 0.37837103 -0.9206323 0.010677791
0.067676477 0.049764663 -0.0083741201 0.47015384 0.20270708 -0.85899073 0.0054118726
0.069858126 0.049755678 -0.0068874075 0.67603898 0.13758874 -0.72390652 0.0065158857
-0.070066459 0.052477725 -0.0067724716 -0.48747146 0.097552851 -0.8676722 0.010312414
-0.067575768 0.052550182 -0.0078174397 -0.27509704 0.28464133 -0.91831416 0.01476535
-0.064671107 0.052641265 -0.0082977349 -0.085240796 0.48682308 -0.86933148 0.011416685
-0.061504722 0.052899696 -0.0080480389 0.11929978 0.65194154 -0.74882567 0.0060903174
-0.058573928 0.052648522 -0.0078035188 0.18926996 0.70627171 -0.68217099 0.0026178062
-0.055715263 0.052079279 -0.0075645512 0.24257651 0.74366504 -0.62299186 0.0022382899
-0.052812293 0.051577289 -0.0067783031 0.32687116 0.74830484 -0.57723057 0.00090172369
-0.050689336 0.051069763 -0.0060331342 0.36764964 0.76696342 -0.52592844 0.00041169365
0.058737483 0.051754825 -0.0070861131 -0.29356083 0.68254763 -0.66929126 0.0046411944
0.061526503 0.052514728 -0.0075206682 -0.27915254 0.61397588 -0.73831391 0.0037105083
0.06445916 0.052482191 -0.0080949292 0.047876999 0.45037326 -0.89155573 0.009142857
0.067475356 0.052608036 -0.0076053925 0.28683245 0.32735753 -0.90031338 0.011942231
0.069677986 0.052461684 -0.006535471 0.61872834 0.14525028 -0.77206057 0.010478026
-0.070071302 0.055151109 -0.0063737626 -0.26121363 0.31506431 -0.91241544 0.014589771
-0.067677759 0.055510558 -0.0066773104 -0.043844268 0.37901407 -0.92435163 0.010322907
-0.064694673 0.05499563 -0.0068250638 0.11574429 0.59821957 -0.79292905 0.012658458
-0.061646234 0.054536946 -0.0065230508 0.16302702 0.67523623 -0.71935958 0.0046035573
0.062580451 0.05452586 -0.0063405111 -0.36388588 0.60528195 -0.70796949 0.0049086199
0.06472455 0.055191711 -0.0065980311 -0.16690089 0.48913071 -0.85609305 0.010783633
0.067465432 0.055467628 -0.0066253571 0.067160577 0.36356708 -0.92914391 0.024298457
0.069246665 0.054861996 -0.0062822481 0.44982085 0.23751889 -0.86095637 0.0086689889
0.067456029 0.057074185 -0.0060729324 0.024861082 0.30102274 -0.95329279 0.020839939
-0.015593528 0.002933858 -0.0032969399 -0.26929733 -0.94084108 -0.20566262 0.0012104382
-0.013113048 0.0026208388 -0.0041727256 -0.20481701 -0.92986035 -0.30562988 0.0020586448
-0.010493356 0.0022527867 -0.0046472102 -0.16440149 -0.9362554 -0.31048015 0.0019370167
-0.0075813681 0.0017454806 -0.0045541734 -0.12487884 -0.93575984 -0.32978612 0.0022466811
-0.004551562 0.0014263758 -0.0046548741 -0.08684466 -0.93787742 -0.3359226 0.0024007387
-0.0014019446 0.0011525952 -0.0045919186 -0.060327981 -0.93471861 -0.35023084 0.0023272152
0.0014156295 0.0010611144 -0.0047041927 -0.027379125 -0.93723702 -0.34761643 0.0029169028
0.0046278453 0.0009634422 -0.0045030313 0.017068651 -0.94230431 -0.33432186 0.0025310474
0.0075744344 0.0010422904 -0.0045187688 0.036918126 -0.94581401 -0.32260334 0.0027946648
0.010490407 0.0012025258 -0.0044933935 0.051727023 -0.94484627 -0.32340342 0.0025684007
0.013483494 0.0015121669 -0.0046513169 0.094138846 -0.94718844 -0.30654845 0.0023407515
0.016543221 0.0018618664 -0.0045112828 0.13164753 -0.94583231 -0.29676607 0.0017939864
0.019483572 0.0023596061 -0.0046286997 0.16216354 -0.94483435 -0.28458932 0.0017249803
0.022311946 0.0027197227 -0.004014561 0.20167431 -0.9436543 -0.26238152 0.0016343514
-0.024400599 0.0058957506 -0.0033350424 -0.3434774 -0.90515906 -0.25042039 0.00063397456
-0.022263102 0.0054570506 -0.0044215326 -0.32293272 -0.8927443 -0.31420076 0.0023254172
-0.019479187 0.0045308028 -0.0045809611 -0.29526722 -0.89782834 -0.32668278 0.0022405905
-0.016595399 0.0037215881 -0.0047969306 -0.25406557 -0.90411216 -0.34355754 0.0019505566
-0.014098378 0.0032212911 -0.0052333642 -0.23123342 -0.9132269 -0.33548135 0.0022281287
0.020914543 0.0030234817 -0.0058489065 0.18393479 -0.9376139 -0.29503956 0.002078668
0.022848532 0.0032400605 -0.0053269463 0.19978553 -0.92593616 -0.32051206 0.0018307429
0.025520105 0.0036413749 -0.0046333089 0.23826903 -0.92904007 -0.28304142 0.0015141625
0.028471364 0.0044292333 -0.0046459083 0.25468141 -0.92285246 -0.28893027 0.001773208
0.031450313 0.0053177443 -0.0045974557 0.28582537 -0.91793966 -0.27511945 0.0018219561
0.033570223 0.0057677799 -0.0037376855 0.32029322 -0.9119308 -0.25650442 0.001449986
-0.030865854 0.0087662172 -0.0041176034 -0.34455541 -0.88176751 -0.32212988 0.0016953
-0.028471801 0.0079333 -0.0045308555 -0.34824541 -0.88375413 -0.31257617 0.0017304611
-0.025524305 0.0068246131 -0.0047627878 -0.34173194 -0.88024628 -0.32922006 0.0020601784
-0.02356983 0.0062244027 -0.00522919 -0.34872502 -0.88262165 -0.3152298 0.0026528314
0.032752592 0.0060719852 -0.005660357 0.31011176 -0.90822631 -0.28099048 0.0019716651
0.034818616 0.0065106247 -0.0047502648 0.3554295 -0.89721423 -0.26206198 0.0013381568
0.037619375 0.0075509339 -0.0046187546 0.35580033 -0.89378297 -0.27305344 0.0019079398
0.040094148 0.0085454909 -0.004485772 0.37730244 -0.89118707 -0.25184998 0.001599447
-0.036962781 0.011512185 -0.0042755497 -0.40729278 -0.86098772 -0.30465165 0.0022116851
-0.034500018 0.010496255 -0.0046131113 -0.40137202 -0.85958201 -0.31625825 0.0015878612
-0.032020941 0.0095364284 -0.0049702441 -0.36806944 -0.87110156 -0.32512611 0.0019277709
0.04145297 0.0092612421 -0.0048553413 0.41806304 -0.86994511 -0.2615701 0.0013382972
0.04347185 0.010158134 -0.0046234424 0.41255155 -0.87043828 -0.26858601 0.0011723677
0.04605487 0.011368449 -0.0043118009 0.45125234 -0.85363525 -0.26015025 0.0013502564
-0.042711362 0.014541107 -0.0040681371 -0.50225431 -0.81530112 -0.28814006 0.0019357702
-0.040537421 0.013495875 -0.004646956 -0.47662911 -0.82431912 -0.30548775 0.001932685
-0.038244609 0.012357861 -0.0049304944 -0.42985353 -0.84909904 -0.3070125 0.0023809609
0.047396064 0.012312254 -0.0049669272 0.46442959 -0.83713645 -0.28897709 0.0018580899
0.049583014 0.013462836 -0.0045961486 0.49696761 -0.8140403 -0.30060202 0.0012601829
0.051788069 0.014714074 -0.0042930678 0.51275098 -0.80824327 -0.28953272 0.0016009606
-0.046222173 0.017041758 -0.0043692221 -0.55067861 -0.78219491 -0.29141748 0.0021239282
-0.04395194 0.01565975 -0.0048266738 -0.54033768 -0.79190952 -0.28445488 0.0014630321
0.052940231 0.015672114 -0.0048547913 0.52790087 -0.79907131 -0.2877599 0.0017191481
0.055225138 0.017124673 -0.0044688876 0.5565595 -0.77750462 -0.29279372 0.0017071116
-0.051379055 0.020808006 -0.0041511692 -0.55824691 -0.77039957 -0.30796891 0.0018322979
-0.049456034 0.019518329 -0.0045639011 -0.57844168 -0.76299936 -0.28850856 0.0023352515
-0.047374554 0.018255774 -0.0053055501 -0.55893666 -0.76366085 -0.32312846 0.0023680672
0.056429017 0.01841831 -0.0055013844 0.56617796 -0.76032406 -0.31835514 0.0020656185
0.05843709 0.019680588 -0.0046243002 0.60594475 -0.72353792 -0.3306416 0.0017869935
0.060219474 0.020904116 -0.0039543253 0.62502444 -0.71025938 -0.32384589 0.0021007934
-0.054774016 0.02337417 -0.0041968492 -0.58348042 -0.75523508 -0.29861459 0.0017228537
-0.052663997 0.022002991 -0.0047577461 -0.57036507 -0.76284832 -0.30454254 0.0020979857
0.059854455 0.021063294 -0.0051297443 0.6250416 -0.71024036 -0.3238543 0.0021093364
0.061576881 0.022547802 -0.0046981974 0.66989964 -0.65234447 -0.35451534 0.0016645096
-0.057979837 0.026047761 -0.0043029832 -0.63429219 -0.70901239 -0.30817974 0.001862161
-0.05606734 0.024717476 -0.0049994327 -0.60502404 -0.7384361 -0.297755 0.0013122968
0.06423416 0.025484689 -0.004745936 0.71248943 -0.59503168 -0.37188172 0.0010748472
-0.060893282 0.028927788 -0.0044481787 -0.68488133 -0.64155716 -0.34545919 0.002018417
-0.059376538 0.027552187 -0.0048006582 -0.66368836 -0.68105847 -0.30931711 0.0021297054
0.065666862 0.027692912 -0.0053443545 0.75655967 -0.52877742 -0.38472304 0.0027784572
0.066756859 0.028708804 -0.0045026974 0.76953399 -0.52406877 -0.36492369 0.0022379884
-0.063696846 0.032156069 -0.0045351051 -0.73324972 -0.58438289 -0.34762269 0.001924358
-0.06227028 0.030668886 -0.0048853732 -0.71165949 -0.62456018 -0.32166043 0.0019514235
-0.0066649378 0.032758519 -0.005870868 0.16028446 0.8473559 -0.50625759 0.00063376746
-0.0042564808 0.032361031 -0.0059916708 0.11661898 0.85368496 -0.5075646 0.00027015529
-0.001301781 0.032095347 -0.0057948008 0.092741691 0.85845733 -0.50443041 0.00018352694
0.0026246286 0.031863026 -0.0056697368 0.03312891 0.8449046 -0.53389007 0.0021681674
0.0032276963 0.032085478 -0.0050733173 0.033130862 0.84491473 -0.53387398 0.0021532299
0.014716391 0.032656677 -0.0054120002 -0.15763378 0.87924588 -0.44953117 0.0018552534
0.06798356 0.03114016 -0.0050004614 0.79245079 -0.44147974 -0.42085311 0.0012016987
0.069055922 0.031810034 -0.0034172209 0.82263267 -0.41157529 -0.39227691 0.0012563852
-0.066543095 0.035472356 -0.0039514438 -0.75677168 -0.52808362 -0.38525876 0.0031894697
-0.065210894 0.034196593 -0.0047115609 -0.75485265 -0.55902261 -0.3430616 0.0022981928
-0.010566428 0.033489775 -0.0059969411 0.199394 0.8331278 -0.51588756 0.00070770882
-0.0086086234 0.033141196 -0.0058826827 0.16895728 0.84947449 -0.4998464 0.00079529861
0.014320199 0.033129681 -0.0038280324 -0.18037078 0.89186978 -0.4147706 0.0011963778
0.01942604 0.033691581 -0.0054280073 -0.22868715 0.84999371 -0.47456595 0.0010253766
0.022917151 0.034663953 -0.0054230867 -0.24554202 0.86148727 -0.44446456 0.00016213358
0.025142483 0.035272963 -0.0055296943 -0.27030173 0.86018908 -0.43244851 0.00033560683
0.027310083 0.035799146 -0.005888294 -0.2803553 0.85918713 -0.42801675 0.000307026
0.068866029 0.033665169 -0.0057748687 0.8278951 -0.34387845 -0.44309968 0.0013385101
0.069672607 0.034459025 -0.00479464 0.82789189 -0.343907 -0.44308349 0.0013223971
-0.067534648 0.037443392 -0.0046513611 -0.78272665 -0.48719686 -0.38727033 0.0034598222
0.028016612 0.036354888 -0.0050818138 -0.28316024 0.86911356 -0.4055391 0.00018248158
0.031605549 0.03766574 -0.0048696287 -0.32128927 0.85665733 -0.40362304 0.00038666982
0.033857733 0.038536973 -0.0049827658 -0.36656725 0.82954574 -0.42128649 0.0016441902
0.070645846 0.037567329 -0.0050357785 0.86444771 -0.23738299 -0.44314721 0.0019283254
-0.069675751 0.040920664 -0.0043107001 -0.82133877 -0.39482692 -0.41172111 0.0031061608
-0.068611935 0.039696958 -0.0051498124 -0.8120631 -0.41790497 -0.40731934 0.0036698624
0.035071041 0.039053205 -0.0052064653 -0.4039616 0.80799896 -0.42889696 0.00092999235
0.037338555 0.040187147 -0.0053179697 -0.43838421 0.81852913 -0.37125367 0.00082934584
0.039712042 0.041699093 -0.0050953291 -0.47716561 0.80079019 -0.36200556 0.0013484722
0.071437992 0.040739641 -0.0047188406 0.83203328 -0.096795596 -0.54621542 0.0015274979
0.072134383 0.040922027 -0.0031997447 0.86708969 -0.17103159 -0.46787155 0.0042166435
-0.070577152 0.04354104 -0.0046299514 -0.85712796 -0.29687688 -0.42094642 0.0039342414
0.040828481 0.042674154 -0.0041865394 -0.47256243 0.80785775 -0.35220832 0.0013818229
0.043353286 0.043969043 -0.0050004702 -0.48183799 0.78947806 -0.38020587 0.0012249157
0.071634419 0.043196645 -0.0049800663 0.82920945 -0.05883 -0.55583334 0.0017693508
-0.072256871 0.047272872 -0.003696712 -0.84554714 -0.27980024 -0.45471069 0.0039588092
-0.071242176 0.046353236 -0.0048787016 -0.82468331 -0.22230534 -0.52007484 0.0061045601
-0.040753841 0.046077501 -0.005599549 0.38580313 0.75182134 -0.53471547 0.00087357702
0.044694647 0.045244113 -0.0039759614 -0.49618882 0.78489971 -0.37111872 0.00098250143
0.046756864 0.046242245 -0.0046944222 -0.496297 0.77836311 -0.38449988 0.0012543467
0.048997976 0.047384679 -0.0052517331 -0.47159377 0.7609176 -0.44564968 0.0022554342
0.071814314 0.046143003 -0.0048475522 0.77903634 0.0014509828 -0.62697709 0.0021765349
0.072001643 0.047845215 -0.0045251567 0.80577463 0.045301072 -0.59048712 0.00080980785
-0.072702669 0.049753662 -0.0041069752 -0.77452153 -0.23863934 -0.58580518 0.0067132064
-0.071531095 0.049465757 -0.0054326551 -0.74790466 -0.13898933 -0.64909208 0.0072687105
-0.049225327 0.050515126 -0.0057460563 0.36982942 0.76640105 -0.52521962 0.00041811707
-0.046538882 0.04933773 -0.0053071277 0.37145063 0.75446534 -0.54111594 0.00043848751
0.050230287 0.048620339 -0.0043260409 -0.49256736 0.77353477 -0.39877474 0.0015875847
0.052543379 0.04980379 -0.0049850154 -0.49189058 0.76714307 -0.41174659 0.0025321466
0.054353502 0.050506108 -0.0057224901 -0.43339437 0.76621449 -0.47443098 0.003580203
0.071230687 0.049578235 -0.0054939301 0.78180325 0.085307643 -0.61766195 0.0011244117
0.072326243 0.049695361 -0.0038182675 0.7818051 0.085308716 -0.61765951 0.001128489
-0.073378444 0.052633967 -0.0043781879 -0.70933747 -0.21101673 -0.67254174 0.0068843509
-0.071668036 0.052482769 -0.0057829325 -0.64881861 -0.046300754 -0.75953323 0.0087107187
-0.055010654 0.053131498 -0.0058178329 0.28139499 0.77571297 -0.56487721 0.00086822396
-0.053037316 0.052873652 -0.0048299506 0.32724991 0.76913214 -0.54894733 0.00040134991
0.053656965 0.051123954 -0.0038196798 -0.47500932 0.76983714 -0.42628253 0.0034397137
0.055869807 0.051967829 -0.0047165868 -0.45911741 0.75623471 -0.46617615 0.0030272487
0.058398701 0.0531746 -0.0051626167 -0.44168624 0.70422632 -0.55585837 0.0031458149
0.071157619 0.052724551 -0.0051499349 0.75348866 0.085403487 -0.6518904 0.0040259068
0.072688416 0.051590893 -0.0030067957 0.77547252 0.067355037 -0.62777847 0.0019576298
-0.075242743 0.055261251 -0.0031028646 -0.72219861 -0.22511458 -0.65402794 0.029729553
-0.073422752 0.055537932 -0.0047238991 -0.6116119 0.064213142 -0.78854775 0.018368848
-0.071165614 0.055926912 -0.0058397492 -0.34206051 0.15974069 -0.92600083 0.015034531
-0.067428209 0.056847688 -0.0059643439 0.035616275 0.5418005 -0.83975226 0.0094029941
-0.064218402 0.056542128 -0.0054845186 0.21372476 0.71113378 -0.66978383 0.007002702
-0.061444163 0.055832189 -0.0048626647 0.27469659 0.71576911 -0.64204073 0.0032237708
-0.05881796 0.054649919 -0.0052529238 0.2097948 0.73338276 -0.64663416 0.0008745509
-0.056423694 0.054030202 -0.0051856306 0.2541917 0.78051287 -0.57112706 0.00047292726
0.059200913 0.054514147 -0.0038782661 -0.43272784 0.6920954 -0.57771152 0.0041222838
0.061568175 0.055439893 -0.0048091765 -0.44218242 0.68142217 -0.58321387 0.0052883495
0.063790016 0.056325018 -0.0054948772 -0.36667061 0.57974601 -0.72763127 0.016519519
0.070585318 0.055645075 -0.0052086371 0.43417341 0.2231724 -0.87274706 0.0082413526
0.072094977 0.056068581 -0.0038106178 0.73071992 0.044230092 -0.681243 0.0029170127
-0.073278047 0.057543825 -0.0044179098 -0.61158204 0.0642175 -0.78857058 0.018385889
-0.070417337 0.058255855 -0.0052044457 -0.15629676 0.61042237 -0.77650231 0.017572166
-0.067506351 0.058395583 -0.0048672864 0.15497258 0.59213853 -0.79079431 0.014403296
-0.064617604 0.058001313 -0.0041700918 0.31039348 0.68612605 -0.65794134 0.0039057231
-0.062638812 0.057056628 -0.0040983143 0.28902721 0.7196691 -0.63129997 0.0032194932
0.062561534 0.057409126 -0.0034889649 -0.47840494 0.62118846 -0.62068814 0.0060393037
0.064726099 0.058322299 -0.0045352257 -0.50893784 0.46431667 -0.72483945 0.015734756
0.067406982 0.058519676 -0.0054891873 -0.020662244 0.32970092 -0.94385928 0.021753499
0.070346877 0.058589444 -0.0049341153 0.35138479 0.19177075 -0.91638017 0.014065713
0.072324723 0.058615159 -0.0034734814 0.53030133 0.13149983 -0.83754897 0.01668171
-0.06746953 0.060056187 -0.0033696864 0.21921846 0.63450742 -0.74117726 0.0052858777
0.065477416 0.061133228 -0.0035169385 -0.55845219 0.33080453 -0.76072299 0.0096707726
0.06745965 0.061429024 -0.0045281504 -0.29016083 0.24371423 -0.92542428 0.026718801
0.070586413 0.061486863 -0.0045053619 0.30485228 0.099444091 -0.94719374 0.023455855
0.072495282 0.061619557 -0.0033729549 0.45543313 -0.017408701 -0.89009982 0.028901372
0.067636214 0.064372033 -0.0039292616 -0.41139814 0.20807058 -0.88738835 0.027275866
0.070428096 0.064571217 -0.0043533975 0.17722212 0.033441432 -0.98360258 0.020608779
0.072749712 0.064719543 -0.0034288627 0.49912536 -0.07711494 -0.86309159 0.0052675027
0.068029553 0.067497939 -0.0036350323 -0.52032751 0.099156 -0.84819061 0.017978512
0.070658788 0.067511208 -0.004321109 0.11372463 -0.033108681 -0.99296045 0.025166132
0.073114768 0.067630894 -0.0036035804 0.42618859 -0.095160522 -0.89961535 0.00728396
0.068380438 0.070245162 -0.0035379601 -0.66378683 0.083927423 -0.74319792 0.024918526
0.070549265 0.070606895 -0.004433712 -0.227429 -0.05380043 -0.97230732 0.028769873
0.073439002 0.070567459 -0.0040372075 0.42544016 -0.2215196 -0.87745637 0.013830218
0.075114496 0.071608983 -0.0032624125 0.56258297 -0.21328631 -0.79875493 0.0029355546
0.068537161 0.073407464 -0.0033835038 -0.72755498 0.028602058 -0.68545288 0.014664592
0.070577137 0.07359162 -0.0046283677 -0.33592224 -0.053673446 -0.94035923 0.031211538
0.073640697 0.073490031 -0.0047220704 0.27920789 -0.16659845 -0.94566804 0.028569216
0.07568796 0.073565818 -0.00360602 0.26468769 -0.19269283 -0.94488615 0.028825741
0.068652175 0.0757735 -0.0032666998 -0.63186282 0.1899875 -0.75143474 0.036168139
0.070331924 0.075722158 -0.0045519564 -0.55278116 0.17788145 -0.81411988 0.054313567
0.073274121 0.075327665 -0.0051108086 0.0065271775 -0.18029614 -0.98359072 0.052312367
-0.015956379 0.0027173739 -0.0014834189 -0.24517815 -0.95962548 -0.13786429 0.0015404437
-0.013552129 0.0021527661 -0.0015978012 -0.20844163 -0.96860588 -0.13547976 0.0016440093
-0.010516521 0.0015412542 -0.0017571792 -0.1643011 -0.97336674 -0.15988232 0.0029462366
-0.0075466526 0.0010452677 -0.001555512 -0.14571378 -0.98298961 -0.11179885 0.002078084
-0.0045657596 0.00071993208 -0.0018058933 -0.082135774 -0.98178935 -0.17129925 0.0050158366
-0.0016255614 0.00046932642 -0.0015585398 -0.068522513 -0.99355304 -0.090316258 0.003808097
0.00148351 0.00036917455 -0.0020105259 -0.039340675 -0.97851747 -0.20237572 0.0047493335
0.0042900392 0.00028896114 -0.0013456921 -0.0039677829 -0.99189544 -0.12699468 0.0014761708
0.0074427533 0.00034640852 -0.0011793671 0.044762436 -0.98977953 -0.13539901 0.00072190317
0.010607537 0.00055112777 -0.0012285809 0.085536622 -0.98762482 -0.13145582 0.00095706282
0.013457063 0.00090379285 -0.0021009173 0.13632348 -0.97042954 -0.19920465 0.0033646997
0.016549354 0.0012244912 -0.0013382867 0.14127062 -0.97644776 -0.1630718 0.0029642514
0.019514285 0.0017552041 -0.0018213139 0.18055141 -0.96960658 -0.16511886 0.0020752619
0.022444995 0.002319392 -0.0016968395 0.19337723 -0.97300363 -0.12597275 0.0014817159
0.024687242 0.002800537 -0.0014217386 0.23343997 -0.96421081 -0.12571104 0.0017780021
-0.024646724 0.0056768563 -0.0016054809 -0.36324963 -0.91325462 -0.18443348 0.0012027888
-0.022550832 0.0048918938 -0.0015423321 -0.33257696 -0.92302316 -0.19344452 0.00040790153
-0.01955585 0.0038438633 -0.0016367725 -0.30864918 -0.93450099 -0.17732358 0.00059932645
-0.017302496 0.003181142 -0.0019725992 -0.29050821 -0.94372398 -0.15808226 0.0011334544
0.026085332 0.0031565728 -0.0015717096 0.2485387 -0.96169353 -0.1156466 0.0013000651
0.028494185 0.0038343773 -0.0017584503 0.2777254 -0.95361143 -0.11616263 0.0011905642
0.031383187 0.0046932898 -0.0016684958 0.30560407 -0.94536865 -0.11350891 0.0018690593
0.033985849 0.0055725095 -0.001652728 0.32149613 -0.94194424 -0.096856847 0.0014794022
-0.031298377 0.0083671575 -0.0015245683 -0.35909936 -0.90590173 -0.22447632 0.00034316696
-0.028420525 0.0071974215 -0.0016589093 -0.36139995 -0.90925092 -0.20652547 0.0011438463
-0.026133625 0.0063181445 -0.0018685159 -0.36974716 -0.91047263 -0.18527454 0.00095164031
0.035604872 0.0061736386 -0.0018193789 0.34057069 -0.93149847 -0.12775818 0.0021210772
0.037619095 0.0069171516 -0.0014311642 0.36591202 -0.92461497 -0.1058092 0.0013806489
0.040376216 0.0081164548 -0.0018029915 0.39064646 -0.90553832 -0.16551648 0.0012856621
0.042172842 0.008856561 -0.0012975357 0.41840956 -0.89920861 -0.12789552 0.00080105232
-0.039117664 0.011870465 -0.00093931635 -0.46080911 -0.85242701 -0.24702875 0.0014076118
-0.037470236 0.011138197 -0.0016171626 -0.41690418 -0.87848252 -0.23336531 0.00076424173
-0.03451845 0.0097675268 -0.0017003585 -0.400534 -0.88623744 -0.2327138 0.00042555059
-0.032632839 0.0090661002 -0.0026452858 -0.38215196 -0.89506477 -0.22982365 0.00046799253
0.043628011 0.0096193654 -0.0018507239 0.42395338 -0.89590508 -0.13273112 0.00092602125
0.046633184 0.011122657 -0.0014392814 0.4661966 -0.87219644 -0.14810164 0.00048757458
-0.043113735 0.014262171 -0.0016379447 -0.53092581 -0.82398146 -0.19792002 0.0019714304
-0.040589616 0.012770355 -0.0016153813 -0.46878475 -0.85187501 -0.23355894 0.0010830496
0.049615245 0.012867332 -0.0020574913 0.50451005 -0.845909 -0.17293808 0.00035875037
0.052029245 0.014297525 -0.0017369877 0.52081472 -0.83495188 -0.17778412 0.00054164144
-0.048234567 0.017726231 -0.0010219809 -0.57595855 -0.78406864 -0.23131813 0.00078649825
-0.046584196 0.016616996 -0.001698171 -0.55825251 -0.80512375 -0.20032404 0.0013379238
-0.044689737 0.015286811 -0.0016701558 -0.54738832 -0.80426395 -0.23135579 0.0036230346
0.053611159 0.01535962 -0.0016499654 0.55466193 -0.80453223 -0.21231575 0.0007159058
0.055352066 0.016560769 -0.0019065667 0.57351029 -0.79039371 -0.21532264 0.00046789937
0.05728741 0.017826486 -0.00072013284 0.59499568 -0.77652639 -0.20733273 0.00032140783
-0.051741827 0.020424219 -0.0015457321 -0.594872 -0.77684909 -0.20647696 0.0011173559
-0.049638301 0.018852992 -0.0016347172 -0.57665521 -0.78210145 -0.23619074 0.00072190521
0.058749862 0.019150874 -0.0019284919 0.61080796 -0.7640546 -0.20768775 0.0002926531
0.060524836 0.02066002 -0.002147947 0.6351974 -0.72976416 -0.25292018 0.0026289483
-0.055110052 0.022971964 -0.0016167464 -0.60726851 -0.77320516 -0.18269849 0.0016000214
-0.053168237 0.021518545 -0.0018121903 -0.59316653 -0.77738094 -0.20936181 0.0011263131
0.061979741 0.022146938 -0.0025829808 0.67990488 -0.68185914 -0.26980999 0.0015616835
0.0633118 0.02349462 -0.0025905755 0.69598442 -0.64350659 -0.31859839 0.001065703
-0.058560092 0.025767548 -0.001459255 -0.6425941 -0.74524027 -0.17801601 0.0010718029
-0.056760717 0.024274567 -0.0016970407 -0.6316095 -0.74794221 -0.20408799 0.0021151195
0.064932533 0.025242582 -0.0021678819 0.73572612 -0.61730063 -0.27865207 0.0015285164
-0.061528224 0.028639492 -0.001519444 -0.71452832 -0.67950863 -0.16648515 0.0010955959
-0.059913252 0.027174942 -0.0025705213 -0.67236829 -0.71119809 -0.20522726 0.0020531234
0.068210326 0.029935917 -0.00260478 0.81656957 -0.43749031 -0.37658522 0.0010379658
-0.064232104 0.031700689 -0.0017114641 -0.76213127 -0.62636644 -0.16377102 0.0017758022
-0.062835246 0.030230951 -0.0024996146 -0.74833596 -0.62897193 -0.21068361 0.0025355956
-0.066810183 0.034950189 -0.0015980777 -0.80472231 -0.57690448 -0.14001185 0.0026771028
-0.06563203 0.033486977 -0.0018550144 -0.78533506 -0.6037904 -0.13669632 0.0019394037
0.070446536 0.034444638 -0.0027100185 0.83217055 -0.36587361 -0.41668779 0.0024919854
-0.069338024 0.038598776 -0.0016551821 -0.83039188 -0.51698309 -0.20779255 0.0031685615
-0.068286598 0.037031449 -0.0018492989 -0.8222363 -0.53291839 -0.19981356 0.0028322025
-0.070462123 0.040635373 -0.0016299153 -0.85881788 -0.42788494 -0.28168488 0.0025380133
-0.072316915 0.044659026 -0.00082288712 -0.88944554 -0.31859127 -0.32769838 0.00077567785
-0.071632825 0.043402154 -0.0019583702 -0.86506873 -0.32303953 -0.38379878 0.0014645258
0.039377481 0.042238288 -0.0026124499 -0.47243178 0.81391448 -0.33815891 0.001017188
0.04307111 0.044626914 -0.0023967589 -0.49982828 0.79720992 -0.33856758 0.00091300241
-0.072797447 0.046630401 -0.0016795067 -0.87960106 -0.26474342 -0.39523762 0.0027454295
-0.073800236 0.04954512 -0.0019468906 -0.87072855 -0.31396815 -0.37849152 0.0054926742
0.049299702 0.048636727 -0.0025716585 -0.50163174 0.7796877 -0.37477022 0.0011984949
0.051527351 0.050232872 -0.0021829067 -0.51317489 0.78755993 -0.34117559 0.00044164225
-0.075367093 0.052879374 -0.0017551053 -0.82413495 -0.3059637 -0.47664225 0.013922502
-0.074578799 0.051690292 -0.002375291 -0.85737103 -0.33855158 -0.38768259 0.0054665059
0.053723659 0.051785249 -0.00193586 -0.51319098 0.78774083 -0.3407335 0.0003276499
0.054547511 0.052107226 -0.0026857273 -0.5007776 0.78569841 -0.36317995 0.0005999594
0.072807372 0.052223239 -0.0027415347 0.77563453 0.067458123 -0.62756711 0.0018440696
-0.075803243 0.055223346 -0.0019754318 -0.81374961 -0.23708642 -0.53066146 0.026249815
0.058630839 0.054868311 -0.0024016267 -0.47218788 0.70396078 -0.53054476 0.0023151212
0.060993008 0.056569621 -0.0025593846 -0.52680713 0.63285708 -0.56742072 0.0025957308
-0.06358476 0.058507878 -0.0028007436 0.31042561 0.68599594 -0.65806198 0.0039683352
-0.062112495 0.057685804 -0.0025465975 0.28843018 0.71039617 -0.64198548 0.0032227847
0.062217344 0.058060717 -0.0019400486 -0.58642572 0.55064005 -0.59405422 0.0051874034
0.063376024 0.059232593 -0.00230355 -0.60568511 0.54398406 -0.58071238 0.0044467766
0.073513247 0.059622347 -0.0016598366 0.68817997 -0.016577544 -0.72535062 0.0053003677
-0.066493288 0.06020315 -0.0025137356 0.26531255 0.67298669 -0.69043338 0.0072165476
0.064491786 0.061527703 -0.0018728336 -0.62678558 0.36024857 -0.69091308 0.0073294514
0.073412582 0.061311681 -0.0021844432 0.62837827 0.0028436428 -0.77790272 0.0074019236
0.065349221 0.0642654 -0.0016576854 -0.76375633 0.25070423 -0.59483075 0.013794401
0.066244885 0.065333873 -0.0026543876 -0.76395565 0.25060415 -0.59461701 0.013711313
0.073704071 0.064524531 -0.0024298881 0.49878225 -0.077109851 -0.86329037 0.0053239102
0.065795466 0.067046128 -0.0010360755 -0.82893187 0.20097966 -0.52199543 0.010136479
0.066584237 0.067720719 -0.0022354729 -0.82902038 0.20092136 -0.52187729 0.010076758
0.074438922 0.067552179 -0.0023525413 0.40088508 -0.12168538 -0.90801096 0.0088422177
0.067038298 0.070523851 -0.0019191016 -0.77099854 0.11412448 -0.62652767 0.01859273
0.074643604 0.069311552 -0.0027701515 0.40380993 -0.17950034 -0.89706033 0.0099580707
0.075566344 0.070985556 -0.0023779261 0.42543769 -0.22161178 -0.87743431 0.013829397
0.067491032 0.073499233 -0.0017769294 -0.81237161 0.1490145 -0.56377912 0.01545505
0.076377995 0.072962895 -0.0024873517 0.3487331 -0.23870872 -0.90631306 0.016995627
0.067855962 0.075938307 -0.0017925015 -0.81234646 0.14906786 -0.56380141 0.01547748
-0.01804544 0.0028595612 0.0028103017 -0.25975081 -0.96254605 -0.077682599 0.00058328727
-0.016431982 0.0026218409 0.0013894114 -0.24932332 -0.96498334 -0.081516095 0.00053057505
-0.01342494 0.0019429292 0.0015212385 -0.2034937 -0.97805566 -0.044693142 0.00059271336
-0.010613566 0.0014256766 0.001343854 -0.18021826 -0.98045474 -0.078928888 0.0013397158
-0.0073747775 0.00097309065 0.0015401081 -0.11351197 -0.99271888 -0.040304568 0.0023927211
-0.0043535745 0.00060493295 0.0010197691 -0.093509778 -0.99484193 -0.039312143 0.002229146
-0.00083713047 0.00044964618 0.0017635683 -0.069503181 -0.99638265 -0.048895836 0.0020678502
0.0015756501 0.00023024213 0.00038354032 -0.05616378 -0.99396038 -0.094278112 0.0033618736
0.013514796 0.00078318035 0.00047126235 0.12449784 -0.98444319 -0.12398326 0.0010969385
0.015401836 0.0010573965 0.0012736914 0.14960097 -0.98272747 -0.10893255 0.0010174324
0.019267777 0.0016468302 0.00095287652 0.17416556 -0.98100102 -0.085459754 0.00092163513
0.022429138 0.0022331469 0.00074644113 0.21069536 -0.97324026 -0.091710173 0.0014646786
0.025162142 0.0028597275 0.00078322442 0.2215278 -0.97097749 -0.09015619 0.0012850943
