# .PCD v0.7 - Point Cloud Data file format
VERSION 0.7
FIELDS x y z normal_x normal_y normal_z curvature
SIZE 4 4 4 4 4 4 4
TYPE F F F F F F F
COUNT 1 1 1 1 1 1 1
WIDTH 555
HEIGHT 1
VIEWPOINT 0 0 0 1 0 0 0
POINTS 555
DATA ascii
0.04658284 0.022532977 -0.016155347 0.25788552 -0.32372841 -0.91032684 0.0030762225
0.049097478 0.022954496 -0.015462053 0.34864494 -0.40180182 -0.84675968 0.0032858455
-0.045298088 0.026679972 -0.015141331 -0.33258304 -0.42305574 -0.84285963 0.002645805
-0.043187227 0.025835522 -0.015498196 -0.27000874 -0.35271513 -0.8959282 0.0033155079
-0.040492225 0.025469476 -0.016115911 -0.20864366 -0.2812641 -0.93667406 0.0028755292
-0.037549067 0.025394853 -0.016683469 -0.14896736 -0.22926216 -0.96189791 0.0050265235
-0.034615997 0.025359688 -0.01702101 -0.092903413 -0.16117081 -0.98254418 0.0079927742
-0.031678271 0.025451383 -0.01714226 -0.01480802 -0.007046178 -0.99986547 0.0044730138
-0.028574618 0.025354845 -0.017089274 0.043675624 0.13421133 -0.98998976 0.0059929304
-0.025532104 0.025509499 -0.016852265 0.074674085 0.17784674 -0.98122078 0.0028877496
-0.022437431 0.025447471 -0.016540384 0.11430551 0.24766301 -0.96207964 0.0027874026
-0.019557107 0.025218241 -0.016258588 0.10588489 0.23411861 -0.96642482 0.0043948432
-0.016430199 0.025445623 -0.01570742 0.11534436 0.31866479 -0.94082332 0.0006878078
-0.013686764 0.025148654 -0.015419756 0.14353463 0.33134553 -0.93252772 0.0038242196
-0.011317649 0.024602352 -0.015343997 0.12036418 0.43202829 -0.89379197 0.0013931553
-0.0077482658 0.024286199 -0.015076151 0.096899547 0.47409251 -0.87512666 0.0012694803
0.013369115 0.024203992 -0.015093972 -0.11544568 0.52463013 -0.8434664 0.0016485003
0.016371317 0.024579227 -0.015261475 -0.11803269 0.49515694 -0.86074847 0.0020591081
0.019619111 0.024946447 -0.015554266 -0.14147434 0.46798992 -0.87233615 0.0022594943
0.022689503 0.025362242 -0.015862273 -0.14302513 0.42615622 -0.89327198 0.0020267908
0.025484059 0.025397692 -0.016311483 -0.13333665 0.39635858 -0.90836185 0.0027507707
0.028430551 0.02547526 -0.016750004 -0.12271532 0.35941803 -0.92507279 0.0029025404
0.031481624 0.025449853 -0.017173583 -0.13499244 0.31802627 -0.93842226 0.0049830377
0.034501247 0.025568172 -0.017457381 -0.079292998 0.25368291 -0.96403199 0.0053186701
0.037550692 0.025542298 -0.017645886 -0.025869448 0.13240685 -0.99085784 0.0034682297
0.040683985 0.025300039 -0.017667783 0.041145772 0.041479308 -0.99829179 0.0044030738
0.043539267 0.025633199 -0.017462211 0.10161681 -0.066552229 -0.99259502 0.0046093916
0.046498973 0.025515517 -0.016992655 0.18361157 -0.18987466 -0.9644866 0.0051479177
0.049517911 0.025604768 -0.016235374 0.27058947 -0.24410459 -0.93123263 0.003299105
0.052140847 0.025726695 -0.015360609 0.34342945 -0.3094126 -0.88674688 0.0028307852
-0.048459232 0.029393077 -0.015142712 -0.32993811 -0.35225368 -0.87581861 0.0031647917
-0.046337061 0.028695166 -0.015561773 -0.24882948 -0.2921758 -0.92342687 0.0035362518
-0.043491878 0.028449906 -0.016217902 -0.18793373 -0.21212588 -0.95900136 0.0037682641
-0.040496841 0.028481498 -0.016759261 -0.15423644 -0.11980746 -0.98074329 0.0053000231
-0.037630025 0.028328175 -0.01701542 -0.081035189 -0.07280384 -0.99404871 0.010864859
-0.034734629 0.028338153 -0.0170305 0.021749703 0.10575771 -0.99415404 0.0045956126
-0.031586766 0.028383506 -0.016828423 0.10959755 0.23710811 -0.96528131 0.0069502834
-0.028432239 0.028319446 -0.016451744 0.11188472 0.29074913 -0.95023513 0.0029468893
-0.025598047 0.028444685 -0.015961707 0.11927116 0.2750029 -0.95401663 0.0038845823
-0.022677077 0.028175866 -0.015565229 0.12827575 0.22905858 -0.9649235 0.002248358
-0.019242696 0.027751574 -0.015111434 0.13009217 0.31023639 -0.94171625 0.00058006251
-0.017633012 0.027160378 -0.015124138 0.12002242 0.31702724 -0.94079137 0.00070225878
0.02354636 0.027200567 -0.015009158 -0.17758141 0.56208295 -0.80779177 0.0013939937
0.026081989 0.027483242 -0.015352582 -0.17695692 0.53450489 -0.82643265 0.0021660391
0.028586719 0.027973209 -0.015586464 -0.15910423 0.50336528 -0.84929925 0.0019794109
0.03155604 0.028479965 -0.01590405 -0.155687 0.45485026 -0.87685388 0.0020540282
0.034557104 0.028387737 -0.016515005 -0.13124669 0.40414575 -0.90522951 0.0029193929
0.037569609 0.028596476 -0.016881429 -0.10896093 0.34052315 -0.93390125 0.0050161188
0.040493287 0.028404528 -0.017251123 -0.069512762 0.26723576 -0.96112072 0.0051723798
0.043532211 0.028548364 -0.017323032 0.004091695 0.18110774 -0.98345482 0.0062028659
0.046375588 0.028413363 -0.017213078 0.0803288 0.03656882 -0.99609739 0.0051641208
0.049236491 0.028523743 -0.016797416 0.20635076 -0.069591857 -0.97600019 0.0035880678
0.052407835 0.02850201 -0.015991524 0.2751914 -0.15620659 -0.94861436 0.0034221658
0.054631192 0.028744614 -0.015263991 0.36634508 -0.23335831 -0.90074152 0.0032558958
-0.051467258 0.032517292 -0.01504211 -0.35930562 -0.27109796 -0.89297563 0.0036813722
-0.049356282 0.031581666 -0.015475288 -0.24408154 -0.19865526 -0.94918931 0.004071529
-0.046493758 0.031442929 -0.016160699 -0.17624564 -0.13107909 -0.97557968 0.005126948
-0.043676946 0.031448416 -0.016596653 -0.07584703 0.040064089 -0.99631423 0.0086442847
-0.04079359 0.031412616 -0.016763974 -0.0215156 0.11538594 -0.99308765 0.0056966911
-0.037688851 0.031334378 -0.016709425 0.096056201 0.23824701 -0.9664427 0.0069266357
-0.034624491 0.031323485 -0.016385866 0.10713872 0.29150832 -0.95054942 0.0029683853
-0.031622436 0.031324126 -0.015887944 0.13405599 0.30299097 -0.94351763 0.0035510228
-0.029310072 0.030734511 -0.015676573 0.13253269 0.27525806 -0.95219123 0.0033742317
0.034610219 0.030451572 -0.015453212 -0.2073486 0.54662859 -0.81129766 0.0030061447
0.037646618 0.031339142 -0.015634116 -0.17568035 0.4630093 -0.86876857 0.0026580028
0.040493909 0.031375848 -0.016208017 -0.15384071 0.39271256 -0.90670276 0.0032350398
0.043447979 0.03158522 -0.016564211 -0.087568767 0.31329924 -0.94560838 0.0035804238
0.046549216 0.031310156 -0.016833309 -0.0091059282 0.23055579 -0.9730165 0.0038878978
0.049516048 0.031561859 -0.016676949 0.091105729 0.14006902 -0.98594135 0.0057507311
0.052476816 0.031534635 -0.016242428 0.20559996 0.0051044226 -0.97862279 0.0036399113
0.055307198 0.031688493 -0.015513994 0.27114093 -0.080868922 -0.95913649 0.0029855827
-0.051910516 0.03466269 -0.015271396 -0.27159217 -0.099695027 -0.95723492 0.0035998886
-0.049443942 0.034433309 -0.015820816 -0.16101789 -0.051649392 -0.98559916 0.0047130352
-0.046477862 0.03441488 -0.016226159 -0.055035438 0.12439414 -0.99070543 0.0085083861
-0.043542989 0.034347314 -0.016329622 -0.016619621 0.18488397 -0.98261988 0.0042186743
-0.040498737 0.034327857 -0.016136253 0.054508314 0.26714849 -0.96211255 0.0029963171
-0.037601802 0.034107465 -0.015823171 0.1276705 0.28924781 -0.94870228 0.0032991383
-0.03533601 0.034493446 -0.015199104 0.12408109 0.32248354 -0.9384073 0.0016816772
0.040290661 0.033167385 -0.015247065 -0.21207057 0.50229877 -0.83828515 0.0017135275
0.043625414 0.033918463 -0.015627548 -0.16657798 0.43804103 -0.88338661 0.0033886964
0.046520382 0.034351941 -0.015895091 -0.095149122 0.34892848 -0.93230653 0.0031163807
0.049627889 0.034368437 -0.016110754 0.0042697378 0.26205814 -0.96504265 0.0032566569
0.052568529 0.034497529 -0.015962046 0.10019621 0.17192101 -0.98000199 0.0038762835
0.055368911 0.034797356 -0.015499992 0.17555834 0.10318186 -0.97904682 0.0015102701
0.057252124 0.034054123 -0.015052798 0.30561814 0.0090390798 -0.95211118 0.0033088436
-0.052294567 0.037467264 -0.015233814 -0.17534472 0.061300319 -0.98259681 0.0035496193
-0.049641639 0.037343323 -0.015597061 -0.05469498 0.15651208 -0.98616046 0.0050024795
-0.046778858 0.03729124 -0.015675901 0.0010782534 0.23657666 -0.97161222 0.0026826167
-0.043850508 0.036846049 -0.015627306 0.064704224 0.26287907 -0.96265674 0.0035176675
-0.041722808 0.036086641 -0.015679408 0.057334747 0.26166141 -0.96345526 0.0030990001
0.047111157 0.036214501 -0.015178095 -0.17412421 0.47482947 -0.86268049 0.0025936831
0.049392074 0.036517534 -0.015353727 -0.089396164 0.39772409 -0.91313958 0.0032256567
0.052399721 0.036908746 -0.015372786 0.012072075 0.31422466 -0.9492718 0.0025418929
0.055146322 0.037115015 -0.015173536 0.15084958 0.1897344 -0.97017789 0.0034974306
-0.05166975 0.039323281 -0.015096658 -0.13369581 0.19947554 -0.97073942 0.0038705992
-0.049286041 0.039324351 -0.015128514 0.013421983 0.35572726 -0.93449348 0.0042225174
-0.0015253411 0.0059746159 -0.01205349 -0.052251954 -0.70892322 -0.70334733 0.0011088201
0.001648544 0.0059090229 -0.012180379 -0.03130335 -0.70855743 -0.7049585 0.0011467194
0.0043362365 0.0058057378 -0.012155752 -0.0096297748 -0.71257395 -0.70153093 0.0011762027
0.0076166401 0.0058834222 -0.012230891 0.0087769162 -0.6710481 -0.74136192 0.001431675
0.010487823 0.0058303131 -0.01207402 0.031502813 -0.72509193 -0.68793118 0.00090333231
-0.016056877 0.0086115226 -0.012250537 -0.17901932 -0.66859454 -0.72175723 0.00093069364
-0.013367179 0.0083305379 -0.01256474 -0.14879695 -0.65364957 -0.74202549 0.0011638702
-0.010512317 0.0079944581 -0.01276439 -0.11809702 -0.63811147 -0.76083291 0.0010094863
-0.007449036 0.0077831247 -0.012993583 -0.090315416 -0.62812042 -0.77285701 0.0010305675
-0.0044324007 0.0075783702 -0.013128029 -0.068890288 -0.62183797 -0.78011 0.0010141603
-0.0015222171 0.0074827275 -0.013266098 -0.053272277 -0.5986923 -0.79920566 0.002054912
0.0014661569 0.0075141303 -0.01345991 -0.034571756 -0.5716902 -0.81974095 0.00080772513
0.0045044827 0.0074155098 -0.013496183 -0.016864425 -0.57526356 -0.8177942 0.00090084557
0.0074969502 0.0074956371 -0.013589275 0.0025952256 -0.58660936 -0.80986583 0.00098506361
0.010448897 0.0074407049 -0.013505956 0.019533699 -0.62330574 -0.78173423 0.0024927575
0.01345438 0.0074588205 -0.013391146 0.040673051 -0.65759313 -0.75227463 0.00097214821
0.016483873 0.0076032239 -0.013302253 0.072926261 -0.64853269 -0.75768536 0.0020324336
0.019452337 0.0077270428 -0.013087377 0.10011373 -0.68418109 -0.72240812 0.001140324
0.022461889 0.0081098732 -0.012980967 0.13486069 -0.66570282 -0.73392946 0.0013107763
0.025296185 0.0082918582 -0.012586176 0.1685019 -0.71917224 -0.67409092 0.0012646904
0.027819768 0.0085897874 -0.012243855 0.2011984 -0.73836231 -0.64369279 0.0012790652
-0.0248677 0.011699178 -0.012405486 -0.24094681 -0.67138344 -0.70084882 0.0010650522
-0.022330632 0.01122509 -0.012757457 -0.22257082 -0.64531219 -0.73077661 0.001237308
-0.019462774 0.01067282 -0.013081861 -0.19719586 -0.62098765 -0.75860935 0.00085615285
-0.016533609 0.010441053 -0.013561178 -0.16492966 -0.56622756 -0.80757952 0.00088765449
-0.01353894 0.010375622 -0.014057204 -0.12616396 -0.54197735 -0.8308689 0.001033796
-0.010542907 0.010111031 -0.014301226 -0.099394843 -0.52114278 -0.84766203 0.0014560925
-0.0075647528 0.0099095786 -0.014486286 -0.075651139 -0.50522006 -0.85966825 0.0017150802
-0.0046173553 0.0097435312 -0.014613378 -0.057418104 -0.48602977 -0.87205404 0.0022089619
-0.0015368116 0.009546997 -0.014683117 -0.046393011 -0.47526428 -0.87861913 0.0023148183
0.001477118 0.0094906809 -0.014785146 -0.033924587 -0.46612272 -0.88406938 0.0024140542
0.0045148847 0.0093032308 -0.01477064 -0.022654755 -0.54357255 -0.83905643 0.00099852646
0.0072833798 0.0093282769 -0.01483608 -0.0059307413 -0.54903001 -0.83578163 0.00101438
0.010543698 0.0093119163 -0.014834513 0.009578526 -0.56522703 -0.82487977 0.0011463069
0.013685465 0.0093074162 -0.014776034 0.031169606 -0.5817678 -0.81275743 0.0012942117
0.016503027 0.0093989717 -0.01469927 0.053945273 -0.59555042 -0.80150467 0.0010348322
0.019691417 0.0096143736 -0.014594103 0.076675773 -0.54357898 -0.83584845 0.0021287079
0.022722563 0.009827638 -0.014393179 0.10685308 -0.57263595 -0.81281638 0.0016966563
0.025572216 0.010049685 -0.014093681 0.15164483 -0.62085694 -0.76911664 0.0031192931
0.028462335 0.010386582 -0.013746954 0.18633072 -0.64865237 -0.73792344 0.001885389
0.031361099 0.010693836 -0.013247253 0.22089687 -0.66297877 -0.7153067 0.0015005617
0.034277968 0.011230671 -0.012801275 0.25140327 -0.66360271 -0.70457637 0.0012714751
0.036704611 0.011634634 -0.012321522 0.28622469 -0.67651314 -0.67853171 0.0011885401
-0.033196256 0.01481663 -0.012253279 -0.29186213 -0.6454699 -0.70582223 0.0019292878
-0.031270113 0.014381751 -0.012563659 -0.26988727 -0.65354812 -0.70713192 0.001222145
-0.028392829 0.013829704 -0.013052791 -0.25204206 -0.6099081 -0.75132346 0.0017664563
-0.02551209 0.013497912 -0.013629122 -0.21413116 -0.56685549 -0.79550153 0.00092439732
-0.022594927 0.013166716 -0.014153433 -0.18376841 -0.53529888 -0.82442963 0.00094513042
-0.019674851 0.01276869 -0.014536243 -0.16207387 -0.50014973 -0.85063648 0.001793283
-0.016934205 0.012390801 -0.01480766 -0.13838729 -0.51061332 -0.84860057 0.00069956662
-0.014195933 0.012005091 -0.014982037 -0.10496629 -0.47191781 -0.87537175 0.0009266503
0.031576339 0.012525142 -0.014722184 0.18738055 -0.58055443 -0.79236668 0.0033280069
0.034697168 0.012975532 -0.014219907 0.21845821 -0.58522022 -0.78089261 0.0014062558
0.037616607 0.013435073 -0.013653297 0.24528033 -0.6045413 -0.75787032 0.00061967637
0.040313646 0.013816235 -0.012922348 0.31852204 -0.66852587 -0.67202449 0.00094978715
0.042691886 0.014463123 -0.01242629 0.35113612 -0.68201542 -0.64152813 0.0012693723
-0.039273664 0.017773639 -0.012148084 -0.37560982 -0.61306083 -0.6950351 0.0022123295
-0.03728544 0.017259566 -0.012610347 -0.32878962 -0.62395203 -0.70892966 0.0011802124
-0.034505397 0.016593385 -0.013181563 -0.29514569 -0.61123806 -0.73435491 0.0010621911
-0.0316552 0.016320385 -0.013951433 -0.23229103 -0.5470506 -0.80422413 0.00096207875
-0.028745109 0.015803065 -0.014425432 -0.207425 -0.5113492 -0.83396453 0.0017897092
-0.026097251 0.015304078 -0.014743673 -0.18379977 -0.53294766 -0.8259446 0.00095810532
0.038312398 0.015292892 -0.014908031 0.23377672 -0.55768538 -0.79645181 0.001237786
0.040672567 0.015814081 -0.014471495 0.27792305 -0.54915631 -0.78815365 0.0018639802
0.043500014 0.01647291 -0.013804738 0.32292557 -0.57506418 -0.75167829 0.00089779095
0.046238925 0.01697523 -0.012893831 0.38599062 -0.6301254 -0.67376047 0.0010791224
0.048186239 0.017560981 -0.012322983 0.39399347 -0.61005902 -0.68745703 0.00059742539
-0.04282381 0.020406852 -0.012433763 -0.40351534 -0.59647042 -0.69382888 0.0013086959
-0.04035126 0.019688411 -0.013101977 -0.36897039 -0.57891047 -0.72713381 0.0011117168
-0.037611764 0.019331822 -0.014023586 -0.2960934 -0.5196445 -0.80143511 0.00094599952
-0.034823131 0.018656448 -0.014578426 -0.25244209 -0.4887965 -0.83507544 0.0021093951
-0.032704204 0.018142831 -0.014881528 -0.23589756 -0.53484905 -0.81134999 0.000808921
0.044686358 0.018411832 -0.014755854 0.33088496 -0.56767553 -0.75383002 0.00096239056
0.046726208 0.019085178 -0.014299081 0.35707051 -0.50299841 -0.78707898 0.0012566091
0.049325161 0.019394424 -0.013182434 0.40793118 -0.57246667 -0.71124822 0.0014902623
0.051547259 0.020350222 -0.012648076 0.45269448 -0.57933927 -0.67781538 0.0011920689
-0.046103206 0.023033641 -0.01261084 -0.42532903 -0.55850011 -0.71216071 0.0012393484
-0.043506633 0.02247354 -0.013553935 -0.37491006 -0.50364 -0.7783246 0.0014012519
-0.040807486 0.021958459 -0.014459332 -0.31775019 -0.46391475 -0.82693291 0.0013991894
-0.038771965 0.021115821 -0.014740666 -0.29383886 -0.51587248 -0.80469513 0.00091422244
-0.0012293922 0.023665652 -0.014908144 0.025955331 0.40506864 -0.91391778 0.0020622131
0.001575435 0.023688301 -0.014812326 0.016297396 0.42014804 -0.90730917 0.0022248903
0.0040019141 0.023769371 -0.014774973 -0.019579057 0.42764673 -0.90373385 0.0020229216
0.0071973531 0.023517257 -0.014995156 -0.035846293 0.48039952 -0.87631696 0.0050228182
0.050065447 0.021877211 -0.014489727 0.37003839 -0.43368176 -0.82157874 0.0011827304
0.052615333 0.022435127 -0.013467018 0.43563125 -0.49231231 -0.75356096 0.0021509605
0.054913219 0.023318907 -0.0126726 0.48960063 -0.51182616 -0.70592165 0.00096195424
-0.051406182 0.026618335 -0.01222921 -0.45390126 -0.55675465 -0.69569951 0.0018110849
-0.049281884 0.025772672 -0.012833222 -0.42143121 -0.53375494 -0.73314482 0.0013705277
-0.046578817 0.025349429 -0.013910576 -0.35453743 -0.45083189 -0.81917876 0.00072450755
-0.044066798 0.024718488 -0.014686275 -0.33096698 -0.40819249 -0.8507877 0.0021357939
-0.00969622 0.025944719 -0.014388648 0.11326726 0.47120988 -0.87471813 0.0014431033
-0.0074576242 0.025327493 -0.014468728 0.096895806 0.47410664 -0.87511939 0.0012616236
-0.0043202783 0.024987085 -0.014332979 0.073578499 0.47849816 -0.87500036 0.00097796298
-0.0012843341 0.02496516 -0.014124863 0.022258267 0.47765175 -0.87826723 0.0003691694
0.001745404 0.025445011 -0.013693394 0.027024202 0.51316136 -0.85786664 0.00091471511
0.0047135516 0.025149556 -0.013901967 -0.006824269 0.53303933 -0.84606296 0.0014179035
0.0079203155 0.024923703 -0.014155234 -0.016157495 0.5732041 -0.81925339 0.0017558482
0.010803845 0.025107017 -0.014246813 -0.069213621 0.56090653 -0.8249808 0.0019479167
0.013882061 0.025610484 -0.014248259 -0.11494081 0.57028323 -0.81336683 0.0023608832
0.016926153 0.026129691 -0.014363202 -0.14870176 0.60919452 -0.77895439 0.00087749137
0.01986637 0.026566835 -0.01462393 -0.17515057 0.58479851 -0.79204363 0.00099696987
0.053242065 0.024898967 -0.014528793 0.38708907 -0.3585721 -0.84946346 0.0012902538
0.055599947 0.025512593 -0.01354422 0.46015891 -0.41810769 -0.78322387 0.0022793626
0.057557903 0.026129024 -0.012683149 0.516949 -0.44825095 -0.7292701 0.0018884477
-0.054456275 0.029569093 -0.012345309 -0.47882339 -0.482393 -0.73350203 0.0018390354
-0.052332219 0.028590562 -0.012982161 -0.44125935 -0.47156683 -0.76348865 0.0019968199
-0.049684156 0.028357733 -0.014178183 -0.37219262 -0.40770292 -0.83381706 0.0014475787
-0.047361944 0.027508318 -0.014756006 -0.30773127 -0.36393279 -0.87912142 0.0034464702
-0.010181633 0.02728576 -0.013556777 0.1132663 0.47121653 -0.87471461 0.0014418454
-0.0062422436 0.02732712 -0.012946314 0.090943456 0.48432216 -0.87015021 0.00097339746
0.0067632995 0.027333992 -0.012200783 -0.027561042 0.60434109 -0.79624891 0.00070885039
0.011415313 0.027502799 -0.012414054 -0.073923744 0.61857462 -0.78224075 0.00034164666
0.012874643 0.027049247 -0.01301031 -0.1098851 0.61056167 -0.78430843 0.00048013197
0.016294496 0.027813176 -0.012917207 -0.13340119 0.61787045 -0.77488077 0.00095835677
0.019526457 0.028197747 -0.013268332 -0.176238 0.62211043 -0.76283598 0.0012601482
0.022449549 0.028314214 -0.013913884 -0.19926129 0.60785109 -0.76864296 0.0014950202
0.025374075 0.028934127 -0.014174727 -0.20162956 0.5707835 -0.79595959 0.0015747986
0.028484415 0.02946783 -0.014596361 -0.19911851 0.57531995 -0.79332131 0.0034926271
0.055919647 0.028258486 -0.014548225 0.41083869 -0.28351051 -0.8665064 0.0014743346
0.058418717 0.028491573 -0.013271687 0.48888284 -0.32069623 -0.81126291 0.00084771786
0.060583189 0.02926011 -0.012202407 0.54522401 -0.33385095 -0.76894361 0.0016259309
-0.057365298 0.03270977 -0.012240313 -0.52066648 -0.41395429 -0.74669152 0.0023515217
-0.05536807 0.031618718 -0.012892041 -0.45548242 -0.39030185 -0.80012518 0.0027882946
-0.052637309 0.031343803 -0.014169497 -0.39382368 -0.3173041 -0.86268246 0.0015877608
-0.05046903 0.030489292 -0.014797896 -0.32203734 -0.27546909 -0.90576416 0.0039408854
-0.028430318 0.032295473 -0.014611687 0.16286461 0.38325581 -0.90916997 0.00043349928
0.022581391 0.030110493 -0.012371087 -0.20076394 0.65617532 -0.72741169 0.00060423271
0.025246294 0.030708795 -0.012613359 -0.20974122 0.65130275 -0.72925532 0.0010066398
0.028346643 0.031175962 -0.0131411 -0.21892981 0.65962595 -0.71900159 0.0016085955
0.031444881 0.031436868 -0.01386993 -0.23381041 0.62156928 -0.74765253 0.0014897967
0.034193169 0.032021258 -0.014250822 -0.2477871 0.58438939 -0.7727164 0.0031903747
0.036479928 0.032547306 -0.01457642 -0.22869125 0.59898567 -0.76740903 0.0015409061
0.056194399 0.030214289 -0.01498217 0.3606481 -0.13939138 -0.9222272 0.0032317478
0.058354944 0.031560868 -0.014262109 0.44236344 -0.19576031 -0.87520999 0.0011468197
0.061061133 0.031574462 -0.012763523 0.53744513 -0.27531731 -0.79709041 0.0011813492
-0.058097661 0.034708589 -0.012618541 -0.48151174 -0.29846761 -0.82405317 0.0031540962
-0.055558413 0.034440484 -0.013848895 -0.38965049 -0.2169704 -0.89503986 0.0018350957
-0.053299386 0.034186583 -0.014749209 -0.34252444 -0.1756638 -0.92294055 0.0035078402
-0.033902094 0.034736056 -0.014664399 0.15941735 0.33129561 -0.92996198 0.0012597785
0.032741077 0.033652678 -0.01229764 -0.26650506 0.6837998 -0.67925906 0.00065107259
0.034629922 0.033882204 -0.012792076 -0.26798129 0.67619574 -0.68625462 0.00083215366
0.037628312 0.034254514 -0.013618027 -0.28154868 0.6056121 -0.74428773 0.0015573195
0.040491864 0.034789599 -0.014228389 -0.25338167 0.56299734 -0.78665859 0.0022304207
0.043246333 0.035286792 -0.014794992 -0.22252864 0.48436719 -0.84609073 0.0016415727
0.058231987 0.034688789 -0.014694106 0.30402508 0.021969171 -0.9524107 0.0029277408
0.061252184 0.03464682 -0.013339284 0.46814618 -0.10717616 -0.87712735 0.0028293852
0.063077897 0.034128331 -0.012167023 0.59266573 -0.21262637 -0.77687669 0.0038043393
-0.060468066 0.037956849 -0.012263868 -0.5037359 -0.23811029 -0.83039361 0.0028046137
-0.058523145 0.03746685 -0.013161803 -0.41165045 -0.16555725 -0.89617783 0.0040387707
-0.055560641 0.037370499 -0.014378745 -0.31286669 -0.061067965 -0.94783181 0.0056167776
-0.05373241 0.037799437 -0.014928506 -0.24072886 -0.0051597878 -0.97057873 0.0041284142
-0.043604072 0.038332313 -0.014958623 0.076900356 0.31267568 -0.94674194 0.0015550847
-0.040558942 0.037628423 -0.014691433 0.12440003 0.36248994 -0.923648 0.0004602331
0.040899288 0.036515038 -0.01307508 -0.29020941 0.60725898 -0.73960465 0.0024982546
0.043300681 0.037473239 -0.013268105 -0.31151372 0.57925534 -0.7532745 0.001892243
0.046150878 0.037510257 -0.014197701 -0.2245823 0.50934619 -0.83074021 0.0013333118
0.049555689 0.03810906 -0.014637798 -0.15480068 0.44721112 -0.88093072 0.0023301258
0.052812088 0.038546309 -0.014805183 -0.056771971 0.37373841 -0.92579508 0.0032675504
0.056282789 0.038030569 -0.014838697 0.13405801 0.17361493 -0.97564662 0.0032392431
0.058458891 0.037590958 -0.014502088 0.272863 0.13782494 -0.95212924 0.0057594515
0.061476968 0.037442237 -0.013440254 0.40514222 0.0065053515 -0.91423053 0.0029128406
-0.060925189 0.040531676 -0.012462663 -0.43416283 -0.074256837 -0.89776868 0.0041513457
-0.058561783 0.040417094 -0.013449909 -0.32342646 0.026400657 -0.94588494 0.0045304494
-0.05559333 0.04040597 -0.014303525 -0.22465454 0.11499385 -0.96762943 0.0056152414
-0.052609798 0.040444613 -0.014700497 -0.10507219 0.2734606 -0.95612711 0.0095410729
-0.049722597 0.040783256 -0.01461008 0.032076571 0.34015194 -0.93982327 0.0044594412
-0.046541966 0.039649017 -0.014763644 0.062109999 0.3816323 -0.92222512 0.0011425291
0.044298664 0.039428506 -0.012116732 -0.34081739 0.63689739 -0.69152391 0.0020343326
0.046766888 0.039967593 -0.012699121 -0.28058708 0.61553693 -0.73646808 0.002595254
0.049332801 0.040432822 -0.013207289 -0.21899988 0.53915167 -0.81323701 0.0023311409
0.052362416 0.040601272 -0.013765062 -0.14345472 0.47897577 -0.86602712 0.0015212944
0.055508364 0.040487751 -0.014089129 -0.0067262482 0.36225495 -0.93205476 0.0046775555
0.058623657 0.040324703 -0.01393309 0.15534841 0.26448247 -0.95179611 0.0053651072
0.061481461 0.040368989 -0.013218302 0.33994985 0.14397171 -0.92935789 0.0076969131
0.063295767 0.040635496 -0.012505429 0.39088359 0.09495458 -0.91552919 0.0032660041
-0.060990926 0.043298848 -0.012462055 -0.34799346 0.088523455 -0.93330824 0.0041063051
-0.058466855 0.043463621 -0.013173407 -0.21068449 0.18520904 -0.95984882 0.0055484804
-0.055605017 0.043485019 -0.013577743 -0.050985701 0.33503598 -0.94082481 0.0083508892
-0.052993923 0.043012653 -0.013801361 0.011394934 0.39169729 -0.92002362 0.0027792952
-0.04992919 0.043532848 -0.013202841 0.058030967 0.42421708 -0.90369922 0.00080742047
-0.047594815 0.042475902 -0.013422985 0.066181004 0.4092145 -0.91003489 0.0008475628
0.050337959 0.042392675 -0.012131808 -0.27803364 0.56876564 -0.77408201 0.0018065736
0.052440245 0.04292034 -0.012393801 -0.19385684 0.54192734 -0.81776172 0.0031528277
0.05563486 0.043238126 -0.012821728 -0.098242387 0.46766022 -0.87843174 0.0044223564
0.058375437 0.04344159 -0.012884318 0.032237291 0.36454174 -0.93062884 0.0054690782
0.06132466 0.043283138 -0.012625671 0.18942314 0.2709842 -0.94376189 0.0030296198
-0.060689013 0.045608781 -0.012190958 -0.2248233 0.29643425 -0.92821401 0.0048705037
-0.058639426 0.045979384 -0.01240086 -0.12570563 0.34268311 -0.93100286 0.0036074207
-0.055879701 0.045885962 -0.012553897 0.01129414 0.41922519 -0.90781206 0.0018868933
-0.051938597 0.045565873 -0.012322824 0.067896612 0.43698618 -0.89690202 0.00052933407
0.058513179 0.045144726 -0.012128628 -0.062343478 0.48373181 -0.87299299 0.0040990091
0.060977478 0.045099113 -0.012085183 0.1214304 0.37922505 -0.91730201 0.0046013524
-0.015766919 0.0057620658 -0.0092529235 -0.21825713 -0.76753759 -0.60270214 0.0013152286
-0.013366012 0.0054811039 -0.0096264845 -0.1754389 -0.7636444 -0.62134403 0.0012317925
-0.010407763 0.0052141631 -0.010021544 -0.14568444 -0.75874627 -0.63488603 0.001171876
-0.0074558891 0.0049392846 -0.010253865 -0.10739609 -0.76198864 -0.63862306 0.0018391612
-0.0044484283 0.0047416943 -0.010436738 -0.080013275 -0.74412555 -0.66323072 0.001016924
-0.0015109646 0.0046003857 -0.010568462 -0.058638938 -0.7549383 -0.65316886 0.0017913283
0.0014538666 0.0044224556 -0.010558184 -0.031425703 -0.77697295 -0.62874919 0.00060148811
0.0044954959 0.0042781373 -0.010480601 -0.0063891034 -0.77679205 -0.6297248 0.00059587462
0.0074951397 0.0044185198 -0.010620916 0.016957801 -0.7819072 -0.62316406 0.00068157708
0.010468337 0.0044251257 -0.010495124 0.04801885 -0.76925606 -0.63713366 0.0018485854
0.013429835 0.0046835341 -0.010548189 0.064153329 -0.78096497 -0.62127137 0.0018179177
0.016477348 0.004916714 -0.010442388 0.1057848 -0.78485191 -0.61058736 0.0013590381
0.019421788 0.0051446622 -0.010189065 0.13658649 -0.79799587 -0.58698106 0.0011916958
0.022408068 0.0053787576 -0.009750885 0.16497689 -0.8040393 -0.57122982 0.0011116171
0.025321305 0.0057699685 -0.0094014034 0.19742413 -0.81086046 -0.55093467 0.00075633667
-0.024598984 0.0087424973 -0.0092404466 -0.29473382 -0.75577462 -0.58475351 0.0012074728
-0.022267589 0.0083070761 -0.0098028416 -0.27813709 -0.73967844 -0.61279327 0.0012741811
-0.019395793 0.0078395838 -0.01040977 -0.23185852 -0.73576504 -0.63631082 0.0017387103
-0.016619999 0.0071798265 -0.010607648 -0.20260608 -0.74141115 -0.63973445 0.0011419512
-0.013595158 0.0068623959 -0.01111671 -0.16131365 -0.73757029 -0.65571946 0.0012728643
-0.010558278 0.0065376116 -0.011448084 -0.12943552 -0.67194742 -0.72920036 0.00114727
-0.0076242024 0.006291586 -0.011696764 -0.098879121 -0.71782207 -0.68916941 0.0011786429
-0.0052121356 0.0060949628 -0.011815798 -0.073513828 -0.7122376 -0.69807827 0.001141271
0.01470061 0.0060177711 -0.011971899 0.058541335 -0.70639813 -0.70538968 0.0026669351
0.016878868 0.0061203428 -0.011872276 0.079862088 -0.70267498 -0.70701474 0.0013197176
0.019761469 0.0063007893 -0.011618197 0.11812758 -0.71733147 -0.68664503 0.0013760312
0.022573775 0.006571901 -0.011320287 0.15210347 -0.73313963 -0.66285056 0.0012112882
0.025595289 0.0068943705 -0.010853929 0.18477148 -0.78844935 -0.5866918 0.00099785277
0.028537476 0.0074181948 -0.010522297 0.22065252 -0.79854101 -0.56003994 0.00075799425
0.031241538 0.0080764657 -0.010358809 0.25440863 -0.78160757 -0.56953132 0.001404134
0.034170691 0.0085533885 -0.009634817 0.2955085 -0.78815883 -0.53988922 0.0010421578
-0.031080013 0.011577887 -0.0096458457 -0.31914255 -0.74550176 -0.58512825 0.00091924705
-0.02834475 0.010980759 -0.010235783 -0.29471925 -0.7437256 -0.60001063 0.0019475672
-0.025588116 0.01030572 -0.010673692 -0.26836571 -0.73523349 -0.62242395 0.0011739479
-0.022727532 0.0097808754 -0.01127523 -0.24628285 -0.67153043 -0.69885021 0.0012172825
-0.020117668 0.0092796963 -0.011703126 -0.21647103 -0.69499862 -0.685651 0.0010966653
0.032258127 0.0092821987 -0.011510408 0.23245473 -0.75543964 -0.61259758 0.001542142
0.034713179 0.0098408097 -0.011116553 0.27196831 -0.74554449 -0.60843778 0.0028249433
0.037515976 0.010431339 -0.010447036 0.31337526 -0.77614605 -0.54716843 0.0011213998
0.040248346 0.011278641 -0.01000597 0.34701744 -0.76083499 -0.54836935 0.001184043
0.042359043 0.011693805 -0.0091665164 0.39380342 -0.75963461 -0.51756549 0.0010236001
-0.039138105 0.014982865 -0.0091708144 -0.40562505 -0.7195431 -0.56367201 0.0014459111
-0.037087992 0.014366076 -0.0097565157 -0.37562168 -0.71679974 -0.58745766 0.0011841153
-0.034444414 0.013709373 -0.010435275 -0.3194207 -0.69895566 -0.6398682 0.00076829438
-0.031661872 0.012943001 -0.010946034 -0.29938334 -0.72702414 -0.61790413 0.0013600037
-0.028823595 0.012437539 -0.011657927 -0.2637895 -0.6578055 -0.70548344 0.00095233379
0.040982489 0.012552228 -0.011234004 0.33978674 -0.72367418 -0.60070002 0.00099332724
0.043606721 0.013271741 -0.010474913 0.39252278 -0.74735391 -0.53608584 0.00069416681
0.046097767 0.014282965 -0.010040681 0.4212946 -0.72146535 -0.54954398 0.001038967
-0.042817418 0.017499585 -0.0095334705 -0.46224454 -0.68624288 -0.56160545 0.0015749673
-0.040380388 0.016709406 -0.010355889 -0.397062 -0.68115622 -0.61511618 0.0018268536
-0.037768845 0.015863614 -0.011024939 -0.34520471 -0.69810647 -0.62728065 0.0014862949
-0.03548817 0.015277361 -0.01162486 -0.32707611 -0.69536567 -0.63991231 0.00088052166
0.044726115 0.015033001 -0.01188311 0.3612856 -0.65131575 -0.66727847 0.00095279427
0.04709338 0.015738051 -0.011118961 0.40385503 -0.70138586 -0.58733207 0.0017148721
0.049503028 0.016718257 -0.010468166 0.45119143 -0.67433989 -0.5845443 0.0014329032
0.05173583 0.017563492 -0.0096931262 0.48284498 -0.67233306 -0.56109631 0.001002045
-0.046189066 0.020200429 -0.0099167982 -0.48940891 -0.65851283 -0.57169902 0.0012817322
-0.043695021 0.019246168 -0.010771859 -0.42772958 -0.63789833 -0.64041632 0.00056307274
-0.041315459 0.018457178 -0.011569985 -0.40265819 -0.6543234 -0.64009935 0.00075834186
0.050722018 0.018471714 -0.011511535 0.45460859 -0.65198678 -0.60683131 0.00077568111
0.052680351 0.019210614 -0.010757616 0.47846612 -0.66291636 -0.57585764 0.0016695131
0.054989461 0.020353502 -0.010054441 0.51375842 -0.62919444 -0.58323807 0.0014003182
-0.051475208 0.023627523 -0.0093056206 -0.51298851 -0.64709258 -0.56401598 0.0015241239
-0.049265858 0.022836151 -0.01025487 -0.47626522 -0.63977057 -0.6032123 0.0014864589
-0.046874855 0.0219076 -0.011139927 -0.45798329 -0.58970696 -0.66520447 0.00190067
-0.044816583 0.021094071 -0.011817901 -0.42890584 -0.5843668 -0.68887973 0.0027918599
0.053864654 0.021018151 -0.011634102 0.50400925 -0.60240251 -0.61893934 0.001770511
0.055957634 0.022131329 -0.010957327 0.51533157 -0.54396433 -0.66222072 0.0013488752
0.057931662 0.022754194 -0.0098366234 0.56341702 -0.56981134 -0.59822762 0.0018896676
-0.054656893 0.026409168 -0.0095957117 -0.52296454 -0.63940996 -0.56361598 0.0016266641
-0.052457567 0.025521481 -0.01048239 -0.48129004 -0.58969045 -0.64855617 0.001021245
-0.050152391 0.024649106 -0.011384853 -0.48247287 -0.62082911 -0.6178925 0.00070732244
0.058569588 0.024887841 -0.011098265 0.54249054 -0.50040758 -0.67475647 0.001901516
0.060761184 0.025604416 -0.0096938657 0.61047268 -0.52997035 -0.58860379 0.0006320891
-0.057730041 0.029286331 -0.0095752897 -0.58336604 -0.57408887 -0.57454866 0.0011606031
-0.055514928 0.028362725 -0.010646854 -0.51082075 -0.52957809 -0.67720687 0.0012163362
-0.053446427 0.027534952 -0.011590502 -0.5024702 -0.55694252 -0.66131598 0.00057917368
0.0086915977 0.027970763 -0.011696837 -0.064149946 0.61307436 -0.7874164 0.00058992108
0.0098159788 0.0278189 -0.011949731 -0.083525106 0.61671388 -0.78274357 0.0003372347
0.01484701 0.028605338 -0.011863368 -0.11880345 0.61314458 -0.78098625 0.00076213613
0.017091636 0.029174808 -0.011772699 -0.15275182 0.64331388 -0.75020945 0.00047926264
0.059663992 0.027184807 -0.011814157 0.55207926 -0.40818548 -0.72704417 0.0011738056
0.06159842 0.028464155 -0.010948937 0.5961656 -0.39840892 -0.6970343 0.0015487544
0.063251592 0.028622301 -0.0095648253 0.62331605 -0.44857368 -0.64051437 0.0014170409
-0.060466319 0.032233872 -0.009460846 -0.62120271 -0.50412786 -0.59996855 0.0015432944
-0.058500044 0.031474631 -0.010602679 -0.54994082 -0.44866899 -0.70445812 0.00099013944
-0.05649364 0.030484742 -0.011537445 -0.53967983 -0.50587344 -0.67293221 0.0010109381
0.020540731 0.030541258 -0.01127266 -0.18374431 0.65898454 -0.72936779 0.00049279188
0.023446888 0.031375017 -0.011288566 -0.21520102 0.67746472 -0.70337051 0.00025073168
0.025578551 0.032255366 -0.011035124 -0.20717579 0.68458045 -0.69887608 0.00039739514
0.028447047 0.032859936 -0.011456908 -0.23454028 0.68233335 -0.69239587 0.00064574223
0.062514454 0.031580251 -0.011764267 0.59809518 -0.29807475 -0.74393123 0.0024079066
0.063946918 0.031190611 -0.010359817 0.62759167 -0.34365582 -0.69859105 0.0013439412
-0.06323076 0.035711031 -0.0092354296 -0.64178467 -0.42984152 -0.63509732 0.0015374665
-0.061336093 0.034572132 -0.010221432 -0.59146249 -0.38347435 -0.7093091 0.0019929679
-0.059372045 0.033965729 -0.011462432 -0.5664053 -0.35416004 -0.7441476 0.0022151382
0.029163867 0.034144916 -0.010186982 -0.2520448 0.69875467 -0.66948879 0.00035980073
0.031356953 0.034109198 -0.011220912 -0.2538816 0.69179511 -0.67599088 0.00046546664
0.034667481 0.035285201 -0.011320222 -0.27207699 0.67221689 -0.68854809 0.00085784792
0.036567111 0.03584525 -0.011667601 -0.31050795 0.66485667 -0.67937505 0.0011458447
0.064466074 0.033776611 -0.010973108 0.5926218 -0.21263549 -0.77690774 0.0038338653
-0.063891336 0.037819196 -0.0097659528 -0.61924082 -0.34901309 -0.70337099 0.0029392489
-0.061743312 0.037290949 -0.011210973 -0.54010051 -0.2797738 -0.79373682 0.0011566108
0.035056621 0.036525741 -0.010020597 -0.29073018 0.66419196 -0.68871266 0.0011363828
0.037768729 0.037279524 -0.010669871 -0.31825534 0.65730345 -0.68312937 0.00081818399
0.040280372 0.038061429 -0.011295572 -0.35382465 0.67245108 -0.65009052 0.0023415666
0.06533733 0.038104221 -0.011267927 0.51119035 -0.062374365 -0.85720116 0.0019496782
0.066411652 0.037485983 -0.010317374 0.52517051 -0.055289131 -0.84919906 0.0020218906
-0.06612426 0.041145325 -0.0092034824 -0.63717711 -0.2678445 -0.72267878 0.0034148803
-0.064509124 0.040527366 -0.010265203 -0.57666022 -0.22273083 -0.78603691 0.0045345244
-0.062427975 0.040350035 -0.011623248 -0.49468136 -0.14561203 -0.85678905 0.0025855182
0.041093349 0.039251879 -0.010529575 -0.37637517 0.678339 -0.63102937 0.0016890734
0.043448269 0.04085033 -0.010186181 -0.38535637 0.68113607 -0.62253845 0.0017722553
0.04623422 0.041444447 -0.011224614 -0.34671369 0.64044529 -0.68528789 0.001539313
0.065273948 0.039564848 -0.011439176 0.46231258 0.04723506 -0.88545799 0.0045136493
0.066239282 0.041287303 -0.010769269 0.45111918 0.060887836 -0.89038426 0.0053271726
-0.066532366 0.043481372 -0.0094327126 -0.58860266 -0.13360025 -0.79730666 0.0036912388
-0.064540118 0.0434702 -0.010743042 -0.4793019 -0.029873263 -0.87714154 0.0038557027
-0.062524021 0.0435175 -0.011819125 -0.41266447 0.013042742 -0.91078973 0.0040136315
0.044670697 0.042114235 -0.0095716035 -0.39626011 0.69135922 -0.60415262 0.00218749
0.046257664 0.042726647 -0.009919636 -0.38212898 0.69437385 -0.60977244 0.0020531188
0.049274862 0.043496225 -0.010743587 -0.33547419 0.65129405 -0.68064177 0.0017087576
0.052553553 0.044436131 -0.01126418 -0.26532373 0.60150194 -0.75352424 0.0032459495
0.054928225 0.044837799 -0.01175273 -0.17574945 0.553958 -0.81378293 0.0020446859
0.062911972 0.044904262 -0.011804148 0.19895054 0.26862755 -0.94247442 0.002988979
0.064198323 0.043232545 -0.01172815 0.39866868 0.17076433 -0.90105653 0.0033328137
0.067183837 0.042693548 -0.010091213 0.49127567 0.08737044 -0.866611 0.0038865309
-0.066765547 0.046385329 -0.0094843376 -0.54160535 0.020272644 -0.84038842 0.0045652157
-0.064525388 0.046426393 -0.010671182 -0.39070049 0.13143043 -0.9110868 0.0058946763
-0.061850641 0.046635538 -0.011590933 -0.20978408 0.28480497 -0.93534851 0.004615536
-0.059047792 0.047512904 -0.011731269 -0.11493368 0.33366024 -0.93566072 0.0035415215
-0.056584891 0.047604747 -0.011643888 -0.00034692351 0.40002581 -0.91650385 0.0023457273
-0.052789286 0.046524826 -0.011856458 0.020114046 0.40989536 -0.91191077 0.0017479497
0.052843165 0.046288874 -0.0098136384 -0.3511869 0.62768924 -0.69474751 0.00059958041
0.055122133 0.046650201 -0.01041905 -0.24755478 0.60893601 -0.75360042 0.0030621313
0.058254495 0.046480905 -0.011308274 -0.10715352 0.53575468 -0.83754706 0.0019707486
0.061442357 0.046556287 -0.01139341 0.084865019 0.42120066 -0.90298837 0.0084469803
0.064153306 0.046591122 -0.010889944 0.31244773 0.29469192 -0.90306872 0.010026214
0.066117883 0.04734325 -0.0099841943 0.31809971 0.31542104 -0.89404821 0.0084276032
-0.066652536 0.049139068 -0.0092533445 -0.42099649 0.2103944 -0.88232428 0.0067582843
-0.064620271 0.04934267 -0.0099571738 -0.30607998 0.28838319 -0.90727627 0.0039104824
-0.061631873 0.0492795 -0.010628738 -0.18336116 0.35689855 -0.91597056 0.002130924
-0.058758795 0.049162507 -0.010818421 -0.10095221 0.41274089 -0.90523678 0.00090522494
0.056259505 0.048685662 -0.0091613857 -0.30334777 0.66239947 -0.68498695 0.0039372365
0.058355041 0.048773598 -0.0097840615 -0.17242071 0.58542711 -0.79217809 0.0027980257
0.061436296 0.049428888 -0.0098651778 -0.049559273 0.50167882 -0.86363316 0.0035438582
0.064195491 0.049544662 -0.009706283 0.033194192 0.46278831 -0.88584709 0.0048522339
-0.064894028 0.051257696 -0.0091471663 -0.25037241 0.33599275 -0.90797716 0.0025524606
-0.062878624 0.051428411 -0.0093130367 -0.16999035 0.3893095 -0.90528524 0.0015368618
-0.010153211 0.0027891858 -0.0064109541 -0.16553618 -0.8704868 -0.46351969 0.0014717276
-0.0075237262 0.0026005702 -0.0068543125 -0.11908507 -0.87235248 -0.4741517 0.0018240392
-0.0044922759 0.002393804 -0.007095227 -0.082627505 -0.874677 -0.47761145 0.0018649974
-0.001483348 0.0022887061 -0.0073159561 -0.052864589 -0.8758744 -0.47963455 0.0017765651
0.0014808767 0.0022000384 -0.0074052042 -0.027711762 -0.87895942 -0.47609064 0.0016012983
0.0043973201 0.0022227711 -0.0075354567 0.00040219328 -0.88347971 -0.46846926 0.0015610725
0.0073939264 0.0022258279 -0.0074512837 0.032629572 -0.88420218 -0.4659633 0.0017474323
0.010492948 0.002309585 -0.0073029585 0.060274396 -0.88884401 -0.45422831 0.0015389615
0.013514426 0.0024903927 -0.007141727 0.088867933 -0.88927186 -0.44866255 0.0017531922
0.016427172 0.0026281034 -0.0067482418 0.12020684 -0.88989371 -0.44004488 0.0017841182
0.019005816 0.0028430754 -0.0064021638 0.16498776 -0.89221102 -0.420403 0.001594595
-0.021553893 0.0058553698 -0.0063936361 -0.32501757 -0.83801425 -0.4382872 0.0014659057
-0.01934975 0.005413115 -0.0069988165 -0.27573353 -0.84116548 -0.46520069 0.0019407246
-0.016485455 0.0048366357 -0.0074989852 -0.22180277 -0.83592027 -0.50203663 0.0014245327
-0.01349876 0.0041055847 -0.0075338664 -0.19499214 -0.85526079 -0.48011142 0.001288154
-0.010623207 0.0036925706 -0.007839283 -0.16045925 -0.84538841 -0.50948131 0.0013808432
-0.007552193 0.0034923959 -0.0083264746 -0.11477825 -0.84299415 -0.52553481 0.0017778667
-0.0047163949 0.0033124655 -0.0085672801 -0.084451847 -0.80054861 -0.59328717 0.00070450467
-0.0016506455 0.0031684055 -0.0087398048 -0.056212135 -0.79893088 -0.59879011 0.00072131504
0.0016547072 0.0031170037 -0.0089109484 -0.03135249 -0.79863083 -0.60100389 0.00070890121
0.0050235437 0.0030258663 -0.0088612949 -0.0054334439 -0.80165792 -0.59775835 0.00078761147
0.0074963453 0.0030514018 -0.0088446448 0.025622005 -0.80559087 -0.59191793 0.00093267235
0.010440601 0.0031730502 -0.0088255014 0.05345222 -0.81391543 -0.57851917 0.00090676668
0.013612869 0.0032618039 -0.0085898004 0.082964718 -0.8630451 -0.49826708 0.0018545577
0.016606843 0.003416589 -0.0082469983 0.11225738 -0.86442322 -0.49007207 0.0017630337
0.01963813 0.0036397846 -0.0077803037 0.1533466 -0.86832052 -0.47170365 0.0013938842
0.02249849 0.0040690298 -0.0075478693 0.18632272 -0.88181102 -0.43323582 0.0015046402
0.025412196 0.0047209724 -0.0075279581 0.21437642 -0.87160581 -0.44084686 0.0015402407
0.028155629 0.0053126342 -0.0072760643 0.24393113 -0.87611002 -0.41584712 0.0016299711
0.030516788 0.0057013775 -0.0066182315 0.28441802 -0.89091676 -0.35408139 0.00044714712
-0.027995076 0.0086059663 -0.0069091967 -0.33720815 -0.82964563 -0.44494811 0.0014707135
-0.025460804 0.0078883898 -0.0073999097 -0.30334687 -0.81462061 -0.49434197 0.0014023087
-0.022613702 0.0069307867 -0.0076168701 -0.3196961 -0.82824498 -0.46022242 0.00095608976
-0.019833166 0.0064502545 -0.0084670978 -0.2626445 -0.79133636 -0.55209112 0.00061809487
-0.017716866 0.0060805362 -0.0089159524 -0.25141042 -0.76563436 -0.59211218 0.0017985316
0.028928321 0.0061693201 -0.0085269902 0.23351146 -0.8525365 -0.46760458 0.0015964167
0.031723406 0.0066838674 -0.0078566363 0.29268289 -0.85874087 -0.42059588 0.0011099788
0.034524433 0.0074503818 -0.0074513606 0.31573614 -0.85248893 -0.4166213 0.0019633686
0.037292134 0.0084106307 -0.0072467709 0.34110311 -0.85031801 -0.40075934 0.0015238624
0.03959883 0.0088913636 -0.0062063457 0.38031444 -0.84367198 -0.37891755 0.0012217385
-0.036204174 0.011849228 -0.0064363014 -0.3713975 -0.80895257 -0.455697 0.001779151
-0.034213588 0.011320444 -0.0071394192 -0.36122006 -0.81606179 -0.45117977 0.001625616
-0.03146401 0.010403314 -0.0075853998 -0.33309108 -0.81400079 -0.47587079 0.0020522145
-0.028915966 0.009616429 -0.0080333073 -0.32519871 -0.81377864 -0.48167422 0.0018623234
-0.02667328 0.0091283927 -0.0086519644 -0.32440689 -0.80490488 -0.49687859 0.0017024867
0.038413681 0.0093384963 -0.0082115661 0.34643874 -0.83508933 -0.42732415 0.0010994972
0.040674701 0.0099819386 -0.0074978364 0.39006346 -0.83475035 -0.38864177 0.0010966777
0.043210607 0.011116739 -0.0073672133 0.39128602 -0.81617069 -0.4251596 0.0012536863
0.045249559 0.011756028 -0.0066150059 0.43420288 -0.80937618 -0.39544666 0.001159152
-0.042186558 0.014910709 -0.0062599634 -0.47307038 -0.77077764 -0.42673919 0.0010860636
-0.040163048 0.014316412 -0.0072514894 -0.44282722 -0.7739526 -0.45266035 0.001848478
-0.037612092 0.013162282 -0.0075988378 -0.41297752 -0.80142224 -0.43263388 0.00089166965
-0.035104439 0.012412273 -0.0083331717 -0.3582429 -0.78086907 -0.51176697 0.0010066914
0.044348199 0.012168909 -0.0083153015 0.42566884 -0.80408102 -0.41504171 0.0016674155
0.046440057 0.013022891 -0.0077660307 0.44886166 -0.79113257 -0.41549072 0.0016376007
0.048893426 0.01411947 -0.0071638529 0.47546998 -0.77514654 -0.41602415 0.0011240246
-0.045575414 0.017567402 -0.0069010337 -0.51857734 -0.73069 -0.44403791 0.0010223893
-0.043550093 0.016562315 -0.0075106961 -0.49863964 -0.7536568 -0.42820558 0.00070699817
-0.04127996 0.015546294 -0.0082375128 -0.46281514 -0.7343955 -0.49645293 0.002845529
0.050118722 0.015567921 -0.0084028905 0.47967011 -0.74166423 -0.46888247 0.0018699412
0.052379798 0.016574305 -0.0075376108 0.50572938 -0.74567181 -0.43383321 0.0017200639
0.054431364 0.017849071 -0.0072707483 0.52518737 -0.72331882 -0.44831693 0.0014603967
-0.049026936 0.020267453 -0.0071582878 -0.5454483 -0.71069777 -0.44429141 0.0015775902
-0.046795957 0.018988617 -0.0077365045 -0.53303403 -0.72764117 -0.4317559 0.00093166006
-0.044868916 0.01827893 -0.0087252147 -0.50684291 -0.68255097 -0.52653062 0.0014073439
0.055741813 0.019152537 -0.0077153598 0.54913753 -0.70149899 -0.45425451 0.0013015326
0.057952158 0.020453619 -0.0069227125 0.57774037 -0.67583966 -0.45766446 0.00075665931
-0.05429944 0.023780083 -0.0063590868 -0.55499142 -0.70992357 -0.43358171 0.00093540089
-0.052279338 0.022801818 -0.0072994926 -0.55320764 -0.72917765 -0.40281674 0.00068711099
-0.050137501 0.021724908 -0.0081161018 -0.53084302 -0.69858712 -0.4797726 0.0025313604
0.058753222 0.022049665 -0.0081926323 0.59030974 -0.62834489 -0.50667262 0.0021061713
0.060701706 0.023024334 -0.0069338484 0.60979873 -0.61975384 -0.49401486 0.0020604222
-0.057517365 0.026563162 -0.0065546213 -0.59830356 -0.65761811 -0.45778966 0.00092668686
-0.055460807 0.025454985 -0.0075352653 -0.57837552 -0.69266176 -0.43093097 0.00088125397
-0.053352613 0.024377892 -0.0084172348 -0.51850939 -0.66222167 -0.54093492 0.00068475149
0.06204129 0.024984132 -0.0076193218 0.62192154 -0.55749637 -0.54991949 0.0015904291
0.063627198 0.026701996 -0.0074131852 0.63142717 -0.4968425 -0.59535474 0.0014791441
-0.060489312 0.029471256 -0.0065594669 -0.64452982 -0.59967518 -0.47431111 0.0010108069
-0.058632817 0.028424554 -0.0076387059 -0.63041759 -0.63064897 -0.45260954 0.0010020996
-0.05662341 0.02733396 -0.00865498 -0.55356222 -0.59856296 -0.57904333 0.0011488134
0.064419843 0.028577359 -0.0081251143 0.62322205 -0.44862619 -0.64056909 0.0014490021
-0.063293137 0.032660574 -0.0064932867 -0.68585181 -0.53571343 -0.49256307 0.0011964958
-0.061467301 0.031405058 -0.0075084483 -0.66837686 -0.57860178 -0.46743166 0.0010637258
-0.05973535 0.030564342 -0.008746855 -0.59893894 -0.52064621 -0.6084404 0.0015808445
0.065322161 0.030597171 -0.0086479625 0.62965298 -0.37538078 -0.68016648 0.0029553557
-0.064187951 0.034692083 -0.0073379432 -0.70021617 -0.4849326 -0.52396339 0.0027645272
-0.062468328 0.033569463 -0.0084358361 -0.63557935 -0.51641589 -0.57389325 0.0032037422
-0.066687234 0.037923563 -0.0068816883 -0.71056122 -0.42842728 -0.55816919 0.0028320022
-0.065216087 0.037191972 -0.0081083998 -0.69696432 -0.38007724 -0.60809708 0.0028502436
-0.069150686 0.041705504 -0.0062187216 -0.73110986 -0.3478806 -0.58690488 0.0051899743
-0.067460455 0.040445372 -0.0075423545 -0.722372 -0.30396098 -0.62111723 0.0025904148
-0.065752201 0.039506398 -0.0089130457 -0.63288367 -0.2899254 -0.71791476 0.0022200702
0.04052351 0.040978078 -0.0077229063 -0.42264158 0.72908598 -0.53833789 0.0017362066
0.042384408 0.04135577 -0.008819717 -0.43184844 0.71793252 -0.54596692 0.0021099218
-0.069524072 0.043611351 -0.0066133081 -0.73943114 -0.23739289 -0.62998909 0.0030634149
-0.068015806 0.04320959 -0.008080502 -0.65245378 -0.17344265 -0.73771381 0.0019936874
0.044803511 0.044333026 -0.0064907558 -0.44481173 0.74944329 -0.49038479 0.00066822272
0.046427563 0.044480383 -0.0078173801 -0.43696377 0.7273013 -0.52924055 0.0018171816
-0.069886051 0.046530589 -0.0069619762 -0.69296789 -0.12299164 -0.71040028 0.005014014
-0.068284757 0.046440706 -0.0084056528 -0.5952794 -0.050385535 -0.80193752 0.0031366537
0.049769163 0.046273421 -0.007968857 -0.38627884 0.72097307 -0.57531422 0.0031465616
0.051478926 0.047198512 -0.0080263317 -0.40976426 0.69913965 -0.58591539 0.0042471928
-0.070161857 0.049472924 -0.0069973702 -0.62316388 -0.020408053 -0.78182501 0.0096534444
-0.067940302 0.049688447 -0.0084958896 -0.46809232 0.096840926 -0.87835723 0.006971729
0.052812677 0.048374791 -0.0076318234 -0.38476577 0.70209306 -0.59918326 0.0018764954
0.055239554 0.049389452 -0.0080154007 -0.35716286 0.69965035 -0.61880857 0.0028393243
0.05846253 0.050462529 -0.0084281843 -0.30834335 0.63277394 -0.71029681 0.0049099601
-0.070429273 0.052403864 -0.0067903292 -0.48694149 0.087585799 -0.86903203 0.0109071
-0.067574501 0.052494511 -0.008008535 -0.31093374 0.25016299 -0.91691804 0.0094311573
-0.064668454 0.052491993 -0.0085417731 -0.24155076 0.34007701 -0.90884584 0.0024214869
0.056296319 0.051465034 -0.0061924844 -0.36813909 0.70100546 -0.61079049 0.0030737636
0.058875341 0.052312147 -0.0068095466 -0.37814325 0.6786871 -0.62959629 0.0018084972
0.061208509 0.052554958 -0.0076113497 -0.2506794 0.59457463 -0.76396394 0.010824581
0.064095832 0.052472588 -0.0082295267 -0.15852419 0.54648954 -0.82232553 0.0054531782
0.066707075 0.052989732 -0.0078478539 -0.11489998 0.48777425 -0.86537522 0.0034199667
-0.070429452 0.055222623 -0.0064238766 -0.42336214 0.095176421 -0.90094721 0.0086994674
