# .PCD v0.7 - Point Cloud Data file format
VERSION 0.7
FIELDS x y z normal_x normal_y normal_z curvature
SIZE 4 4 4 4 4 4 4
TYPE F F F F F F F
COUNT 1 1 1 1 1 1 1
WIDTH 553
HEIGHT 1
VIEWPOINT 0 0 0 1 0 0 0
POINTS 553
DATA ascii
-0.025449842 0.015807981 -0.014640893 -0.15305261 -0.45885354 -0.87523037 0.002069385
0.037875164 0.015430555 -0.01462997 0.22807263 -0.53902036 -0.81082666 0.0029884535
0.040800113 0.016211156 -0.014200864 0.27543145 -0.54049015 -0.79498929 0.00087851379
0.043480773 0.016443783 -0.01330128 0.33935836 -0.57874745 -0.74154383 0.0023302746
0.046210337 0.017185884 -0.012616477 0.374138 -0.61082745 -0.69778979 0.0015890528
0.048026659 0.017736964 -0.012092927 0.41281459 -0.61057347 -0.67585814 0.0006848051
-0.042802293 0.020962751 -0.012341843 -0.38322857 -0.54246879 -0.74757183 0.00083438918
-0.04035249 0.020085664 -0.012886667 -0.36140487 -0.57373369 -0.73499405 0.00078904582
-0.0376014 0.019148448 -0.013376175 -0.31943825 -0.56122696 -0.76353347 0.00044420979
-0.034724709 0.019193323 -0.014385482 -0.21734717 -0.49574041 -0.8408339 0.0022942219
-0.032750219 0.01937292 -0.01499929 -0.22355756 -0.45969611 -0.85947746 0.0014745933
0.043831322 0.018748825 -0.014763472 0.29818454 -0.48006526 -0.82499897 0.0012192081
0.046538115 0.019234069 -0.013967269 0.3390803 -0.50352573 -0.79466116 0.00074915896
0.049354233 0.019689482 -0.012900841 0.40882209 -0.55336499 -0.72570777 0.0016168521
0.051445052 0.020495135 -0.012352003 0.44045746 -0.56599432 -0.69688427 0.0015222357
-0.045657314 0.023660706 -0.012782088 -0.40962246 -0.53542012 -0.73860323 0.00083933712
-0.043570712 0.022498338 -0.013033141 -0.38676473 -0.53721255 -0.74954367 0.0008165589
-0.041005936 0.022257684 -0.014001179 -0.35138515 -0.5225727 -0.7768181 0.0002665621
-0.038629256 0.02144096 -0.01445169 -0.32769212 -0.52165842 -0.78771216 0.00039736863
0.047767196 0.021551041 -0.014800979 0.32535231 -0.40582433 -0.85407996 0.0019674711
0.049697597 0.022121973 -0.014264584 0.35514387 -0.42061028 -0.83484125 0.0023279479
0.052464496 0.022439972 -0.013042041 0.43669087 -0.48955506 -0.75474298 0.0015936797
0.054487228 0.023070786 -0.012299404 0.47804761 -0.49625087 -0.7247107 0.0016288084
-0.049513053 0.026117705 -0.01244422 -0.43228558 -0.55958748 -0.70710045 0.00059630722
-0.046808667 0.025547126 -0.013395396 -0.41026551 -0.53173369 -0.74090582 0.00079403102
-0.043743066 0.024643812 -0.014224977 -0.36835915 -0.51351279 -0.77499431 0.00043118562
0.050811961 0.024156304 -0.014759149 0.35130966 -0.35726744 -0.86541408 0.0012591084
0.052978333 0.025144912 -0.01420649 0.39931899 -0.37256759 -0.83769792 0.00054228492
0.055547189 0.025332082 -0.012946762 0.44834036 -0.40793702 -0.79534799 0.0023120584
0.057612289 0.026428262 -0.012283192 0.50819343 -0.42695886 -0.74796098 0.001765015
-0.051851854 0.02767759 -0.012197607 -0.4709048 -0.55187094 -0.68824929 0.0012940759
-0.050107211 0.028055193 -0.013300319 -0.4457185 -0.53892004 -0.71477282 0.00088901795
0.055486929 0.028109904 -0.014151494 0.4354265 -0.33068657 -0.83728737 0.00094111625
0.058567613 0.028737441 -0.012736587 0.48173293 -0.33194199 -0.8110165 0.0018248892
-0.053658392 0.030066669 -0.012566071 -0.49242878 -0.52731752 -0.6924234 0.001044655
0.05513791 0.030033374 -0.014793469 0.42304879 -0.30727533 -0.85241508 0.00038577602
0.05828229 0.031049063 -0.013622222 0.48027202 -0.306447 -0.82184488 0.0010704986
0.060823604 0.031835534 -0.012440661 0.55748039 -0.27424845 -0.78358364 0.00087965146
-0.01508827 0.0057442784 -0.0090398351 -0.19103895 -0.79520404 -0.57546031 0.0012058263
-0.012979174 0.0056367884 -0.0094921235 -0.17387006 -0.74426317 -0.6448577 0.0014558919
-0.010431944 0.0053901575 -0.0097923269 -0.14211752 -0.74244684 -0.65465665 0.0013156631
-0.0075116972 0.0050420724 -0.0099364268 -0.11132293 -0.76901072 -0.62946784 0.00070022489
-0.004563414 0.004875992 -0.01014646 -0.079840817 -0.73102736 -0.67766094 0.00098256569
-0.00144939 0.0047751968 -0.010338044 -0.053744197 -0.72686112 -0.68467838 0.0010421806
0.0015548454 0.0046708388 -0.010406506 -0.033545826 -0.72931033 -0.68336004 0.00091044832
0.0045134751 0.0045809769 -0.010397578 -0.0036994109 -0.74768025 -0.66404855 0.0017174949
0.0074950499 0.0045588827 -0.010352479 0.018228982 -0.77214187 -0.6351887 0.00062824332
0.010482436 0.0046632704 -0.010351729 0.043595277 -0.74742293 -0.66291666 0.00090889045
0.013508179 0.0048354287 -0.01030064 0.067891456 -0.75868213 -0.64791363 0.00097303634
0.016504919 0.005015533 -0.010159166 0.099389143 -0.77322763 -0.62629128 0.0012393147
0.01945167 0.0052857343 -0.0099632824 0.13120864 -0.78398722 -0.60675234 0.0012199895
0.022358995 0.0055770651 -0.0096344063 0.16029979 -0.79198855 -0.58911639 0.0010819208
0.024706254 0.0058300984 -0.0092830909 0.19579323 -0.79585898 -0.57295156 0.0009564925
-0.024499061 0.0089238267 -0.0091254506 -0.28829044 -0.74145103 -0.60591996 0.0015238342
-0.022144429 0.0084780045 -0.0096326582 -0.26965711 -0.7265166 -0.63202733 0.0013393209
-0.019411243 0.0080440743 -0.010181008 -0.24533112 -0.72725636 -0.64102328 0.0017368678
-0.016609952 0.0075058197 -0.010494749 -0.19493657 -0.71023244 -0.67643881 0.0013906857
-0.013621249 0.0070380573 -0.010821296 -0.16321531 -0.71773309 -0.6769194 0.0013095747
-0.010544775 0.0068360744 -0.011288526 -0.12520282 -0.65413183 -0.74594629 0.0010964334
-0.0076628998 0.0064831353 -0.011404376 -0.10001206 -0.70278704 -0.70433515 0.0011980874
-0.0043275035 0.0062585077 -0.011618768 -0.074336238 -0.69655371 -0.71364349 0.0011301185
-0.0012454707 0.0062713944 -0.011871728 -0.052731141 -0.69641066 -0.71570361 0.0010817808
0.0017801011 0.006133263 -0.011929846 -0.034835164 -0.69810271 -0.71514964 0.0011774213
0.0044482406 0.006027367 -0.01192642 -0.011572778 -0.70168012 -0.71239817 0.0010344151
0.0079324553 0.0060661016 -0.011962907 0.0094283521 -0.70877558 -0.70537096 0.0010184023
0.010754071 0.0060680592 -0.011854406 0.030944893 -0.71803057 -0.69532329 0.0010459916
0.013819302 0.0062330449 -0.011812257 0.052766368 -0.72921669 -0.68224537 0.0010373265
0.016742012 0.006367093 -0.011688101 0.0800713 -0.68521482 -0.72392631 0.0014044562
0.019659048 0.0065066945 -0.011417966 0.11434367 -0.69817352 -0.70673847 0.0014952624
0.022627046 0.0067209974 -0.01105166 0.14556481 -0.76554352 -0.62670088 0.0013059948
0.025579164 0.0070609869 -0.010637929 0.17456704 -0.7730822 -0.6098116 0.0010183465
0.028446641 0.0076462934 -0.010429571 0.20507142 -0.78162116 -0.58907896 0.00075895793
0.031330585 0.0081501519 -0.010008035 0.25387254 -0.76942003 -0.58612418 0.0012257504
0.034124922 0.008683634 -0.0094538601 0.28799245 -0.77505851 -0.56244528 0.0010244634
-0.03084974 0.011706057 -0.0095036803 -0.31333247 -0.72931725 -0.60820973 0.0011674238
-0.028337833 0.01112009 -0.0099603822 -0.29230621 -0.71616673 -0.63376832 0.0014725276
-0.025411578 0.010405621 -0.010410894 -0.27561325 -0.72492933 -0.63128024 0.00095828256
-0.022561762 0.0099368952 -0.01102146 -0.24121867 -0.65270817 -0.71818209 0.001084715
-0.019848222 0.0095161935 -0.011543 -0.20546502 -0.65935874 -0.72320831 0.0021785079
0.029197248 0.0091038607 -0.011920698 0.19358714 -0.70274931 -0.6845929 0.00081215159
0.031793881 0.0094706351 -0.011447018 0.2315772 -0.69524801 -0.68044257 0.0011406455
0.034644831 0.0099366773 -0.010816246 0.27422753 -0.75370008 -0.59727335 0.0012715582
0.037468858 0.010701057 -0.010400662 0.29375067 -0.72673965 -0.6209349 0.00081550749
0.04040809 0.011454978 -0.0097472472 0.35470039 -0.74645722 -0.56301802 0.00092963257
-0.036853891 0.014502532 -0.0096096098 -0.37096769 -0.69944942 -0.61086291 0.00091612636
-0.034317628 0.013803761 -0.010158436 -0.3160603 -0.70227164 -0.63790315 0.0016689269
-0.031703159 0.01319578 -0.01073039 -0.2942521 -0.70749164 -0.64255059 0.0012464685
-0.028689144 0.012474282 -0.011277991 -0.26048386 -0.66345567 -0.70140904 0.00039797765
-0.026437536 0.012259315 -0.011897065 -0.24473363 -0.64138955 -0.7271347 0.0032479388
0.03854537 0.01221354 -0.011670045 0.29261017 -0.69342464 -0.65843874 0.0026305402
0.040712185 0.012763771 -0.011183245 0.33381674 -0.72861451 -0.59806961 0.0015341068
0.043481831 0.013472002 -0.010378012 0.36907309 -0.71342045 -0.59566468 0.0018519104
0.046064835 0.014370325 -0.0097618811 0.41639489 -0.70773822 -0.57072049 0.0009855926
-0.042752489 0.01762251 -0.0092929024 -0.45820791 -0.6588825 -0.59658974 0.0011882734
-0.04058009 0.01681984 -0.0098908721 -0.40831739 -0.6683473 -0.62176263 0.0015308829
-0.03770962 0.016104553 -0.010818378 -0.35785905 -0.64691675 -0.6733762 0.0011878717
-0.034948844 0.015527807 -0.011650487 -0.29774374 -0.66558444 -0.68435812 0.0011149265
0.044745605 0.015410776 -0.011798974 0.34909561 -0.65601504 -0.66916096 0.0032486001
0.046898019 0.015891423 -0.010964878 0.39997792 -0.68669081 -0.60702002 0.0013939221
0.049372602 0.016746061 -0.010162359 0.43900549 -0.67389625 -0.59425414 0.0017233565
0.051459193 0.017634224 -0.0095698414 0.48129401 -0.6616649 -0.57493973 0.0013427687
-0.04630233 0.020306904 -0.0094959158 -0.48283064 -0.65919584 -0.57648551 0.00054723537
-0.043770824 0.019422295 -0.010410623 -0.4465937 -0.62133956 -0.64380997 0.0013407926
-0.040963687 0.018493993 -0.011337843 -0.37742758 -0.61466819 -0.69262654 0.0019041003
0.050239298 0.01856837 -0.011459099 0.43568689 -0.61692291 -0.65542579 0.00025022143
0.052547853 0.019355595 -0.010536581 0.46735281 -0.62390053 -0.62636214 0.0023789764
0.054764692 0.020378187 -0.0098211309 0.51869899 -0.60965151 -0.59939665 0.0010419125
-0.051474698 0.023940787 -0.0092458446 -0.49307337 -0.61712837 -0.61321378 0.0012393269
-0.048888467 0.022760432 -0.0099940142 -0.476327 -0.62031436 -0.62315542 0.0018464832
-0.046462242 0.022080764 -0.011090787 -0.42882931 -0.5686661 -0.70194316 0.00061541446
-0.044755381 0.021538146 -0.01175014 -0.41084364 -0.55050945 -0.72673714 0.0016331278
0.05353808 0.021342047 -0.01164173 0.48627222 -0.58224148 -0.65156293 0.00091668358
0.055719633 0.022139857 -0.010664995 0.50461304 -0.56414241 -0.65353584 0.0025452659
0.05788542 0.023129366 -0.0097610243 0.56520295 -0.55797416 -0.60762686 0.0015422932
-0.052452993 0.025786441 -0.010248093 -0.49312782 -0.60813498 -0.6220907 0.0012751995
-0.049613088 0.024720648 -0.01130372 -0.44364163 -0.57796049 -0.6849407 0.0018026078
0.056547429 0.024136335 -0.011633595 0.47722608 -0.49513575 -0.72601378 0.0015480496
0.058760051 0.025283581 -0.010711462 0.55903983 -0.46124646 -0.68900377 0.0015324201
0.060789347 0.026103409 -0.009588208 0.5908159 -0.50251448 -0.63120174 0.0013744984
-0.055408575 0.028495282 -0.010314865 -0.52616292 -0.55840456 -0.64135551 0.0010779218
-0.053428955 0.027560219 -0.011082795 -0.48537478 -0.55139816 -0.67850673 0.0013524165
0.059415586 0.027873565 -0.011824847 0.51872152 -0.35967579 -0.77560377 0.0015388252
0.061476927 0.028452259 -0.01050328 0.57410735 -0.38338995 -0.72347277 0.00077020924
0.063563943 0.029626634 -0.009334648 0.64817661 -0.42116666 -0.63441759 0.0010803228
-0.060381297 0.032594439 -0.0092876377 -0.62700808 -0.56755549 -0.53361189 0.0027656888
-0.058576398 0.031153865 -0.0097956676 -0.56102157 -0.52559769 -0.63953251 0.0011673908
-0.056494024 0.030482259 -0.010971664 -0.54235762 -0.52769071 -0.65375125 0.00086041976
0.062335074 0.031253342 -0.011183915 0.57166922 -0.30808169 -0.7604472 0.0012768996
0.063931629 0.031689037 -0.01006872 0.64198995 -0.34651104 -0.68394369 0.0018403574
0.065165982 0.033859599 -0.0098535176 0.6619947 -0.28420013 -0.69353676 0.0015291175
0.06636323 0.035251446 -0.0092264973 0.68515891 -0.25030231 -0.68403655 0.0019308656
0.064151667 0.036540009 -0.011348955 0.63243961 -0.21789262 -0.74333239 0.0013910298
0.066827394 0.036165655 -0.0090221334 0.71346903 -0.25390089 -0.65306681 0.0030983018
-0.0096413018 0.0028416789 -0.006330885 -0.16465627 -0.85725766 -0.48785001 0.0013164652
-0.0073822592 0.0026300498 -0.0065959808 -0.11884303 -0.85977155 -0.49665809 0.0016266628
-0.0044092266 0.002468999 -0.0068875956 -0.082308531 -0.86116904 -0.50161052 0.0016487818
-0.0013478358 0.0023206167 -0.0070363469 -0.054081883 -0.86221021 -0.50365531 0.001747345
0.001560914 0.002246995 -0.0071428586 -0.027015971 -0.86436528 -0.5021382 0.0017661804
0.0045255381 0.0022381232 -0.0072023752 0.0015563589 -0.86825401 -0.49611747 0.001707547
0.0074937167 0.0022596079 -0.0071541672 0.029698452 -0.87192357 -0.48874047 0.0016324199
0.010435573 0.0023520845 -0.0070472872 0.05761705 -0.8748107 -0.4810265 0.001601211
0.013430909 0.0025367644 -0.0069153253 0.087459467 -0.87730789 -0.4718917 0.0016375287
0.016362932 0.0027117175 -0.0066079586 0.11861066 -0.87951982 -0.46084306 0.0015885235
0.018622238 0.002836053 -0.0062248223 0.16089855 -0.88182801 -0.44327298 0.0013625774
-0.021028908 0.0056522917 -0.0060236533 -0.30793804 -0.8260445 -0.4720431 0.0013874532
-0.019348908 0.0055678822 -0.0069005298 -0.27448279 -0.82767403 -0.48950475 0.0018654236
-0.016452197 0.0049895518 -0.0073745302 -0.21760376 -0.81941205 -0.53029484 0.0015336208
-0.013539544 0.0043342528 -0.0074975709 -0.19125314 -0.82936502 -0.52495319 0.0024042462
-0.010653948 0.0038304657 -0.0076328409 -0.1574454 -0.83292985 -0.5305081 0.0011510237
-0.0075692823 0.0036099278 -0.0080768354 -0.11476939 -0.82910675 -0.54718369 0.0014507135
-0.0045695365 0.0034507385 -0.0083728284 -0.080863819 -0.78906024 -0.60897052 0.00067878084
-0.001610739 0.00333519 -0.0085679032 -0.053615395 -0.78426468 -0.61810541 0.00079570821
0.001506796 0.003214115 -0.0086304611 -0.02924381 -0.78637153 -0.61706132 0.00075889484
0.0044591087 0.0032457716 -0.0087595778 -0.0042052679 -0.79070282 -0.61218572 0.00073802285
0.0073805773 0.0032114803 -0.0086682132 0.025084222 -0.79564649 -0.60524172 0.00075392652
0.01054085 0.0032706808 -0.0085486909 0.052259393 -0.80241847 -0.59446913 0.00077294541
0.013576972 0.0033925835 -0.0083723664 0.078554921 -0.84981108 -0.52120078 0.0016126941
0.016558466 0.0035495732 -0.0080868471 0.10875934 -0.85365772 -0.50935251 0.0015600483
0.019590901 0.0037391135 -0.0075978399 0.15166248 -0.85850829 -0.48985916 0.0012233234
0.022493044 0.004229716 -0.0074926792 0.18386701 -0.87028527 -0.45694256 0.0012983893
0.025476819 0.0048820726 -0.007454881 0.19599295 -0.856978 -0.47662926 0.0012127277
0.028252259 0.0054363138 -0.0071368744 0.22445904 -0.86211115 -0.45429349 0.0014382808
0.030640528 0.0057553202 -0.0063486397 0.29404914 -0.86009383 -0.4168618 0.0015345354
-0.027904904 0.0086236345 -0.0066515477 -0.33175883 -0.81978929 -0.46677783 0.0013364245
-0.0254534 0.0080285491 -0.0072508575 -0.29825306 -0.80620277 -0.51096213 0.0013343235
-0.022588339 0.0071098893 -0.007511707 -0.2876969 -0.81002402 -0.51097119 0.0015142381
-0.019581156 0.0065172762 -0.0082651321 -0.25488776 -0.80328131 -0.53830415 0.0020466808
-0.017269408 0.0061140875 -0.0087016067 -0.21550979 -0.76771396 -0.60346574 0.00066259969
0.02689389 0.0060798572 -0.0088750897 0.22663942 -0.80305028 -0.55113047 0.00096772733
0.029171133 0.0063600843 -0.0083499867 0.24304646 -0.82328707 -0.51295882 0.00082183914
0.03167849 0.0067500584 -0.0076501477 0.29167625 -0.84935504 -0.43991035 0.0010030904
0.034527734 0.0076487334 -0.0074871415 0.30979139 -0.83281052 -0.45875469 0.0014886559
0.037178043 0.008442495 -0.0070798928 0.33409473 -0.83823842 -0.43097234 0.001472846
0.039264977 0.0088259839 -0.0061329296 0.37843806 -0.83278364 -0.40404949 0.00093032641
-0.034312196 0.011468921 -0.0069634309 -0.36346433 -0.80100012 -0.47570208 0.0011897162
-0.031468268 0.010566713 -0.007458766 -0.33579069 -0.81805378 -0.46693945 0.0012234646
-0.028773002 0.0096791498 -0.0078021707 -0.32148728 -0.80322623 -0.5014714 0.0017175181
-0.026535651 0.0093811471 -0.0086666783 -0.30486315 -0.74394917 -0.59464121 0.00086848717
0.038097177 0.0094699543 -0.00828801 0.32335252 -0.81921029 -0.47364289 0.0013982472
0.040504854 0.010099587 -0.0075187446 0.37463051 -0.81708449 -0.43820643 0.0015834178
0.043244388 0.01119541 -0.007147206 0.40128997 -0.80669022 -0.43384025 0.0014270868
0.045247834 0.011776781 -0.0063285436 0.41922662 -0.79692 -0.43493405 0.0015768436
-0.040082984 0.014493871 -0.0072105112 -0.4220449 -0.76284903 -0.4898361 0.0019342258
-0.037459172 0.013184056 -0.0073438869 -0.38994622 -0.7905798 -0.47214988 0.0011910815
-0.03483754 0.012606482 -0.0083690118 -0.34760755 -0.76800293 -0.53790385 0.0024163336
0.044213515 0.012372846 -0.0083722901 0.38588724 -0.7896769 -0.47697094 0.0014967836
0.046601929 0.013178017 -0.0075151622 0.44111842 -0.78343374 -0.43777406 0.0015318971
0.049065456 0.014380772 -0.0071022306 0.47693351 -0.76595086 -0.43110749 0.0011415409
-0.04561517 0.017707849 -0.0067058336 -0.49657226 -0.72019154 -0.48449981 0.0013702537
-0.043398712 0.016609829 -0.0073292977 -0.48304614 -0.74549639 -0.45924017 0.0010665305
-0.041040782 0.015513288 -0.0079484042 -0.43674213 -0.75472915 -0.48953062 0.002105084
0.050121389 0.015548442 -0.0079501113 0.47547671 -0.7541821 -0.4529143 0.0018120161
0.052384026 0.016716145 -0.0073879594 0.49979144 -0.73403955 -0.45977649 0.0021929578
0.054368317 0.017568767 -0.0064987238 0.53182626 -0.71865648 -0.44798845 0.0012137493
-0.049084585 0.020497425 -0.0070417947 -0.53848249 -0.70233923 -0.46557093 0.0012854368
-0.046609379 0.019028535 -0.0075634518 -0.50898165 -0.71436614 -0.48022768 0.0015356996
0.053601973 0.018281311 -0.008451771 0.49435312 -0.66483825 -0.56000453 0.00095155678
0.055629108 0.019278979 -0.0076141916 0.5659588 -0.67258453 -0.47678158 0.0020879137
0.05766676 0.020364145 -0.0067799808 0.58167768 -0.66786265 -0.46433884 0.0014674069
-0.052190293 0.022945764 -0.0071981903 -0.55366749 -0.69508177 -0.45859945 0.0016755544
-0.049915548 0.02184516 -0.0080572469 -0.51485741 -0.6899823 -0.50876939 0.0024292127
0.058805205 0.022113336 -0.0077266074 0.59017384 -0.63617629 -0.49696532 0.001620113
0.060694773 0.023278521 -0.0068789921 0.62185538 -0.61810994 -0.48087004 0.0018098934
-0.057253476 0.026481854 -0.0063790362 -0.56411803 -0.66841537 -0.48475945 0.0022934135
-0.05518036 0.025394276 -0.0073153465 -0.56297928 -0.66360146 -0.49263307 0.0024480894
-0.053145479 0.02461208 -0.0084506534 -0.51700127 -0.65733594 -0.54828745 0.0022113447
0.061759267 0.025178086 -0.0076942029 0.63442302 -0.57455027 -0.51710665 0.00221766
0.063449226 0.026323536 -0.0067900382 0.67881364 -0.56100434 -0.47379971 0.0015319847
-0.060264993 0.029502973 -0.0064715077 -0.63181186 -0.57796526 -0.51649779 0.0011967237
-0.058368269 0.028421475 -0.0074892882 -0.59556556 -0.60806072 -0.52494168 0.0019438737
-0.056749512 0.027360946 -0.0080705015 -0.57326126 -0.60652304 -0.55090958 0.0027533243
0.062691234 0.027202949 -0.0085443705 0.67727637 -0.50462884 -0.53539389 0.0024020791
0.064505152 0.028411468 -0.0073614693 0.71570176 -0.48549509 -0.50206137 0.0013989945
0.066062354 0.029893033 -0.0066455021 0.7197625 -0.43766293 -0.53888148 0.0022684357
-0.061115589 0.031376231 -0.00742822 -0.65011418 -0.56889951 -0.5036912 0.0015448002
0.065400757 0.031131145 -0.0083063217 0.6809299 -0.35132992 -0.64257431 0.00083136727
0.066817082 0.031692773 -0.0068955179 0.75687408 -0.37947971 -0.53210598 0.0026055942
-0.062297821 0.033403702 -0.0079855863 -0.66063488 -0.55202127 -0.50875735 0.00125556
0.067666814 0.034284893 -0.0073274737 0.75841653 -0.29870281 -0.57929355 0.00094134797
-0.065381296 0.03613212 -0.0066218697 -0.73787928 -0.54995483 -0.39125931 0.0020560364
0.0679776 0.037134331 -0.0081002312 0.76685578 -0.24080205 -0.59493411 0.001410319
0.069335699 0.037562169 -0.0065663494 0.80040801 -0.2238429 -0.55609483 0.0013707228
0.06793943 0.039474364 -0.0086483369 0.78750336 -0.19198951 -0.58564365 0.0011490734
0.069726691 0.040077351 -0.0067111584 0.81988668 -0.17354694 -0.54558897 0.0023035815
0.070317589 0.042132404 -0.0062555694 0.85974342 -0.11701804 -0.49713981 0.0034273327
-0.01555158 0.0028732123 -0.0033683081 -0.261522 -0.93559974 -0.23719046 0.0011503117
-0.01330735 0.0025981318 -0.0040972973 -0.19876719 -0.92500699 -0.32381135 0.0021686405
-0.010509006 0.0021639362 -0.0044412496 -0.16268018 -0.93003178 -0.32950881 0.0018269441
-0.0074939798 0.0017071057 -0.0045103794 -0.12251553 -0.93119985 -0.34330267 0.0022983507
-0.0044757016 0.0013546739 -0.0044975225 -0.085772939 -0.93068635 -0.35562062 0.0024097441
-0.001482582 0.0011160692 -0.004474814 -0.054443493 -0.93075621 -0.36156428 0.0025468459
0.0015045527 0.0009975367 -0.0045073102 -0.023837857 -0.93177694 -0.36224782 0.0025079558
0.0044869888 0.00096628972 -0.0045152102 0.0060598305 -0.93279743 -0.36035001 0.0026530826
0.0074803196 0.0010215222 -0.0044612479 0.036158793 -0.93469799 -0.35359895 0.0024463895
0.010531825 0.0011897386 -0.0044439998 0.06790603 -0.93695068 -0.34280053 0.0022838914
0.013469664 0.0014949155 -0.004528319 0.097732879 -0.93887711 -0.33008805 0.0020739958
0.01647957 0.0018307393 -0.0044310316 0.12596905 -0.94180501 -0.31166515 0.0019183861
0.019485723 0.0023227031 -0.004465553 0.15955046 -0.94301271 -0.29201135 0.0014996446
0.022255823 0.0026948168 -0.0039695981 0.19155908 -0.94000572 -0.28230178 0.0017302876
0.024300123 0.0029909248 -0.0034023437 0.21615367 -0.92859328 -0.30164886 0.002048223
-0.024389928 0.0058983527 -0.003633084 -0.35070056 -0.87607241 -0.33091742 0.0024987117
-0.022255346 0.0053559812 -0.0042872038 -0.32362607 -0.88632357 -0.33120474 0.0023173783
-0.019434756 0.0044350163 -0.00444867 -0.29416597 -0.89650434 -0.33127984 0.001589969
-0.016566405 0.003623958 -0.0046352516 -0.252361 -0.89632481 -0.36457607 0.0019629544
-0.013873851 0.0032431218 -0.0053951675 -0.20217854 -0.89974159 -0.38676721 0.0019667461
0.022872219 0.0032649999 -0.0052898163 0.19428584 -0.92043394 -0.33919659 0.0016023347
0.025533125 0.0036283426 -0.0045150672 0.25695777 -0.92153609 -0.29110825 0.001294015
0.028523296 0.0044256519 -0.0045025339 0.26172963 -0.91486937 -0.30742744 0.0017423739
0.031452388 0.0052870768 -0.0044124755 0.28822574 -0.91400188 -0.28552851 0.0018309668
0.033681482 0.0057905493 -0.0036245759 0.31726253 -0.90735435 -0.27577618 0.0014540469
-0.030742606 0.0085807908 -0.0039268131 -0.36408246 -0.87956154 -0.30629313 0.0020040094
-0.028576417 0.0079218987 -0.0045131855 -0.34489924 -0.87817746 -0.33143455 0.00184044
-0.025690664 0.0067863101 -0.0045718965 -0.36686262 -0.8759746 -0.31317794 0.0014624737
-0.023337185 0.006160473 -0.0052835308 -0.32760549 -0.88104081 -0.34123558 0.0023804805
0.032604724 0.0061592059 -0.0058595459 0.28472251 -0.8812632 -0.37723771 0.00054054015
0.034671973 0.0064970735 -0.0047362573 0.32658023 -0.89365166 -0.30778554 0.0016356793
0.037532315 0.0075152754 -0.0044770455 0.35051185 -0.89421546 -0.27842426 0.0011748732
0.040102668 0.0085252794 -0.0042620269 0.38080612 -0.88482183 -0.26847148 0.0014997957
-0.036925759 0.011416973 -0.0042453115 -0.40120924 -0.85599124 -0.32605231 0.0025641893
-0.034448776 0.01039061 -0.0045145387 -0.37353784 -0.87275535 -0.31427303 0.0017094408
-0.03189319 0.0093913442 -0.0047963243 -0.39174992 -0.86679131 -0.30855274 0.0019684604
0.041366227 0.009335761 -0.0050013424 0.41662157 -0.86687779 -0.27376878 0.0013378095
0.043549933 0.010212636 -0.0044916454 0.42239019 -0.86440229 -0.27275464 0.0013950921
0.046046376 0.011418301 -0.0042639468 0.45224297 -0.84983909 -0.27064702 0.0014831123
-0.042652756 0.014463891 -0.0041525932 -0.48825881 -0.80812699 -0.32944515 0.0017668405
-0.040493086 0.013381993 -0.0045566671 -0.46814924 -0.82292378 -0.32192048 0.0021800271
-0.038387608 0.012249643 -0.0045983582 -0.43510121 -0.84394062 -0.31376928 0.0017378465
0.04731711 0.012350922 -0.0049313204 0.48421672 -0.83116162 -0.27332127 0.0012926128
0.049489751 0.013471756 -0.004525309 0.50023323 -0.81832689 -0.28303331 0.0017287715
0.051615357 0.01456566 -0.0039370754 0.50809437 -0.80717897 -0.30050325 0.0015567895
-0.046182975 0.01692309 -0.0043199663 -0.54422897 -0.77749515 -0.31514457 0.0017995465
-0.044052634 0.015666071 -0.0048092133 -0.52998251 -0.79083723 -0.30609632 0.0011927998
0.052866776 0.01568806 -0.0047118152 0.53055733 -0.79255033 -0.30062103 0.0016781904
0.055169288 0.017135756 -0.0042900601 0.56523663 -0.77142835 -0.2922428 0.0019553641
-0.051508021 0.020732826 -0.0039856825 -0.55265301 -0.76491374 -0.33088002 0.0018694778
-0.04947672 0.019485507 -0.0045941984 -0.57811147 -0.74647391 -0.32949007 0.0020727399
-0.047445096 0.018217672 -0.0051911008 -0.57315236 -0.75858384 -0.30991435 0.0014594587
0.056534622 0.018389283 -0.0048743323 0.58792794 -0.75523007 -0.28977281 0.0017248937
0.058401786 0.019739691 -0.0044591478 0.62109154 -0.71595424 -0.31883347 0.0020402819
0.060075376 0.020789774 -0.0035944285 0.64385009 -0.70424861 -0.29915038 0.0017263283
-0.054770999 0.023194816 -0.0039562616 -0.5857113 -0.7446751 -0.32000211 0.0014826603
-0.052843735 0.022139948 -0.0048829075 -0.55778378 -0.74728632 -0.36116529 0.0023292496
0.059675451 0.021264339 -0.0053877765 0.63790125 -0.68982762 -0.34237376 0.0017620757
0.061500512 0.022573043 -0.0044354093 0.68235719 -0.67250812 -0.28656843 0.0014711702
0.063165508 0.023852026 -0.0035279659 0.70338994 -0.63833827 -0.31267685 0.0017862159
-0.058052752 0.025971137 -0.0041589406 -0.64354008 -0.69754827 -0.3150914 0.0020458298
-0.056085236 0.024483237 -0.0045575663 -0.61438239 -0.71399134 -0.33578351 0.0023655202
0.062645465 0.024286203 -0.0054048845 0.70207226 -0.59922862 -0.38473317 0.0036023911
0.064237311 0.025594721 -0.0044299481 0.74888098 -0.57773036 -0.32466125 0.0023502437
-0.061324716 0.029150095 -0.0041192435 -0.68092334 -0.65082443 -0.33581388 0.0024160659
-0.059449889 0.027668547 -0.0049551306 -0.64065653 -0.68321848 -0.3503879 0.0026130537
0.065544203 0.027603209 -0.0048777703 0.76163876 -0.55225104 -0.33900607 0.0017783531
0.06669268 0.028881703 -0.0043461975 0.78701693 -0.50825399 -0.3496888 0.0022300808
-0.063860722 0.031963419 -0.003974224 -0.70939046 -0.58757627 -0.38925487 0.0019918093
-0.062643118 0.031601928 -0.0056510288 -0.69410527 -0.56117946 -0.45088306 0.0020007626
0.068004027 0.03133079 -0.00459021 0.82259011 -0.41669798 -0.38692153 0.0025950591
0.069157414 0.032518391 -0.0034353826 0.83488256 -0.40348208 -0.37439731 0.0029613655
-0.06669677 0.035549741 -0.003858974 -0.78108102 -0.55833894 -0.27958897 0.0047625764
-0.065515406 0.03500488 -0.0052949423 -0.74069011 -0.55079633 -0.38470966 0.0024718207
0.06881243 0.033696216 -0.0052557285 0.84699041 -0.34965679 -0.40043423 0.0029731048
0.069709301 0.034694619 -0.0042550089 0.86480749 -0.32918379 -0.37913856 0.0028075692
-0.067727707 0.036613625 -0.0031817958 -0.78597194 -0.55178702 -0.27888918 0.0049534179
0.070567347 0.037377838 -0.0043983036 0.86373615 -0.25679362 -0.43360916 0.0029003595
0.071239956 0.040405083 -0.0043582967 0.90134531 -0.16224506 -0.40156347 0.0023657375
0.071661621 0.043000132 -0.0041540726 0.9117046 -0.10624076 -0.39687222 0.0020133588
0.071964785 0.045426857 -0.0038173096 0.95578372 -0.077461839 -0.28368497 0.005132122
0.072307505 0.047042903 -0.0031828885 0.96590483 -0.067234784 -0.25001451 0.0058980524
0.073402166 0.070475496 -0.0035344101 0.86442989 -0.27944136 -0.41793945 0.024412831
0.074206151 0.072881319 -0.0038473946 0.88880521 -0.23094805 -0.39583871 0.023613993
0.075283438 0.072885454 -0.0031579013 0.88876617 -0.23107088 -0.39585471 0.023635577
-0.016234199 0.0026484805 -0.0013145595 -0.23805377 -0.95869225 -0.15569013 0.0014554554
-0.013495839 0.0020016991 -0.0014872506 -0.21238932 -0.96112275 -0.17644817 0.0018406254
-0.010479326 0.0013888347 -0.0014742257 -0.16030891 -0.96971583 -0.18426123 0.003049948
-0.0075025638 0.00091500772 -0.0014756788 -0.12966748 -0.97353113 -0.18821119 0.0036931431
-0.0044923197 0.00056857313 -0.0014800481 -0.092206113 -0.9764396 -0.19509934 0.0046292222
-0.0014755116 0.00034967472 -0.0015354693 -0.056023132 -0.97867393 -0.19763257 0.0051716375
0.0014985669 0.00021910966 -0.0014611941 -0.023283817 -0.99732232 -0.069325626 0.0069696791
0.0045063379 0.00021078848 -0.0015407947 0.0065038456 -0.99070054 -0.13590491 0.001712678
0.0075072125 0.00028142394 -0.0014468716 0.043464649 -0.99743944 -0.056792632 0.0075425939
0.010479565 0.00047853793 -0.0015115457 0.078364648 -0.97998661 -0.18298978 0.0049177133
0.013502675 0.00076580484 -0.0014803433 0.11070514 -0.97831106 -0.17507625 0.0044862358
0.016482968 0.0011501962 -0.0014790344 0.14151168 -0.97661984 -0.16182774 0.0036690754
0.019500341 0.0016442373 -0.0014805138 0.16544935 -0.97544271 -0.14538938 0.0028902113
0.02250961 0.0022393984 -0.0014672074 0.20006107 -0.97058862 -0.13391517 0.0021687301
0.024971409 0.0027845278 -0.0013097852 0.22488278 -0.96948904 -0.097564556 0.0018653563
-0.025009055 0.0056566107 -0.0013905574 -0.35148108 -0.91805255 -0.18341358 0.00090255658
-0.022481304 0.004717641 -0.0014885415 -0.32131794 -0.92619312 -0.19728421 0.0008817201
-0.019502198 0.0036672489 -0.0014670781 -0.32121491 -0.93162984 -0.16996138 0.00063637318
-0.017582901 0.0031538764 -0.0020651929 -0.28697714 -0.94248188 -0.17138223 0.0013884809
0.026253089 0.0031688868 -0.0018424366 0.27209696 -0.95626658 -0.10731921 0.001843894
0.028490111 0.003745513 -0.0015080328 0.28203753 -0.95272076 -0.11303956 0.0017588969
0.031498384 0.0046573183 -0.0014734088 0.2926234 -0.95061606 -0.10344464 0.0012504254
0.03420369 0.0055619203 -0.0013402156 0.31879827 -0.94215554 -0.10349198 0.001854416
-0.033172466 0.0088843917 -0.00071174174 -0.40319023 -0.88635308 -0.22763138 0.0016748607
-0.031412169 0.0082579413 -0.0014485833 -0.3657454 -0.90514541 -0.21666124 0.00037241622
-0.028544314 0.0070982561 -0.0015457062 -0.35517296 -0.91238946 -0.20346396 0.00068027363
-0.026453912 0.0062640891 -0.0016059402 -0.37294739 -0.90742356 -0.1936305 0.00074932061
0.03561138 0.0061652586 -0.0020960167 0.36498225 -0.92487639 -0.10673102 0.001800803
0.037468459 0.0068178242 -0.0014833154 0.37697384 -0.9195087 -0.11133043 0.0017000724
0.040525343 0.0081087975 -0.001473904 0.38562119 -0.91480953 -0.1200824 0.0016044382
0.042337604 0.0088729756 -0.0011612592 0.41649038 -0.90412962 -0.095318027 0.0033603627
-0.039374035 0.011806592 -0.0007947702 -0.44024566 -0.86264026 -0.24906914 0.0029822863
-0.0375298 0.010997865 -0.0014869041 -0.40196487 -0.88771659 -0.22446258 0.0011728468
-0.034611739 0.0096454918 -0.0015249238 -0.40516582 -0.88637328 -0.22401582 0.0013888706
-0.032697473 0.009011317 -0.0026338194 -0.39395273 -0.89370281 -0.21470098 0.0010697988
0.043738533 0.0096314726 -0.0016235247 0.44882038 -0.88517296 -0.12259305 0.0017946358
0.04649929 0.011030739 -0.0014648715 0.45326489 -0.88307166 -0.12138971 0.001614475
0.048240896 0.011914335 -0.0010226663 0.48279366 -0.86704338 -0.12306935 0.0019385852
-0.043256056 0.014171036 -0.0015747834 -0.51779693 -0.83448499 -0.18847038 0.0017939907
-0.040755305 0.012692205 -0.001537259 -0.47989678 -0.84766489 -0.22619301 0.0016057385
0.049639631 0.012814009 -0.0015281743 0.51371217 -0.8492431 -0.12200783 0.0019048301
0.052043404 0.014270281 -0.0013840508 0.52574998 -0.84361738 -0.1090717 0.0018478008
-0.048287988 0.017607344 -0.0012788087 -0.5847609 -0.7801975 -0.2221408 0.00166224
-0.046502642 0.016359871 -0.0015601555 -0.55927038 -0.80458486 -0.19964972 0.0010445333
-0.044810534 0.01523256 -0.00174172 -0.5561257 -0.80788207 -0.19506566 0.0010073959
0.053491887 0.015268266 -0.0016891457 0.5649361 -0.8177399 -0.11022125 0.0016952916
0.055495791 0.016633652 -0.0015121259 0.58166122 -0.804479 -0.12034851 0.0019594289
0.0572333 0.017778654 -0.00068567984 0.60053205 -0.78848124 -0.13288587 0.0021481896
-0.051862855 0.020333217 -0.0015083519 -0.5830133 -0.78774971 -0.19886135 0.001354914
-0.049857419 0.018828653 -0.0015620966 -0.58387661 -0.78034431 -0.22394399 0.0013812721
0.058612458 0.019032983 -0.0015765717 0.62986541 -0.7656799 -0.13039914 0.0020788775
0.060441811 0.020530364 -0.0012842511 0.66208893 -0.7399354 -0.1188859 0.0023461906
-0.055415932 0.022997443 -0.0014161972 -0.59546626 -0.7795372 -0.19427232 0.000747193
-0.053345956 0.021481991 -0.0017431716 -0.60235685 -0.77270693 -0.20022567 0.00080829649
0.061925929 0.021997973 -0.0016082355 0.69959646 -0.70597661 -0.11028076 0.0017542077
0.063450411 0.023488672 -0.0012159143 0.73366445 -0.66805822 -0.12423591 0.0025529785
-0.060206626 0.026926205 -0.00080122729 -0.68917906 -0.70238185 -0.17802241 0.001812743
-0.058506928 0.025530851 -0.0014616331 -0.64715403 -0.74202847 -0.17488666 0.00084576313
-0.056920212 0.024138229 -0.0014330174 -0.62317902 -0.75490123 -0.20438237 0.001061246
0.064884178 0.025195763 -0.0015541455 0.77080381 -0.62102324 -0.14209759 0.0029854705
0.066186711 0.026757959 -0.0011544249 0.79628807 -0.58574855 -0.15107609 0.0029242984
-0.061501972 0.028378464 -0.0013862196 -0.71854424 -0.68022686 -0.14486369 0.00076292944
-0.059964787 0.027031913 -0.002392089 -0.67323571 -0.71399581 -0.19225918 0.0012570198
0.067341343 0.028501768 -0.0015364578 0.8232249 -0.55023783 -0.13978218 0.00271898
-0.064215623 0.031348996 -0.0011955721 -0.74478942 -0.65111208 -0.1460883 0.00092776946
-0.062994823 0.030324824 -0.0027211662 -0.74419492 -0.63935328 -0.19339435 0.0022428834
0.068634622 0.030630417 -0.0015968318 0.85420406 -0.50079024 -0.13980174 0.002934261
0.06943769 0.031961653 -0.0012448254 0.88958389 -0.43354639 -0.14379847 0.0035993371
-0.066812821 0.03457411 -0.0010482488 -0.78233272 -0.59985369 -0.16772331 0.0028812932
-0.065625176 0.03348539 -0.0025187302 -0.78395712 -0.59600562 -0.17374843 0.0025328423
0.07052739 0.034492895 -0.0014722229 0.91850662 -0.35673115 -0.17055333 0.0038504875
-0.069145784 0.038489908 -0.0026544582 -0.8094362 -0.56393427 -0.16368011 0.0041477075
-0.068493932 0.03706779 -0.0016057914 -0.81808007 -0.5653016 -0.1057317 0.0016282158
0.071547046 0.037440635 -0.0015476111 0.93656617 -0.27587286 -0.21618988 0.0033220667
0.072111487 0.038778417 -0.00026896503 0.99260002 -0.10089671 -0.067565598 0.0093095526
-0.070088826 0.039288804 -0.00074347283 -0.81972748 -0.57264662 -0.011073817 0.0035000334
0.071890801 0.039933469 -0.0025790541 0.96088785 -0.17168263 -0.21730083 0.0045197322
0.072300218 0.04043087 -0.0010229696 0.98017198 -0.11227544 -0.16327016 0.004148914
0.072577044 0.043148674 -0.0015027288 0.97846299 -0.10688037 -0.17659789 0.0035757511
0.072845288 0.046135526 -0.001325842 0.99399006 -0.082462862 -0.071996741 0.0080300374
0.072872519 0.049430262 -0.0013289016 0.99750441 -0.061349556 -0.034945406 0.0052521084
0.072922483 0.052611846 -0.0013026088 0.99623066 -0.055509754 0.066657282 0.0055325809
0.073054619 0.055249453 -0.0011696485 0.98900282 -0.036588516 0.14329949 0.0043693949
0.073274434 0.058816899 -0.0010622665 0.97944051 -0.043455932 0.19699703 0.0053894315
0.073608875 0.061922178 -0.00093439524 0.95149511 -0.072784856 0.29893032 0.017680291
0.073769741 0.064555526 -0.0015617897 0.93119174 -0.23071377 0.2822288 0.034299638
0.074352205 0.067167416 -0.0015766617 0.9333787 -0.2391452 -0.26760739 0.022919895
0.075171679 0.068384908 -0.00071766297 0.96401286 -0.18492964 -0.19099829 0.034801077
0.074712619 0.070194684 -0.0024706675 0.86443061 -0.2794413 -0.41793814 0.024413582
0.075741477 0.070712313 -0.0010942419 0.87786114 -0.28250524 -0.38671783 0.023869228
0.076438963 0.072861761 -0.0015485769 0.93348396 -0.25169206 -0.25545797 0.051011056
-0.01856369 0.00285153 0.0024082914 -0.27821949 -0.9605056 0.0047780951 0.0049283425
-0.016381249 0.0024456542 0.0015546748 -0.23717198 -0.97138906 -0.012357913 0.0045352518
-0.013400794 0.0017777523 0.0014441265 -0.20324741 -0.97912216 0.0032019312 0.0010520098
-0.010452791 0.0012331251 0.0015091689 -0.16170865 -0.98304439 0.086452894 0.0049283318
-0.0074691297 0.00079097762 0.0015191768 -0.12024751 -0.98635513 0.11244576 0.0055938279
-0.0044622398 0.00047232927 0.0015296598 -0.085367143 -0.99411547 0.066684559 0.0014257272
-0.0014865536 0.00026300849 0.0014755477 -0.053166181 -0.99513602 0.082931049 0.001686338
0.0014643698 0.00014923944 0.0014990268 -0.011295794 -0.9953534 0.095624126 0.0019647311
0.0044948398 0.00014218496 0.00152475 0.020933907 -0.99403971 0.10698991 0.0021291364
0.0075063705 0.00023081561 0.0015263852 0.041665789 -0.99267471 0.11340548 0.0023407803
0.010510736 0.00042181666 0.0014824618 0.079809509 -0.98030877 0.18062456 0.0070603653
0.013501789 0.00071786385 0.0015382237 0.10964549 -0.979491 0.16904214 0.0062683825
0.016493941 0.0011073694 0.0015202533 0.1412797 -0.97721845 0.15837957 0.0054696165
0.019514071 0.0016033967 0.0015487558 0.17455655 -0.9760406 0.12990247 0.0035968237
0.022506449 0.0021829905 0.0015150992 0.197798 -0.97255677 0.12251199 0.0033971856
0.024998806 0.002737419 0.0013260121 0.22214863 -0.97218621 0.074189246 0.0026823964
-0.027705114 0.005675198 0.0024881305 -0.34257248 -0.93588084 -0.082287095 0.0098219663
-0.025434179 0.0052777175 0.0016059637 -0.30226195 -0.94490606 -0.12565935 0.0033250907
-0.022549752 0.0043288642 0.0014422667 -0.32073188 -0.9448387 -0.066414364 0.001419105
-0.019659357 0.0034005339 0.0013796028 -0.31113711 -0.94772482 -0.070790589 0.0017683051
-0.017983111 0.003032228 5.9147871e-05 -0.22948721 -0.9698779 -0.081685342 0.0014966597
0.02646051 0.0031504449 0.0017827384 0.27601993 -0.95759559 0.082605764 0.002693566
0.028515344 0.0036887908 0.0015073575 0.28210458 -0.95497447 0.09187296 0.0025143838
0.031505015 0.0046039773 0.0015139474 0.28958482 -0.95342982 0.084334031 0.0016318721
0.034312643 0.0055588339 0.0015020362 0.31847414 -0.94469643 0.078249685 0.0027497313
-0.036452912 0.0089967307 0.0026222756 -0.36453962 -0.93016577 -0.043617133 0.016439158
-0.034258794 0.0084287897 0.0019841546 -0.37433717 -0.91238236 -0.16561994 0.011114834
-0.031557463 0.0076057971 0.0015600892 -0.35796902 -0.92209053 -0.14699376 0.002668208
-0.028751099 0.0066801743 0.0012376424 -0.36570609 -0.91799235 -0.15345685 0.003158791
-0.026709303 0.0061778985 0.00065615046 -0.33320233 -0.93056417 -0.15174554 0.0030628708
0.035758913 0.006095611 0.0016842735 0.36725414 -0.92668974 0.07981538 0.0026359204
0.037505027 0.006774059 0.0015108148 0.3752248 -0.92330259 0.081968151 0.0025417996
0.040462743 0.0080238832 0.0015468259 0.39489874 -0.91195095 0.11135745 0.0025389923
0.042345576 0.0088394042 0.0011751325 0.42207956 -0.90140498 0.096529953 0.0035289587
-0.042285185 0.011956514 0.0024783118 -0.45061409 -0.87786633 -0.16216548 0.01503898
-0.040114515 0.011153641 0.0019959013 -0.43160051 -0.88631868 -0.16780981 0.012736715
-0.037482988 0.010266897 0.0013615106 -0.4150086 -0.87865764 -0.23606916 0.0050033941
-0.0348248 0.009561779 0.00061971194 -0.38822648 -0.88580239 -0.25423265 0.0031418968
0.043804418 0.0095860139 0.0015209491 0.4652285 -0.88219345 0.072780982 0.0016720004
0.04648713 0.010969128 0.0015150516 0.4526929 -0.88581109 0.10201944 0.0022756059
0.048272278 0.011888665 0.0011009303 0.48150373 -0.87030429 0.10356025 0.0024514785
-0.045727942 0.014130751 0.002479994 -0.58010471 -0.8086217 -0.098028675 0.015213997
-0.043449555 0.013561261 0.0013064342 -0.53125322 -0.80581093 -0.26160803 0.010036336
-0.041050747 0.012676513 0.00066080666 -0.44668052 -0.85574877 -0.26109508 0.0062625986
0.049688805 0.01278773 0.0016180397 0.51215214 -0.85248166 0.10476296 0.0024383692
0.052133817 0.014278054 0.0015020199 0.52538115 -0.84689134 0.082155786 0.0021535701
-0.049012925 0.01699179 0.0018948452 -0.57269257 -0.79325885 -0.20679367 0.003715042
-0.046556484 0.015882211 0.0010697056 -0.55017424 -0.80361611 -0.22695704 0.0052406718
-0.044918306 0.015075173 0.00087857828 -0.56927955 -0.79065096 -0.22537053 0.0064498889
0.053606499 0.015259105 0.0016457308 0.55132276 -0.83014256 0.083105654 0.0022318824
0.055484839 0.016555477 0.0015255102 0.56577438 -0.82005304 0.086094491 0.0020552508
0.057279173 0.017810225 0.0011608787 0.59911054 -0.7931655 0.10933885 0.0027740721
-0.052343853 0.019783985 0.0016344112 -0.57864571 -0.78601879 -0.21758589 0.0035456331
-0.05002176 0.018742101 0.00071939017 -0.5863722 -0.77219099 -0.24472198 0.0029497405
0.058717482 0.01903438 0.0015526696 0.62846363 -0.7703653 0.10756722 0.0027378362
0.06050304 0.020524714 0.0014358407 0.66267413 -0.74447012 0.081407748 0.0027740211
-0.057628736 0.023587497 0.0024244632 -0.66766346 -0.73160493 -0.13776687 0.0049843951
-0.055632375 0.022640102 0.0012708757 -0.60880089 -0.76384664 -0.21424222 0.0018698962
-0.053672601 0.021389317 0.00091456564 -0.58098 -0.78487855 -0.21547116 0.0015880698
0.061982065 0.021946412 0.0015408216 0.69907933 -0.71127021 0.07336697 0.0019997591
0.063474044 0.023457272 0.0014633363 0.73492652 -0.6725353 0.087058708 0.0029635809
-0.060540881 0.026829794 0.0017457833 -0.70827222 -0.69040364 -0.14728631 0.00086534023
-0.058544535 0.025169557 0.0012070319 -0.66656113 -0.72482479 -0.17414159 0.0017850825
0.064968266 0.02518563 0.001571135 0.77465171 -0.62235075 0.11222414 0.0033102056
0.066236772 0.0267646 0.0013813984 0.80029571 -0.58826798 0.11605028 0.003395308
-0.063217208 0.029853741 0.0013891449 -0.76129353 -0.64128464 -0.095844336 0.00085099635
-0.061812855 0.028426239 0.0012973902 -0.75311106 -0.6437943 -0.13547221 0.00039205572
0.067422964 0.028478304 0.0015077216 0.82587093 -0.55386853 0.1056733 0.0032982079
-0.064672679 0.03169987 0.0013003799 -0.77391738 -0.62876475 -0.075543836 0.0003887777
0.068703867 0.030589104 0.0016670428 0.85649747 -0.5064038 0.099836193 0.0030857811
0.069468625 0.031920359 0.00149899 0.89542401 -0.4336884 0.10064875 0.0036946484
-0.066757835 0.034369029 0.0016874122 -0.82373983 -0.56661004 0.020142715 0.0040468653
0.070555784 0.034351327 0.0015253808 0.93043011 -0.35268405 0.099567831 0.0028647718
-0.069610946 0.038523074 0.0014422658 -0.82309145 -0.56759667 -0.01882956 0.0034643903
-0.068430439 0.036655113 0.0010106928 -0.83206689 -0.55462569 0.007414131 0.0023994176
0.071586743 0.037233382 0.001541281 0.94804394 -0.29597896 0.11665819 0.0046027973
0.072059713 0.038572419 0.00083733606 0.97269857 -0.22223316 0.066857129 0.0084388452
-0.0704026 0.039817788 0.0015050239 -0.81114316 -0.57570994 0.10297973 0.017745463
0.071832329 0.039007664 0.0028944358 0.96924722 -0.15272512 0.19296345 0.0045154793
0.072307833 0.040480357 0.0015487514 0.97437453 -0.15862733 0.15947318 0.003091333
0.072674915 0.043344028 0.0018237 0.98960805 -0.087071702 0.11443081 0.0037765773
0.072924823 0.046315242 0.0014603172 0.98971599 -0.043990843 0.1361139 0.005529955
0.073023237 0.049667504 0.0014487284 0.98817039 -0.0063639497 0.153228 0.0060826382
0.072973199 0.052632604 0.0018176349 0.97563797 0.0016684291 0.21938041 0.0082135154
0.073138706 0.055506285 0.0014714295 0.97555208 -0.027893292 0.2179911 0.01075704
0.073257908 0.058313046 0.0015333791 0.95725656 -0.057589851 0.28344899 0.014401062
0.073477827 0.061385076 0.0017695911 0.91966969 -0.076667041 0.38513613 0.02474938
0.074039243 0.064483829 0.0014910499 0.93649125 -0.21988069 0.27319726 0.034706332
0.074433573 0.06718237 0.0020019242 0.81625921 -0.32760224 0.4758127 0.071765505
0.075180165 0.068163566 0.00099259918 0.95890725 -0.25308394 0.12823938 0.043369208
0.07479839 0.069830082 0.00278896 0.56640637 -0.30018866 0.76750928 0.024966944
0.075792961 0.070647508 0.0015308848 0.88638145 -0.31525785 0.33902875 0.025868347
0.076730363 0.072870366 0.0016003402 0.9542439 -0.19426365 0.22733292 0.06878648
-0.018546293 0.0028767837 0.0035856005 -0.22066356 -0.97144628 0.087176338 0.0050800829
-0.016367119 0.0025468566 0.0042762617 -0.19848508 -0.94830722 0.24762295 0.0049780835
-0.013506496 0.0020629878 0.0045297248 -0.17211787 -0.95560712 0.23914546 0.0053727794
-0.010509957 0.0015664488 0.0044993362 -0.13636747 -0.9551307 0.2629244 0.004506099
-0.0074841329 0.001206118 0.0044965041 -0.098905541 -0.9514246 0.29156286 0.0041119172
-0.0044587092 0.0009821984 0.0045278594 -0.064184219 -0.94798535 0.31177577 0.0036228481
-0.0015037243 0.00084774895 0.0045099705 -0.03140723 -0.94412011 0.32810175 0.0031264676
0.0014918565 0.00079969387 0.0044623511 -0.0038538112 -0.9409247 0.33859399 0.0026297311
0.0045116027 0.00085824088 0.0045087705 0.025017019 -0.93692559 0.34863251 0.0023762898
0.0074846675 0.00097361655 0.0044992943 0.055114236 -0.9326241 0.35661554 0.0024136051
0.01048667 0.0011903906 0.0045458726 0.076494388 -0.92985439 0.35988805 0.0025133849
0.01348027 0.0014374215 0.0044852966 0.098342679 -0.9287557 0.35740975 0.0029616805
0.016530002 0.0018312787 0.0045292969 0.12655756 -0.92587984 0.35599115 0.0038293486
0.019498594 0.0022783575 0.0044915732 0.16042188 -0.92610806 0.34145075 0.0045236964
0.022321589 0.0026453759 0.0040282966 0.19387875 -0.92791021 0.31842375 0.0049520247
0.024471778 0.0029102704 0.0033246162 0.24109025 -0.92467082 0.29471928 0.0031759311
-0.027678847 0.0057629677 0.0038667736 -0.34778303 -0.93206608 0.10148805 0.01776197
-0.025450176 0.005202774 0.0044288225 -0.30208278 -0.94438463 0.12993741 0.017521748
-0.022461239 0.0042702993 0.0045017023 -0.29645315 -0.93739009 0.18279888 0.0069336472
-0.019671975 0.0035328483 0.0047475686 -0.26232618 -0.92681479 0.26869935 0.0070337555
-0.017277272 0.0031930343 0.0054780771 -0.23193361 -0.93367392 0.27287316 0.0059677581
0.020400286 0.0030204367 0.005867763 0.14878552 -0.85830128 0.49110258 0.0011195687
0.022806074 0.0032832613 0.005443994 0.1895531 -0.86774909 0.4594357 0.0013383026
0.025574101 0.0035890553 0.0046018637 0.2589049 -0.91394204 0.31253514 0.0025837766
0.028497126 0.0043359911 0.0045016906 0.25412464 -0.90451175 0.34246036 0.0041665151
0.031485487 0.0052367211 0.0044975835 0.28667277 -0.90614671 0.31099313 0.0033617276
0.033702713 0.0057555614 0.0038342152 0.315503 -0.90442491 0.28718188 0.0025172473
-0.036099296 0.0089001404 0.0036450489 -0.33933818 -0.93865323 0.061479427 0.029839382
-0.034259178 0.0083586657 0.0043371422 -0.31040147 -0.93234003 0.18545367 0.0089090914
-0.031477947 0.0073428247 0.004530427 -0.33651841 -0.93064106 0.14374445 0.0093645109
-0.028869612 0.0064743604 0.0047485302 -0.39765769 -0.90390098 0.15757957 0.010002461
-0.02665575 0.0061209206 0.0059431395 -0.28736201 -0.89707261 0.335684 0.0023510242
0.032559775 0.0060748388 0.0058059762 0.28975022 -0.82080424 0.49226537 0.0029564486
0.034819759 0.0064690979 0.0047678319 0.35457799 -0.88809055 0.29252291 0.0021734291
0.037485391 0.0073992945 0.0044993488 0.35311532 -0.88960654 0.28967178 0.002173594
0.040238921 0.0084836558 0.0042935028 0.38419357 -0.87742245 0.28727183 0.0028878103
0.042003427 0.0089052077 0.0030370683 0.35945135 -0.92315519 0.13630567 0.0038357463
-0.042108849 0.011755993 0.0033988485 -0.43071058 -0.90165937 -0.038715053 0.021483578
-0.040425837 0.011208847 0.0044676876 -0.45391807 -0.88648307 0.090034902 0.02814588
-0.037518661 0.009825808 0.0045331852 -0.46519804 -0.87318867 0.14536941 0.010441274
-0.035432972 0.0091944467 0.0054179514 -0.37633476 -0.88987166 0.25787726 0.0061619584
0.041347168 0.0093112849 0.0052681058 0.41235271 -0.8633433 0.29086682 0.0027983971
0.043484546 0.010079481 0.0045362632 0.40994567 -0.86384135 0.29278433 0.0026493666
0.046242367 0.011388184 0.0042396979 0.44531369 -0.85274518 0.27298591 0.0023166474
-0.045906406 0.014333233 0.0043170885 -0.55551392 -0.8310976 0.026097434 0.026691401
-0.043516211 0.012941394 0.0045414898 -0.53573179 -0.83314931 0.13730872 0.01349188
-0.041569449 0.012220297 0.0056764889 -0.39905423 -0.87599957 0.27088824 0.0068343179
0.047364224 0.012379273 0.005309999 0.44847333 -0.84365153 0.29516718 0.0034118972
0.049512297 0.013340539 0.0045135589 0.48375323 -0.83191592 0.27184319 0.0020464
0.051610455 0.01448571 0.004126695 0.504785 -0.80792058 0.3040666 0.0023729615
-0.051170267 0.017896015 0.0039565735 -0.60383779 -0.79601252 0.041762337 0.027565444
-0.049333591 0.016774829 0.004567577 -0.55815065 -0.79973149 0.22112767 0.0097231455
-0.047281645 0.015420383 0.0048101116 -0.56894773 -0.81849372 0.079790227 0.016794311
0.052912489 0.015570204 0.0047254837 0.52864569 -0.79284453 0.30320174 0.0025562169
0.055276155 0.01708084 0.0043664658 0.55835408 -0.77706045 0.29054716 0.0023875963
-0.054486442 0.020556625 0.0044679367 -0.67950106 -0.73253852 0.040812131 0.022093436
-0.052581955 0.019209953 0.0046908758 -0.59797388 -0.77591836 0.20094277 0.015319526
-0.050828151 0.018106498 0.0052931379 -0.62318093 -0.77155471 0.12786293 0.015720937
0.056545462 0.018362992 0.0052323164 0.58582175 -0.75838017 0.28578389 0.0021792836
