# .PCD v0.7 - Point Cloud Data file format
VERSION 0.7
FIELDS x y z normal_x normal_y normal_z curvature
SIZE 4 4 4 4 4 4 4
TYPE F F F F F F F
COUNT 1 1 1 1 1 1 1
WIDTH 558
HEIGHT 1
VIEWPOINT 0 0 0 1 0 0 0
POINTS 558
DATA ascii
-0.0198556 0.0274042 -0.015146064 0.16275881 0.47025102 -0.86739475 0.0022110241
0.026316157 0.027344838 -0.015119999 -0.17540573 0.53456247 -0.8267259 0.0014908474
0.028771194 0.027732886 -0.015404715 -0.1670953 0.49604267 -0.85206854 0.002231546
0.031606708 0.028241079 -0.015693031 -0.1566945 0.4530122 -0.87762564 0.0028027073
0.034404576 0.028492337 -0.016078802 -0.14256606 0.39708313 -0.90664214 0.0028493765
0.03741473 0.028579211 -0.016517175 -0.10906529 0.33796498 -0.93481785 0.0035116104
0.040491611 0.028504871 -0.016882036 -0.073124543 0.27145913 -0.95966804 0.0048094955
0.043616172 0.028537691 -0.017002922 -0.024993444 0.20149761 -0.97917008 0.0071152188
0.046625648 0.028500888 -0.01687037 0.11980151 -0.016024284 -0.99266851 0.010318668
0.049475722 0.028578317 -0.016455958 0.18174352 -0.04131671 -0.98247766 0.0034069887
0.052423842 0.028607277 -0.015735228 0.2593565 -0.14112002 -0.95541584 0.003450142
0.054574359 0.029202687 -0.015159667 0.35755053 -0.2181322 -0.90806162 0.0026942033
-0.049043749 0.031924319 -0.015300152 -0.26342958 -0.20133471 -0.94343472 0.0031658178
-0.046415757 0.031645969 -0.015873054 -0.17319599 -0.10914978 -0.97882044 0.0043553645
-0.043528061 0.031509291 -0.016297206 -0.13122399 -0.039713241 -0.99055696 0.009078688
-0.040552884 0.031499088 -0.016462388 -0.019332698 0.12985937 -0.99134398 0.006016538
-0.037469998 0.03157882 -0.016351592 0.054022815 0.2212275 -0.97372472 0.0047135591
-0.03449595 0.031505488 -0.016040726 0.11733863 0.29731533 -0.94754165 0.0036051695
-0.031596147 0.031352159 -0.015603191 0.15606169 0.37231392 -0.91489184 0.0031489946
-0.028645813 0.030642476 -0.015333672 0.18026277 0.44668329 -0.87634432 0.0030698748
-0.026702965 0.030086447 -0.015191598 0.19087404 0.49858689 -0.84556383 0.0019893115
0.034947313 0.030294264 -0.015257239 -0.19392852 0.53339159 -0.82333773 0.001865625
0.037655588 0.030945148 -0.015493575 -0.17139666 0.47462597 -0.86333853 0.0029426406
0.040487669 0.031393941 -0.015834302 -0.18141656 0.42674574 -0.88598877 0.0014999616
0.043452702 0.031564213 -0.016217131 -0.13391696 0.3521173 -0.92632592 0.0014538857
0.046435341 0.031559214 -0.016444094 -0.014143883 0.23806347 -0.97114664 0.0047575939
0.049457554 0.031592671 -0.016368316 0.086275809 0.14004341 -0.98637938 0.0049144565
0.052480776 0.031548452 -0.01595648 0.18002655 0.034003913 -0.98307383 0.0033749887
0.055102151 0.0315952 -0.01530876 0.27018398 -0.052036248 -0.96140146 0.0034213625
-0.051425822 0.035043299 -0.01510975 -0.23213074 -0.068493232 -0.97027004 0.0062218024
-0.049460363 0.034649286 -0.015503647 -0.15289016 -0.017195135 -0.98809361 0.0049048103
-0.046489906 0.034434669 -0.01591797 -0.077598616 0.10949975 -0.99095321 0.0044155936
-0.043487623 0.034557335 -0.015993502 -0.0031939885 0.1936852 -0.98105848 0.0042888131
-0.040467944 0.034506552 -0.015803672 0.078747153 0.28210092 -0.95614743 0.004068688
-0.037629925 0.034227811 -0.015516958 0.13725041 0.36964691 -0.91897953 0.0035203847
-0.034710135 0.033550277 -0.015274073 0.1858595 0.44978875 -0.87358248 0.0026793468
0.041415874 0.033187874 -0.015148388 -0.21453492 0.49314457 -0.84307963 0.001837782
0.043770142 0.033776972 -0.015359741 -0.16710508 0.44619247 -0.87919748 0.00308142
0.046627406 0.034351192 -0.015562364 -0.099762514 0.3592104 -0.92790908 0.0028798066
0.049521115 0.034478456 -0.015734471 -0.019636678 0.26825246 -0.96314853 0.0039490419
0.052514575 0.03464118 -0.015620581 0.088250101 0.1530771 -0.98426592 0.0034876985
0.05520298 0.03443449 -0.015274256 0.19601023 0.075767457 -0.97767037 0.0028336169
-0.051500719 0.036979511 -0.015104429 -0.1647166 0.1126264 -0.97988963 0.0052478858
-0.049429007 0.03742576 -0.015290308 -0.073070474 0.17410028 -0.98201317 0.0026898484
-0.046579152 0.037179988 -0.015418264 0.0082304943 0.25986445 -0.96561003 0.0038284697
-0.043622341 0.036855236 -0.015333398 0.086711228 0.36138874 -0.92837453 0.0042457934
-0.041018549 0.036405951 -0.015168427 0.15892012 0.44661507 -0.88049948 0.0026725738
0.049748994 0.036351237 -0.015111576 -0.09456826 0.40719527 -0.90843213 0.002360252
0.052492049 0.036523174 -0.015172108 0.012528786 0.3173396 -0.94822925 0.0031435308
0.054853462 0.036416661 -0.01507012 0.15074541 0.20782577 -0.96648037 0.0030977549
-0.012623819 0.0088255126 -0.01274053 -0.1192301 -0.58892953 -0.79934114 0.0010968779
-0.010463897 0.0079644462 -0.012409627 -0.11638501 -0.62319219 -0.77336019 0.00097760512
-0.00749797 0.0081363488 -0.012927254 -0.081858337 -0.57758737 -0.81221426 0.00078650296
-0.0045555052 0.0076130545 -0.012819626 -0.055865884 -0.61695218 -0.78501534 0.0010441573
-0.0015304814 0.0077186925 -0.01312195 -0.033466928 -0.58348292 -0.81143552 0.0015504562
0.0014985518 0.0076334565 -0.013230665 -0.030913074 -0.59459144 -0.80343348 0.0017182312
0.0045073857 0.0077200527 -0.01340637 -0.042837914 -0.58060002 -0.81306112 0.0020347976
0.0076101245 0.0076655075 -0.013394577 -0.0030696781 -0.60756063 -0.79426736 0.0021027082
0.010327935 0.0078683449 -0.013546893 0.0011177236 -0.5724839 -0.81991518 0.0024717017
0.013133644 0.0078091659 -0.013416219 0.031187562 -0.6187129 -0.78499788 0.0014479563
0.016315065 0.0080611613 -0.013399742 0.033432283 -0.60005873 -0.79925704 0.0015571084
0.019451659 0.0085177235 -0.013498439 0.060730126 -0.58421433 -0.80932409 0.00075636501
0.022026286 0.0084471405 -0.013088434 0.091487773 -0.58198792 -0.80803466 0.00030340182
0.024279634 0.0085700564 -0.012816723 0.11998054 -0.59226727 -0.79675853 0.00013688538
-0.025022959 0.011880322 -0.012138551 -0.21650171 -0.60600436 -0.76543176 0.0014327347
-0.022647338 0.011498373 -0.012523281 -0.19917077 -0.60251826 -0.77285361 0.0011036234
-0.019354425 0.01100931 -0.013008627 -0.17635334 -0.57599342 -0.79820484 0.00069574267
-0.016549192 0.010865317 -0.013527774 -0.16914889 -0.56865907 -0.80499405 0.0010577673
-0.013688778 0.010619106 -0.013848971 -0.12869632 -0.55549556 -0.82149976 0.0015775139
-0.010526304 0.010544383 -0.014226561 -0.094282642 -0.51351237 -0.8528868 0.0012384888
-0.0075554289 0.010256899 -0.01435579 -0.07385578 -0.50114745 -0.86220449 0.0015646194
-0.004626188 0.010049953 -0.014454964 -0.054762296 -0.47965223 -0.87574816 0.0019024626
-0.0016659737 0.0099614905 -0.01457618 -0.047474623 -0.46940884 -0.88170379 0.0022470655
0.0013691359 0.0098115718 -0.014629849 -0.035486367 -0.45727694 -0.88861609 0.0022645404
0.0042836759 0.0097796917 -0.014710158 -0.021093726 -0.45537555 -0.89004946 0.0022725742
0.0073319022 0.0096469084 -0.014701281 -0.010398176 -0.45054275 -0.89269435 0.0023728311
0.010485324 0.0095818946 -0.014679368 0.00093879143 -0.46236694 -0.88668811 0.0022192854
0.013653439 0.0096117733 -0.014646945 0.021382207 -0.48007491 -0.87696683 0.0019296667
0.016560074 0.0097721145 -0.014632245 0.037988123 -0.49410978 -0.8685692 0.001787841
0.019476108 0.010050852 -0.014608915 0.066386744 -0.51867223 -0.8523919 0.0017211782
0.02247113 0.010237569 -0.014427483 0.095786266 -0.54822457 -0.83082777 0.0012740755
0.025362819 0.010553127 -0.014235944 0.10441939 -0.54227871 -0.8336848 0.0012830757
0.028204078 0.010667388 -0.013741513 0.13820535 -0.56040138 -0.81660855 0.00086606614
0.031093875 0.010629312 -0.013042774 0.16387779 -0.56138235 -0.81116819 0.00027079278
-0.030703673 0.014124523 -0.012176625 -0.25015748 -0.60461122 -0.75621855 0.0014009083
-0.028404074 0.013896888 -0.012736632 -0.23477609 -0.60366547 -0.76188469 0.00070235837
-0.025371708 0.014069975 -0.013737336 -0.20309789 -0.55257225 -0.80834097 0.00092537911
-0.022496076 0.013611338 -0.014138023 -0.18384528 -0.53234977 -0.82631999 0.0012770803
-0.019531641 0.012903664 -0.014303029 -0.16649647 -0.49327344 -0.85379165 0.0017024809
-0.016285073 0.012520052 -0.014640548 -0.13077131 -0.44835743 -0.88423669 0.0019420012
-0.012099789 0.012202214 -0.014971626 -0.10639363 -0.42675546 -0.89808697 0.0034762265
-0.011580527 0.012029139 -0.014935514 -0.087396838 -0.46804398 -0.87937289 0.0017686831
0.02894963 0.012110233 -0.014729239 0.14654747 -0.49418947 -0.85691345 0.0025074368
0.031481579 0.012449372 -0.014425766 0.15994361 -0.5170421 -0.84088379 0.0014403363
0.034322299 0.013643919 -0.01456438 0.17687137 -0.5185504 -0.83655363 0.0011487069
0.037219714 0.014068102 -0.014071031 0.21348134 -0.51792216 -0.82836127 0.0003275591
0.039071511 0.014815118 -0.014073231 0.21799837 -0.48815072 -0.84509498 0.00045809645
-0.036818501 0.017226469 -0.012403626 -0.33608314 -0.58675534 -0.73672676 0.0015713633
-0.034311168 0.016687294 -0.012959994 -0.28010544 -0.58715439 -0.75946742 0.0014656354
-0.03140327 0.016460733 -0.013758195 -0.23431487 -0.55102146 -0.80091941 0.001164983
-0.028569231 0.015975269 -0.014231082 -0.20306948 -0.51235896 -0.83441663 0.0016514405
-0.025706321 0.015787628 -0.014752207 -0.18322934 -0.45690757 -0.8704381 0.0025310209
-0.023616213 0.015450446 -0.014985378 -0.14606661 -0.38660857 -0.91060328 0.002449678
0.040165398 0.016178811 -0.01467004 0.21592043 -0.45985469 -0.86134315 0.0010628632
0.04258953 0.016707895 -0.014138356 0.27220508 -0.48274845 -0.83238113 0.00045221197
0.04557696 0.017781368 -0.013706394 0.2908622 -0.46112132 -0.83831155 0.00044076287
-0.042481497 0.02053972 -0.012313005 -0.38833904 -0.57993114 -0.7161513 0.0012846023
-0.040361695 0.02015247 -0.013045611 -0.34737378 -0.55756688 -0.75395668 0.0021690752
-0.03764829 0.019737191 -0.013889259 -0.30211836 -0.51538503 -0.80193686 0.00086370547
-0.034764212 0.018988343 -0.014435857 -0.24997452 -0.48508903 -0.83797461 0.0018466952
-0.031876136 0.018228373 -0.014793111 -0.20353399 -0.43674159 -0.87625951 0.0024840976
0.04402807 0.018216755 -0.014639342 0.28247711 -0.46960619 -0.83646679 0.00040611491
0.046601351 0.019249927 -0.014219947 0.30897373 -0.45214042 -0.83672237 0.00049473834
0.048245788 0.020099286 -0.01407107 0.34427938 -0.45340788 -0.82212716 0.00047454561
0.051148687 0.020783262 -0.0130288 0.35672402 -0.41582716 -0.83656186 0.00047321783
-0.045802694 0.023210442 -0.012498946 -0.41738904 -0.5437367 -0.72810495 0.0011625973
-0.043359689 0.022882316 -0.013502315 -0.35332629 -0.48724332 -0.79859531 0.0006729131
-0.040711176 0.022655632 -0.014513477 -0.31592855 -0.45830896 -0.83074784 0.0012335583
-0.038579732 0.02196441 -0.014893055 -0.25626659 -0.40282437 -0.8786695 0.0028980672
-0.0066498346 0.023904694 -0.014868995 0.092768423 0.43570817 -0.89529461 0.00054257561
-0.0043191696 0.023579372 -0.014832157 0.065444447 0.40307733 -0.9128229 0.002529542
-0.0013829903 0.023461225 -0.014717672 0.043666948 0.42771965 -0.90285611 0.0023703002
0.0015954092 0.023333048 -0.014690216 0.015618765 0.44196072 -0.89689839 0.0024151597
0.0045966473 0.023357498 -0.014681394 -0.013507486 0.44989237 -0.89298064 0.0023624848
0.0075829881 0.023463696 -0.014722024 -0.041544553 0.44958276 -0.892272 0.0024451935
0.0105653 0.023660354 -0.014804651 -0.069217883 0.5308454 -0.84463722 0.0011487809
0.013312074 0.023840657 -0.014954696 -0.09478204 0.52346432 -0.84675944 0.0013119964
0.049757127 0.022198755 -0.014590676 0.34968281 -0.40295166 -0.84578472 0.00081769144
0.052211136 0.022817468 -0.013733267 0.36200973 -0.39287433 -0.84533942 0.00077424885
-0.051389784 0.026944973 -0.012059554 -0.46169698 -0.55673516 -0.6905663 0.002145302
-0.048957281 0.026038345 -0.012798032 -0.41259721 -0.52237695 -0.74624795 0.0014875118
-0.046465602 0.02565396 -0.013740829 -0.37147817 -0.4520126 -0.81097996 0.001354954
-0.043946795 0.025195139 -0.01459174 -0.32259768 -0.40380588 -0.85607922 0.0017794856
-0.016361913 0.02669755 -0.01486324 0.16457826 0.42345858 -0.89084053 0.0026187391
-0.01335574 0.026282001 -0.014518073 0.15599558 0.46516517 -0.87137055 0.0022562332
-0.010415405 0.025837433 -0.01427866 0.13672225 0.49307561 -0.8591761 0.0016072937
-0.0075076278 0.025562638 -0.01402631 0.10978671 0.50998193 -0.85315031 0.0013616787
-0.0045098136 0.025561463 -0.013696214 0.079153888 0.52383649 -0.84813327 0.001181446
-0.001442247 0.025518961 -0.013468272 0.052063193 0.534141 -0.84379071 0.0010432109
0.0014938359 0.025545208 -0.01331509 0.023300333 0.59702593 -0.80188352 0.0017275269
0.0044445056 0.025524981 -0.013299257 -0.0040992992 0.58273661 -0.81265086 0.0028970633
0.0074536162 0.025529446 -0.013377857 -0.039069328 0.55515718 -0.8308273 0.0010246497
0.010450043 0.025529265 -0.013577234 -0.07140556 0.55781072 -0.82689083 0.0010473088
0.013397478 0.025522923 -0.013892965 -0.10180727 0.55431849 -0.82605457 0.001066669
0.016400035 0.025748799 -0.014173751 -0.13107368 0.54257232 -0.82971978 0.0013580188
0.019461352 0.026130978 -0.01446967 -0.15698463 0.52069932 -0.83918297 0.0018228361
0.022231733 0.026561126 -0.014762516 -0.17962827 0.566908 -0.8039583 0.001177266
0.053090449 0.025173979 -0.014480067 0.36402133 -0.31856054 -0.87521863 0.00058200781
0.055446982 0.025740467 -0.013547223 0.41499826 -0.33109125 -0.84744024 0.0012330704
0.057646576 0.025994988 -0.012364994 0.45910096 -0.30489236 -0.83442616 0.00071663031
-0.054073069 0.029453775 -0.01210073 -0.46882042 -0.48774278 -0.73641998 0.0022212153
-0.052251805 0.029022301 -0.01288781 -0.4310202 -0.4579944 -0.77747202 0.0022960401
-0.049510919 0.02827419 -0.013821134 -0.37548208 -0.41362074 -0.82941604 0.0026285495
-0.047109213 0.028041031 -0.014719307 -0.31578776 -0.34190485 -0.88508713 0.001958173
-0.024397925 0.029793896 -0.014827566 0.19398908 0.51973087 -0.8320145 0.0021538138
-0.022225393 0.029270245 -0.014632029 0.19737194 0.47099862 -0.85977012 0.0025457724
-0.019410511 0.028877497 -0.014196177 0.19299895 0.5136227 -0.83602822 0.001561997
-0.016453637 0.02851741 -0.013733949 0.18491375 0.5388574 -0.82185131 0.0010493568
-0.01356499 0.02845642 -0.013095211 0.17717689 0.61090767 -0.77162176 0.0016886664
-0.010580522 0.028057454 -0.012773413 0.14969653 0.62660885 -0.76482183 0.0014694952
-0.0075408057 0.027663585 -0.012553675 0.12053031 0.64277136 -0.75651658 0.0016827453
-0.0045781801 0.02744147 -0.012338659 0.092570871 0.66213495 -0.74364501 0.0015627652
-0.0018651207 0.027216315 -0.012214899 0.060891997 0.67911363 -0.73150313 0.0014690338
0.0012300562 0.027135946 -0.012090422 0.031394921 0.69298625 -0.72026688 0.0014573787
0.0047983159 0.027055101 -0.012101449 -0.0051387716 0.69909948 -0.71500599 0.0013487714
0.0081230206 0.027141921 -0.012115079 -0.038790531 0.64100516 -0.76655567 0.0017235373
0.010764671 0.027227368 -0.012260565 -0.071273364 0.69284964 -0.71755111 0.0013614114
0.013800945 0.027431067 -0.012464095 -0.10920531 0.6841855 -0.72108555 0.0015688149
0.016599247 0.027757486 -0.012660372 -0.14776419 0.66875482 -0.72865134 0.0013966047
0.019477313 0.028113313 -0.012975645 -0.17417528 0.65561604 -0.73473173 0.0013143586
0.022511 0.028498031 -0.013396966 -0.19302274 0.59459412 -0.78051269 0.0010997695
0.025374098 0.028640328 -0.014011907 -0.19555846 0.57143468 -0.79700649 0.0010739046
0.028313788 0.029113665 -0.014428173 -0.19927256 0.53967333 -0.81795061 0.0016821374
0.031019524 0.029649109 -0.014734979 -0.20521483 0.57816845 -0.78968865 0.0014567793
0.055808529 0.028402887 -0.014410601 0.40517387 -0.27371633 -0.87230361 0.0013962662
0.058535829 0.028913846 -0.013170001 0.46267772 -0.30204955 -0.83348387 0.0007121808
-0.055134706 0.03184256 -0.012730112 -0.45898584 -0.37136286 -0.80710697 0.0024657804
-0.052578796 0.031557452 -0.013902972 -0.38357329 -0.33339059 -0.86123294 0.003036492
-0.050176937 0.030995408 -0.014690308 -0.31865776 -0.26240256 -0.91082495 0.0020570646
-0.030932179 0.032769967 -0.014776567 0.2186484 0.50692606 -0.83379787 0.0017158028
-0.028339474 0.032162976 -0.014411802 0.23343943 0.49039692 -0.83965284 0.0018699921
-0.025434857 0.031527236 -0.013996133 0.22255525 0.5379073 -0.81309581 0.0012904858
-0.02255008 0.031412367 -0.013219966 0.24113165 0.61187649 -0.7533012 0.0016056421
-0.019711439 0.030956732 -0.012751766 0.22337559 0.64292508 -0.73263264 0.001464802
-0.01683438 0.030392243 -0.012379219 0.21151307 0.66897708 -0.71255308 0.0015029302
-0.014857215 0.030045716 -0.012137087 0.17885493 0.6166907 -0.76661825 0.0016918129
0.023554221 0.030209288 -0.012181893 -0.20636111 0.68887883 -0.69488204 0.00062383036
0.025783265 0.030529857 -0.012567629 -0.21913983 0.64768934 -0.72970968 0.0012878056
0.028645728 0.031001383 -0.013007301 -0.23119265 0.64567202 -0.72777581 0.0022529131
0.031583264 0.031595681 -0.013387724 -0.23793848 0.5970754 -0.76608497 0.00090017926
0.0343615 0.031821933 -0.014053076 -0.22758721 0.56625718 -0.79218483 0.0012399594
0.037216026 0.032369465 -0.014512761 -0.23073229 0.51652998 -0.82459646 0.0020624064
0.039558463 0.032764178 -0.01492641 -0.21451573 0.49314487 -0.84308428 0.0018346348
0.056254841 0.030963516 -0.014839654 0.35006541 -0.12473007 -0.92838389 0.0027647254
0.058362693 0.031725883 -0.014059955 0.38242552 -0.13283831 -0.91438758 0.0020841509
0.061053719 0.031659048 -0.012600697 0.49684748 -0.21689455 -0.84029722 0.002030462
-0.057845429 0.034864519 -0.01242958 -0.47221065 -0.29857466 -0.8293795 0.0029478013
-0.055509083 0.034620684 -0.013546106 -0.38881949 -0.20105302 -0.89910901 0.0025623275
-0.0526869 0.034304537 -0.014617964 -0.33262554 -0.17256027 -0.92713708 0.0023319249
-0.037002139 0.035525218 -0.014778497 0.20185269 0.43574575 -0.8771438 0.0026035141
-0.034334522 0.035019744 -0.014357678 0.23213498 0.49689487 -0.83618712 0.0017734101
-0.031464543 0.034565132 -0.013749551 0.2628817 0.54513961 -0.79606283 0.0013249323
-0.028645512 0.034279142 -0.012986663 0.28385735 0.59308374 -0.7534433 0.0021869463
-0.025722735 0.033565726 -0.012537418 0.26640919 0.65476447 -0.7073257 0.001568704
-0.023699017 0.033029545 -0.012265526 0.25285187 0.63619399 -0.72891921 0.0020731355
0.032359459 0.033287533 -0.012127655 -0.25187522 0.6900773 -0.67849267 0.00069655763
0.034739956 0.033726305 -0.012589318 -0.26638129 0.67573136 -0.68733412 0.0012951674
0.037652973 0.034363296 -0.013124745 -0.29644874 0.6072526 -0.73713124 0.0019136898
0.040440913 0.034684528 -0.013885408 -0.24272567 0.532933 -0.81059653 0.00078048918
0.043288771 0.035198595 -0.014457794 -0.23311946 0.48954043 -0.84024131 0.0020141157
0.045631904 0.035683982 -0.014779684 -0.17850159 0.49446854 -0.85066921 0.0025926027
0.056705177 0.034648184 -0.014905732 0.2436927 0.026468033 -0.96949124 0.0028839733
0.058510587 0.034745369 -0.014335326 0.32156128 -0.027847204 -0.9464792 0.0054556327
0.061332233 0.034521721 -0.013066774 0.43905109 -0.10588365 -0.89220107 0.0027216747
0.063077606 0.034670915 -0.012097575 0.55128169 -0.16656213 -0.81752396 0.0020127269
-0.060391042 0.038546544 -0.012055216 -0.51060504 -0.22492872 -0.82987326 0.0031317919
-0.058402389 0.037569605 -0.012856914 -0.44383186 -0.19860029 -0.87382561 0.0014207935
-0.055443902 0.037532847 -0.014073261 -0.30865321 -0.049307242 -0.94989574 0.0047036167
-0.052789234 0.037689995 -0.014789143 -0.23798311 0.013137189 -0.97118044 0.004444235
-0.05017956 0.038842905 -0.014974334 -0.029443517 0.2080376 -0.97767752 0.0059475964
-0.046272635 0.038693439 -0.014891643 0.085665189 0.33772749 -0.93733758 0.0038274198
-0.043354236 0.038256116 -0.01467984 0.16089988 0.42858168 -0.88906074 0.0029805461
-0.040394053 0.037845585 -0.014257837 0.20634006 0.4904308 -0.84670025 0.001509309
-0.037488412 0.037491817 -0.013645725 0.25009298 0.54008967 -0.80358988 0.0014036255
-0.034622859 0.037132245 -0.012934665 0.28667194 0.61752141 -0.73245239 0.001405846
-0.03197756 0.036526017 -0.012409704 0.29300267 0.65112746 -0.70013034 0.0012380072
0.040905584 0.036715657 -0.012490618 -0.3120701 0.63517743 -0.70651382 0.0013554577
0.043629363 0.037394002 -0.013060181 -0.30229384 0.58242464 -0.75458598 0.0015612142
0.046479106 0.037489071 -0.013904572 -0.21069779 0.50203943 -0.83878648 0.0010795706
0.049460951 0.037825242 -0.014385966 -0.14753301 0.44527501 -0.88315582 0.0016911682
0.05255682 0.037971441 -0.014663414 -0.061356325 0.37908539 -0.92332536 0.0029716573
0.055664025 0.0377451 -0.014647594 0.13972147 0.19386114 -0.97102821 0.0029357078
0.058506761 0.037610888 -0.01419175 0.2469573 0.12878777 -0.96042997 0.0055939457
0.061470658 0.037511252 -0.01318641 0.37464315 0.032757573 -0.92659026 0.0037652354
0.063472755 0.037709013 -0.012230814 0.49802783 -0.040076856 -0.86623442 0.0024288881
-0.060609937 0.040686566 -0.012257591 -0.43570727 -0.066484936 -0.89762968 0.0040961197
-0.058568798 0.040431466 -0.013086904 -0.37336957 -0.054531939 -0.9260785 0.0027020935
-0.055508688 0.040572554 -0.013971917 -0.20312004 0.16614574 -0.96495485 0.0077354107
-0.052504588 0.040598754 -0.014354539 -0.070388556 0.25956252 -0.96315771 0.0074485792
-0.049459666 0.040518254 -0.014386969 0.0067692595 0.36140549 -0.93238419 0.00654979
-0.046462905 0.040522896 -0.014021275 0.12846979 0.44987035 -0.88380545 0.0019684636
-0.043479916 0.040489167 -0.013373886 0.23565441 0.52892381 -0.8152954 0.0023061372
-0.040666088 0.040105611 -0.012786263 0.26691052 0.60027784 -0.75393987 0.001748694
-0.037948299 0.039365288 -0.012384242 0.29066348 0.63999093 -0.71128505 0.0013555139
0.044698548 0.039096925 -0.012165643 -0.31932649 0.59250838 -0.73957038 0.0027239327
0.04681477 0.039646469 -0.012559511 -0.27864999 0.58904827 -0.75853574 0.0024368984
0.049525756 0.040379643 -0.012912007 -0.21280299 0.53590894 -0.81701684 0.0024643224
0.052415673 0.040497307 -0.013466935 -0.1599676 0.47301263 -0.86641181 0.0018847861
0.055472009 0.040495876 -0.013748516 -0.0016542778 0.35531929 -0.93474352 0.0033990704
0.058510073 0.040569596 -0.013570562 0.13898978 0.26917702 -0.95300877 0.0049506607
0.061538227 0.040579934 -0.012903363 0.29306775 0.17332305 -0.94025016 0.0036452396
0.063484676 0.040101714 -0.012202474 0.43012571 0.11352611 -0.89560246 0.0035430081
-0.06054797 0.04340281 -0.01225778 -0.29780677 0.1267572 -0.94617319 0.0075873085
-0.058420755 0.043431249 -0.012851247 -0.19700186 0.18085487 -0.96357763 0.0054639378
-0.055442497 0.043577205 -0.013248873 -0.09732303 0.3046042 -0.94749379 0.0057615736
-0.052485105 0.043534439 -0.013239622 0.068246692 0.39547873 -0.91593611 0.004785331
-0.049560629 0.043455709 -0.01291691 0.15277383 0.47964492 -0.8640607 0.0039020928
-0.046716508 0.04290479 -0.01263832 0.20954692 0.56256062 -0.79975975 0.0032250572
-0.044387639 0.042346843 -0.012337311 0.26647276 0.61605054 -0.74126512 0.0018225617
0.052772816 0.042476118 -0.012381342 -0.20079181 0.5453344 -0.81381392 0.0025421351
0.055602796 0.043065127 -0.012551354 -0.099572897 0.47302598 -0.87540376 0.0033407952
0.058501534 0.043280572 -0.012612382 0.038333952 0.38005599 -0.92416877 0.0039149527
0.061321676 0.04323316 -0.012334078 0.24394622 0.252648 -0.93630087 0.0051420107
-0.060323145 0.045220736 -0.012045987 -0.21664745 0.19162892 -0.95725769 0.0059670545
-0.058428124 0.045611214 -0.012252656 -0.14643936 0.30597386 -0.94071013 0.0068308953
-0.055573735 0.045691215 -0.012352595 0.0083034579 0.45678493 -0.88953841 0.0038359046
-0.052816931 0.045389317 -0.012314062 0.12328643 0.51215047 -0.85000134 0.0026284531
-0.050699454 0.04503971 -0.01215937 0.19033636 0.58628702 -0.78742599 0.0016019981
-0.010170138 0.0054886425 -0.010067696 -0.10771454 -0.64551359 -0.75611496 0.00082903763
-0.0066315662 0.0058462429 -0.011040281 -0.097300038 -0.6821987 -0.72466385 0.00032638267
-0.0046873554 0.0050612516 -0.010452527 -0.075586632 -0.67945611 -0.72981232 0.00049377326
-0.001425277 0.0053099254 -0.011035467 -0.050024338 -0.62126637 -0.78200102 0.00098699797
0.001491401 0.0050517414 -0.010949736 -0.029998105 -0.64477217 -0.7637859 0.00065431459
0.0051331338 0.0050479528 -0.011053547 -0.0075170319 -0.63506538 -0.77242178 0.00071681762
0.0076347277 0.0047415611 -0.010740157 -0.0033809021 -0.63920379 -0.76902992 0.00051346055
0.010410856 0.0051570707 -0.011073092 0.015815115 -0.64377475 -0.7650516 0.00060383184
0.014857088 0.005618223 -0.011241683 0.035306305 -0.63780338 -0.76938963 0.00050541945
-0.018116655 0.0089551369 -0.011670599 -0.19205557 -0.61001956 -0.76875925 0.00091833289
-0.016345955 0.0084611103 -0.011681461 -0.15675586 -0.61450875 -0.77317959 0.00055924
-0.01342121 0.0073534697 -0.011313876 -0.13201351 -0.63117617 -0.76432264 0.00060376211
-0.011420047 0.0063243071 -0.010703735 -0.12410113 -0.63918787 -0.75897151 0.00059550192
-0.0076539642 0.0066563189 -0.011730157 -0.10613471 -0.64105225 -0.76012331 0.0010582638
-0.0037977963 0.0062531782 -0.011813875 -0.055865761 -0.61695302 -0.78501457 0.0010430547
0.016161984 0.0063875122 -0.011921675 0.035415903 -0.61854511 -0.78495067 0.0010458844
-0.028330803 0.011756008 -0.010733549 -0.2574794 -0.62661713 -0.73556465 0.00049023447
-0.022499433 0.0092261992 -0.010385573 -0.21050939 -0.61928523 -0.75642014 0.00040402327
-0.019764405 0.009140417 -0.011297691 -0.20025833 -0.60679984 -0.76921427 0.00091054145
-0.037134103 0.014795626 -0.0098511344 -0.33363333 -0.631589 -0.69984585 0.00067275931
-0.033615861 0.013541467 -0.010310519 -0.29316896 -0.65150696 -0.69970757 0.00046634971
-0.032220464 0.014016201 -0.011464069 -0.27902997 -0.63758576 -0.71807146 0.00081039069
-0.026420999 0.01204133 -0.011827657 -0.22238265 -0.61726159 -0.75467485 0.00090273522
-0.040515881 0.016846215 -0.0099752154 -0.41205093 -0.65216619 -0.63631231 0.00078673457
-0.037744459 0.016234286 -0.011002023 -0.33938873 -0.62654185 -0.70161295 0.00070762378
-0.035631325 0.015618536 -0.011509655 -0.30336025 -0.61525834 -0.72761929 0.00084017793
-0.045949209 0.0205958 -0.010088239 -0.46636155 -0.64046991 -0.61016822 0.00084659416
-0.043232914 0.019277582 -0.010693868 -0.4347603 -0.64866 -0.62467891 0.0010784261
-0.040548038 0.018577917 -0.011742388 -0.38788968 -0.63531888 -0.66776609 0.0015565088
-0.049128689 0.023082282 -0.01016668 -0.47565606 -0.62273568 -0.62124997 0.0010849823
-0.046876431 0.022238793 -0.011012523 -0.4455668 -0.63374919 -0.63232279 0.0018983411
-0.044658795 0.021215886 -0.011606576 -0.42773595 -0.62749779 -0.65060633 0.0018452937
-0.054290354 0.026457895 -0.0095100049 -0.51470643 -0.58179569 -0.62975472 0.00061514392
-0.05230844 0.025857067 -0.010472114 -0.48141831 -0.59734768 -0.64141428 0.0016866851
-0.049956076 0.024930421 -0.011335552 -0.45081463 -0.58168221 -0.67706126 0.0029495121
0.058403596 0.026118573 -0.011921014 0.45908609 -0.30488983 -0.83443522 0.00072468095
-0.057580467 0.029347688 -0.0093124779 -0.56149614 -0.55312425 -0.61544752 0.00055943232
-0.05547573 0.028642753 -0.010462634 -0.54169905 -0.53131729 -0.65135556 0.0021053476
-0.053351175 0.027876547 -0.011482986 -0.50889492 -0.56465489 -0.64976209 0.0013304491
-0.012581488 0.029856732 -0.01167012 0.20495495 0.71276957 -0.67078543 0.0014111449
-0.010217421 0.029516343 -0.011435116 0.16540974 0.72542584 -0.66812944 0.0017185905
-0.0073501905 0.029142113 -0.01115443 0.1379227 0.74185354 -0.65622455 0.0018893437
-0.0044545033 0.028917227 -0.010887553 0.10993147 0.74704903 -0.6556164 0.0014053556
-0.0014501692 0.028747937 -0.010647101 0.073294796 0.7539891 -0.65278512 0.0011505893
0.0015007011 0.028626388 -0.010544714 0.030620513 0.74204975 -0.66964513 0.0025440948
0.0045162421 0.028551703 -0.010543856 0.009407606 0.7419067 -0.6704371 0.0026274286
0.0074984655 0.02858123 -0.010581168 -0.033799648 0.74583119 -0.66527683 0.002652349
0.010425787 0.028777376 -0.010626271 -0.083839402 0.74013752 -0.66720867 0.0027750647
0.013410397 0.028944146 -0.010843384 -0.11808112 0.76359051 -0.63481206 0.0015095404
0.016340712 0.029174615 -0.011201628 -0.15914178 0.75636315 -0.63449878 0.0017777907
0.019393597 0.029632397 -0.011522464 -0.19288258 0.70843214 -0.67891109 0.00046813497
0.021602677 0.029912405 -0.011888353 -0.22260614 0.72460359 -0.652224 0.0011294826
0.061475344 0.029183259 -0.011310367 0.51441962 -0.29150587 -0.80647177 0.0010352489
-0.06039549 0.032652222 -0.0093709882 -0.59656566 -0.4464246 -0.66694409 0.0014779022
-0.058260161 0.031651661 -0.010467652 -0.55246156 -0.47139552 -0.68743914 0.002181353
-0.056235239 0.030706415 -0.011423841 -0.49288005 -0.41656786 -0.76389819 0.0017118625
-0.021589043 0.032725081 -0.011787191 0.27442291 0.71049869 -0.64798433 0.0013568142
-0.019176515 0.032339562 -0.011264119 0.24486651 0.66833627 -0.70240092 0.001532172
-0.016408648 0.031850092 -0.010751765 0.23580064 0.74268603 -0.62674999 0.0013176093
-0.013605526 0.031315003 -0.010398102 0.19651404 0.74884731 -0.63293749 0.0024585843
-0.010659136 0.030874947 -0.010030364 0.17659533 0.76597685 -0.61813718 0.0028358891
-0.0077254809 0.030510601 -0.0096986862 0.14780632 0.76280427 -0.62951005 0.0016787213
-0.0047051916 0.030282229 -0.0093529113 0.11440558 0.77233356 -0.62482983 0.0012963233
-0.0025067599 0.030085627 -0.0091881892 0.08118315 0.76821679 -0.63502151 0.0012528046
0.011319154 0.030068796 -0.0091414964 -0.070795089 0.78574103 -0.61449093 0.0012771678
0.013740486 0.030236837 -0.0093243718 -0.11677928 0.78413171 -0.60950798 0.0014676305
0.016709022 0.030463487 -0.0097532636 -0.16672325 0.77706033 -0.60694373 0.0015256518
0.019621909 0.030949347 -0.010047189 -0.20744552 0.76183176 -0.61366004 0.0015639543
0.02257145 0.031436499 -0.010467006 -0.22472806 0.77052301 -0.59648269 0.0010184679
0.025372971 0.032013789 -0.010833425 -0.23796681 0.75545561 -0.61045784 0.0011389295
0.028205961 0.032468114 -0.011396953 -0.24783026 0.71427375 -0.65451753 0.00045578129
0.030321829 0.032811787 -0.011832659 -0.26033944 0.69887125 -0.66618496 0.0030275406
0.062279284 0.03143416 -0.011698394 0.54481202 -0.25108823 -0.80008417 0.0011660602
0.064366318 0.032240983 -0.010322098 0.60304284 -0.23731042 -0.76159251 0.0013784127
-0.061234318 0.034847219 -0.010025067 -0.58928972 -0.42008772 -0.69011873 0.0018683538
-0.059093315 0.034173902 -0.011323005 -0.52863389 -0.36339194 -0.7671327 0.0023551707
-0.027870368 0.03560796 -0.011472106 0.30094418 0.70022726 -0.64739043 0.0018744559
-0.025323141 0.035015982 -0.010905446 0.30378845 0.72928423 -0.61307186 0.0015771051
-0.022552185 0.034238413 -0.010490285 0.2686305 0.74173313 -0.61454821 0.002350505
-0.019803628 0.033732656 -0.0098906495 0.26892114 0.75018531 -0.60407239 0.0014613264
-0.017233642 0.033231225 -0.0093932832 0.24357706 0.76622266 -0.59462005 0.0012528073
0.026101714 0.033311326 -0.00948196 -0.24701257 0.77813554 -0.57748598 0.0010646288
0.028670741 0.033787914 -0.009970611 -0.26443419 0.76160544 -0.59163469 0.0014773922
0.03154365 0.034426589 -0.010446762 -0.26360512 0.75759703 -0.59712553 0.0020990898
0.034257766 0.035105709 -0.010896523 -0.30194503 0.74013704 -0.60085452 0.0015658254
0.036801793 0.035612032 -0.011598755 -0.31549349 0.64861733 -0.69264668 0.0012865569
0.064279966 0.034774214 -0.011244856 0.55596274 -0.16344969 -0.8149783 0.0020159031
0.066313706 0.034630734 -0.0094988868 0.62723565 -0.19130395 -0.75496906 0.0011670187
-0.063685246 0.037781291 -0.0094739841 -0.60344821 -0.33219764 -0.72491038 0.0023269833
-0.061567586 0.037486549 -0.010975014 -0.53103191 -0.25866351 -0.80690658 0.0011363727
-0.059999235 0.036502704 -0.011711518 -0.49113899 -0.23037368 -0.84006578 0.0031017018
-0.034076471 0.03848308 -0.011488151 0.31208584 0.64072561 -0.70147926 0.0012618891
-0.031355768 0.03784081 -0.010764876 0.32526094 0.72352421 -0.60886616 0.0013813261
-0.028722065 0.037062783 -0.010253841 0.31700909 0.73762482 -0.59616673 0.0021153928
-0.025979206 0.036400802 -0.0095551778 0.32201955 0.74700248 -0.58162761 0.0011811161
0.035131756 0.036434297 -0.00970753 -0.32590178 0.75198758 -0.57297701 0.0012836664
0.037693366 0.037159108 -0.010319018 -0.34926614 0.70007133 -0.62282681 0.0013926126
0.040352438 0.038010534 -0.010948207 -0.35345373 0.696446 -0.62452644 0.0015277627
0.042600442 0.038584214 -0.011618869 -0.35358196 0.66820472 -0.65458554 0.00092082366
0.064920604 0.037603524 -0.011303129 0.55916363 -0.094855249 -0.82361305 0.0018451494
0.066747651 0.03773725 -0.0098971808 0.63353354 -0.12764403 -0.7631135 0.0013152574
-0.064230636 0.040701795 -0.010087156 -0.56735271 -0.21573257 -0.79471397 0.0032682233
-0.061913729 0.040278647 -0.011512791 -0.50246823 -0.1345472 -0.8540625 0.0031600462
-0.040159501 0.041455805 -0.011410999 0.30390814 0.67871511 -0.66856992 0.0016802106
-0.037413202 0.040767364 -0.010735417 0.33034459 0.70865661 -0.6234408 0.0013737049
-0.034680862 0.039947808 -0.010160801 0.34690833 0.71435541 -0.60774255 0.0015302093
-0.032230906 0.039294563 -0.0095229624 0.35920355 0.7393198 -0.56954283 0.0013425463
0.04099638 0.039541353 -0.0096434271 -0.40431115 0.7035746 -0.58439308 0.0014892721
0.043637577 0.040371418 -0.0103643 -0.37250748 0.67381549 -0.63813072 0.00173041
0.046248376 0.040985465 -0.011194987 -0.30810702 0.60594422 -0.73341769 0.00081890682
0.048711427 0.041617811 -0.011751028 -0.27340174 0.61983603 -0.73556423 0.0020831916
0.065021701 0.040710088 -0.011348873 0.53303659 0.018507039 -0.84588981 0.0029622952
0.067079164 0.04046819 -0.0099246735 0.61225754 -0.017717656 -0.79045987 0.0033212418
-0.066298321 0.043933757 -0.0092470115 -0.60270131 -0.13123986 -0.78710055 0.0029219897
-0.06447944 0.043467507 -0.010381025 -0.52374387 -0.098294355 -0.84618592 0.0025169882
-0.062080923 0.043544061 -0.011635662 -0.41474769 0.018523475 -0.9097479 0.003338272
-0.048753202 0.044848442 -0.011794247 0.20600714 0.579822 -0.78826869 0.0021096466
-0.046260957 0.044302329 -0.011392877 0.26439437 0.62934405 -0.73076791 0.0010296588
-0.043373827 0.043661036 -0.010719241 0.30557671 0.64762628 -0.6979993 0.0010527527
-0.040689342 0.042948034 -0.010101888 0.3536801 0.71180785 -0.6068278 0.0018722754
-0.0384987 0.042370509 -0.0095177758 0.37095013 0.70224422 -0.60765857 0.0021135469
0.046793837 0.042696565 -0.0097923279 -0.38326046 0.68086869 -0.62412286 0.0014932521
0.049564742 0.043472141 -0.010440016 -0.31712201 0.64060235 -0.69932979 0.0017526798
0.052350428 0.043971706 -0.011155419 -0.25212118 0.57868397 -0.77560282 0.0012809134
0.055230249 0.044478074 -0.011647968 -0.17558362 0.56401396 -0.80688208 0.0023775289
0.058661357 0.044801772 -0.011929932 -0.038846284 0.4418309 -0.89625692 0.0037801333
0.062031846 0.044338536 -0.011849578 0.15078843 0.29627639 -0.94312412 0.0064566531
0.064511016 0.043578383 -0.011248654 0.37738034 0.17848192 -0.90869594 0.0059580184
0.067088895 0.043476801 -0.0098418137 0.54967201 0.087426871 -0.83079308 0.0036917415
-0.066483043 0.046415448 -0.009265881 -0.53445452 0.034844201 -0.84447873 0.0050577032
-0.064495176 0.046498235 -0.010296983 -0.38983777 0.14904234 -0.90874249 0.0063339635
-0.061486904 0.046553411 -0.01136398 -0.19967335 0.31248406 -0.92870027 0.005104268
-0.058602847 0.047152139 -0.011598351 -0.035130106 0.4283956 -0.90290815 0.0036711725
-0.055447903 0.047176871 -0.011500894 0.08062806 0.51380986 -0.8541069 0.002768442
-0.052417237 0.046865407 -0.01122103 0.17621408 0.57556355 -0.79854578 0.0018480496
-0.049523242 0.046493139 -0.010642026 0.24729669 0.62015402 -0.74448192 0.0011174283
-0.046695709 0.04596705 -0.0099781696 0.3306677 0.68033046 -0.65407133 0.0018676762
-0.044307135 0.045365449 -0.0094089983 0.35389355 0.70138681 -0.61872113 0.0016830367
0.0505777 0.045303952 -0.0091704465 -0.37047815 0.68348759 -0.62895995 0.0014872209
0.052777883 0.045880873 -0.009719749 -0.32055685 0.65072578 -0.68833083 0.0019387509
0.055564448 0.046527341 -0.010253029 -0.25448567 0.58655083 -0.76889223 0.0032485863
0.058393545 0.046545219 -0.010906259 -0.083519042 0.49283585 -0.86610472 0.0034481112
0.061430261 0.046542753 -0.011051636 0.075707652 0.40359953 -0.91179812 0.0059170937
0.064467177 0.046510443 -0.010524725 0.27140185 0.2877982 -0.91842979 0.0067691677
0.066874199 0.046511609 -0.0095160147 0.49136585 0.18943162 -0.85010308 0.0046808538
-0.066288471 0.048710387 -0.0091432827 -0.41087714 0.1904752 -0.89157116 0.0061501781
-0.064366847 0.049412355 -0.0096574016 -0.25666347 0.28777903 -0.92266297 0.0062456676
-0.061501741 0.04949034 -0.010202151 -0.14307082 0.43098462 -0.89094502 0.0067384061
-0.058483765 0.049527071 -0.010258669 0.031819273 0.54022199 -0.84092075 0.005704239
-0.055571984 0.04929965 -0.010033115 0.13968864 0.61503154 -0.77603042 0.0033336084
-0.052662931 0.048766173 -0.0096955961 0.23934083 0.66939616 -0.70329559 0.0024247167
-0.050242193 0.048278235 -0.009261583 0.29886383 0.70692468 -0.64104432 0.0017178224
0.056655031 0.04833395 -0.0091936802 -0.29126367 0.64117187 -0.70997477 0.0024469106
0.058789831 0.048760477 -0.0095138745 -0.18928833 0.58576107 -0.78806967 0.0038981508
0.061561171 0.049124744 -0.0096927788 -0.038946468 0.50283843 -0.86350256 0.0050060656
0.064398751 0.049140666 -0.0095474953 0.1643613 0.39249453 -0.90494937 0.0063160346
0.066416949 0.048949689 -0.0090946294 0.37683526 0.311234 -0.87242687 0.0065611126
-0.063424021 0.051154271 -0.0091133611 -0.1329865 0.53068519 -0.837071 0.01051989
-0.061529707 0.051221572 -0.0091904346 -0.029959979 0.56032443 -0.82773119 0.0057133259
-0.059327886 0.051229697 -0.0091289561 0.090727061 0.65363699 -0.75135034 0.0029491121
-0.043127026 0.016934473 -0.0080392128 -0.43747991 -0.66346568 -0.60697985 0.00041064448
-0.048618402 0.020477533 -0.0075217881 -0.48595709 -0.64909106 -0.58525765 0.00019323232
-0.04665269 0.019443609 -0.0080724368 -0.47778955 -0.65992099 -0.57984596 0.00015379596
-0.044605292 0.018152239 -0.0083115529 -0.46077999 -0.65453714 -0.59938532 0.00048211473
-0.051694855 0.02310464 -0.0079171546 -0.48784041 -0.63615453 -0.59776175 0.00045264093
-0.049776532 0.022184417 -0.008592546 -0.49243674 -0.64810485 -0.58091843 0.00012114493
-0.055111758 0.025859948 -0.0079848468 -0.5282895 -0.6135295 -0.58693427 0.00053103239
-0.053411815 0.024894575 -0.0085058641 -0.49760544 -0.62141901 -0.60516703 0.00043924508
-0.058168042 0.028398907 -0.0076786675 -0.59531176 -0.57902318 -0.55707812 0.0011558033
-0.056502737 0.027305713 -0.0082414867 -0.56825984 -0.60421926 -0.55856937 0.0014981675
0.0021598376 0.029905967 -0.0089492835 0.018280197 0.78263628 -0.62221074 0.00097448903
0.0042306697 0.029918998 -0.0088779973 0.0071660555 0.78527677 -0.61910343 0.0010572594
0.0065334458 0.029928163 -0.0088854702 -0.010153153 0.78792548 -0.61568683 0.0010449518
-0.061332244 0.031673461 -0.0074184192 -0.63928807 -0.5482468 -0.53919953 0.0016620727
-0.05942848 0.030215913 -0.0082188612 -0.63351613 -0.56395698 -0.52972627 0.0011178809
-0.013116419 0.032674864 -0.0084510827 0.22236514 0.83132344 -0.50936735 0.0019820179
-0.010330684 0.032331958 -0.0078833327 0.19472872 0.84187287 -0.5033198 0.0016339906
-0.0073990831 0.031917196 -0.0075187855 0.16000228 0.85863596 -0.48697388 0.0014883666
-0.004539046 0.031445231 -0.0075612264 0.12565939 0.85624492 -0.50105327 0.0031079908
-0.0014662319 0.03105435 -0.0075657926 0.088880621 0.86025441 -0.50205827 0.0021469421
0.0015096099 0.030887574 -0.007475629 0.047293555 0.86911607 -0.49234194 0.0020281996
0.004473621 0.030807432 -0.0074606184 0.0097356783 0.87125874 -0.49072748 0.0022621264
0.0075607211 0.030828884 -0.0074752537 -0.034797378 0.87361336 -0.48537511 0.0021623657
0.010476562 0.030974468 -0.0075816824 -0.072678931 0.87344545 -0.48146725 0.0018907994
0.013486114 0.031310368 -0.0075494833 -0.1304138 0.8598392 -0.49362817 0.002175886
0.016536497 0.031843785 -0.0075529884 -0.1878351 0.86619109 -0.46306694 0.0015506237
0.019316025 0.032361336 -0.0078409519 -0.22045507 0.84640741 -0.4847618 0.0014090922
0.021949148 0.032684971 -0.0085383588 -0.24340461 0.79342711 -0.55787772 0.00082541589
-0.063826181 0.034861255 -0.0074126176 -0.66673779 -0.48291311 -0.56767559 0.0013557186
-0.06217045 0.033808284 -0.0084531773 -0.65291899 -0.45168865 -0.60800833 0.0034595733
-0.022136377 0.035641421 -0.0083992872 0.3086637 0.8159796 -0.48877808 0.0019371929
-0.01939887 0.035096973 -0.0076112621 0.31052971 0.83907646 -0.44667879 0.0011914001
-0.016588528 0.034170095 -0.0075947517 0.2587806 0.83886898 -0.47888562 0.0020322688
-0.013741009 0.033565808 -0.007229886 0.22528316 0.85493404 -0.4672637 0.0018380472
-0.011051577 0.033208709 -0.0065913727 0.2006281 0.86276132 -0.4641026 0.0016986722
0.020139106 0.033280946 -0.0065502776 -0.22667883 0.86616564 -0.44539186 0.0014834586
0.022647943 0.033595644 -0.0072744535 -0.24283926 0.85705537 -0.45440626 0.0015803642
0.025493225 0.034267366 -0.0076025431 -0.26143819 0.84537739 -0.46581873 0.0016295108
0.028377319 0.035163801 -0.0076689315 -0.30093744 0.84614664 -0.43985504 0.0010587823
0.030970978 0.035626572 -0.0084806001 -0.30221236 0.82575858 -0.47622526 0.0018202155
0.067767009 0.035231467 -0.0081608202 0.6730665 -0.17730346 -0.7180146 0.00099520839
-0.06657441 0.038258128 -0.0067673363 -0.69647729 -0.42296869 -0.57966959 0.00091213349
-0.064995088 0.037272003 -0.0079000574 -0.67610109 -0.39942238 -0.61915195 0.0031380793
-0.030130727 0.038859226 -0.008728113 0.34667766 0.78913134 -0.50703681 0.0047376864
-0.02810036 0.038365379 -0.0080335224 0.35845652 0.78826088 -0.5001536 0.0026836256
-0.025499163 0.037518319 -0.0074871699 0.35406485 0.81898797 -0.45154938 0.0026123263
-0.022785865 0.036575187 -0.0072169392 0.32199958 0.83171999 -0.45228103 0.0018223033
-0.020524545 0.036104877 -0.0064277644 0.31366137 0.85094643 -0.42131543 0.0017280711
0.02940206 0.03623056 -0.0062871817 -0.31178778 0.85008186 -0.42443979 0.0012899026
0.031693041 0.036581159 -0.0072197705 -0.31443858 0.83954042 -0.44305772 0.0015363628
0.034483541 0.037513111 -0.0075757653 -0.35443884 0.81462824 -0.4590795 0.0031930525
0.037017491 0.038452264 -0.0080628805 -0.42114484 0.78577685 -0.45298097 0.0014185312
0.039041914 0.03898238 -0.008947541 -0.39887035 0.70564228 -0.58563757 0.0014766988
0.068734497 0.037843555 -0.0079600234 0.68619084 -0.12666787 -0.71630818 0.00093845878
0.069809698 0.038647585 -0.0067931726 0.72849494 -0.10524308 -0.67691886 0.0011907759
-0.067230023 0.040797014 -0.007477209 -0.69691235 -0.30914626 -0.64710253 0.0027918199
-0.065539733 0.039686933 -0.0087084118 -0.65976954 -0.26003549 -0.70504308 0.0024368463
-0.036247995 0.041833982 -0.0087342598 0.40233111 0.7441746 -0.53322959 0.0043961694
-0.034234285 0.041337378 -0.0079133864 0.39088872 0.79073989 -0.47110125 0.0020547144
-0.031588692 0.04027332 -0.0075309915 0.37433043 0.7886399 -0.48777455 0.0015380303
-0.029008152 0.039416648 -0.006872315 0.37942523 0.81732559 -0.43360749 0.0015451496
0.037941668 0.039596308 -0.006971681 -0.43128526 0.78745943 -0.44034153 0.0019230468
0.040465154 0.040673535 -0.0076100561 -0.45222133 0.77666008 -0.43851447 0.0010133007
0.042718712 0.041543793 -0.0083158603 -0.46097669 0.73354983 -0.4994047 0.0030260554
0.06857907 0.040207744 -0.0085548833 0.71027255 -0.059582632 -0.70140058 0.0015516269
0.069772258 0.041404519 -0.0074409302 0.71975094 -0.040362898 -0.69305801 0.0015271266
-0.069413669 0.044087954 -0.00641745 -0.72421098 -0.22837588 -0.6506635 0.0018734956
-0.067744546 0.043507151 -0.0079423795 -0.67290086 -0.21160536 -0.7088213 0.0036093516
-0.04222006 0.044944767 -0.0086155878 0.38735813 0.77269548 -0.50288701 0.0020490221
-0.040226921 0.044308253 -0.0080267126 0.39871129 0.77170819 -0.49547535 0.0024746538
-0.037547596 0.043232769 -0.0075403601 0.3757112 0.79742455 -0.4721812 0.0019820228
-0.035207108 0.042438433 -0.0068582618 0.40807882 0.80256319 -0.43515983 0.0016174589
0.041681923 0.042196974 -0.0062603359 -0.5125469 0.75752771 -0.40428624 0.0013745528
0.04377893 0.04285844 -0.0072922586 -0.45260966 0.74887347 -0.48407957 0.0021358232
0.046318557 0.044064563 -0.0077681039 -0.44053724 0.73297125 -0.51834363 0.0029811598
0.048418947 0.044670485 -0.0085798604 -0.42019823 0.68563831 -0.5944187 0.0017036592
0.068289824 0.043055952 -0.0089635234 0.68188572 0.035203274 -0.73061115 0.0022745626
0.069582559 0.043766059 -0.0076877703 0.69563127 0.048359692 -0.71676946 0.0022905534
-0.069647208 0.046664499 -0.0067550451 -0.68425816 -0.11271526 -0.72047615 0.0046922765
-0.06793426 0.046502411 -0.0082446737 -0.59390539 -0.041629851 -0.80345714 0.0027484484
-0.04833081 0.047862787 -0.008749201 0.32307789 0.72280395 -0.61088061 0.0027219164
-0.046142515 0.047370233 -0.0079875626 0.37407875 0.75724369 -0.53539425 0.0030692508
-0.043583855 0.046383396 -0.0075200764 0.38540858 0.78373551 -0.48705113 0.0015818168
-0.041051157 0.045492806 -0.0068415105 0.41529107 0.78455502 -0.46044192 0.0016444301
0.047363691 0.045459524 -0.0066495934 -0.45852041 0.745583 -0.48359591 0.0021293268
0.049607158 0.046206728 -0.0074438802 -0.39208177 0.74228626 -0.54339951 0.0018097733
0.052192692 0.047185708 -0.0080498531 -0.37031305 0.6872375 -0.6249584 0.0029461652
0.054508373 0.047834363 -0.0087471884 -0.31805336 0.65797591 -0.68257588 0.0024089038
0.068477228 0.046491362 -0.0084634861 0.62996298 0.13745318 -0.76436454 0.0028979145
0.070078291 0.046322078 -0.0070195748 0.68029469 0.077943511 -0.72878253 0.0033432057
-0.069910161 0.049580082 -0.0067774095 -0.6215744 -0.016205918 -0.78318745 0.009069765
-0.067647964 0.049667791 -0.0082465392 -0.48904344 0.086897813 -0.86792016 0.0045669274
-0.065605186 0.050650448 -0.0088991346 -0.24471186 0.26423281 -0.93289721 0.005889724
-0.05515952 0.050708152 -0.0087119304 0.20220144 0.66086984 -0.72274864 0.0018126018
-0.052247137 0.050190695 -0.0080204029 0.28609684 0.74169618 -0.60665923 0.0023119261
-0.049541991 0.049378056 -0.0075105652 0.33372357 0.77149326 -0.5416888 0.0016492398
-0.047056627 0.048561081 -0.0069472915 0.39489484 0.77000761 -0.50114506 0.0018114923
0.05296034 0.048650205 -0.0068618818 -0.43495789 0.7220757 -0.53797621 0.0018768628
0.055558398 0.049509846 -0.007538808 -0.34455392 0.69766229 -0.6281321 0.0026794015
0.058363032 0.050215136 -0.0081738951 -0.26359731 0.66104555 -0.70252067 0.0033182178
0.061186176 0.050629139 -0.0086793443 -0.13703296 0.58929944 -0.79620856 0.0048131621
0.064598955 0.050590497 -0.0088897012 0.07229352 0.44823614 -0.89098716 0.0075826654
0.067680642 0.049678721 -0.0082321847 0.46129891 0.23716922 -0.85495847 0.0079548284
0.069892928 0.049414814 -0.0068172463 0.60342216 0.13971102 -0.78508759 0.0046296706
-0.070045777 0.052473474 -0.0066113197 -0.47593054 0.10435449 -0.8732698 0.01009703
-0.067477413 0.052592382 -0.0076574488 -0.26894665 0.29434955 -0.9170748 0.014252459
-0.064464726 0.05262927 -0.0081369802 -0.019325938 0.50861698 -0.86077595 0.0055630179
-0.061410617 0.052783065 -0.0079260813 0.091233008 0.62218386 -0.77753699 0.0035760154
-0.058422036 0.052595936 -0.0076160235 0.15432698 0.7294718 -0.66637379 0.002493609
-0.05560096 0.052096285 -0.0073107383 0.27177694 0.75961375 -0.5908674 0.0027745867
-0.052961089 0.051549867 -0.0067200833 0.33692193 0.76192355 -0.55313289 0.0020642276
-0.050968636 0.051021587 -0.0061514089 0.34742472 0.76377076 -0.5440132 0.002061232
0.056543265 0.051171124 -0.0062493668 -0.39841065 0.71118093 -0.57921559 0.0025301503
0.058711275 0.051866423 -0.0067355609 -0.34090558 0.69657022 -0.63132668 0.0032448184
0.061525967 0.05248636 -0.0073319152 -0.1833425 0.60428685 -0.77538562 0.0034001931
0.064449862 0.052608538 -0.0078323297 -0.032148365 0.45298898 -0.89093632 0.0052648564
0.067362256 0.052541729 -0.0075290119 0.27779856 0.36217129 -0.88975269 0.010319952
0.069448978 0.0523591 -0.0065700035 0.54166216 0.19494987 -0.81767762 0.0053603253
-0.069876164 0.055009715 -0.0063158097 -0.37803754 0.22446544 -0.89816642 0.012280849
-0.067486174 0.055274144 -0.0066159139 -0.09457048 0.43375033 -0.89605641 0.010490562
-0.064646713 0.054982334 -0.0066546388 0.10034321 0.58216846 -0.80685264 0.009811691
-0.06175584 0.054422162 -0.0064687282 0.18210867 0.70098239 -0.68953615 0.0060783648
-0.059454918 0.054137737 -0.0060665845 0.23814407 0.74423921 -0.62401551 0.0022202099
0.062583193 0.054384205 -0.0062413886 -0.33610395 0.62482619 -0.70471722 0.0064663538
0.064706184 0.055034857 -0.0064913114 -0.17576224 0.50380367 -0.84574789 0.010114524
0.067277208 0.055375967 -0.0065175071 0.13109851 0.34965116 -0.92766225 0.015191049
0.069162942 0.054654807 -0.0062317089 0.45879513 0.23953563 -0.85564578 0.01088849
-0.059505027 0.028136685 -0.0054472834 -0.63476884 -0.59219378 -0.49636161 0.00068873301
-0.06330695 0.031969234 -0.004917556 -0.66855186 -0.55658203 -0.49320865 0.00038090016
-0.062009729 0.030427098 -0.0048643243 -0.66178781 -0.56197149 -0.49621058 0.00030229383
