# .PCD v0.7 - Point Cloud Data file format
VERSION 0.7
FIELDS x y z normal_x normal_y normal_z curvature
SIZE 4 4 4 4 4 4 4
TYPE F F F F F F F
COUNT 1 1 1 1 1 1 1
WIDTH 569
HEIGHT 1
VIEWPOINT 0 0 0 1 0 0 0
POINTS 569
DATA ascii
0.070685841 0.070566185 0.0035099615 -0.1151822 -0.18519492 0.97592819 0.023533465
0.073030211 0.070661403 0.0035563505 0.16015759 -0.13988002 0.97713006 0.023391299
0.068871327 0.074463919 0.0030766167 -0.70096153 -0.046614509 0.71167415 0.022621147
0.070485123 0.073476851 0.0039837551 -0.3351844 -0.15169638 0.92986 0.01297199
0.073374346 0.073494725 0.0042782431 0.10478901 -0.17266518 0.97939062 0.039810181
0.0755575 0.073755652 0.0031186324 0.22110732 -0.17771891 0.95891994 0.018386569
0.068786211 0.075714529 0.0032332453 -0.63107115 -0.13210821 0.76439297 0.059630714
0.070341542 0.075749747 0.0041955756 -0.42722538 -0.057026271 0.90234494 0.016140541
0.072976306 0.075343266 0.0047354372 0.050745774 -0.09153194 0.99450833 0.045999441
-0.010575145 0.0025485733 0.0062630498 -0.12370673 -0.86806697 0.48078731 0.000944464
-0.0073528821 0.0024474852 0.0067548431 -0.078002006 -0.87181634 0.48358241 0.0014886594
-0.0043331329 0.0023600843 0.0069981515 -0.035046641 -0.87084359 0.49030921 0.001661279
-0.0015039311 0.0024090845 0.0072651557 -0.013121136 -0.87154692 0.49013662 0.0022301809
0.0015189719 0.0023370697 0.0071433662 0.0035747809 -0.87130874 0.49072224 0.0021542013
0.0044415286 0.0024636409 0.0072342628 0.030146064 -0.86837381 0.49499312 0.0019273302
0.0074493042 0.0024615524 0.0068787565 0.063777223 -0.86111671 0.50439119 0.0013299228
0.010509256 0.0025932901 0.0065720314 0.091461919 -0.88398153 0.45848805 0.00058786641
0.013731323 0.002834073 0.0063366094 0.1044747 -0.84676355 0.52160954 0.00054734648
0.01565342 0.0029430883 0.0061178552 0.13176656 -0.86682838 0.48088074 0.0028464231
-0.02418681 0.0056431834 0.0061024753 -0.25786424 -0.88464695 0.38846603 0.0012586974
-0.022267267 0.0054500685 0.0068806554 -0.25516298 -0.87954581 0.4016104 0.00087758189
-0.019452689 0.0050501768 0.0075751324 -0.21065129 -0.8486253 0.48524332 0.0009857316
-0.016497519 0.0043287999 0.0075565171 -0.18511271 -0.86450875 0.46728784 0.0010969432
-0.013511166 0.0037791973 0.0076196659 -0.14842917 -0.85316271 0.50008219 0.00087655429
-0.010587122 0.0035339117 0.0079940762 -0.12248068 -0.85508507 0.50381351 0.001418176
-0.0075020883 0.0033005269 0.0082001993 -0.076815084 -0.83750224 0.54100776 0.00093575398
-0.0047783661 0.0033422026 0.0085605411 -0.044534214 -0.80171126 0.5960502 0.00078022701
-0.0014448296 0.0034491615 0.0088967169 -0.022572236 -0.79659981 0.60408556 0.00069181377
0.0016352736 0.0033813317 0.0088254018 0.0076940386 -0.84215504 0.53918052 0.0027819935
0.0045356574 0.0033088899 0.0086005991 0.036728092 -0.83463222 0.54958171 0.001943746
0.0077040079 0.0033910004 0.008389785 0.06823355 -0.83287317 0.54924178 0.0013415681
0.010618349 0.0035151867 0.008106037 0.091158807 -0.83327025 0.54529881 0.00083644059
0.013497723 0.0037426362 0.0078414753 0.11216778 -0.82933909 0.54737109 0.00044426587
0.016651677 0.0040805778 0.0075910944 0.13247614 -0.81749648 0.56049049 0.00025508145
0.019449065 0.004479879 0.0074570952 0.15518275 -0.81042463 0.56491613 0.00052905385
0.022275059 0.0049772984 0.0074258405 0.17578149 -0.7864573 0.59210289 0.0010717437
0.025285799 0.0053023938 0.0070828344 0.17839116 -0.78947473 0.58728713 0.001845351
0.027807549 0.0056519727 0.0067556612 0.22843087 -0.80367392 0.54947931 0.0026060413
-0.031105891 0.0083724046 0.0068798065 -0.31588233 -0.85229689 0.41690335 0.0015539769
-0.02846198 0.0077781095 0.0075089918 -0.29061356 -0.83925515 0.45955902 0.0010828939
-0.025461731 0.0068816696 0.0076797507 -0.26004776 -0.84248161 0.47180489 0.0011322004
-0.022707168 0.0063606868 0.0082794698 -0.2381165 -0.83405197 0.49765244 0.0012357431
-0.020688485 0.0061850008 0.0089266123 -0.23642893 -0.79295176 0.56154144 0.0015113299
0.023209536 0.0063166637 0.0087389536 0.17039874 -0.73517549 0.65611076 0.00039058551
0.025736049 0.0065466436 0.0084130708 0.17384629 -0.72367048 0.66789103 0.0002489906
0.028668335 0.0069430005 0.0080682579 0.20805259 -0.76056844 0.61502016 0.0015397852
0.031517006 0.0075112446 0.0077735037 0.22635637 -0.78342563 0.578798 0.0041415067
0.034385506 0.0080878139 0.0073232851 0.26534045 -0.77938884 0.56758034 0.0022745496
0.037198015 0.0087186452 0.0066831047 0.32313499 -0.79066932 0.52002484 0.0014352293
-0.03960352 0.011882481 0.0067173019 -0.42132404 -0.81239516 0.40311307 0.0012542396
-0.037217885 0.011085273 0.0073339506 -0.37268841 -0.81654257 0.44086453 0.00099198869
-0.034486398 0.010021571 0.0075316248 -0.34528276 -0.8194285 0.45751148 0.0013842654
-0.031840067 0.0093719065 0.0082235029 -0.30417341 -0.81646639 0.490776 0.0014280488
0.034765147 0.0092299879 0.0086443741 0.24031055 -0.75168002 0.61418891 0.002776762
0.037633136 0.0099516595 0.0082185948 0.29556456 -0.77096134 0.56414557 0.0025552961
0.040384378 0.010620095 0.0075139878 0.33859694 -0.78034806 0.52574617 0.0014499439
0.042887557 0.011611815 0.007296552 0.37824038 -0.76798087 0.51685548 0.0015417561
-0.045241568 0.014799124 0.0062577184 -0.48310244 -0.78959703 0.37834984 0.001221951
-0.043241832 0.014180103 0.0073061194 -0.46693423 -0.77016509 0.43453214 0.0010732068
-0.040825158 0.013082875 0.0077652237 -0.42833167 -0.79590535 0.42786291 0.00072877691
-0.038367569 0.012171671 0.0083504431 -0.37737352 -0.81056643 0.4478519 0.0010869444
0.041854866 0.012372885 0.0089726532 0.33963788 -0.69349837 0.63537878 0.0054425132
0.043850902 0.012752268 0.008232018 0.39711556 -0.75506479 0.52170533 0.001276918
0.046387929 0.013751497 0.0077094124 0.40340799 -0.73104906 0.55029929 0.0020545023
0.048678078 0.014439778 0.0067912671 0.43997225 -0.7398721 0.5089339 0.001055771
-0.04857678 0.017318858 0.0067894757 -0.51551962 -0.74140519 0.429602 0.00085741049
-0.046523735 0.016413905 0.007612492 -0.4875218 -0.75232369 0.44309318 0.00095366564
-0.044392925 0.015465389 0.0083513204 -0.47678617 -0.74170178 0.47175559 0.0016583066
0.049705576 0.015925907 0.0079921214 0.43764183 -0.70928383 0.55261737 0.0017919865
0.052241262 0.017148199 0.0073986519 0.48810935 -0.69467646 0.52836913 0.0016091446
-0.052205432 0.020244945 0.0072354195 -0.54139537 -0.71814358 0.43721941 0.0011178833
-0.049753789 0.018783653 0.0077888635 -0.51972616 -0.72811121 0.4469215 0.0012083421
0.053290598 0.018751295 0.0084886057 0.49959779 -0.644292 0.57904214 0.0043006907
0.055426203 0.01949656 0.0073845675 0.51861918 -0.65602821 0.54832566 0.0022483785
0.05721524 0.02058322 0.006921113 0.52925634 -0.64977735 0.54559803 0.0021089518
-0.057205759 0.023596913 0.0061948453 -0.59972554 -0.6861406 0.41175282 0.00084751152
-0.055297647 0.022738216 0.0073750545 -0.58019614 -0.68156314 0.44591945 0.0018260148
-0.053269621 0.02165884 0.008245606 -0.5599004 -0.68350029 0.46833634 0.0023218065
0.056513041 0.021108184 0.0082710171 0.5247618 -0.62627584 0.5765447 0.0013814687
0.058381423 0.022250257 0.0076614087 0.54061747 -0.57446527 0.61459124 0.0011441588
0.060522653 0.02330769 0.0064901924 0.59383351 -0.57255012 0.56528592 0.00046656973
-0.060272194 0.026793359 0.0064091873 -0.6534403 -0.60255802 0.4581916 0.00093631831
-0.058383688 0.025646843 0.0074917581 -0.63101292 -0.64067286 0.43744814 0.00068990875
-0.056445792 0.024486208 0.0084377388 -0.59926009 -0.64421606 0.47526109 0.001058954
0.059233814 0.024336945 0.0089328252 0.53813088 -0.53223109 0.6535635 0.001597623
0.061231054 0.025317485 0.0078045977 0.59317833 -0.5195083 0.61502081 0.0012011769
0.063201398 0.026053099 0.006217794 0.63913012 -0.49293119 0.59036565 0.0010061589
-0.061277449 0.02880666 0.0074202982 -0.68939877 -0.54437757 0.47789386 0.0016715495
-0.059473258 0.027537063 0.0083955005 -0.63018477 -0.57910722 0.51720577 0.0021290367
0.062241197 0.027317517 0.0085430481 0.61481333 -0.44511396 0.65105921 0.0020196885
0.063799791 0.028500786 0.0077338507 0.65139097 -0.44643345 0.61350375 0.00077801559
-0.063786499 0.031855937 0.0070899823 -0.70750159 -0.48205015 0.51678735 0.0013560549
-0.06241335 0.031141043 0.0082749194 -0.70520318 -0.46181709 0.53797162 0.0026246756
-0.013221827 0.032650515 0.0084448019 0.21548428 0.82129866 0.52823764 0.0025585585
-0.010369449 0.032337897 0.0077973153 0.19477057 0.84381169 0.50004631 0.0013385917
-0.0074926042 0.031860545 0.0075814701 0.16004141 0.86038834 0.48385811 0.001463999
-0.0044194288 0.031342901 0.0076399571 0.12437505 0.84799004 0.51521224 0.0020227218
-0.0015293366 0.031017937 0.0076022549 0.085127175 0.84651214 0.52551943 0.002293577
0.0015138022 0.030723769 0.007674621 0.05667492 0.84481722 0.53204489 0.0019346848
0.0045111291 0.030770048 0.007471527 -0.015099039 0.84330279 0.5372265 0.0021700314
0.0074642468 0.030711163 0.007588428 -0.044634122 0.84276325 0.53643072 0.0021195917
0.010373358 0.030839909 0.0076794364 -0.095998697 0.8447777 0.52643597 0.002105945
0.013468623 0.031251889 0.0075966767 -0.13255551 0.83889669 0.5279029 0.0025515922
0.016518744 0.031826053 0.0075721126 -0.18863006 0.84993732 0.49196067 0.0019288743
0.019370655 0.032401033 0.0078111971 -0.21561788 0.82145011 0.5279476 0.0017815595
0.022148922 0.032791089 0.0083887335 -0.23309967 0.81054163 0.53729576 0.0024231584
0.065213695 0.031138876 0.0080259908 0.64292711 -0.37055007 0.67032623 0.0017028181
0.06668219 0.031912815 0.0067577227 0.68829083 -0.34739164 0.6368475 0.0017102964
-0.066381492 0.035453688 0.006537938 -0.74832588 -0.42388082 0.51022887 0.0014115134
-0.064812981 0.034323152 0.0077717891 -0.73753929 -0.43122917 0.5196895 0.0011439985
-0.021910617 0.035446551 0.0084149921 0.32290727 0.81657797 0.47846746 0.00099379197
-0.019482499 0.034955937 0.0077417591 0.30560046 0.84146744 0.44557926 0.0010196142
-0.01655711 0.034067493 0.00762212 0.25767609 0.84215438 0.47368658 0.0017757919
-0.013747708 0.033623189 0.0069771684 0.22399226 0.85729176 0.46354967 0.0015638127
-0.011377226 0.033322047 0.0064015291 0.19188371 0.90702862 0.3748062 0.0015025612
0.020244526 0.033431012 0.0064527793 -0.23098978 0.84731174 0.47823274 0.0019109102
0.022787048 0.033757728 0.0071295155 -0.24101672 0.83302873 0.49796993 0.0023242366
0.025598021 0.034354482 0.0075527537 -0.26309949 0.81982094 0.50859845 0.0022609946
0.028466301 0.035197772 0.0077154934 -0.27409795 0.82055449 0.50155818 0.0018452902
0.031075574 0.035665885 0.0084390948 -0.30078733 0.75206357 0.58645326 0.0014193249
0.065758444 0.033567198 0.0088060172 0.65601629 -0.27388993 0.70329714 0.0018876581
0.067057222 0.034306269 0.0076898569 0.6974923 -0.28483444 0.65755141 0.0011327423
-0.066978902 0.037872083 0.0073074498 -0.73723155 -0.34774932 0.57927549 0.00268821
-0.06561397 0.03689649 0.0084588844 -0.70435321 -0.31529406 0.63598442 0.0031932169
-0.030397914 0.038794871 0.0087771611 0.3579177 0.77992123 0.51343733 0.0030444262
-0.028341835 0.03832411 0.0080203982 0.35487181 0.8081941 0.46998748 0.0013085186
-0.025429809 0.0372684 0.0076362314 0.33860949 0.81863207 0.46388066 0.0018146539
-0.022704815 0.036394186 0.0072589759 0.31416586 0.83685386 0.44830269 0.0015359623
-0.020857112 0.036104698 0.006467131 0.32074741 0.84753728 0.42284933 0.0014704778
0.029402502 0.036398888 0.00618154 -0.3112945 0.83460069 0.45446393 0.0017153294
0.031709589 0.036703493 0.0071489112 -0.31541634 0.81771874 0.48150671 0.0020349461
0.034535065 0.037596647 0.0076210191 -0.3582471 0.78502756 0.50536203 0.0040305634
0.037070353 0.038503569 0.0081741232 -0.39711428 0.73475432 0.54994208 0.00362785
0.067803845 0.037260916 0.0080520585 0.68782085 -0.18768637 0.70119631 0.0012219099
0.069328591 0.037885487 0.006421132 0.7142908 -0.17801559 0.67683017 0.00096800231
-0.06918142 0.041241895 0.0062127882 -0.7723977 -0.28824016 0.56596768 0.0031544641
-0.067670748 0.040496808 0.0077033574 -0.73570341 -0.23517999 0.63516194 0.0021540388
-0.036650259 0.041818026 0.0087520191 0.40013745 0.77446562 0.4899928 0.0012887976
-0.034247898 0.041093327 0.0080163991 0.40785417 0.79976141 0.44049594 0.0011178633
-0.031588767 0.040047683 0.0076143411 0.37486982 0.81179494 0.44772938 0.0015712921
-0.029258514 0.03946986 0.0066697001 0.38205358 0.80938417 0.44601816 0.00071569084
0.038037486 0.039814968 0.0070266011 -0.44210821 0.7563194 0.48220471 0.0021502832
0.040481806 0.040816147 0.0076616444 -0.42387715 0.75126934 0.50588793 0.0023008671
0.042710323 0.041669808 0.008332043 -0.43738207 0.72917795 0.5263046 0.0016112076
0.068297587 0.040353782 0.0082997857 0.66529334 -0.1140319 0.73782206 0.0023694977
0.069666199 0.040902585 0.0068432819 0.70713747 -0.09311033 0.70091867 0.0013017765
-0.06957157 0.043704078 0.0066168066 -0.73572081 -0.18820094 0.65061146 0.0031025121
-0.06808576 0.043340527 0.0080894353 -0.70804071 -0.12359322 0.69527191 0.0030486889
-0.042402647 0.044658527 0.008862461 0.38424903 0.73601884 0.5573411 0.0021328833
-0.040362205 0.044217665 0.0079559693 0.38194612 0.77721298 0.50005716 0.0019280287
-0.037721999 0.043135025 0.0075027426 0.38705644 0.78250962 0.48771501 0.0013310607
-0.03543663 0.042314705 0.006919302 0.41231754 0.79432958 0.44613308 0.0007958549
0.041725807 0.042387672 0.0064242366 -0.46306124 0.74980187 0.47262186 0.0011816941
0.043745894 0.043057062 0.0072819381 -0.44621533 0.73026228 0.51730913 0.002550927
0.046309825 0.044182345 0.0078524929 -0.43186149 0.71522987 0.54949242 0.0033338415
0.04858325 0.04486819 0.0086313738 -0.39118332 0.70007956 0.59738117 0.0015741164
0.067948736 0.043343175 0.0089354357 0.61222869 -0.025860621 0.79025775 0.0034809988
0.069194794 0.043391939 0.0077000749 0.70478421 -0.0052590966 0.70940226 0.0023175508
-0.069813229 0.04669176 0.0069769756 -0.66982037 -0.098991178 0.73589492 0.0058317157
-0.068067141 0.046583921 0.0084285773 -0.58181816 -0.019440975 0.81308651 0.0034112209
-0.048491087 0.047780305 0.0086869774 0.33054155 0.72889912 0.59954017 0.0022655579
-0.046287876 0.047330536 0.0078500966 0.37453288 0.75881875 0.53284073 0.0023409971
-0.043571863 0.046062939 0.0076679396 0.39587724 0.76605189 0.5064047 0.0019578377
-0.041119546 0.045396131 0.0066720806 0.39815333 0.78294039 0.47799397 0.00085542782
0.047308009 0.045593351 0.0067765238 -0.45066473 0.72774684 0.51699704 0.0022210858
0.049654603 0.046453193 0.0074562221 -0.4060002 0.72666955 0.55417979 0.002039521
0.052194916 0.047358077 0.0081409635 -0.36387455 0.68367118 0.63260496 0.0025538881
0.054308254 0.047909595 0.0087730549 -0.33658308 0.65635574 0.67521036 0.00084100373
0.068064071 0.046358336 0.0087252781 0.54425091 0.092107758 0.83385068 0.0033754078
0.069148511 0.046405386 0.0077842199 0.67877746 0.096980207 0.72791207 0.0038475017
-0.070069745 0.049565826 0.0069735269 -0.59583521 -0.012753784 0.8030054 0.0096430723
-0.067623764 0.049619853 0.0084514786 -0.43632528 0.1525593 0.88676149 0.0098331068
-0.065679476 0.050645463 0.0089554712 -0.22635663 0.28140706 0.93250889 0.005905611
-0.055009149 0.050607119 0.0086033633 0.2204106 0.72042632 0.65757519 0.0020742244
-0.052393489 0.050142974 0.0079328744 0.31623963 0.74131572 0.59198266 0.0028926944
-0.049578123 0.049229577 0.0074663963 0.34389153 0.73896682 0.5793674 0.0013743029
-0.047314264 0.048613407 0.0067457198 0.41181111 0.76386154 0.49691772 0.00133483
0.052917376 0.048894268 0.0068865474 -0.46130404 0.69188935 0.55541664 0.0017494155
0.055450451 0.04952237 0.0077570425 -0.32883865 0.65130293 0.68386382 0.0012798522
0.058375854 0.05036572 0.0083229635 -0.26548919 0.64796811 0.71389979 0.003120221
0.0603831 0.050485276 0.0088740066 -0.13586096 0.52439731 0.84056479 0.0040749353
0.065680504 0.050569598 0.0089494754 0.28651339 0.30117416 0.90950769 0.010406951
0.067636348 0.04962242 0.0084126983 0.4646275 0.19088839 0.86468655 0.0033154218
0.069516152 0.049454328 0.0071160006 0.66150475 0.10699327 0.7422694 0.0055839219
-0.070359394 0.052415196 0.0067412257 -0.44571882 0.10470192 0.88902885 0.011259492
-0.067571603 0.052467171 0.0077982326 -0.23273958 0.30714983 0.92276287 0.015148178
-0.064607441 0.052625746 0.0081124213 -0.064789504 0.50534058 0.86048424 0.0100511
-0.06157599 0.052653987 0.0080084326 0.087705508 0.63004857 0.77158689 0.0034536663
-0.058494292 0.052464709 0.007686974 0.1665739 0.71556681 0.67839319 0.0030236058
-0.055663582 0.052031096 0.0072396365 0.27628896 0.75343454 0.59665799 0.0023099675
-0.052903652 0.051454812 0.0065389499 0.35275227 0.76121157 0.54417163 0.0015645986
0.05626002 0.051188376 0.0064298441 -0.39875081 0.70204216 0.59002936 0.0026021018
0.058638237 0.052017134 0.0068994989 -0.33039525 0.68433738 0.65001643 0.002388418
0.06148174 0.052322008 0.007760196 -0.27522197 0.60816437 0.74457306 0.0040702955
0.064457566 0.052347463 0.0082467627 0.061551265 0.45586848 0.88791627 0.0097682681
0.067383833 0.052408051 0.0077266037 0.38093984 0.27536082 0.88264447 0.0056983349
0.069491334 0.052463356 0.0065697008 0.60156059 0.1544556 0.78375262 0.0082446523
-0.070211984 0.055279311 0.0063632303 -0.20704293 0.34641117 0.91494948 0.014553209
-0.067568675 0.055317897 0.0066828504 -0.060409907 0.44629821 0.89284289 0.010927598
-0.064690158 0.054985233 0.0065899873 0.11650608 0.58996898 0.79897612 0.010790044
-0.061581817 0.054322347 0.0064150793 0.18205106 0.68623602 0.70422834 0.005734852
-0.059492882 0.054084305 0.0060512628 0.23852205 0.78561288 0.57089365 0.0066414997
0.062116653 0.054380979 0.0064017642 -0.33541459 0.60393381 0.72302216 0.0060467734
0.064629473 0.055131394 0.0067157992 -0.13652343 0.50713855 0.8509829 0.0092314836
0.067386344 0.055450559 0.0066233138 0.15022424 0.30527213 0.94034123 0.020731349
0.06948597 0.054537527 0.0061344318 0.26386848 0.28099996 0.92272013 0.0090285037
-0.01829268 0.0056820773 0.0091266045 -0.21184839 -0.78946817 0.57607305 0.0010188322
-0.016296463 0.0055221007 0.0095034111 -0.16598079 -0.78662342 0.59470499 0.00102259
-0.013402834 0.0052428637 0.0098432107 -0.133303 -0.78047389 0.61081153 0.0010199416
-0.010407127 0.0050248611 0.010122209 -0.10254689 -0.77065623 0.62894607 0.0011346212
-0.0074967793 0.0048240758 0.01024502 -0.070216253 -0.75509113 0.65184897 0.0012333058
-0.0044973101 0.0048237457 0.010474943 -0.038358066 -0.75898159 0.64998126 0.0020350106
-0.0015311908 0.0049664006 0.010718256 0.0036430035 -0.73485518 0.67821437 0.001960462
0.0014914527 0.0048856623 0.010619177 0.021822169 -0.73211288 0.68083358 0.0021504355
0.0045213043 0.0048511019 0.010466642 0.037860323 -0.74292225 0.66830617 0.0019394958
0.0074477508 0.0048883907 0.010303793 0.066454187 -0.73304152 0.67692983 0.0013424818
0.01044395 0.0050373962 0.010152726 0.092322826 -0.74069792 0.66546458 0.0014741032
0.013378316 0.0051846462 0.0098818727 0.11746819 -0.74752063 0.65376914 0.001449625
0.016196556 0.0053373529 0.0094846003 0.13953245 -0.77933764 0.6108712 0.00068199926
0.019073205 0.0058596898 0.0093801068 0.16059344 -0.74437398 0.64816445 0.00069519377
-0.027739812 0.0085612843 0.0092700515 -0.27409324 -0.79024959 0.54806793 0.00069594785
-0.02534575 0.0082890075 0.0099609615 -0.24747784 -0.77804714 0.57740569 0.00099150278
-0.022401456 0.0078062038 0.010465306 -0.22142458 -0.76343185 0.60674781 0.0012081303
-0.019532701 0.0071929591 0.010653827 -0.19300875 -0.76920831 0.60915196 0.00095068489
-0.016592469 0.0068539488 0.011065821 -0.15020959 -0.76249212 0.62931931 0.0010330202
-0.013616765 0.0065204529 0.011331089 -0.11711919 -0.70494258 0.69952786 0.0010670314
-0.010492045 0.0063595176 0.011616719 -0.081514589 -0.68812031 0.72100341 0.0011374484
-0.0076971534 0.0061424519 0.011669725 -0.050797716 -0.72461957 0.68727434 0.0012908439
-0.0047838837 0.0060233809 0.011725057 -0.020147102 -0.67907983 0.73378789 0.0026651593
0.0050127069 0.0063217431 0.011910127 0.026188318 -0.65650135 0.75387001 0.0032327163
0.0073881103 0.0062688543 0.011722882 0.057663575 -0.69824606 0.71353161 0.001424427
0.010389141 0.0064227055 0.011575649 0.08138673 -0.70589817 0.70362204 0.0015842889
0.013454689 0.0066171098 0.011368726 0.10738535 -0.71419525 0.69165999 0.001645921
0.016438805 0.0068774452 0.011115929 0.13002302 -0.65429819 0.74497509 0.0019995361
0.019525843 0.0073641948 0.010948665 0.16394256 -0.672665 0.72155708 0.0017791392
0.02243536 0.0077123889 0.010544534 0.17472465 -0.68626404 0.70605451 0.00097847707
0.025434876 0.008002894 0.0099782925 0.18676214 -0.70723069 0.68186849 0.00029428868
0.028339071 0.0083351824 0.009550239 0.19381157 -0.69921041 0.68814379 0.00038680551
0.030667547 0.0086389147 0.0092758909 0.20390083 -0.67897826 0.70527518 0.00051690184
-0.03418288 0.011209612 0.0097000496 -0.32511717 -0.76408845 0.55719626 0.00084689452
-0.031415749 0.010753348 0.010507783 -0.27952021 -0.77201849 0.57083786 0.0016437726
-0.028651306 0.0099553363 0.010728873 -0.25817272 -0.77100307 0.58215213 0.00086851342
-0.025683708 0.0095228404 0.011400945 -0.22447275 -0.71749592 0.65940243 0.00095512735
-0.023120672 0.0091526378 0.01183385 -0.1935543 -0.69911981 0.68830824 0.00083236111
0.023686673 0.0093407305 0.011830578 0.18487653 -0.673392 0.71579599 0.0010355734
0.025783475 0.0096165156 0.011526224 0.18449275 -0.66565597 0.72309369 0.00068756973
0.028618902 0.010003123 0.01102229 0.19286686 -0.66392404 0.7225008 0.00026091124
0.031547423 0.010332666 0.010503278 0.2048552 -0.65248168 0.72959036 0.00042956567
0.03443097 0.010620453 0.010016917 0.21202885 -0.64841491 0.73116469 0.0011972454
0.037488904 0.01132883 0.0097386744 0.25755477 -0.679111 0.68736726 0.0021877717
0.039944347 0.011795877 0.009276961 0.29421893 -0.67957103 0.67202556 0.0015986094
-0.042295314 0.014859704 0.0093243625 -0.4388271 -0.72994953 0.52402717 0.00099801109
-0.04020359 0.014245156 0.01003492 -0.39613995 -0.73953891 0.54420149 0.0013055697
-0.037560906 0.013362853 0.01058495 -0.34875569 -0.74753267 0.56530023 0.00085144298
-0.034751102 0.012550438 0.011143381 -0.30918512 -0.74714833 0.58836544 0.0013399324
-0.032276567 0.012057911 0.011742624 -0.26409465 -0.73394555 0.62576187 0.001154827
0.032400895 0.012272879 0.011873675 0.20108491 -0.59383321 0.77905524 0.00042699504
0.034742143 0.012550172 0.011437879 0.20850989 -0.60762626 0.76636404 0.00024145683
0.037518796 0.013237227 0.011240437 0.22150643 -0.57816291 0.78527874 0.00037356367
0.04044614 0.013716931 0.010719595 0.24972706 -0.5855096 0.77124244 0.00048376541
0.043327853 0.0141356 0.0099955015 0.32003707 -0.65605885 0.68349326 0.0018887109
0.045683883 0.014800269 0.0095008668 0.37597957 -0.64579242 0.6645236 0.0021753425
-0.045817584 0.017379804 0.0097601907 -0.4774355 -0.68617225 0.5488379 0.00095729559
-0.043536555 0.016527589 0.010498936 -0.43557942 -0.71330732 0.54905683 0.00052109547
-0.041034527 0.015763801 0.011351163 -0.36556098 -0.67432368 0.64160174 0.00061986106
0.04113454 0.015529213 0.011847929 0.24367388 -0.56994867 0.7847175 0.00074486173
0.04374402 0.016071478 0.011345284 0.27730623 -0.53972208 0.79485929 0.0010063912
0.046583503 0.016593205 0.010582305 0.3438808 -0.60296524 0.71984649 0.0031791232
0.049075644 0.017181642 0.0098384377 0.40714005 -0.64563149 0.64606261 0.0015879285
0.051142238 0.017692013 0.0090162111 0.44194421 -0.64731461 0.62102264 0.0055925017
-0.051234819 0.020878498 0.0093266014 -0.49178573 -0.66360897 0.56371099 0.0013682775
-0.049219117 0.020127255 0.010211786 -0.48975003 -0.66241419 0.56687957 0.0011735772
-0.04676846 0.01898442 0.010901301 -0.45931062 -0.67487997 0.57755584 0.001473105
-0.044586908 0.018143749 0.011615179 -0.42498508 -0.64775312 0.6323002 0.0019369439
0.047187924 0.018401645 0.011687204 0.30008167 -0.51692545 0.80171001 0.0010063249
0.049650863 0.019276811 0.011181774 0.35766831 -0.52275264 0.77382362 0.0015692691
0.052167494 0.019716958 0.010178107 0.42726198 -0.5697661 0.702007 0.0023231648
0.05447695 0.020477315 0.009341564 0.48398736 -0.59288353 0.64361894 0.00096822821
-0.054430585 0.023471346 0.009380959 -0.55842543 -0.61835432 0.55299097 0.0011394849
-0.052342001 0.02269358 0.010417553 -0.50240844 -0.63419461 0.58769286 0.002158565
-0.050068751 0.021782918 0.011348338 -0.46016589 -0.61572963 0.63962835 0.00043729891
0.050745316 0.021203004 0.011954984 0.38037759 -0.52025592 0.76462185 0.001504711
0.052894864 0.021877818 0.011337724 0.40110758 -0.48918164 0.77447659 0.0030714786
0.05530411 0.022533989 0.010383228 0.46348536 -0.50757837 0.72632337 0.0019222447
0.057625744 0.023229204 0.009339544 0.52708006 -0.55194741 0.64617395 0.0019645558
-0.057427306 0.026502589 0.0096387668 -0.57771832 -0.55046195 0.60268831 0.0010304841
-0.055427007 0.025515821 0.010550806 -0.53235441 -0.55401027 0.64005566 0.0011420473
-0.053229537 0.024508432 0.011502496 -0.5227288 -0.60034853 0.60525715 0.00087903574
0.056038376 0.024979087 0.011503568 0.42931274 -0.42353889 0.79768747 0.001770827
0.058234155 0.025511522 0.010477067 0.49769172 -0.44104242 0.74684972 0.0016841548
0.060322218 0.026328212 0.0095156766 0.58133423 -0.49269769 0.64753342 0.0025589187
-0.060391154 0.029628448 0.0093508549 -0.6250481 -0.51028663 0.59069663 0.0014166215
-0.058443997 0.02870114 0.010505795 -0.58352757 -0.47009665 0.66219687 0.00096091063
-0.05645974 0.027712621 0.011536844 -0.57531595 -0.5159263 0.63469011 0.001182957
-0.013002157 0.029998779 0.011694362 0.19634768 0.71666372 0.66920906 0.0015445995
-0.010229327 0.029415779 0.011579478 0.16468036 0.66877156 0.72500002 0.0013680026
-0.0073717041 0.029064868 0.011270032 0.14203694 0.6779359 0.72126871 0.0015226118
-0.0044614347 0.028778594 0.011039671 0.11430645 0.69242567 0.71237677 0.0013984694
-0.0015148873 0.028560596 0.010845335 0.091804899 0.72894311 0.67839062 0.0029254004
0.0015885596 0.028434247 0.010672265 0.081227519 0.72977269 0.67884749 0.002039003
0.0045346762 0.028333392 0.010672288 0.02643346 0.73233008 0.68043649 0.0022502472
0.0075202361 0.028372351 0.010632623 -0.032665975 0.72022891 0.692967 0.0025225596
0.010409954 0.028458731 0.010726262 -0.090536647 0.7126199 0.6956839 0.0023191657
0.013438058 0.028635284 0.01091264 -0.11026597 0.67740011 0.7273035 0.0014779754
0.016408779 0.028890975 0.011185848 -0.14405744 0.65117896 0.74512643 0.0017089652
0.019261617 0.029236147 0.011509925 -0.16833217 0.62255281 0.76425934 0.0021249652
0.02159101 0.029544851 0.011822337 -0.18179354 0.67344457 0.71653587 0.001934914
0.058998022 0.028107185 0.011381638 0.45211661 -0.35565957 0.81798339 0.001280485
0.06129035 0.028533859 0.010078782 0.55743653 -0.39305234 0.73128265 0.0020105587
-0.061114255 0.031685855 0.010094165 -0.6515432 -0.41169772 0.63717854 0.0018359139
-0.059278581 0.031211933 0.01147212 -0.58498371 -0.3778674 0.71764219 0.0015713681
-0.021630535 0.032774359 0.011753414 0.27014142 0.70029444 0.66076577 0.0029773191
-0.019204391 0.032320566 0.011298527 0.24989274 0.69321603 0.67602146 0.0013763364
-0.016399655 0.031847376 0.010747915 0.23394951 0.76244581 0.6032778 0.00084515329
-0.013635505 0.031328242 0.010387267 0.2070597 0.76479548 0.61009359 0.0022035229
-0.010663777 0.030719658 0.010214452 0.18445273 0.75994319 0.62326849 0.0014800066
-0.0077117379 0.030376835 0.0098555516 0.14741753 0.77012414 0.62062615 0.0014818524
-0.0048262998 0.030186737 0.0094814301 0.11462614 0.77340192 0.62346643 0.0012955363
-0.0018000274 0.030012488 0.009164175 0.095067784 0.76905918 0.6320681 0.0010597693
0.01130759 0.030022783 0.0090563521 -0.080350131 0.80367291 0.58962166 0.0042059198
0.013642007 0.030083999 0.0093700578 -0.11348164 0.75731701 0.64311188 0.0014307068
0.016713919 0.030378377 0.0096784933 -0.15814704 0.74486381 0.64820331 0.00173575
0.01964703 0.030778784 0.010056254 -0.19535641 0.72796726 0.65719062 0.0016775589
0.022601187 0.031141154 0.010519531 -0.20111693 0.72702885 0.65649146 0.0022963029
0.025415866 0.031829007 0.010708961 -0.23466089 0.68196839 0.69271451 0.0029175463
0.028326558 0.03226018 0.01123588 -0.22938924 0.69655454 0.67984724 0.0020713429
0.031051235 0.032816496 0.011626307 -0.23465498 0.65992737 0.71374559 0.0021848057
0.059641618 0.03005434 0.01184451 0.46542883 -0.33382419 0.81971788 0.0016427364
0.06153857 0.031180363 0.011096158 0.49933788 -0.28002247 0.8199079 0.00092334626
0.063705325 0.031557009 0.0097096674 0.59869665 -0.34065205 0.72492653 0.002065035
-0.06359347 0.034964178 0.0095841363 -0.671188 -0.36574024 0.64477956 0.0013756758
-0.061772849 0.034310505 0.010921326 -0.61571985 -0.3254298 0.71762431 0.002723004
-0.059967346 0.033104062 0.011902392 -0.59471232 -0.36504677 0.71628076 0.0012765113
-0.028152578 0.035698887 0.011453316 0.3039591 0.71745324 0.62679309 0.0016024277
-0.025338691 0.034875996 0.011029975 0.29733384 0.74465704 0.59756047 0.0012077551
-0.022574557 0.034196518 0.010500836 0.27373219 0.7560547 0.5945183 0.0019430133
-0.019769102 0.033656023 0.0099104298 0.26930216 0.76172072 0.58928591 0.0011028813
-0.017360745 0.033275161 0.0092910938 0.24602596 0.78046244 0.57476056 0.00091545645
0.026180081 0.033426676 0.0091987895 -0.23561238 0.7828331 0.57589853 0.001248987
0.028680449 0.033801589 0.0097494517 -0.25522056 0.71769428 0.64790225 0.0018019176
0.031619329 0.034340728 0.010306755 -0.25749165 0.71691984 0.64786112 0.0025913729
0.034370333 0.034885321 0.010853589 -0.28802502 0.69625491 0.65747303 0.0019074561
0.037131362 0.035494786 0.011488571 -0.30678266 0.64515698 0.69975477 0.0024181863
0.062290132 0.033981379 0.011537462 0.47890517 -0.19462959 0.85601938 0.001678186
0.064319149 0.034420114 0.010292456 0.57457316 -0.2443741 0.78111905 0.0028788755
0.066072114 0.035563901 0.0092666717 0.65600532 -0.27388042 0.70331109 0.001903174
-0.064263225 0.037754081 0.010127821 -0.63950491 -0.25933704 0.72372496 0.0022608908
-0.06241997 0.037325419 0.011509098 -0.60502428 -0.2021769 0.77011049 0.0018721767
-0.033893406 0.038425144 0.011348783 0.33941734 0.7215569 0.60344958 0.00070702872
-0.031350598 0.037826058 0.010652956 0.3486436 0.74657696 0.56663072 0.00057607121
-0.028660756 0.036955364 0.010237495 0.33132863 0.73630875 0.5899753 0.0012305831
-0.025866002 0.036227744 0.0095830513 0.31986526 0.75869107 0.56751573 0.00087735039
0.0351821 0.036521234 0.0095238145 -0.32071498 0.70649326 0.63087964 0.0017683945
0.037717789 0.037171807 0.010177068 -0.36373433 0.67954743 0.63711268 0.0026018287
0.040306464 0.037842672 0.010883526 -0.34682205 0.60696399 0.7150588 0.0022959497
0.042950366 0.038514175 0.011547613 -0.30182239 0.53407204 0.78972799 0.0022542702
0.062848374 0.037795372 0.011896378 0.48029083 -0.095412567 0.87190437 0.0021108796
0.064463884 0.03725408 0.010861812 0.51792955 -0.12490805 0.84625465 0.0010573779
0.066509165 0.037812155 0.0095000146 0.6510703 -0.16781136 0.7402342 0.0027565255
-0.06632632 0.040932935 0.009229173 -0.66536778 -0.1869472 0.72272843 0.0022114264
-0.064466029 0.040497895 0.010639422 -0.58882779 -0.10183573 0.80181754 0.0024075294
-0.06269788 0.040483907 0.01186368 -0.54027331 -0.062403783 0.83917248 0.0025360794
-0.042317789 0.041821409 0.011919188 0.30837929 0.63966936 0.70407766 0.0025046938
-0.040282 0.041400839 0.011412388 0.30701241 0.66371608 0.68207353 0.0008988778
-0.037543517 0.040707596 0.010728328 0.34844109 0.71321547 0.60820436 0.0016795585
-0.034773104 0.039812472 0.010213144 0.34972501 0.72556883 0.59265703 0.0011230919
-0.032507788 0.0393815 0.0093573136 0.36761996 0.74569148 0.55569756 0.0008814435
0.041024055 0.039622355 0.0095662391 -0.38717046 0.67780685 0.62504148 0.0022016037
0.043644458 0.040400974 0.010253181 -0.36956742 0.63067079 0.68240333 0.0023970394
0.046307974 0.04090083 0.011097026 -0.32229561 0.57305819 0.75347841 0.0025012561
0.049134549 0.041502822 0.01171083 -0.25001815 0.50302547 0.82731879 0.0022158674
0.062927715 0.040721361 0.011956359 0.4186849 0.047776796 0.906874 0.0040061744
0.064450219 0.04050361 0.011214843 0.4504675 -0.0082907267 0.89275438 0.0043505742
0.0666418 0.040306535 0.0097742574 0.60678065 -0.092185803 0.78950566 0.0030994012
-0.066613711 0.043575518 0.0094008232 -0.61642545 -0.062309485 0.78494412 0.0034769003
-0.064506598 0.043406259 0.010818573 -0.48746303 0.041056912 0.87217784 0.0049375212
-0.062560976 0.043665454 0.011862823 -0.40128186 0.093173765 0.91120332 0.0041205105
-0.048720952 0.044817179 0.011747703 0.22527605 0.63012433 0.74309766 0.0021981879
-0.046421465 0.044293474 0.0113535 0.27554533 0.62220979 0.73275489 0.0014139963
-0.043416701 0.043511759 0.010738829 0.3051351 0.70116746 0.64440411 0.0009363743
-0.040664103 0.042897239 0.0099533517 0.35565373 0.73650837 0.57538331 0.001117939
-0.038767762 0.042388484 0.0094566215 0.38867053 0.72188675 0.57255113 0.00076541118
0.046754494 0.042816792 0.0096691921 -0.3646853 0.64235646 0.67407924 0.0021811454
0.049542036 0.043498322 0.010363067 -0.34513929 0.59676617 0.72439557 0.0022534195
0.052342892 0.043833837 0.011144723 -0.2363288 0.52112335 0.82010931 0.0012313249
0.055393826 0.044362828 0.01161084 -0.16608708 0.46415898 0.87004107 0.0025203126
0.058519833 0.044639155 0.011864396 -0.045604222 0.3867709 0.92104751 0.003526991
0.061612409 0.044332437 0.011772384 0.13872693 0.26186079 0.95508313 0.0051924558
0.064194016 0.043610927 0.011170597 0.36861569 0.12420346 0.92124701 0.0061396034
0.06651783 0.043297004 0.010000867 0.54757607 0.029827785 0.83622408 0.0041247704
-0.066683404 0.046567712 0.009373324 -0.52947527 0.068077609 0.84558934 0.0051080738
-0.064555913 0.046503916 0.01049831 -0.38941556 0.18925038 0.90140986 0.0075053861
-0.061706532 0.046769861 0.011432024 -0.27339059 0.26601928 0.92438704 0.00497902
-0.05862692 0.047389269 0.011574198 -0.021148242 0.46353278 0.8858273 0.0029389155
-0.055374295 0.047075581 0.011604735 0.10354874 0.53853452 0.83621651 0.0022381563
-0.052419923 0.046810295 0.0112124 0.19257237 0.59510487 0.78023463 0.0012404665
-0.049526565 0.046492327 0.010508254 0.25458968 0.63925654 0.72562736 0.00082787493
-0.046574391 0.045866884 0.0098416125 0.3265478 0.68600655 0.6502012 0.0012954694
-0.044452708 0.0452221 0.0094268797 0.37031329 0.70289451 0.60729504 0.0012703047
0.050711028 0.045366094 0.0093225744 -0.36499012 0.64471811 0.67165524 0.0017109663
0.05279066 0.046016101 0.00970033 -0.30744213 0.61770636 0.72382188 0.0026598284
0.055532292 0.04659947 0.010247558 -0.24916629 0.54418242 0.80111277 0.0032329925
0.058447041 0.046659593 0.010860809 -0.094813369 0.45228872 0.88681757 0.0028929529
0.061443347 0.046680238 0.010997153 0.065840095 0.36427987 0.92895919 0.0055145556
0.064387217 0.046616163 0.010503974 0.29067662 0.24777782 0.92418247 0.00728672
0.066737555 0.046310451 0.0095989322 0.46485469 0.14684653 0.87312436 0.0036421241
-0.066385068 0.048952658 0.0092010219 -0.34717306 0.24671462 0.90476668 0.0092919106
-0.064445987 0.049482025 0.0097012529 -0.24142802 0.31226307 0.91880584 0.0061691641
-0.06147616 0.049491197 0.010255558 -0.12390155 0.45312411 0.88279498 0.0062091956
-0.058525935 0.049609061 0.010195581 0.087805904 0.58220863 0.8082841 0.0021386575
-0.05563914 0.049098149 0.010144077 0.15720913 0.63470429 0.75659484 0.0026189173
-0.052715279 0.048633099 0.009700574 0.25178626 0.65628535 0.71126169 0.001934935
-0.050483167 0.048337515 0.0091326181 0.31450626 0.70345211 0.63737035 0.001408098
0.056309104 0.048418872 0.0091972155 -0.2896713 0.61855108 0.73040062 0.0028960325
0.05870939 0.048966002 0.0095101679 -0.18826087 0.55712235 0.80880934 0.0042704372
0.061621156 0.049417336 0.009703611 -0.051096603 0.44776008 0.89269257 0.0045964988
0.064491898 0.049324278 0.0096047111 0.14084949 0.3536354 0.92471802 0.0087411497
0.066434935 0.048869811 0.0092224451 0.46067885 0.18905909 0.86719757 0.0035227924
-0.063881963 0.051122621 0.0090833949 -0.16139264 0.43064994 0.88797128 0.0081622945
-0.06162262 0.051158465 0.0092196744 -0.021929201 0.56997293 0.82137084 0.0047119232
-0.059292387 0.051208939 0.0090866005 0.1184794 0.66355944 0.73868221 0.0022927516
-0.019040795 0.0085775945 0.01236272 -0.16368896 -0.67211264 0.72212911 0.0011853602
-0.01633551 0.0082681058 0.012612502 -0.13395935 -0.69229192 0.70907462 0.0011479096
-0.013428023 0.0079524368 0.012768962 -0.09936285 -0.67352527 0.73245525 0.0011075456
-0.010545547 0.0077974624 0.012948525 -0.063743316 -0.65350848 0.75423044 0.001117011
-0.0074214488 0.0077643674 0.013117684 -0.03322443 -0.63547707 0.77140462 0.0011841571
-0.004494173 0.0077296547 0.013178877 -0.0091510145 -0.60211396 0.79835778 0.0017811497
-0.0015123338 0.0076554203 0.013136805 0.020405533 -0.59620386 0.80257368 0.0015101144
0.0014709346 0.0076404284 0.013067995 0.010088723 -0.58582592 0.81037414 0.0019712481
0.0044276109 0.0076794028 0.012986726 0.040565211 -0.56437415 0.82452184 0.0021497125
0.0074916151 0.0077597285 0.012865761 0.058211692 -0.57952553 0.81287247 0.0016177384
0.010490881 0.0079133576 0.012753658 0.07292477 -0.58197951 0.80992705 0.0016357293
0.013457338 0.0081042508 0.012594797 0.092526428 -0.59370297 0.79934698 0.0017973279
0.016432093 0.0083805704 0.012416643 0.11282787 -0.61243582 0.78242719 0.0021094878
0.019166987 0.0087724468 0.012287778 0.13769169 -0.6299054 0.76436907 0.0020523106
0.021249644 0.0089063309 0.012003521 0.15471536 -0.66692036 0.72888988 0.002018224
-0.028300935 0.011338368 0.012490937 -0.23208702 -0.71208066 0.66262859 0.00078349427
-0.025352836 0.010886366 0.012947056 -0.20625581 -0.69437766 0.68941879 0.00093005376
-0.022418581 0.010460883 0.013305961 -0.17757455 -0.67301649 0.71799445 0.000808571
-0.019513849 0.010327002 0.013794492 -0.12243424 -0.59481257 0.79448593 0.00062730536
-0.016564773 0.010137048 0.014120398 -0.10592338 -0.57643712 0.81024718 0.0011793969
-0.013571644 0.0098964414 0.014293559 -0.07452561 -0.55219936 0.83037448 0.0015202328
-0.01051285 0.0097536016 0.014418221 -0.045039099 -0.52893186 0.84746832 0.0017992675
-0.0076934882 0.0098552182 0.014575204 -0.019606838 -0.50653011 0.86199927 0.0018601684
-0.0046227705 0.0099022062 0.014626501 0.0018643223 -0.48856056 0.87252802 0.001801686
-0.0015911316 0.00985156 0.014557187 0.018999549 -0.47574544 0.87937784 0.0017181935
0.0015322517 0.0099719074 0.014528181 0.032164685 -0.4661586 0.88411623 0.0016950377
0.0045862803 0.010075639 0.014447878 0.044445831 -0.45624045 0.88874584 0.0019431694
0.0075656977 0.010314021 0.014390686 0.057413142 -0.45299953 0.88966018 0.0015073214
0.010509226 0.01036346 0.014217461 0.069286667 -0.45367834 0.88846803 0.0011999796
0.013563819 0.010460204 0.014009092 0.083512738 -0.45273238 0.8877269 0.0011920161
0.016451433 0.010523309 0.013748554 0.095198199 -0.45351207 0.88615125 0.0011283704
0.019481733 0.010683439 0.013473631 0.12113697 -0.48648325 0.8652513 0.0030443992
0.022405336 0.010671815 0.013025243 0.14049603 -0.52980453 0.83640188 0.0026164653
0.025360653 0.010998853 0.012709735 0.15644029 -0.56547064 0.80979592 0.0030152109
0.028143086 0.011437411 0.012408893 0.18324552 -0.59369642 0.78354681 0.0019127609
0.030186735 0.011664407 0.012059717 0.19359566 -0.61805058 0.7619279 0.00076901109
-0.036889397 0.014664595 0.012467884 -0.32587326 -0.66687596 0.67013663 0.0007439293
-0.034338795 0.014162109 0.01306983 -0.28772074 -0.6558376 0.69792104 0.0010754118
-0.031483982 0.013546858 0.013520338 -0.23347981 -0.6528787 0.7205807 0.0014565504
-0.028621562 0.013083084 0.014004041 -0.20976746 -0.61111879 0.76323748 0.0012956141
-0.025615681 0.012662185 0.014430326 -0.17706963 -0.62977976 0.7563225 0.0011008779
-0.022694623 0.012198349 0.014681008 -0.14472033 -0.58249676 0.79984599 0.00066692568
-0.020263145 0.012005836 0.014933254 -0.11211123 -0.54893732 0.82831091 0.00098945189
0.011197108 0.012030975 0.014921474 0.060336925 -0.28952134 0.95526797 0.0020468354
0.013586843 0.012411602 0.014886475 0.070978589 -0.31085479 0.94780344 0.0021219347
0.016732644 0.012832455 0.014788122 0.083746858 -0.33664894 0.9378987 0.0017666355
0.019555764 0.013117734 0.014627772 0.10143051 -0.36556494 0.92524278 0.0018057692
0.022500401 0.013515433 0.014464659 0.11359385 -0.39472103 0.91175205 0.0016624627
0.025485182 0.013495491 0.0140852 0.1274804 -0.41470292 0.90098286 0.0013863046
0.02847567 0.013450212 0.013592119 0.16339649 -0.46222749 0.8715775 0.0036419772
0.031369276 0.013488783 0.013033049 0.18661126 -0.5110088 0.83907461 0.0024250739
0.034248531 0.013953658 0.012636867 0.18969448 -0.53785795 0.82141632 0.0012221808
0.037286542 0.014671756 0.012289064 0.21045601 -0.54981107 0.80834156 0.00045120125
-0.042618688 0.017596364 0.012316607 -0.40484318 -0.63396668 0.65892959 0.0017507769
-0.040255159 0.016910704 0.012958921 -0.3658067 -0.63181907 0.68336678 0.0014240443
-0.037595972 0.016436739 0.013776843 -0.28961045 -0.5906862 0.75313723 0.00070768484
-0.034717113 0.01588429 0.014448629 -0.25328144 -0.569525 0.78197813 0.0018495572
-0.032275636 0.015368949 0.01484102 -0.21287416 -0.60823417 0.76468027 0.0014269362
0.023603419 0.015205723 0.01495563 0.086468764 -0.213541 0.97309989 0.0022072555
0.025843605 0.015496332 0.014828515 0.10228866 -0.27015033 0.95736921 0.0025552262
0.028646203 0.015992297 0.014677131 0.13563332 -0.32055926 0.93746752 0.001922515
0.031519398 0.016405482 0.01446986 0.11871006 -0.35166386 0.92856902 0.0030900498
0.034458429 0.016547335 0.014081014 0.140312 -0.39432317 0.90819705 0.0027343428
0.037457958 0.016649684 0.013501992 0.19815773 -0.44795161 0.87182164 0.0017111001
0.040392339 0.01682052 0.012819041 0.22005874 -0.48722112 0.84509748 0.00071256654
0.043166459 0.017487017 0.012444737 0.25582013 -0.50844187 0.8222183 0.0011258073
0.045252163 0.017813589 0.012017439 0.3004809 -0.53335083 0.79072636 0.0012961836
-0.046113644 0.020368863 0.012746421 -0.42829305 -0.60156655 0.67430168 0.0013332226
-0.043461438 0.019568505 0.013559941 -0.37044135 -0.56879693 0.73433179 0.0007425939
-0.040813141 0.018826827 0.014305169 -0.33065227 -0.59104204 0.73575705 0.001306593
-0.038755562 0.018318957 0.014833163 -0.31253183 -0.5741331 0.7567662 0.00085340784
0.034763042 0.018718047 0.014882296 0.11379267 -0.26486635 0.95754743 0.0027298648
0.03772964 0.019350577 0.014689964 0.15719572 -0.340534 0.92699844 0.0026662659
0.040548451 0.019604156 0.014247628 0.19401498 -0.38508654 0.90225637 0.0012981801
0.043553967 0.01958327 0.013450322 0.23939849 -0.43627098 0.86738461 0.00058485277
0.046358548 0.019711003 0.012692326 0.28600723 -0.46331227 0.83877385 0.00086444197
0.048801661 0.02053469 0.012332009 0.32041436 -0.48300183 0.81488889 0.0019931025
-0.051284458 0.023642145 0.012201186 -0.48299649 -0.58481812 0.65169179 0.0012705119
-0.04919219 0.022853011 0.01290715 -0.4506951 -0.57550687 0.68239713 0.00079355884
-0.04663704 0.02234729 0.014005398 -0.38269794 -0.50925559 0.77084428 0.00083571958
-0.044360586 0.02157313 0.014650823 -0.34479436 -0.51329905 0.78590137 0.0012218473
-0.0044510313 0.02380823 0.01483322 0.10464702 0.50384039 0.85743445 0.0012824013
-0.001523221 0.023501476 0.014706646 0.075338997 0.42955795 0.89989108 0.0021235289
0.0014972338 0.023257224 0.014617407 0.049011756 0.43877319 0.89726025 0.0020909049
0.004472238 0.023177957 0.014537919 0.020978488 0.43861884 0.89842826 0.0021915156
0.0075323372 0.023162933 0.014514442 -0.0067802435 0.43035376 0.9026348 0.0022901176
0.010574281 0.023149043 0.014572318 -0.031403329 0.41157737 0.91083366 0.0024916988
0.013521892 0.023278072 0.01464433 -0.054160349 0.38130563 0.9228611 0.0029289771
0.016507471 0.023455741 0.01477912 -0.075043596 0.34583104 0.93529105 0.0029644694
0.019288657 0.023746051 0.014896393 -0.083069451 0.28880706 0.95377672 0.0029521897
0.041056357 0.021470947 0.014856931 0.15213118 -0.24450099 0.95764053 0.0032858411
0.043650344 0.022281289 0.014605715 0.21661119 -0.32137361 0.9218452 0.0020109219
0.04646071 0.022480085 0.013949236 0.24475175 -0.34463546 0.90626866 0.00095505494
0.049433332 0.022534268 0.013058216 0.29262319 -0.39162251 0.8723551 0.001044936
0.052004356 0.022962617 0.012355124 0.35355708 -0.42276263 0.83442736 0.0018847689
-0.054382723 0.026510866 0.012246921 -0.5138495 -0.52218348 0.68064892 0.0014979772
-0.052300572 0.025706779 0.013078423 -0.47482806 -0.51481467 0.71379554 0.0013119342
-0.049776461 0.025201377 0.014223431 -0.41110694 -0.45501077 0.78990906 0.0016349938
-0.047638256 0.024257392 0.014786677 -0.40929136 -0.48548222 0.77252024 0.00062639464
-0.015618108 0.026750339 0.014918563 0.18017165 0.5140518 0.83862323 0.00064608117
-0.013308497 0.026423303 0.014641981 0.16607143 0.49852169 0.85082108 0.0020016588
-0.010423988 0.025943078 0.014400889 0.15071739 0.52081311 0.84026068 0.0015039616
-0.0074960939 0.025614062 0.014127521 0.12718375 0.53510332 0.83515787 0.0011217432
-0.0045032394 0.025546651 0.01376078 0.099729441 0.56111556 0.82170755 0.0025206415
-0.0014524162 0.025548814 0.013430738 0.081830993 0.58829814 0.80449295 0.0012681272
0.0015342684 0.025518058 0.013226984 0.057303656 0.56288642 0.82454544 0.0028332199
0.0044516795 0.025536394 0.013092141 0.020949494 0.57221442 0.81983638 0.0027748817
0.0074266857 0.025514018 0.013100352 -0.031399406 0.56476915 0.82465142 0.0026762234
0.010449592 0.025506189 0.013222087 -0.048337847 0.54062063 0.83987671 0.0029858325
0.01344678 0.025499113 0.013437099 -0.075733297 0.54868764 0.83259022 0.001813409
0.016463287 0.025511846 0.013728182 -0.097145125 0.47526306 0.87446433 0.0013347091
0.01945141 0.025486844 0.014126673 -0.11109486 0.45303139 0.88454539 0.0013658644
0.022404661 0.025583215 0.014464592 -0.11975644 0.41810259 0.90047133 0.001932656
0.025414811 0.02596269 0.014675239 -0.1235706 0.36219263 0.92387599 0.0030189876
0.028329315 0.02640391 0.014845476 -0.10344179 0.29377139 0.95026213 0.0033748231
0.030430814 0.026662057 0.014968077 -0.081901036 0.20856032 0.97457421 0.0033165992
0.044880323 0.024203673 0.014937942 0.12721825 -0.15404753 0.97983921 0.0040501328
0.046874382 0.025046345 0.014744213 0.22583519 -0.23740503 0.94479489 0.0021768028
0.049535763 0.025468979 0.014172145 0.25769591 -0.28696516 0.92262876 0.0011462435
0.052551273 0.025355451 0.013149385 0.31253573 -0.33685395 0.88817281 0.0011058135
0.054939717 0.025822401 0.012444737 0.37658745 -0.37619767 0.84655613 0.001495698
-0.057427004 0.02981382 0.012141674 -0.55605817 -0.43683097 0.70709127 0.0016442621
-0.055306494 0.028824061 0.013063613 -0.50753093 -0.43532771 0.74357396 0.0015683996
-0.05276094 0.028283784 0.014321222 -0.43738228 -0.38033459 0.81488794 0.0016216462
-0.050617125 0.027267141 0.014949671 -0.41437173 -0.43964177 0.79687595 0.0015487955
-0.024135508 0.02998374 0.014911018 0.23233044 0.57784414 0.7823801 0.0010790164
-0.022190804 0.029640296 0.014647453 0.21977787 0.55540949 0.80200869 0.00053068221
-0.019391011 0.029065112 0.014280504 0.21279541 0.54429936 0.81145322 0.0015318089
-0.016445877 0.028638721 0.013815944 0.19034636 0.56736457 0.80116516 0.00070121035
-0.013507937 0.028454099 0.013220689 0.17239277 0.62166721 0.76407504 0.0021617585
-0.010547339 0.02803812 0.012898906 0.15902311 0.6412161 0.75070202 0.0011847793
-0.0075289598 0.027685966 0.012602058 0.1330518 0.65163547 0.74677205 0.0013725106
-0.0046453518 0.02739495 0.012396727 0.10296913 0.66485345 0.73984265 0.0013572893
-0.0016952878 0.027180856 0.012206885 0.079299107 0.67787904 0.73088419 0.0014566471
0.00039154111 0.027176946 0.01203315 0.041015968 0.64312083 0.76466548 0.0026635802
0.011362292 0.027160147 0.012051858 -0.059862416 0.67341489 0.73683715 0.0012010843
0.01386687 0.027276386 0.012235167 -0.091243677 0.64856756 0.7556684 0.0016271328
0.016695673 0.027495047 0.012458964 -0.11914468 0.62074649 0.77490532 0.0020121548
0.019600103 0.027868494 0.012690456 -0.13896085 0.5862537 0.79812056 0.0021420724
0.022520015 0.02828462 0.01295708 -0.15486529 0.55259281 0.81893706 0.0020401902
0.025485512 0.028332692 0.013498841 -0.15586357 0.47033912 0.86861247 0.001251856
0.028531181 0.028376682 0.014012478 -0.14604855 0.43838519 0.88684177 0.0016175442
0.031467211 0.028413817 0.014447596 -0.12856965 0.40524232 0.90512347 0.0025534504
0.034394491 0.028756278 0.014704284 -0.13548201 0.33619061 0.93199807 0.0031233085
0.037339821 0.02928438 0.014867268 -0.11361846 0.26409698 0.95778054 0.00285332
0.049812902 0.028181428 0.014797713 0.20038208 -0.13073254 0.97095621 0.0047186865
0.05244416 0.028259516 0.014136629 0.25661999 -0.20047581 0.94549227 0.0027154479
0.05547031 0.028401785 0.013128597 0.33337414 -0.26761371 0.90401584 0.0016684699
