# .PCD v0.7 - Point Cloud Data file format
VERSION 0.7
FIELDS x y z normal_x normal_y normal_z curvature
SIZE 4 4 4 4 4 4 4
TYPE F F F F F F F
COUNT 1 1 1 1 1 1 1
WIDTH 568
HEIGHT 1
VIEWPOINT 0 0 0 1 0 0 0
POINTS 568
DATA ascii
-0.072484545 0.047083683 0.0039782235 -0.79336047 -0.19623218 0.57625693 0.0044026105
-0.071500517 0.046351671 0.0051854528 -0.80100936 -0.18574156 0.56910807 0.0042657279
-0.043224994 0.047326166 0.0052566733 0.41538653 0.78852016 0.45353064 0.00054353353
-0.040893503 0.046090864 0.0051740007 0.45752075 0.81358778 0.35881695 0.0018105835
0.047889668 0.046626389 0.0058688973 -0.42303067 0.72254145 0.54678965 0.00054430927
0.049332596 0.047591735 0.0057267915 -0.42923328 0.71640861 0.55001593 0.00055358681
0.071414329 0.046489671 0.0048939018 0.89271581 -0.026962129 0.44981277 0.0025908626
-0.07273183 0.049717031 0.0046432391 -0.76583582 -0.17102137 0.61987686 0.0031913042
-0.07132075 0.048190549 0.005956287 -0.73383594 -0.10524084 0.67112523 0.011394084
-0.048844568 0.050395168 0.0051207179 0.40254152 0.78383052 0.47283196 0.00051638484
-0.046297558 0.049151909 0.0048939874 0.40747538 0.79130459 0.45585182 0.00045356425
-0.044371128 0.048318066 0.0043613054 0.4517706 0.81101185 0.37170309 0.001307031
0.05025677 0.048509896 0.0051089707 -0.42925265 0.71640617 0.55000395 0.00054847554
0.052468427 0.049751036 0.0054697311 -0.41375989 0.70047909 0.58149093 0.0011655071
0.071381114 0.049492456 0.0048740525 0.87071645 0.01225955 0.4916324 0.0037269536
0.072013676 0.050601378 0.0036305841 0.88016677 0.026423434 0.47392857 0.0043894914
-0.075081453 0.053528786 0.003507873 -0.69423825 -0.24924771 0.67521024 0.0063039027
-0.073354781 0.052416172 0.0048405658 -0.67038089 -0.19147015 0.71688813 0.0052468376
-0.055138726 0.053484708 0.0049201469 0.30511594 0.80227798 0.51308322 0.0017523855
-0.052394956 0.052326202 0.0048325616 0.36996055 0.80154407 0.46974078 0.00052639935
-0.050279632 0.051473241 0.0043390035 0.38606861 0.80151176 0.45665073 0.00039310669
0.055365048 0.051671367 0.0052271206 -0.38356936 0.69189954 0.61167765 0.00062752207
0.058328472 0.053292155 0.0053722602 -0.36693099 0.65951443 0.65605062 0.0015199559
0.071119897 0.052563082 0.0050150119 0.82806796 0.083316565 0.55440223 0.0058504483
0.072087295 0.052449912 0.0034133091 0.87167025 0.032060202 0.48904312 0.0045869043
-0.075042382 0.055527054 0.0039031811 -0.66892296 -0.030182252 0.74271876 0.011313429
-0.073334776 0.055557244 0.0052264952 -0.58975434 0.026582895 0.80714506 0.0070710974
-0.071786754 0.05675846 0.0058296639 -0.32990915 0.20120372 0.92232156 0.01287585
-0.066801086 0.056945752 0.0058529386 0.12438969 0.61045873 0.78221953 0.0093206391
-0.064169943 0.056368019 0.0054833102 0.27601618 0.70591962 0.65229791 0.0075829327
-0.061667167 0.055857282 0.0047412156 0.29756677 0.75043875 0.59016585 0.0057460959
-0.058728863 0.054876249 0.0045942953 0.22916348 0.79285872 0.56467623 0.0023132316
-0.055760548 0.054159515 0.0041301157 0.30509087 0.80228126 0.51309294 0.0017639841
0.059207596 0.054510836 0.0043980801 -0.38828954 0.64793813 0.65529191 0.0012859757
0.06164464 0.05580429 0.0048838877 -0.41283101 0.61719006 0.66981119 0.0022229014
0.063875854 0.056575123 0.0057050525 -0.30193979 0.56586587 0.76722109 0.009019617
0.070770279 0.055650633 0.0049223369 0.66961902 0.21528092 0.71081966 0.021236448
0.072204374 0.055352867 0.0031071368 0.82359535 0.062295426 0.56374645 0.0055427523
-0.072857909 0.057610393 0.0051496108 -0.50466317 0.23369657 0.83108425 0.01949936
-0.070377447 0.058306601 0.0053083054 -0.093860388 0.54603326 0.83248895 0.016787376
-0.067618489 0.05860227 0.0046655368 0.23565847 0.64835775 0.72394562 0.0055914265
-0.064675339 0.057730231 0.0043050842 0.35280988 0.69409698 0.62749869 0.0030316594
0.062488154 0.057617776 0.0036761353 -0.44599774 0.56622046 0.69316703 0.0041817315
0.064690068 0.058403853 0.004794152 -0.40885276 0.52878624 0.74379057 0.012736792
0.067548424 0.058804337 0.0054972367 -0.0062169069 0.37157521 0.92838204 0.013853372
0.07053078 0.058519185 0.0045734434 0.51912028 0.17355022 0.83689576 0.022128163
-0.067801073 0.060070299 0.0033331912 0.2182471 0.68085635 0.69914436 0.0050466591
0.065408081 0.061254315 0.0037322233 -0.52650177 0.31425893 0.78996027 0.0072558704
0.067564972 0.061527438 0.0045479177 -0.14553063 0.27036661 0.95169461 0.03006205
0.070560746 0.061381768 0.004008662 0.42296782 0.07267867 0.90322542 0.026432743
0.072039939 0.062258918 0.0031498715 0.39931694 0.052982308 0.9152807 0.027461549
0.065909892 0.063444331 0.0032563992 -0.53682017 0.23397395 0.81060493 0.0041589532
0.06774611 0.064463988 0.0037617777 -0.28454015 0.25299609 0.92467827 0.017517453
0.070496306 0.064509831 0.0036095711 0.22912061 0.0026389726 0.97339451 0.023169581
0.072218396 0.064745121 0.0031570457 0.3270084 -0.017370593 0.94486177 0.018138245
0.068131335 0.067338377 0.0032722591 -0.28119227 0.10319617 0.95408672 0.01256837
0.070677921 0.067581333 0.0034578505 -0.0062274248 -0.032057986 0.99946666 0.026170537
0.072669603 0.067720383 0.0033105186 0.47582901 -0.097304046 0.87413883 0.027355332
0.068538159 0.069546089 0.003046643 -0.21404108 0.06623888 0.97457623 0.011900642
0.070433207 0.070483834 0.0036008279 -0.082838461 0.0045396299 0.99655271 0.030976025
0.07324484 0.070675008 0.0036679073 0.31456783 -0.21115956 0.92545056 0.024502574
0.068748437 0.074440278 0.0031535241 -0.44254145 -0.026248792 0.89636385 0.010074085
0.070446089 0.073530979 0.0041766218 -0.35769919 -0.15564208 0.92077518 0.019456865
0.073459327 0.073437288 0.0044312878 0.28692472 -0.27757531 0.91685659 0.030876784
0.07549502 0.073975906 0.0034493348 0.27921921 -0.35416371 0.89252722 0.033510618
0.068823338 0.075881548 0.0034452183 -0.38079786 -0.068771556 0.92209733 0.014526208
0.070336282 0.075512379 0.0045396322 -0.22854824 -0.075918771 0.97056782 0.044153154
0.073166586 0.075339973 0.004820195 0.068289667 -0.11299548 0.99124599 0.053973559
-0.013213909 0.002828602 0.006218154 -0.16087516 -0.87416226 0.45821324 0.0010033102
-0.010354199 0.0026761615 0.0067602182 -0.12050565 -0.87099367 0.47628611 0.001302155
-0.0075060301 0.0024052516 0.0068727494 -0.080951251 -0.87447798 0.47826257 0.0016000683
-0.0044707037 0.0024116174 0.0073029487 -0.042878553 -0.87645698 0.47956702 0.0018910728
-0.0014786411 0.0022953639 0.007292497 -0.020204172 -0.87730366 0.47951022 0.0018643534
0.0015350572 0.0021904276 0.0071102637 0.0073722238 -0.87471104 0.48458883 0.0019551797
0.0044264677 0.0023898552 0.0073165605 0.039203405 -0.86952096 0.4923377 0.0017886535
0.0074116983 0.0024784321 0.0071300268 0.063667208 -0.86670768 0.49473661 0.0013102085
0.010357626 0.0025883697 0.0068160491 0.086277805 -0.85999471 0.50295639 0.00097384991
0.013352658 0.0027557435 0.0065114279 0.10567993 -0.85171545 0.5132373 0.00059744692
0.016256467 0.0029194024 0.0062025553 0.12235413 -0.84069419 0.52750605 0.00052719453
-0.024705401 0.0057943254 0.0062771966 -0.28406972 -0.88527071 0.36823937 0.0010753176
-0.022307646 0.0054304535 0.0070334924 -0.25146911 -0.85595208 0.45178458 0.0011243705
-0.019521177 0.0049466048 0.0075694597 -0.22553888 -0.85255241 0.47147289 0.0011431717
-0.016505931 0.0042230282 0.0075825336 -0.18808281 -0.86422831 0.46662003 0.0009598498
-0.013573941 0.0037653984 0.0077991355 -0.15306565 -0.85236043 0.50005263 0.00097238959
-0.010550651 0.0035938926 0.0083201155 -0.11169389 -0.84852135 0.51723874 0.0012771883
-0.0074366047 0.0032496999 0.0083524315 -0.077315159 -0.84335732 0.531762 0.0014432181
-0.0044833124 0.0032677993 0.0087002991 -0.045639448 -0.84610295 0.53106189 0.0020295144
-0.0016142977 0.0031384078 0.008682034 -0.015301327 -0.84777105 0.53014159 0.0024606106
0.0016060574 0.0031116554 0.0086693447 0.010987064 -0.79383129 0.60803866 0.00093799282
0.0046077985 0.0033001273 0.0088002607 0.03888784 -0.84013253 0.54098529 0.0019615786
0.0076571321 0.0033704406 0.0085877478 0.069254324 -0.79671514 0.60037392 0.0010264277
0.010622051 0.0035266653 0.0083670095 0.091875568 -0.8370347 0.53938091 0.00096167257
0.01363283 0.0037055255 0.007990161 0.11266196 -0.83139008 0.54414874 0.00056081096
0.016577544 0.0039880439 0.0077005262 0.13044544 -0.82167119 0.55483359 0.00039424744
0.019543381 0.0044064694 0.0075576156 0.15433702 -0.80311286 0.57549089 0.00092536327
0.022442525 0.0048816404 0.0074907066 0.17819785 -0.79421121 0.58092511 0.0013669131
0.025397914 0.0052629998 0.0072151884 0.18707117 -0.80213493 0.5670836 0.002441993
0.028373405 0.0056414795 0.0067142071 0.22452974 -0.813209 0.53691483 0.0025744766
-0.033181064 0.0086990483 0.0061309282 -0.33150873 -0.86471397 0.37732178 0.0027339738
-0.031167444 0.0084442981 0.007172958 -0.31050491 -0.84623218 0.43298718 0.001089435
-0.028460963 0.0076931752 0.0075549404 -0.29070139 -0.84130812 0.45573387 0.0010656292
-0.025558077 0.0068331123 0.0077488958 -0.26319888 -0.8432104 0.46874574 0.001045808
-0.022776185 0.0062968838 0.0083417883 -0.2414521 -0.83775187 0.489768 0.0011129185
0.023299159 0.0062392689 0.0088623101 0.16927667 -0.73721379 0.65411109 0.00038394431
0.025770495 0.0064736768 0.0085514719 0.17734799 -0.727274 0.66303855 0.00034205351
0.028641291 0.0068856901 0.0082517425 0.20168863 -0.75364751 0.6255694 0.0037122499
0.031483352 0.0071765967 0.0075838096 0.25460318 -0.81035441 0.52773368 0.0041937111
0.034347009 0.0080032442 0.0074412869 0.27702639 -0.79036301 0.54642719 0.0036352398
0.037044726 0.0085511962 0.006747968 0.33552143 -0.81024128 0.48055643 0.0021009606
-0.039625261 0.011658262 0.0064503737 -0.40286082 -0.81182528 0.42266169 0.00080219551
-0.037411757 0.01110979 0.007424619 -0.36338645 -0.81770974 0.44643143 0.00086929335
-0.034465846 0.0099725369 0.0076619461 -0.32985559 -0.83168507 0.44664899 0.00096551323
-0.031933345 0.0093753142 0.0083810436 -0.30033121 -0.830486 0.46914199 0.00099097507
0.035212722 0.0092017772 0.0086620627 0.23839465 -0.69262546 0.68076277 0.0016650828
0.037785273 0.0097019086 0.0080377823 0.31023699 -0.78315449 0.53890818 0.0037734432
0.040511124 0.010561384 0.0075975657 0.33647603 -0.80145425 0.49442387 0.0020381224
0.043169044 0.011417586 0.0069972961 0.39146987 -0.78538316 0.4795045 0.0019960876
-0.045147832 0.014862396 0.0066935942 -0.48520738 -0.77000231 0.4143312 0.00074568129
-0.043219715 0.014076895 0.0073452303 -0.46018669 -0.77366525 0.4355115 0.0013290262
-0.04062888 0.012832755 0.0077046398 -0.42968088 -0.79755211 0.42342037 0.00065592333
-0.038478959 0.012385051 0.0088111544 -0.36796829 -0.76692629 0.52575982 0.0010023995
0.04161837 0.012028375 0.0089314831 0.31687644 -0.6833418 0.6577487 0.0018987737
0.043768726 0.012590906 0.0083209611 0.36080134 -0.75627291 0.5457781 0.0038567227
0.046429776 0.013466322 0.0075062467 0.40868527 -0.77119547 0.48809227 0.0016660811
0.048863411 0.014530959 0.006995067 0.45829177 -0.75219899 0.473461 0.0018900769
-0.048786178 0.017473474 0.0069930591 -0.53147972 -0.74143654 0.40963554 0.0017663062
-0.046559349 0.016320167 0.0076216739 -0.50700855 -0.75839877 0.40960187 0.00058486039
-0.044247858 0.015296998 0.0084292172 -0.4580918 -0.77279043 0.43925706 0.0013393987
0.047715422 0.015110513 0.0088108024 0.39195746 -0.66343296 0.63735878 0.0015914005
0.049877375 0.015819943 0.0079632634 0.44767737 -0.73880005 0.50374556 0.003922557
0.052296147 0.017012894 0.0073863389 0.48910296 -0.72262233 0.48846209 0.0029789279
0.054232936 0.017703827 0.006393794 0.52017498 -0.71214461 0.47145304 0.0013089922
-0.052155107 0.020118752 0.0072933887 -0.53944713 -0.71742249 0.4407967 0.00099772238
-0.049887627 0.018797629 0.0078626946 -0.53063375 -0.73351967 0.42470774 0.00068050157
0.053337995 0.018512249 0.0084143505 0.51302469 -0.6890474 0.51187825 0.001881594
0.055490922 0.019502897 0.0075635463 0.51454508 -0.69206101 0.50625587 0.0023257749
0.057458799 0.020588417 0.006901843 0.56319308 -0.66186219 0.49472427 0.0013535573
-0.057351302 0.023741236 0.0063876868 -0.61644614 -0.66568619 0.4205426 0.00057781977
-0.055264562 0.022638936 0.0074773976 -0.56606251 -0.69875842 0.43738985 0.00088461681
-0.053300206 0.02147948 0.0081463763 -0.55477494 -0.71040195 0.4330748 0.00089566829
0.056670673 0.021232368 0.0084998263 0.54839587 -0.62160122 0.55935133 0.0014330402
0.058702767 0.022293156 0.0076083019 0.60287338 -0.63380653 0.48459557 0.001385431
0.060577288 0.02331336 0.0066709951 0.61880642 -0.597956 0.50943822 0.0012658354
-0.060300209 0.026814893 0.0065986374 -0.66981417 -0.59775716 0.44049454 0.00073950086
-0.058429159 0.025642699 0.0076337024 -0.64029789 -0.63081193 0.43828627 0.00063632568
-0.056518786 0.024463058 0.0085342368 -0.59996599 -0.63510478 0.48650044 0.0024297934
0.05955993 0.024158163 0.0087076193 0.53875524 -0.55637717 0.63260359 0.001641107
0.061572507 0.025366122 0.0077262567 0.6337983 -0.52965337 0.56370825 0.0035119758
0.063408874 0.026397619 0.0065816678 0.67085099 -0.52704287 0.52171338 0.001634297
-0.063127592 0.029909806 0.0062015615 -0.69180232 -0.56124741 0.4543246 0.00075288053
-0.061269719 0.028697265 0.0075190729 -0.67932802 -0.54762918 0.48848304 0.0020132172
-0.059604507 0.027514273 0.0084166098 -0.6347034 -0.58451128 0.50546813 0.0019191211
0.062709764 0.027581224 0.008507465 0.6670208 -0.46021959 0.58590204 0.001848659
0.064340279 0.028627688 0.007445035 0.70432413 -0.44839439 0.5503363 0.0020937261
0.066112585 0.029904539 0.0062626903 0.72332489 -0.44438085 0.52851373 0.0016495844
-0.063814916 0.031920742 0.0073274584 -0.70901036 -0.47645327 0.5199005 0.0010966455
-0.062509276 0.030942168 0.0081857704 -0.69895405 -0.50746977 0.50392222 0.0010667359
-0.0137172 0.032702167 0.0087822629 0.22365607 0.83804572 0.49765176 0.0015571186
-0.010336145 0.03237037 0.0079318481 0.187924 0.85113347 0.49015957 0.0012957704
-0.0077214334 0.031958014 0.007705797 0.16564563 0.85041994 0.49934712 0.0022749836
-0.0044780569 0.031350959 0.00781208 0.11252369 0.8390764 0.53224921 0.0015013681
-0.0016930571 0.031132638 0.0076462845 0.10763391 0.82711267 0.5516336 0.0011230556
0.001541657 0.030714037 0.0079746759 0.027126247 0.83496803 0.54962945 0.0017181844
0.0046657962 0.030964362 0.0073167654 -0.0094535965 0.8351289 0.54997313 0.0014813532
0.0073365076 0.030675029 0.0078118918 0.0015614742 0.81272405 0.58264667 0.0023432905
0.010521393 0.031052737 0.007530841 -0.063046433 0.80485648 0.5901112 0.0028815242
0.013594178 0.031357512 0.0076449863 -0.15785332 0.79309034 0.58829415 0.0010334043
0.016554585 0.03174185 0.007891776 -0.1528102 0.78121376 0.60527188 0.00095299736
0.019449947 0.03236017 0.0081046168 -0.19284222 0.77453309 0.60242039 0.0013837131
0.022153042 0.03281654 0.0085083358 -0.23700646 0.7689079 0.59380847 0.0010674343
0.065254122 0.031121731 0.0082348306 0.67090076 -0.36628631 0.6447686 0.0011609119
0.066706918 0.031762708 0.0068609966 0.73454088 -0.40546507 0.54410279 0.0020725764
-0.066387825 0.035577029 0.0068351533 -0.7294808 -0.3731257 0.57326692 0.0011809308
-0.064857103 0.034205325 0.0078374883 -0.71364981 -0.41196033 0.566562 0.0017997245
-0.021985037 0.035645697 0.0082989484 0.30951658 0.82529998 0.47231293 0.0014941886
-0.019480364 0.034931194 0.0079808095 0.28765294 0.83768553 0.46426156 0.0013828388
-0.01650152 0.034101795 0.0077237883 0.25270966 0.84714413 0.46742326 0.0015799165
-0.013431403 0.033469915 0.0072879163 0.22780438 0.85504115 0.46584293 0.0016698188
-0.011795417 0.033507261 0.0064026769 0.19938961 0.86643541 0.45774832 0.0010854091
0.019675953 0.033397622 0.0063785072 -0.20102951 0.79337388 0.57458258 0.00061598461
0.022590958 0.03365957 0.0073549608 -0.23701046 0.76890647 0.59380889 0.0010624363
0.025656952 0.034335081 0.0077815736 -0.23624161 0.77983516 0.57969552 0.00077794702
0.028571345 0.03515752 0.0080295885 -0.25573656 0.77077943 0.58352196 0.0014838456
0.030796617 0.035591293 0.0085720206 -0.30250451 0.75561917 0.5809738 0.0012301051
0.065918624 0.033287548 0.0087337829 0.71568966 -0.3125478 0.62458158 0.0020314436
0.067477643 0.034538634 0.0075420234 0.74328995 -0.29384488 0.60097849 0.0025247019
-0.067040041 0.037729599 0.0073602186 -0.75681651 -0.32419926 0.56755942 0.0032346789
-0.065755442 0.036831349 0.0084788492 -0.73068249 -0.33239728 0.59633476 0.0015486701
-0.030660795 0.038915206 0.0089674089 0.35804018 0.768583 0.53017682 0.00041319514
-0.028108833 0.038339984 0.0080117984 0.38161039 0.81529522 0.43550801 0.0010821678
-0.025465887 0.037276268 0.0078464448 0.33009875 0.82773399 0.45375228 0.0016258265
-0.022915129 0.036495298 0.0074146502 0.31651747 0.83357775 0.45273033 0.0012161396
-0.020294191 0.036088612 0.0062811845 0.29925591 0.84676379 0.43981478 0.0010241552
0.02858441 0.036163729 0.0062245973 -0.28054428 0.77126878 0.57134885 0.0012073249
0.031506319 0.03663696 0.0072833463 -0.31280679 0.75583994 0.57520258 0.0011401424
0.034416553 0.037360594 0.0080744959 -0.32510746 0.72277069 0.6098423 0.00071790308
0.036873247 0.038491696 0.0082128374 -0.38356528 0.72698313 0.56953758 0.0027437462
0.068094261 0.037420958 0.008033176 0.72605461 -0.19844553 0.65837991 0.0035877805
0.069407567 0.037779503 0.0064925109 0.79560387 -0.23543416 0.55819821 0.0018988594
-0.0692899 0.041369416 0.0063442634 -0.81315517 -0.28540412 0.50727034 0.0038507597
-0.067782432 0.040405698 0.0077496874 -0.73521888 -0.25113142 0.62959218 0.0032315601
-0.036575459 0.041921925 0.0087440312 0.40074393 0.77801675 0.48383293 0.001247756
-0.034265805 0.041281424 0.0079143522 0.39177942 0.79353219 0.46563452 0.001499873
-0.031600509 0.040168252 0.0076000262 0.37678769 0.80376488 0.46042705 0.00161637
-0.029159229 0.039312288 0.0070799915 0.38258871 0.81417155 0.43675002 0.00074832211
0.038136736 0.039613795 0.0076148189 -0.40413189 0.72868967 0.55289131 0.0021812844
0.040430613 0.040790468 0.007815945 -0.42529842 0.72743988 0.53847235 0.0015798995
0.042783644 0.041803479 0.0083936015 -0.41094831 0.67390215 0.61398476 0.00094932766
0.068483979 0.040430073 0.0083479127 0.75491589 -0.11011554 0.64651108 0.0028694752
0.069730639 0.040787954 0.0069164243 0.79419547 -0.12943336 0.59371752 0.0020904851
-0.069525629 0.043253023 0.0067590643 -0.73807007 -0.19285278 0.64657581 0.0028279494
-0.068166129 0.043460198 0.0082663782 -0.70694429 -0.13392022 0.69447476 0.0025690657
-0.042271838 0.044916727 0.0085865967 0.38661212 0.77339554 0.5023846 0.0014174104
-0.040272817 0.044285953 0.0079709869 0.38169262 0.76022625 0.52570593 0.0016503187
-0.037712794 0.043239731 0.0075104386 0.40278509 0.79885644 0.44675782 0.0012559072
-0.035045009 0.042335767 0.0066973777 0.39530599 0.80682617 0.43904969 0.00091026811
0.041699175 0.0420895 0.0070387791 -0.43238288 0.72026682 0.54245818 0.0014051566
0.043666068 0.042987388 0.0074625453 -0.41273871 0.69997054 0.58282757 0.00033934391
0.046107035 0.044206001 0.0078300154 -0.39061594 0.7001366 0.59768546 0.00098544988
0.048107721 0.04454571 0.0088665616 -0.37084681 0.6797812 0.63274813 0.0028885899
0.068427093 0.043500885 0.0087160775 0.64197159 -0.019186219 0.76648831 0.0030303115
0.069755711 0.043554157 0.0072554923 0.78357208 -0.050212327 0.61926848 0.0027502361
-0.069984905 0.046658188 0.0070055388 -0.70761716 -0.092949592 0.70045584 0.0057238918
-0.068393357 0.046392262 0.0083791548 -0.60943544 -0.024725884 0.79245007 0.0032618616
-0.04842525 0.047848172 0.0087660551 0.35468352 0.72862071 0.5859279 0.0021743397
-0.046301946 0.04729614 0.0081222998 0.37631923 0.75884199 0.53154743 0.0025292139
-0.04362933 0.046332046 0.0075000245 0.3833212 0.79523206 0.46975613 0.0009735527
-0.040969059 0.045253769 0.0069645499 0.41791812 0.78243798 0.46166584 0.00097225065
0.046986308 0.045548469 0.0067079663 -0.4103471 0.72035396 0.55920076 0.00036085627
0.049648069 0.046335042 0.0077788131 -0.40890992 0.71184713 0.57102215 0.0014863681
0.052543163 0.047392864 0.0084925834 -0.37461486 0.68587744 0.62388772 0.0034357051
0.068455376 0.046677027 0.0085832467 0.58152795 0.079943769 0.80958891 0.0041816062
0.069908507 0.046512164 0.0071328185 0.74547523 0.036881108 0.66551214 0.0040208814
-0.070197426 0.049517099 0.0070809708 -0.60240424 0.014610684 0.79805738 0.0077039311
-0.067885295 0.049610391 0.008541137 -0.41458318 0.11763295 0.90237647 0.010102228
-0.055554785 0.05076503 0.0088559473 0.22271614 0.7104702 0.66755491 0.003447349
-0.052291878 0.050155278 0.0080566965 0.31867459 0.75808322 0.56899595 0.0033196621
-0.049633224 0.049298991 0.0076044383 0.34738728 0.77119631 0.53345889 0.0016126921
-0.046912964 0.048537422 0.0067016403 0.40878597 0.77260393 0.48577479 0.0011673395
0.052819554 0.048654813 0.0072686318 -0.40804061 0.69481754 0.59222591 0.0013655568
0.055423886 0.049644634 0.0077863066 -0.35916948 0.6780957 0.64123595 0.0020141928
0.05815883 0.050320584 0.0084561091 -0.2701841 0.64561123 0.71427357 0.0030449817
0.060315728 0.050762922 0.0088234106 -0.18734616 0.64701885 0.7390995 0.0097346939
0.067875952 0.049787503 0.0084343143 0.45180967 0.2195206 0.86468416 0.011078002
0.069894657 0.049435094 0.006922646 0.68699682 0.097215399 0.72012818 0.00601984
-0.072068594 0.053244963 0.0060288855 -0.57984775 -0.034651533 0.81398767 0.0063903867
-0.070398435 0.0524869 0.0069216536 -0.46910277 0.082181349 0.87931156 0.020366088
-0.067573301 0.052481081 0.0079966402 -0.23391041 0.28851232 0.92846465 0.01383899
-0.064598523 0.052621547 0.0083301179 -0.031934295 0.47176203 0.88114744 0.0098058237
-0.061511707 0.052626826 0.0082349209 0.074605174 0.59005177 0.80391109 0.0074314754
-0.058404759 0.052499484 0.0078250365 0.19224241 0.72950929 0.65639848 0.0036246332
-0.055481423 0.052060258 0.0073262965 0.28057805 0.76491433 0.57981205 0.001714851
-0.052946389 0.051471904 0.0067250947 0.34782344 0.77845985 0.52251226 0.0025913897
0.056393582 0.051428266 0.006385304 -0.38360414 0.69192255 0.6116299 0.00060656789
0.058556531 0.051968772 0.0070631611 -0.33075503 0.67737728 0.65708536 0.0015071417
0.061557788 0.052455131 0.0078640711 -0.27078018 0.59570116 0.7561866 0.0040364461
0.064645238 0.052589525 0.008323797 0.036449429 0.41276592 0.91010755 0.011355233
0.067620367 0.052542552 0.00778226 0.38830411 0.31331608 0.86663306 0.017256282
0.069741271 0.052447464 0.0065860157 0.66538554 0.15953748 0.72925293 0.0097991312
-0.072126269 0.05431674 0.0060158428 -0.44669041 0.10181087 0.88887691 0.011628587
-0.070432998 0.055360265 0.0065045655 -0.24736933 0.21088231 0.94569391 0.0049139
-0.067542017 0.055455878 0.0068241414 0.0057543507 0.39294058 0.91954589 0.012712562
-0.064640187 0.054946128 0.0068094581 0.11678986 0.59125549 0.79798311 0.010897767
-0.061638661 0.054312658 0.0066288854 0.18383068 0.69209081 0.69800901 0.0056741554
-0.059573587 0.054264169 0.0060454509 0.2213708 0.76044095 0.61051172 0.0045332578
0.062153582 0.054555871 0.0064373822 -0.35307938 0.58053666 0.73369759 0.0041978504
0.064712055 0.055342846 0.0067957272 -0.1514944 0.4814201 0.86329842 0.012066976
0.06743367 0.055574931 0.0067769303 0.19580872 0.35515875 0.91406846 0.020666391
0.06934505 0.055003203 0.0062898658 0.54827029 0.25277287 0.79718596 0.011249327
-0.069621898 0.057064492 0.006054413 -0.12508929 0.37793666 0.91734213 0.017029878
0.067237131 0.05737102 0.0060992129 0.11338953 0.30810395 0.94457126 0.024182443
-0.018856991 0.0057531917 0.009229742 -0.21041618 -0.79716694 0.56590629 0.00077844004
-0.016322646 0.0055166027 0.0096887005 -0.16840178 -0.78922731 0.59056002 0.0010461299
-0.013345505 0.0052108732 0.010017573 -0.13779345 -0.78177088 0.60815066 0.0010741253
-0.010521966 0.0050811162 0.010381239 -0.10260508 -0.77094018 0.62858844 0.0011997302
-0.0074360189 0.0047950619 0.010401977 -0.067469552 -0.77279782 0.63105583 0.001787492
-0.004481642 0.0047153998 0.010539358 -0.021682933 -0.74681795 0.664675 0.0016984869
-0.0015229065 0.0045943228 0.010507829 -0.02682619 -0.75703818 0.65281969 0.0019430732
0.001496649 0.0046313452 0.010539996 0.023911677 -0.73953485 0.67269337 0.0023893202
0.0045035873 0.0047613629 0.010574477 0.037646499 -0.7475307 0.66315961 0.0016006141
0.0074467566 0.0047900686 0.01039865 0.063748486 -0.75253558 0.65545887 0.0020698805
0.010413911 0.0049712462 0.010289246 0.093055524 -0.73926806 0.66695082 0.0015199751
0.013385918 0.0050781406 0.0099596391 0.11801063 -0.74838984 0.65267617 0.0014501829
0.01632667 0.0053914012 0.0097363433 0.14105903 -0.75167084 0.64427733 0.0011873605
0.01913761 0.0056761843 0.0093457773 0.15979968 -0.74937207 0.64257729 0.00062777987
-0.027907705 0.0086735738 0.0095440857 -0.27350506 -0.79101247 0.5472607 0.00075564726
-0.025360901 0.0082433177 0.010090115 -0.24906448 -0.78099203 0.57272887 0.0011147575
-0.022458337 0.0077075893 0.010521624 -0.20782463 -0.77657938 0.59475487 0.0015737988
-0.019552344 0.0071024224 0.010750484 -0.19553462 -0.77368605 0.60264099 0.00097184215
-0.016617211 0.006744103 0.011144144 -0.15272734 -0.76531178 0.62527776 0.0010825633
-0.013632778 0.0064538596 0.011459237 -0.11768053 -0.70596391 0.6984027 0.00097211101
-0.010746536 0.0062637306 0.011693197 -0.081895739 -0.73791265 0.66990894 0.001122975
-0.0081641097 0.006054549 0.011754612 -0.040692981 -0.70248675 0.71053255 0.0022670273
0.0014134049 0.0060172542 0.011976574 0.031595867 -0.6766758 0.7356028 0.0026367223
0.0077813291 0.0062210718 0.011852266 0.048482899 -0.6628207 0.74720699 0.0033892565
0.010581982 0.0063294149 0.011679583 0.082021728 -0.70531815 0.70412976 0.001408986
0.013591314 0.0065548532 0.011507832 0.1055834 -0.7143181 0.69181049 0.0016995075
0.016567545 0.0067375181 0.011179962 0.1330563 -0.72363102 0.67724013 0.0014656621
0.01958687 0.0071524954 0.010936297 0.16477023 -0.67641425 0.7178542 0.0016428992
0.022488061 0.0074851331 0.010499503 0.17791918 -0.69327235 0.69836831 0.0007533739
0.025399795 0.0079836473 0.010193127 0.1853953 -0.68830556 0.70133018 0.0004461566
0.028416976 0.0083154822 0.0097267861 0.19870925 -0.68273169 0.70313013 0.00034188642
0.030988114 0.0086761378 0.0094407909 0.20647351 -0.68113035 0.70244569 0.00058921677
-0.036494967 0.011811228 0.0093580214 -0.36591637 -0.76989305 0.52284789 0.00099479349
-0.034268521 0.01132813 0.010011728 -0.32233766 -0.76831013 0.55298996 0.0010655934
-0.031483788 0.010656863 0.010548783 -0.27681652 -0.78827494 0.54954088 0.00074405555
-0.028695103 0.0099219475 0.010879429 -0.25904533 -0.7719655 0.58048677 0.0010725913
-0.025864353 0.0094574485 0.011465729 -0.22270806 -0.71935725 0.65797132 0.00087589514
-0.02359212 0.0091887824 0.011922056 -0.20500211 -0.72730029 0.65498739 0.0024110726
0.023786705 0.0092427665 0.011941755 0.16050753 -0.66873276 0.72597092 0.0017138852
0.025860183 0.0094868513 0.011603292 0.18511976 -0.67040694 0.71852982 0.00053985865
0.02865948 0.010017776 0.01124408 0.19586183 -0.62511677 0.7555576 0.0010993144
0.031615783 0.010377015 0.010740838 0.20227288 -0.62658793 0.75264418 0.00042169201
0.034392372 0.010604867 0.010225503 0.22395973 -0.66335773 0.71400177 0.00098695781
0.03733968 0.011109102 0.0098038958 0.25591666 -0.68720186 0.67989719 0.0021681278
0.040010024 0.011717885 0.0093930326 0.30772847 -0.66382736 0.68164253 0.0025187375
-0.042378813 0.014765176 0.0093055489 -0.43602169 -0.73277503 0.52242315 0.00084453245
-0.040324721 0.014217335 0.010108327 -0.39358416 -0.72955769 0.5593183 0.0011430305
-0.037605885 0.013317362 0.010709088 -0.342536 -0.74653322 0.57040095 0.00091204955
-0.0348473 0.012581076 0.011343452 -0.29736266 -0.72459388 0.62172276 0.00048430995
-0.03243915 0.012080763 0.011903387 -0.27077758 -0.70380777 0.65676033 0.00069206883
0.032677699 0.012154288 0.011902438 0.21101254 -0.61330432 0.76113838 0.00027918376
0.034836184 0.012541975 0.011624221 0.20898362 -0.59629637 0.77508479 0.00011710148
0.037664823 0.013028238 0.011270759 0.22210985 -0.58276713 0.78169662 0.00047138528
0.040517423 0.013502953 0.010751314 0.25345454 -0.59364426 0.76377165 0.00083926029
0.043363195 0.013886554 0.0099727977 0.34240809 -0.66680473 0.6619125 0.0024235891
0.04566934 0.014674965 0.0096024219 0.37317258 -0.65228313 0.65974915 0.0026291397
-0.045861591 0.0173588 0.0098853605 -0.47698161 -0.69905978 0.53273249 0.0011225643
-0.043492127 0.016422804 0.010603905 -0.4156104 -0.71494818 0.56224293 0.0010985032
-0.040891171 0.015619928 0.011492579 -0.37215665 -0.67614383 0.63586855 0.00072082452
0.041349828 0.015187481 0.011776064 0.25661486 -0.58832389 0.76682717 0.00083839119
0.043721095 0.01587411 0.011434308 0.27987787 -0.5444575 0.79071766 0.0011577095
0.046569031 0.016427834 0.010677517 0.32870945 -0.57447284 0.74962062 0.0011011676
0.049214404 0.017135706 0.0099306935 0.41509521 -0.62336129 0.66265887 0.0029059229
0.051293887 0.017708492 0.0091666281 0.45584956 -0.65149176 0.60643196 0.0012732053
-0.051357798 0.020753596 0.0092314687 -0.50746834 -0.69004482 0.51605624 0.0017347693
-0.049225617 0.02003411 0.01029101 -0.48478323 -0.68094081 0.54891241 0.0014139827
-0.046837818 0.018925035 0.01098666 -0.4617745 -0.67999184 0.56953955 0.0014372809
-0.044744965 0.018189294 0.011765402 -0.42471001 -0.65195161 0.62815648 0.0020060148
0.04727266 0.018254139 0.011776293 0.30818489 -0.55677241 0.77137959 0.0022927476
0.049745761 0.019135669 0.01126927 0.35905418 -0.52665359 0.77052975 0.0012011704
0.052362181 0.019655831 0.01022464 0.42151496 -0.57413232 0.70192391 0.0027572969
0.054612868 0.020525694 0.0095207635 0.48501718 -0.6191048 0.6176306 0.0018705468
-0.054565698 0.023482457 0.0094558075 -0.55758613 -0.64219391 0.52600831 0.00048349437
-0.052422155 0.022628421 0.010474493 -0.50288451 -0.63896555 0.58209121 0.0021842902
-0.050160211 0.021720869 0.011422373 -0.45722321 -0.60722083 0.64979219 0.0008978236
0.05291868 0.021824595 0.011520489 0.38409433 -0.46983409 0.79481286 0.0013932617
0.055424742 0.022499681 0.010509339 0.44628766 -0.50081033 0.74163085 0.0012563649
0.05773814 0.023270003 0.0095161488 0.53347725 -0.55893445 0.63481826 0.0016349831
-0.057461809 0.026479686 0.0097888 -0.58438909 -0.54814154 0.59835625 0.0010173311
-0.055465654 0.025512969 0.010717636 -0.53178585 -0.56067842 0.63469964 0.0010839287
-0.053131782 0.024313416 0.01161395 -0.49032933 -0.57119715 0.65826368 0.00075957802
0.056258343 0.024687489 0.011455396 0.44788152 -0.41544235 0.79171318 0.0033886824
0.058499135 0.025546195 0.010535672 0.51572108 -0.43664524 0.73713833 0.0021210997
0.060562871 0.026172938 0.0094336551 0.57969362 -0.49156523 0.64986068 0.0021804059
-0.060356934 0.029323215 0.0093281055 -0.64991617 -0.51087564 0.56268555 0.0011205703
-0.058414847 0.028634317 0.010682805 -0.58887005 -0.470882 0.65688825 0.00099090557
-0.056581821 0.027454261 0.011454643 -0.57728952 -0.53970498 0.61274409 0.0016163471
-0.012245907 0.029807689 0.011872107 0.19775121 0.68779606 0.69844908 0.0034024974
-0.010146639 0.029692752 0.011446 0.16676988 0.73730475 0.65465224 0.0016738449
-0.0073123053 0.029446507 0.01103727 0.1539685 0.75354427 0.63911247 0.0014657188
-0.0044534272 0.029200898 0.010756006 0.13141598 0.72948581 0.67125273 0.0030538363
-0.0013915156 0.028855098 0.010669098 0.094441883 0.73549181 0.67091924 0.0022988401
0.0014528451 0.028654316 0.010608688 0.062273234 0.73089629 0.67964166 0.0021561002
0.0044931467 0.028438138 0.010735627 0.0060719079 0.73084193 0.68251973 0.0024439541
0.0075057098 0.028466301 0.01072553 -0.051916104 0.72408599 0.68775296 0.0027392809
0.010428584 0.028671181 0.010684362 -0.079745457 0.73451936 0.67388576 0.0027513127
0.013566242 0.028791497 0.010955307 -0.11533944 0.70868373 0.69603455 0.0041026962
0.016430501 0.029034836 0.011231802 -0.14406164 0.724096 0.6744858 0.001631793
0.019240741 0.029378168 0.011557474 -0.16922484 0.70183253 0.69194949 0.0017426511
0.021652764 0.029829314 0.011759885 -0.1856982 0.67637134 0.71276772 0.0020217337
0.059169155 0.028193409 0.011549428 0.46365559 -0.35153604 0.81329322 0.0014937597
0.061415829 0.02850857 0.010190693 0.55378944 -0.41883683 0.71964777 0.0022525822
0.063152872 0.029574653 0.0093901074 0.63227689 -0.41931197 0.65146255 0.0020338765
-0.061198998 0.031697165 0.010217193 -0.63500869 -0.42364058 0.64598185 0.0019386767
-0.059419949 0.031195922 0.011552587 -0.60688972 -0.38097179 0.69752795 0.0019620436
-0.021614391 0.032883547 0.01181848 0.26260835 0.68873096 0.6757859 0.00056045322
-0.019364286 0.032432303 0.011431454 0.24696803 0.74324131 0.62177098 0.0015504591
-0.016338035 0.031986125 0.010751105 0.23416613 0.76051396 0.6056276 0.0011680636
-0.013533436 0.0312871 0.010584425 0.20320332 0.75833005 0.61939001 0.0027775918
-0.010589093 0.031020997 0.010016162 0.18333499 0.7570976 0.62704974 0.0015740996
-0.0074295918 0.030794723 0.0094040679 0.1554296 0.79461247 0.58688378 0.0030876838
0.013126303 0.030273763 0.0091966596 -0.12739624 0.75848669 0.63911515 0.001223891
0.016438071 0.03042235 0.0097390236 -0.15966704 0.74614716 0.64635193 0.0015211791
0.019612545 0.030853454 0.010134919 -0.19236495 0.72743756 0.65865797 0.0016404251
0.022576857 0.03130598 0.010517145 -0.2027946 0.72740388 0.65555924 0.0025181856
0.02531945 0.031811498 0.010880439 -0.22135833 0.72392642 0.65339953 0.0011991764
0.028303415 0.03235152 0.011325871 -0.2246438 0.70018357 0.67770058 0.0017867822
0.030437579 0.032794945 0.011636076 -0.2665253 0.69265527 0.67021853 0.0016969799
0.061724868 0.031326346 0.011260367 0.50828785 -0.29258928 0.80995983 0.00087121635
0.063958853 0.031749342 0.0098062828 0.62134922 -0.33869305 0.70654953 0.0022080152
-0.063688233 0.03480617 0.0096082445 -0.66176462 -0.36276656 0.65610057 0.0014514631
-0.061855953 0.034387022 0.011103069 -0.61418557 -0.31562355 0.72329658 0.0018234181
-0.028081175 0.035639964 0.0116736 0.30498815 0.67453885 0.67229426 0.00097254495
-0.025275508 0.035091996 0.010923001 0.30501866 0.74369836 0.5948751 0.001202753
-0.022552088 0.034290668 0.010566695 0.27374312 0.77829683 0.56508297 0.00064244401
-0.019564105 0.03353747 0.010166205 0.26813209 0.76224178 0.58914572 0.0012865292
-0.017537205 0.033422995 0.0093489736 0.23889244 0.80634594 0.54105139 0.0027229665
0.026139716 0.033209253 0.0096313758 -0.24259813 0.74340963 0.62328821 0.0010635098
0.02864456 0.033843074 0.0098526189 -0.25273907 0.72260666 0.6433993 0.0016234971
0.031732172 0.034285583 0.010574917 -0.2667197 0.70999348 0.65174359 0.0029102671
0.034478303 0.034891091 0.011081742 -0.30669397 0.6445269 0.70037419 0.0030251851
0.036947049 0.035464086 0.011615292 -0.30071518 0.64504725 0.70248437 0.0030961127
0.062569924 0.034342077 0.011679752 0.51197809 -0.20170939 0.83498007 0.0013279248
0.064520679 0.034509111 0.010387953 0.56965697 -0.26074985 0.77942318 0.0015218945
0.066219524 0.035388686 0.009300326 0.63692629 -0.26189494 0.72507644 0.0029067807
-0.064306773 0.037546962 0.010228158 -0.65207779 -0.27521506 0.70643562 0.0017217306
-0.062553965 0.037274107 0.011600349 -0.58296269 -0.20476066 0.78627449 0.0030280356
-0.034182932 0.038591105 0.011509092 0.32946059 0.69190753 0.64243269 0.0009096571
-0.031379163 0.037783474 0.010914948 0.33037913 0.73716527 0.58943784 0.0011563014
-0.028603619 0.03704834 0.010260604 0.33040702 0.75030792 0.57259876 0.0019007738
-0.026150443 0.036335558 0.0097819129 0.32577845 0.75773668 0.56542331 0.0009059849
0.035004999 0.036324576 0.009832222 -0.32050925 0.70727277 0.63011044 0.0015849889
0.037602354 0.037077703 0.010375137 -0.3448455 0.67686737 0.65033239 0.0025491025
0.04026787 0.037850641 0.01104523 -0.32607222 0.59661639 0.73329788 0.0017697435
0.042888615 0.038504582 0.011710465 -0.30392691 0.56766534 0.76510429 0.0019755347
0.062987819 0.036351632 0.011864498 0.52993238 -0.13216121 0.83767837 0.0016401849
0.06458623 0.037457384 0.011044468 0.53812617 -0.12603852 0.83338737 0.0015754584
0.066602848 0.037605483 0.0095804557 0.66024655 -0.1713362 0.73124433 0.0025695763
-0.066236526 0.040610652 0.0094270548 -0.664922 -0.18820325 0.72281271 0.0023315984
-0.064322315 0.04040429 0.010941621 -0.5625599 -0.11845697 0.81822634 0.0050032954
-0.040224709 0.041588597 0.011392038 0.31214008 0.69625819 0.64636922 0.0015839175
-0.03739905 0.040753234 0.010784892 0.33824778 0.72399533 0.60118151 0.0012564177
-0.034662675 0.039918441 0.010197101 0.35133207 0.72996622 0.58627206 0.0012510798
-0.032497935 0.039324239 0.0096251341 0.36389706 0.7328192 0.57493913 0.0015511308
0.038999632 0.039071705 0.0090558724 -0.4020803 0.69553459 0.59545201 0.0046242108
0.041049071 0.039746769 0.0096205873 -0.39120606 0.66583371 0.63531357 0.0017332311
0.043608591 0.04026971 0.010525665 -0.34655505 0.63713479 0.68844676 0.0024866632
0.046434935 0.040967003 0.011280412 -0.3039532 0.55525911 0.77414459 0.0015852706
0.048912916 0.041667026 0.011714113 -0.25908697 0.56602442 0.78261769 0.0026356911
0.064698569 0.040419873 0.011283125 0.50222343 -0.040740356 0.86377764 0.0017791546
0.066963263 0.040507317 0.0097578913 0.62640822 -0.07605163 0.77577633 0.0028063587
-0.066552766 0.04360988 0.0096556591 -0.61737317 -0.070085756 0.78354216 0.0039192727
-0.064382143 0.043461405 0.011115574 -0.46097004 0.030739861 0.88688308 0.0064899172
-0.06287355 0.044072002 0.011898058 -0.4187299 0.087942004 0.90384263 0.0044930042
-0.048133511 0.044691097 0.011874148 0.27121067 0.61833614 0.73763484 0.0034471462
-0.046173703 0.044402536 0.011344325 0.28386492 0.67338687 0.68262058 0.0015568577
-0.043349691 0.043588798 0.010826278 0.33167407 0.67898875 0.65495539 0.001905104
-0.040705569 0.042994864 0.010052032 0.36000666 0.72657925 0.5852161 0.0016457862
-0.038582202 0.042239521 0.0097113689 0.34014463 0.72374785 0.60040879 0.0013695565
0.044796444 0.042033609 0.0095204329 -0.41166168 0.64795893 0.64084619 0.0013627377
0.046773303 0.042839702 0.0098231779 -0.36564028 0.67014277 0.64592254 0.0017695219
0.049447868 0.043368455 0.010602757 -0.28627723 0.60722035 0.74116713 0.0017798559
0.052429613 0.043953341 0.011271063 -0.23933594 0.52022988 0.81980431 0.0015332495
0.055389401 0.04448105 0.011732459 -0.1756418 0.45694494 0.8719812 0.0027543434
0.057511602 0.044840317 0.011893573 -0.065133147 0.42681739 0.90198928 0.0061606443
0.062366642 0.044242825 0.011860816 0.18613297 0.2057441 0.96074134 0.009596087
0.064636327 0.043400854 0.011205362 0.38779885 0.11397706 0.91467005 0.0058467048
0.067036234 0.043568734 0.0098394146 0.57324731 0.028530153 0.81888551 0.0041868514
-0.066803806 0.046354182 0.0095153507 -0.53495467 0.069477998 0.8420192 0.0044620265
-0.064462639 0.046516083 0.010749118 -0.37948605 0.19352648 0.9047308 0.0071039307
-0.061750818 0.046835333 0.011591889 -0.26642221 0.26755297 0.92597765 0.0044693388
-0.058800276 0.047320213 0.011817741 -0.013933708 0.47048926 0.88229567 0.003306594
-0.055313915 0.047530815 0.011483788 0.10473525 0.57879096 0.80872214 0.0018298381
-0.052430551 0.046861365 0.011378365 0.19666919 0.59384912 0.78016949 0.0014731851
-0.049553458 0.046458196 0.010755416 0.2632049 0.64249796 0.7196663 0.0010171256
-0.046801452 0.04603466 0.0099603003 0.34385148 0.6977964 0.62836802 0.0017510658
-0.044464961 0.045431249 0.0093903951 0.36276051 0.70249492 0.61229545 0.0014807148
0.050300255 0.045201711 0.0094321761 -0.36632288 0.64229059 0.6732536 0.0021485784
0.052727945 0.045968935 0.0098807653 -0.32196736 0.59154403 0.73919737 0.0020478058
0.055625137 0.046394419 0.010590852 -0.24353406 0.53729421 0.80746901 0.0017531017
0.058488067 0.046505373 0.011136898 -0.085198194 0.44608399 0.89092672 0.0042676623
0.061556652 0.046393804 0.01129096 0.092968144 0.37454838 0.92253476 0.0066580283
0.064476296 0.046536498 0.010709088 0.31073856 0.2498671 0.91706491 0.0084915264
0.066915929 0.046381064 0.0096710064 0.50566715 0.14495049 0.85046458 0.0056268363
-0.066596195 0.04926341 0.0092251543 -0.38522074 0.24302982 0.89024794 0.008881649
-0.064581253 0.049507305 0.0098591913 -0.27050754 0.34018219 0.90061188 0.0059550307
-0.061502215 0.04947399 0.010452331 -0.13908319 0.44624251 0.88403821 0.0044858707
-0.058501825 0.049478751 0.010475202 0.038244527 0.56472999 0.8243891 0.0040129283
-0.055692069 0.049396466 0.010105765 0.15688653 0.63900739 0.75303131 0.0031997776
-0.052770395 0.04862348 0.0099247769 0.25946185 0.66181272 0.70333737 0.0016812927
-0.0505444 0.048285276 0.0094069 0.31614158 0.69212145 0.64886236 0.0021269273
0.056085277 0.048358012 0.0093253674 -0.28901541 0.61617661 0.73266399 0.0024561933
0.058637012 0.04896713 0.0096706478 -0.1853987 0.55426437 0.8114298 0.0049001034
0.06153613 0.049355797 0.0099115847 -0.043424059 0.46480578 0.8843472 0.0059540151
0.06453988 0.049656067 0.0096726604 0.11600625 0.38218895 0.9167738 0.011069411
0.066628642 0.048935819 0.0093085971 0.46630687 0.23533577 0.85274553 0.010516712
-0.063861102 0.051333282 0.0091729872 -0.16841429 0.44507629 0.87951332 0.0066428646
-0.061493922 0.051344819 0.0092931325 0.027188992 0.62769663 0.77798307 0.0065036677
0.06245327 0.051020097 0.0090860687 -0.153442 0.55239338 0.81933945 0.0044623786
-0.021293906 0.0089576729 0.012372957 -0.18565162 -0.69175059 0.69786435 0.00069707743
-0.0194894 0.0085561611 0.012424503 -0.16507819 -0.69701874 0.69779229 0.00066864042
-0.016438231 0.0082476726 0.012762759 -0.13502236 -0.69456422 0.70664668 0.00096776459
-0.013525391 0.0079283891 0.012933498 -0.09885136 -0.67604208 0.73020244 0.0010337487
-0.010422306 0.0077562146 0.013113366 -0.065113761 -0.65649629 0.75151372 0.00093457196
-0.0074606286 0.0076297144 0.013207602 -0.033801943 -0.62811708 0.77738434 0.001763497
-0.0044673528 0.0074505736 0.013163522 -0.016252592 -0.62825769 0.77783561 0.0020656458
-0.0015168354 0.0074828672 0.013202922 -0.0093719736 -0.60917991 0.79297668 0.0022948959
0.0014784232 0.0075904033 0.013234495 0.039655093 -0.59347391 0.80387568 0.0021770652
0.0045302408 0.0074615101 0.013021287 0.038792305 -0.5742265 0.81777692 0.0018407154
0.0074887392 0.0075882622 0.012950131 0.054159787 -0.57024479 0.81968743 0.0023830957
0.010503901 0.0079308366 0.012964863 0.077434748 -0.58600295 0.80660051 0.0016229219
0.013428217 0.0080480911 0.012755373 0.092560366 -0.59719986 0.79673398 0.0019046192
0.016410094 0.0083399378 0.012595152 0.11122412 -0.61109817 0.7837016 0.0020761101
0.01916201 0.0085594114 0.012333208 0.138505 -0.64038557 0.75546187 0.002177167
0.021470889 0.008833793 0.012114714 0.16407648 -0.63824016 0.75214922 0.0010373194
-0.030716091 0.011795561 0.012279317 -0.26323304 -0.71424997 0.64850241 0.00052505743
-0.028212879 0.011349421 0.01272473 -0.23553696 -0.68325496 0.69114757 0.0009898236
-0.025402879 0.010870553 0.013107427 -0.19375291 -0.67734706 0.70969057 0.0016991439
-0.022484489 0.010525072 0.013538809 -0.18212658 -0.64397049 0.74305588 0.001013867
-0.019544199 0.010315736 0.013987565 -0.13460962 -0.6059168 0.78405684 0.00076126523
-0.016532045 0.010105737 0.01431388 -0.11179424 -0.58196145 0.8054955 0.0013832659
-0.013420552 0.0097546475 0.014419122 -0.075408183 -0.55811232 0.82633179 0.0014920215
-0.010504361 0.0097228065 0.014599002 -0.046385799 -0.52804106 0.84795105 0.0020756372
-0.0075687566 0.0096165519 0.014637153 -0.019129161 -0.51101291 0.85936022 0.0020117979
-0.0045540426 0.0095006423 0.014595914 0.0019860314 -0.49178523 0.87071425 0.0021124319
-0.0013749599 0.0097688297 0.014707405 0.015220305 -0.47811309 0.87816644 0.0020641931
0.0015521568 0.0097805308 0.014626624 0.031558182 -0.46503189 0.88473129 0.0022331676
0.0045978986 0.0098684607 0.014543747 0.045375369 -0.46131065 0.88607758 0.0018998834
0.0076156184 0.010000332 0.014434062 0.053261872 -0.4611955 0.88569856 0.0015776543
0.010516176 0.01028986 0.014390803 0.080920421 -0.4463349 0.89119983 0.0015225036
0.013499239 0.010626859 0.014308447 0.081610128 -0.46058518 0.88385588 0.001111628
0.016497267 0.010453186 0.01391852 0.097002454 -0.46585834 0.87952626 0.0012737834
0.019468416 0.010517937 0.013586967 0.11579084 -0.47486216 0.87240958 0.0010490718
0.022474317 0.01042369 0.01306149 0.14359908 -0.54941154 0.82311988 0.0026119791
0.02537336 0.010832712 0.012797919 0.16270736 -0.56990981 0.80543721 0.0024609664
0.028291468 0.011250581 0.012439759 0.18598527 -0.59365052 0.78293586 0.0015826289
0.030612301 0.011708558 0.01216873 0.19788899 -0.60487467 0.77134079 0.00061370252
-0.036807764 0.014457248 0.012487767 -0.33164409 -0.6819278 0.65191001 0.0010926599
-0.034266438 0.013953863 0.013089295 -0.28045261 -0.66987258 0.68747151 0.0015446706
-0.031462427 0.013527953 0.013720877 -0.23464167 -0.63358527 0.7372334 0.0008598144
-0.028589761 0.012996213 0.014145893 -0.20391238 -0.60678536 0.76826507 0.0013615468
-0.02563026 0.012550517 0.01454623 -0.17820959 -0.63734752 0.74968624 0.0010739955
-0.022903606 0.012261842 0.014888157 -0.14783952 -0.61294687 0.7761699 0.0012101406
0.014696652 0.012247845 0.014945502 0.069403894 -0.3045775 0.94995564 0.001974687
0.016749639 0.012448086 0.014847938 0.085281804 -0.33346626 0.93889678 0.0020855651
0.019677594 0.012701202 0.014659362 0.10464088 -0.36773202 0.92402571 0.0022355011
0.022619482 0.013154711 0.014509981 0.11747362 -0.40124303 0.90840739 0.0017196314
0.02550347 0.013282097 0.014187176 0.13245696 -0.42989445 0.89311028 0.0014084353
0.028537188 0.013462149 0.013784024 0.15303361 -0.4523136 0.87863141 0.0013714421
0.031484153 0.013578649 0.013261855 0.18517514 -0.52121264 0.83309519 0.001817045
0.034412019 0.013980453 0.012814349 0.18930839 -0.54242885 0.8184945 0.00097720837
0.037148688 0.014368807 0.01233424 0.21017109 -0.55250454 0.80657715 0.00062077917
0.039234005 0.014660024 0.012003111 0.23245221 -0.57096517 0.78737837 0.00062755245
-0.04280436 0.01758234 0.012386914 -0.4024381 -0.66134417 0.63298297 0.0009609462
-0.040298544 0.016948512 0.013166 -0.35624969 -0.63988298 0.6809082 0.0014837018
-0.037606727 0.016265647 0.01381823 -0.3106977 -0.60778099 0.73080039 0.0012385159
-0.034821864 0.015708497 0.014465969 -0.25885001 -0.63258165 0.72995692 0.0012613708
-0.032443818 0.015200939 0.01486772 -0.23738527 -0.62358534 0.74484193 0.0008761519
0.025892856 0.015161348 0.014921333 0.10068792 -0.27384338 0.95648921 0.002209293
0.028610881 0.015684459 0.014787346 0.12200195 -0.32933912 0.93629658 0.0026742048
0.031578276 0.016228916 0.014615758 0.14569607 -0.38127995 0.91290647 0.0025659746
0.034486208 0.016619613 0.014331168 0.16472276 -0.43572107 0.88488054 0.0018693975
0.037520032 0.016402174 0.013549276 0.20759714 -0.46619126 0.85998207 0.0015130882
0.040371612 0.016694361 0.012960861 0.22229375 -0.49763185 0.83841997 0.00063974189
0.04310013 0.017099714 0.012452658 0.25740591 -0.51438779 0.81801426 0.0012621382
0.04532735 0.0176642 0.01210451 0.30302963 -0.53892803 0.78595775 0.001394522
-0.046153072 0.020181095 0.012753607 -0.43268445 -0.60250747 0.6706481 0.0014037509
-0.043544926 0.019475484 0.013643165 -0.37414739 -0.57201171 0.72994268 0.00066000305
-0.040886454 0.01880412 0.014450517 -0.33146486 -0.5756231 0.74752188 0.00071080058
-0.038926255 0.018037656 0.014736975 -0.33577815 -0.59462845 0.73052722 0.0012217078
0.035606273 0.018459432 0.014913181 0.12446534 -0.26710275 0.95559639 0.0041169166
0.037720777 0.018874254 0.014738093 0.16999502 -0.34611925 0.92266089 0.0034470593
0.040631436 0.019531349 0.014414079 0.20267381 -0.40190291 0.8929711 0.0014577529
0.043568209 0.019450512 0.013588466 0.23828751 -0.43044534 0.87059522 0.0010393043
0.046339791 0.019554473 0.012826828 0.27462697 -0.4571915 0.84590542 0.0011677435
0.048956491 0.020250894 0.012331624 0.32841885 -0.48590401 0.80996192 0.0016052761
-0.051409572 0.023706758 0.012361894 -0.48712984 -0.59132051 0.64268541 0.0012957455
-0.0492048 0.022778071 0.013031431 -0.44143453 -0.57706064 0.68712193 0.0011824958
-0.046672348 0.022186195 0.014065959 -0.3849355 -0.51544136 0.76560104 0.00080748397
-0.044450577 0.021540707 0.014780656 -0.35002133 -0.54610676 0.76108634 0.0023432926
-0.004039471 0.023957008 0.01488913 0.10039625 0.46769914 0.87816751 0.0005417518
-0.0011859196 0.023664573 0.014781783 0.074391969 0.42911881 0.90017945 0.002265594
0.0014316946 0.023453465 0.014720559 0.045878213 0.4405061 0.89657658 0.0022666911
0.0045253881 0.023288291 0.014689049 0.021001676 0.43714538 0.89914554 0.0023811245
0.0077269385 0.023306154 0.014638375 -0.0049223346 0.42735064 0.90407252 0.0025706922
0.010321255 0.02330474 0.014682856 -0.034604125 0.41462478 0.90933424 0.0023943288
0.013519972 0.023411352 0.014773249 -0.054341633 0.38434821 0.92158747 0.0027242342
