# .PCD v0.7 - Point Cloud Data file format
VERSION 0.7
FIELDS x y z normal_x normal_y normal_z curvature
SIZE 4 4 4 4 4 4 4
TYPE F F F F F F F
COUNT 1 1 1 1 1 1 1
WIDTH 557
HEIGHT 1
VIEWPOINT 0 0 0 1 0 0 0
POINTS 557
DATA ascii
0.010410602 0.0097096264 -0.014641628 0.0046413569 -0.48166752 -0.87634176 0.0021119025
0.013480534 0.0097256852 -0.014608029 0.024111792 -0.49491084 -0.86860913 0.0022967968
0.016483458 0.0097727012 -0.014516761 0.046821985 -0.51566869 -0.85550773 0.0020743085
0.019584233 0.009887212 -0.014371985 0.071603574 -0.53827941 -0.83971918 0.001763141
0.022624228 0.010178046 -0.014240342 0.10316969 -0.56376213 -0.81946832 0.0014899955
0.025543371 0.01036067 -0.013928446 0.13400617 -0.58472192 -0.80008918 0.0010740985
0.028500259 0.010454457 -0.013401642 0.18694039 -0.63216573 -0.75194407 0.00210226
0.031343363 0.010895287 -0.013058126 0.21040916 -0.65379709 -0.72682697 0.0018358887
0.034202203 0.011445233 -0.01265007 0.24459665 -0.64846206 -0.72088104 0.0013120173
0.036378179 0.011793249 -0.012225684 0.27916613 -0.68682921 -0.67106771 0.00081620261
-0.031232318 0.014692378 -0.012331128 -0.2661435 -0.64073181 -0.72015995 0.0010339078
-0.028303344 0.014008885 -0.012731323 -0.22374649 -0.60736597 -0.76226246 0.0021647208
-0.025393365 0.013522972 -0.013197016 -0.21539457 -0.57664883 -0.78808707 0.0014844752
-0.022603385 0.013603148 -0.0139605 -0.17115569 -0.51444399 -0.84026968 0.00062865287
-0.019606611 0.013223625 -0.014345082 -0.15693399 -0.49634516 -0.85382271 0.0013383476
-0.016543521 0.012778313 -0.014616852 -0.13283651 -0.45634291 -0.87983268 0.0022183559
-0.013856694 0.012393394 -0.014767301 -0.1027184 -0.41624725 -0.90343076 0.0024501483
-0.01155881 0.012153493 -0.014886182 -0.076732174 -0.47165436 -0.87843859 0.0014216756
0.026879044 0.012156091 -0.014998398 0.10986837 -0.56535512 -0.81749767 0.0019322634
0.028983066 0.012368796 -0.01477867 0.14999448 -0.55407315 -0.81884348 0.00078741234
0.03171635 0.012736132 -0.014437916 0.18243882 -0.54112267 -0.82091552 0.0019363626
0.034620769 0.013277304 -0.014078619 0.21067458 -0.57453203 -0.79090405 0.00094819028
0.037473749 0.013554825 -0.013425486 0.27297804 -0.62332541 -0.73276764 0.0019196111
0.040291823 0.014074623 -0.012804301 0.30694798 -0.65605396 -0.68947524 0.0011633337
0.042685449 0.014691407 -0.012292091 0.34760469 -0.64671165 -0.67892206 0.00240225
-0.037314754 0.017650304 -0.01239255 -0.32855174 -0.6143958 -0.71733648 0.0010941436
-0.03442492 0.016924871 -0.012971091 -0.2824114 -0.59558642 -0.752011 0.00087212905
-0.031529747 0.016538186 -0.013650771 -0.22930869 -0.55987519 -0.79621434 0.0015676718
-0.028590491 0.016258057 -0.014257273 -0.20148836 -0.51028752 -0.83606762 0.001137885
-0.025595382 0.015830109 -0.014681356 -0.18473247 -0.46778747 -0.86431986 0.0022605201
-0.023331087 0.015335182 -0.014855294 -0.15255858 -0.41136566 -0.89861238 0.0026971532
0.03792486 0.015460782 -0.014753647 0.22495578 -0.50470191 -0.83346915 0.0020881691
0.040682618 0.016089739 -0.014282582 0.27255282 -0.540923 -0.7956866 0.0016034469
0.043469913 0.01648937 -0.013460757 0.31526193 -0.56151253 -0.7650578 0.00090404128
0.0462026 0.017159216 -0.01271999 0.37779161 -0.61860919 -0.68890935 0.0013432613
0.048153363 0.017685868 -0.012097957 0.41355106 -0.58699268 -0.69599932 0.0014952502
-0.040276885 0.019943833 -0.012808932 -0.3606433 -0.54858881 -0.7543121 0.0015490646
-0.037397165 0.019466907 -0.013692918 -0.30715656 -0.52829856 -0.7915526 0.0016862162
-0.034701481 0.019189918 -0.014439619 -0.25059667 -0.48369274 -0.83859563 0.0012571409
-0.031726174 0.01849236 -0.014840319 -0.20331748 -0.44013718 -0.87460923 0.0020669342
0.043978762 0.018481938 -0.014694066 0.29648212 -0.50516289 -0.81049907 0.0011182723
0.046660759 0.019279717 -0.014077843 0.34473228 -0.50173032 -0.79336399 0.0012291815
0.049357146 0.019696405 -0.01304125 0.41006801 -0.56274885 -0.71774501 0.0012525623
0.051695492 0.020541139 -0.012360507 0.44528902 -0.56997073 -0.69054407 0.0014756682
-0.045833461 0.023530342 -0.012579108 -0.40335318 -0.53759938 -0.7404682 0.0010050766
-0.043216433 0.022600569 -0.013258662 -0.36711752 -0.50040954 -0.78410137 0.0014393931
-0.040536281 0.022261767 -0.014223454 -0.3052929 -0.44752851 -0.8405441 0.00067945465
-0.038163882 0.021684386 -0.0147589 -0.26312515 -0.4103305 -0.87315172 0.0023111159
-0.0071127731 0.023669129 -0.014932348 0.075820573 0.41492924 -0.90668899 0.0044838763
-0.0044615068 0.023596259 -0.014743355 0.068170957 0.39728728 -0.91515875 0.0024878511
-0.0014637696 0.023422973 -0.014649762 0.0420315 0.41785064 -0.90754294 0.0023635223
0.0014148103 0.023188284 -0.014681296 0.01705838 0.43595549 -0.89980656 0.0023548503
0.0043508364 0.023322463 -0.014612105 -0.013332878 0.44441652 -0.89572102 0.0023418639
0.0075033964 0.023395291 -0.014673945 -0.043689836 0.44504854 -0.89444 0.0024031568
0.010268421 0.023635183 -0.014717178 -0.063184708 0.43558434 -0.89792764 0.0025108925
0.012578378 0.023800105 -0.014828294 -0.068949036 0.46242359 -0.88397419 0.0049108174
0.047719136 0.021170083 -0.014796261 0.36413598 -0.48348755 -0.79601812 0.0011238439
0.049767181 0.022082977 -0.014371346 0.36918294 -0.43105403 -0.82334465 0.0016060413
0.052445039 0.022560243 -0.013288582 0.41840982 -0.49697486 -0.76022959 0.0017130767
0.054697853 0.023344865 -0.012495558 0.46847439 -0.50018054 -0.72825211 0.001667895
-0.049061611 0.026202202 -0.012728458 -0.41053814 -0.51164311 -0.75477129 0.001014925
-0.046279225 0.025630731 -0.013695635 -0.36371565 -0.4700819 -0.80419773 0.0016807244
-0.043780066 0.025170881 -0.014511514 -0.32364181 -0.40842929 -0.85348779 0.0012340398
-0.016068641 0.026553068 -0.014787639 0.16708429 0.45326972 -0.87557369 0.0048617846
-0.013359693 0.026049159 -0.014550465 0.15661289 0.45415667 -0.87704849 0.0020013102
-0.010504405 0.025554232 -0.014354901 0.13092008 0.48489761 -0.86471629 0.0013936657
-0.0076168007 0.02545362 -0.014012188 0.10530122 0.50524533 -0.85652715 0.0010859384
-0.0044949129 0.025489964 -0.013662685 0.078134917 0.515499 -0.85332036 0.0010460773
-0.0015725935 0.025480404 -0.013418191 0.055077549 0.57907987 -0.81340826 0.0014669473
0.0014690382 0.025333133 -0.013386988 0.026657591 0.56959558 -0.82149267 0.0031628264
0.0045320685 0.02560804 -0.013163339 -0.011037455 0.57265174 -0.81972438 0.0024879375
0.0075386129 0.025391757 -0.01340613 -0.025034942 0.57609922 -0.81699634 0.0027261262
0.010499797 0.025428843 -0.013587421 -0.089271076 0.59765476 -0.79676813 0.0025482906
0.013407617 0.025532998 -0.013806235 -0.11501937 0.56898648 -0.8142634 0.0026360108
0.01617649 0.025561996 -0.014199689 -0.13662061 0.53133273 -0.83607441 0.0015943445
0.019167189 0.025990745 -0.014430189 -0.15209074 0.51107728 -0.84597188 0.0020881242
0.021493081 0.026527263 -0.014584077 -0.142208 0.47681093 -0.86742616 0.0018563191
0.050894618 0.024014683 -0.014834607 0.39215037 -0.41222277 -0.8223688 0.001351402
0.052880559 0.025192862 -0.014453333 0.39051154 -0.35188061 -0.8506943 0.001636002
0.055509068 0.025557166 -0.013261473 0.45809311 -0.41584939 -0.78563344 0.0017067823
0.057566527 0.026252382 -0.012400477 0.50682259 -0.42736873 -0.74865669 0.0021991904
-0.052447598 0.028977189 -0.012623462 -0.42777506 -0.45387626 -0.78166801 0.0013889997
-0.049555819 0.028451396 -0.013773958 -0.38145754 -0.40967217 -0.82864875 0.0020450768
-0.046907708 0.028049013 -0.014666119 -0.3114213 -0.34324458 -0.88611513 0.001859322
-0.025093216 0.02985594 -0.014870282 0.19564001 0.49900439 -0.84422719 0.0017991834
-0.022335585 0.029271562 -0.014561157 0.19852555 0.46268049 -0.86401057 0.0024791304
-0.019325405 0.02863268 -0.014229721 0.19167158 0.51169294 -0.83751553 0.0012961241
-0.016533351 0.028479861 -0.013687199 0.18878272 0.5369963 -0.82218975 0.0012098127
-0.013617684 0.028174568 -0.01323937 0.17916708 0.54775083 -0.81723195 0.0010245112
-0.010463321 0.027891897 -0.012799426 0.15042357 0.61538827 -0.77373773 0.0016577384
-0.0076375892 0.027523363 -0.012603092 0.11496457 0.64140975 -0.75853598 0.0021076538
-0.0047045611 0.027391415 -0.012312988 0.08485385 0.65668184 -0.74937892 0.0015352237
-0.0014398841 0.027089681 -0.012224374 0.062352486 0.61497778 -0.78607541 0.0016960347
0.0019766188 0.027064396 -0.01203726 0.019038565 0.61836141 -0.78566325 0.0018465287
0.0059558148 0.027115799 -0.012001697 0.0015268541 0.62176347 -0.7832036 0.0013206081
0.013996023 0.027576134 -0.012310259 -0.11955059 0.61904007 -0.77620679 0.00083643617
0.017381856 0.027907386 -0.012625033 -0.15463206 0.61278605 -0.77497244 0.00094298861
0.020472936 0.027702754 -0.013518727 -0.16859442 0.59443164 -0.78627402 0.0015008915
0.022447672 0.028413886 -0.013368512 -0.16400784 0.57964027 -0.79819703 0.0017321187
0.025753474 0.028279051 -0.014309437 -0.19482885 0.55289555 -0.81015331 0.0021312351
0.028312761 0.02880026 -0.014572638 -0.15641804 0.49381226 -0.85538459 0.0018718479
0.030981362 0.029619144 -0.014691636 -0.19339867 0.55772972 -0.80717689 0.0010877755
0.053791337 0.027576003 -0.014929716 0.35554934 -0.22111465 -0.90812606 0.0034467699
0.05570044 0.028401237 -0.014323175 0.41069332 -0.26853153 -0.87133336 0.0016367699
0.058417987 0.028556203 -0.012945491 0.47593284 -0.32805753 -0.81600624 0.002526796
0.060290121 0.029574651 -0.012205537 0.54675531 -0.35517672 -0.75822693 0.0020496147
-0.055333976 0.031643521 -0.012403631 -0.42107409 -0.37027973 -0.82800335 0.0020217902
-0.052472848 0.031723563 -0.013868324 -0.35737041 -0.2835412 -0.88988245 0.0020305687
-0.049755841 0.030829107 -0.014671631 -0.33008569 -0.27546114 -0.90286463 0.0025461726
-0.030721646 0.032488815 -0.014784286 0.2144915 0.42578346 -0.87903464 0.0028216904
-0.028289355 0.03205321 -0.014374063 0.22506379 0.49171048 -0.84117001 0.0019455844
-0.025475439 0.031549491 -0.013897849 0.23180433 0.54316115 -0.80699611 0.0015141206
-0.022615787 0.031310495 -0.013235405 0.2404443 0.55944484 -0.79322636 0.0010102183
-0.019902861 0.030903518 -0.012765705 0.22784491 0.60904282 -0.7597062 0.0026512921
-0.016933244 0.030363822 -0.012346847 0.20209605 0.66392833 -0.71996969 0.0017856816
-0.014747978 0.030003851 -0.012058803 0.1861641 0.62734663 -0.7561608 0.001785349
0.028928215 0.030644676 -0.013372183 -0.19602025 0.57540262 -0.79403263 0.00055120321
0.031376231 0.03172918 -0.013146128 -0.20641792 0.57788199 -0.78958482 0.00061702525
0.034514401 0.031095635 -0.014588423 -0.22699457 0.55534869 -0.8000384 0.0014550484
0.037523832 0.032177601 -0.014672781 -0.23623641 0.50437611 -0.83054024 0.0027121375
0.039570384 0.032770295 -0.014870455 -0.20460367 0.49448526 -0.84476131 0.0017370855
0.056314696 0.0313619 -0.014748394 0.36028191 -0.13372152 -0.92320937 0.0030777387
0.058553573 0.031426117 -0.013768268 0.43499747 -0.16272047 -0.88560671 0.0020367939
0.060900018 0.031660538 -0.012544604 0.50782382 -0.24291834 -0.82650203 0.0032668472
-0.057422079 0.034226198 -0.012308032 -0.43707004 -0.32877025 -0.83718568 0.003340523
-0.055506974 0.034514427 -0.013416563 -0.38189784 -0.20143174 -0.9019863 0.0020915426
-0.052745797 0.03468965 -0.014540772 -0.29202732 -0.11402026 -0.94958907 0.0089359246
-0.050719041 0.033070512 -0.014948152 -0.24882682 -0.15338734 -0.95632505 0.0061783721
-0.037296377 0.035583183 -0.014717823 0.20190933 0.43191871 -0.87902153 0.002618287
-0.034479979 0.034988273 -0.014320377 0.22772355 0.49229148 -0.84011376 0.0014904536
-0.031514503 0.03442565 -0.013770585 0.25343117 0.5601449 -0.78867632 0.0023916671
-0.028572382 0.034254834 -0.012895441 0.27442491 0.61435103 -0.7397728 0.0012497674
-0.025684727 0.033558208 -0.012440366 0.25910226 0.65056652 -0.71388328 0.0017046261
-0.023583494 0.033130877 -0.012043893 0.25451612 0.66237187 -0.70461696 0.00093212421
0.032530684 0.033001602 -0.012430439 -0.22775558 0.57372093 -0.78674752 0.00069651025
0.033828124 0.033639666 -0.012297736 -0.21938199 0.58474582 -0.78098899 0.00056385563
0.037340481 0.033912051 -0.013363746 -0.25549373 0.55846155 -0.78920448 0.00033677593
0.040681191 0.033926383 -0.014434727 -0.20950171 0.48729968 -0.84773117 0.0016519929
0.043409523 0.035093799 -0.014509127 -0.20880027 0.47299677 -0.8559652 0.0016715764
0.045695737 0.03584132 -0.014644429 -0.15370609 0.39839491 -0.90424335 0.0022328126
0.056378581 0.034706254 -0.014879109 0.26282796 0.014885514 -0.96472788 0.0033400948
0.058493756 0.034477528 -0.014204228 0.3483679 -0.034486659 -0.93672335 0.0038595989
0.061483156 0.03447504 -0.012834267 0.44814205 -0.12885678 -0.88462681 0.0035866196
0.063205637 0.035625607 -0.012025474 0.57071507 -0.136924 -0.80965179 0.0033847226
-0.058053922 0.03783264 -0.012959396 -0.38062203 -0.13554882 -0.91474229 0.0029045846
-0.055459391 0.037331756 -0.013947912 -0.33924687 -0.079147272 -0.93736184 0.007743659
-0.052593838 0.037619703 -0.014728211 -0.20332055 0.053083889 -0.97767216 0.0073692999
-0.050029501 0.038522571 -0.014937434 -0.060985785 0.16250035 -0.98482209 0.0088309264
-0.046283748 0.038551778 -0.014862031 0.077407472 0.33092374 -0.94047737 0.0038510056
-0.043263119 0.038177613 -0.014608986 0.15944822 0.42691016 -0.89012581 0.0027616948
-0.040445898 0.037744656 -0.014233979 0.20445365 0.4867765 -0.84926277 0.0013170214
-0.037559103 0.037511557 -0.013558948 0.24632937 0.53315699 -0.80936122 0.0015884009
-0.034590848 0.037083678 -0.012878046 0.28349668 0.61065847 -0.73940909 0.0012995703
-0.032048173 0.036387403 -0.012476416 0.28872016 0.64977068 -0.70316333 0.001324821
0.040987205 0.036350459 -0.012818086 -0.24419923 0.53504622 -0.80875981 0.00019620828
0.04358688 0.036938079 -0.013340954 -0.21648757 0.51465803 -0.82961446 0.00071931101
0.046529546 0.037464902 -0.01387564 -0.16683525 0.46977746 -0.8668766 0.0020832997
0.049460404 0.037716027 -0.014366215 -0.1497011 0.4527528 -0.87897921 0.0025698489
0.052690279 0.037898254 -0.014611647 -0.05366924 0.36469671 -0.9295783 0.0027076032
0.055704772 0.037493505 -0.014612808 0.15442686 0.18268816 -0.97096723 0.0030365321
0.058615979 0.037443433 -0.014064608 0.26054054 0.11428745 -0.95867461 0.0052321856
0.061612733 0.037405413 -0.012997576 0.37084326 -0.0097970916 -0.92864382 0.0047405623
0.063274696 0.037759077 -0.012201483 0.4940463 -0.059310328 -0.8674103 0.0029609594
-0.060210843 0.040663335 -0.012326682 -0.35192162 -0.0068467543 -0.93600446 0.0051470334
-0.057546835 0.040403683 -0.013359444 -0.32867956 0.0034682564 -0.94443518 0.0068154205
-0.055245902 0.040676787 -0.013913095 -0.20135032 0.14236556 -0.96911818 0.0066565159
-0.052510034 0.040602628 -0.014256448 -0.080988988 0.2567127 -0.96308851 0.0073591513
-0.049360137 0.04047557 -0.014312268 0.01379016 0.37428841 -0.92720979 0.0050767818
-0.046444386 0.040449411 -0.013968802 0.12816299 0.44497111 -0.88632667 0.0026489473
-0.043592189 0.040443223 -0.013355814 0.22837065 0.50174636 -0.83432448 0.0013265233
-0.040684126 0.040044524 -0.012755256 0.27716836 0.58358949 -0.76328301 0.002192107
-0.038171973 0.039396185 -0.012367564 0.28680861 0.64000076 -0.71283925 0.0015305037
0.049692374 0.040217556 -0.013006758 -0.18768287 0.49628836 -0.84762794 0.0012994267
0.052663945 0.040423743 -0.0134758 -0.14974962 0.46708983 -0.87143683 0.0023017861
0.055577852 0.040408976 -0.013707833 0.024254888 0.33680105 -0.94126338 0.0030237189
0.058525063 0.040413834 -0.013515118 0.15652104 0.25935692 -0.95301366 0.0051774629
0.061576433 0.040488701 -0.012785004 0.29983571 0.16678095 -0.93929905 0.0031611281
0.063268445 0.040032424 -0.012180627 0.45105532 0.058659475 -0.89056617 0.0032567249
-0.060460459 0.042962283 -0.012245697 -0.28181106 0.11021625 -0.95311844 0.0071847402
-0.05833758 0.043563675 -0.012758541 -0.18508199 0.19385689 -0.9634127 0.0041708439
-0.055569436 0.04356185 -0.013145189 -0.071861088 0.31636101 -0.94591314 0.0036649536
-0.052325476 0.043521255 -0.013149559 0.063948445 0.4027648 -0.91306686 0.0040292116
-0.049491908 0.043333907 -0.012904785 0.15096244 0.47696385 -0.86586142 0.0039286232
-0.046683222 0.042876258 -0.012572937 0.21165235 0.56356651 -0.79849613 0.0032616006
-0.04395644 0.042286098 -0.012154769 0.26213068 0.59529126 -0.75954968 0.0019009694
0.053312656 0.042307209 -0.012553387 -0.1639692 0.48491484 -0.85905284 0.0015258874
0.05587808 0.0430484 -0.012526149 -0.067725249 0.44082564 -0.89503407 0.0023632736
0.058606777 0.043105599 -0.012602323 0.050582923 0.36808869 -0.92841381 0.0040930314
0.061333757 0.042922791 -0.012331948 0.24586084 0.24676681 -0.93736792 0.0055310866
-0.058567349 0.045287777 -0.01225339 -0.1337353 0.35580817 -0.92494076 0.0042469231
-0.055556845 0.045657534 -0.012283022 0.010413428 0.45768836 -0.88905168 0.0034499969
-0.052941084 0.045441493 -0.01221682 0.11682083 0.53303409 -0.83799016 0.0030859699
-0.050944503 0.045113344 -0.012076698 0.17134343 0.58469027 -0.7929557 0.0017636806
-0.013281909 0.0055740192 -0.0092795063 -0.17516208 -0.75275707 -0.63456678 0.0010054924
-0.010462557 0.0053486531 -0.009695692 -0.1418152 -0.74750692 -0.64893895 0.0011957275
-0.007475975 0.0051450008 -0.010025913 -0.11344907 -0.74206156 -0.66066176 0.0012588906
-0.0044235773 0.0049640848 -0.010246189 -0.080855057 -0.7386297 -0.66924483 0.0010866441
-0.0015976474 0.0048135896 -0.010356123 -0.055494174 -0.735282 -0.67548555 0.0011819676
0.0014438715 0.0047772829 -0.01051331 -0.032363597 -0.73501927 -0.67727333 0.0011734809
0.0045209536 0.0046936064 -0.010518298 -0.0047075208 -0.75250006 -0.65857536 0.0015522928
0.0074925427 0.0046899174 -0.010503156 0.013246533 -0.75757617 -0.65261233 0.0015985087
0.0104925 0.004790538 -0.0104974 0.042899046 -0.75249392 -0.65720057 0.0010796182
0.013529876 0.0049400758 -0.010436452 0.069905601 -0.76254529 -0.64314687 0.001147139
0.016586667 0.0050713201 -0.010218418 0.096841604 -0.77701259 -0.62199122 0.0011707974
0.019574532 0.0053008818 -0.0099602854 0.13008237 -0.7881912 -0.60152572 0.0011372251
0.022410549 0.0055749598 -0.0096221901 0.16056222 -0.79397309 -0.58636731 0.0010043044
0.024894202 0.0058397073 -0.0092431623 0.19613722 -0.80068088 -0.56607455 0.00072571886
-0.022099283 0.0086087883 -0.0097308187 -0.26890808 -0.73177993 -0.62624806 0.00095393293
-0.019383013 0.0079032071 -0.009983615 -0.23285846 -0.72919637 -0.64346683 0.0015672958
-0.016482389 0.0075621698 -0.01056869 -0.19748041 -0.72905558 -0.65534681 0.0007971985
-0.013581797 0.0070771654 -0.010852434 -0.16470036 -0.7245456 -0.66925895 0.0010659429
-0.010537865 0.0068876781 -0.01132569 -0.13170181 -0.66136056 -0.73841518 0.001270695
-0.0074563688 0.0065624462 -0.01152738 -0.10236079 -0.7089619 -0.69777894 0.0011688888
-0.0044230302 0.006280499 -0.01163406 -0.075953171 -0.70369482 -0.70643097 0.0012932532
-0.0017175878 0.0062103742 -0.011821472 -0.051446754 -0.70303977 -0.70928729 0.0014251276
0.00088931009 0.006162791 -0.011954327 -0.033105798 -0.70260674 -0.71080774 0.0013037543
0.0037423675 0.006075907 -0.011993152 0.0012652109 -0.67228204 -0.74029404 0.0028822599
0.0084786778 0.006093374 -0.011994929 -0.008519059 -0.6808024 -0.73241752 0.0025686913
0.011047151 0.0060738334 -0.011877866 0.028880797 -0.72047782 -0.69287628 0.0011815807
0.013330897 0.0062120203 -0.0118545 0.05287604 -0.67421496 -0.73663986 0.0014154167
0.016529385 0.0063023902 -0.011671905 0.080643952 -0.68941665 -0.71986198 0.0013753339
0.019524766 0.0064636986 -0.011428151 0.11565458 -0.70644885 -0.69825077 0.0013953663
0.022632595 0.0067434451 -0.011097191 0.14643504 -0.77027273 -0.62067443 0.0011835354
0.025668513 0.0071073622 -0.010697148 0.1812754 -0.77779359 -0.60181087 0.00085358054
0.028564511 0.0077146306 -0.010508727 0.21423888 -0.77552199 -0.59385794 0.0017345938
0.031422138 0.0082181208 -0.010098475 0.24908975 -0.78791374 -0.56315744 0.002019316
0.033946589 0.0086144824 -0.0094754063 0.28856298 -0.77876812 -0.55700237 0.0010867899
-0.031379908 0.011902642 -0.0093609672 -0.3177214 -0.75344318 -0.57565314 0.00067297171
-0.028405581 0.011081146 -0.0098144226 -0.2914722 -0.73392606 -0.61351168 0.0015403912
-0.025394265 0.010732895 -0.010704855 -0.27181369 -0.70737338 -0.65248775 0.001566899
-0.022724984 0.010008023 -0.010998581 -0.25714931 -0.72016966 -0.64438319 0.0016911044
-0.019760679 0.0094516594 -0.011491871 -0.21429889 -0.66476017 -0.71566039 0.00060329604
-0.017824279 0.0093581835 -0.01197649 -0.18270645 -0.64728796 -0.74002481 0.0029586761
0.031751703 0.0094645806 -0.011524835 0.23050073 -0.69882113 -0.67713988 0.00095494097
0.034591548 0.0099553149 -0.010923248 0.27488855 -0.75684547 -0.59297663 0.0014253231
0.03746001 0.010696661 -0.010465269 0.28907934 -0.75506949 -0.58847541 0.0018478307
0.040151328 0.011398248 -0.0098810429 0.34992903 -0.75128722 -0.55956876 0.001177537
0.042470548 0.011979879 -0.0091918372 0.38471135 -0.7552315 -0.53068107 0.001184838
-0.036933143 0.014536593 -0.0094896555 -0.38030747 -0.71688521 -0.58433032 0.0012876403
-0.034085963 0.014003555 -0.010412535 -0.33484182 -0.69235224 -0.63916296 0.0011428661
-0.031479698 0.013249763 -0.010830987 -0.29767945 -0.71350414 -0.63427025 0.0013467761
-0.028660959 0.01260711 -0.011379788 -0.25931373 -0.67355829 -0.6921528 0.0024752079
0.038398501 0.012149821 -0.011760016 0.28690091 -0.67169672 -0.6830163 0.0011258785
0.040825821 0.012675166 -0.011103397 0.32241279 -0.72929752 -0.60346931 0.0016293323
0.043461319 0.013539011 -0.010556131 0.36303729 -0.73297191 -0.57528788 0.0011418088
0.04614554 0.014348899 -0.0097632492 0.41689563 -0.71204025 -0.56497502 0.0010305579
-0.040653203 0.017041193 -0.009981134 -0.39639011 -0.66713643 -0.63071698 0.003109934
-0.037832994 0.016352871 -0.010943047 -0.3598924 -0.6485194 -0.67074591 0.0013466119
-0.035216048 0.015464202 -0.011407474 -0.30362248 -0.67232323 -0.67512584 0.0012236481
0.044595152 0.015167296 -0.011749456 0.3560195 -0.66427195 -0.65726161 0.0028318926
0.046773158 0.015867529 -0.011132946 0.3978585 -0.69046849 -0.60412073 0.0014527193
0.049352411 0.016746508 -0.010287615 0.43875322 -0.67917299 -0.58840436 0.001825047
0.051678594 0.017659536 -0.0095281051 0.48707092 -0.6690892 -0.56132114 0.0012859232
-0.04569494 0.020909784 -0.010455228 -0.41216111 -0.55859458 -0.71978843 0.00042209373
-0.04334411 0.019610137 -0.010813153 -0.38619098 -0.5780037 -0.71886593 0.00063870527
-0.040660586 0.018484889 -0.011433091 -0.37804157 -0.6161533 -0.69097006 0.0019803664
0.050238013 0.018436683 -0.011468054 0.44452277 -0.63262713 -0.63417858 0.00052366237
0.052625418 0.019421054 -0.010677692 0.46659246 -0.59756076 -0.65208334 0.0010149594
0.054875709 0.020261999 -0.0097341808 0.51834536 -0.63870287 -0.56866217 0.0012204429
-0.049192429 0.02351664 -0.010417067 -0.4274213 -0.55356801 -0.71475416 0.00032451906
-0.04675062 0.02259676 -0.011289103 -0.41686893 -0.55758649 -0.71785629 0.00045612201
-0.044553492 0.021519782 -0.011822932 -0.38957652 -0.53700304 -0.74823654 0.00076980388
0.053642299 0.021339186 -0.011718414 0.48394841 -0.58237654 -0.65317029 0.00093881518
0.055703618 0.022161072 -0.010855771 0.50262046 -0.56352735 -0.6555987 0.0027596469
0.057953414 0.023170415 -0.0098888259 0.55807835 -0.56746477 -0.60541916 0.0019976846
-0.052327111 0.026209397 -0.010642876 -0.43835506 -0.49052078 -0.75314957 0.001482639
-0.049857069 0.025107386 -0.011420102 -0.421491 -0.52955908 -0.73614705 0.00043593379
0.05664267 0.024163563 -0.011752057 0.52272439 -0.49791715 -0.69198096 0.00060984027
0.058800042 0.025340408 -0.010903169 0.53867882 -0.46123865 -0.70504183 0.0010647132
0.060805269 0.026084119 -0.0097368462 0.60784626 -0.51232356 -0.60666919 0.0012348504
-0.055228192 0.028663239 -0.010519999 -0.45456851 -0.43993098 -0.77448583 0.0013080697
-0.053160425 0.027710207 -0.011392188 -0.42778853 -0.45387766 -0.78165984 0.0013834984
-0.013209107 0.029664338 -0.011930945 0.18879259 0.66408944 -0.72342414 0.00060771476
-0.010308516 0.029377215 -0.01149886 0.16578765 0.71562845 -0.6785208 0.0015767036
-0.0073850248 0.02902356 -0.011198713 0.13281105 0.66852582 -0.73173392 0.0021156429
-0.0043948749 0.028897226 -0.01082672 0.10846052 0.74235559 -0.66116899 0.0011804348
-0.0014823647 0.028524531 -0.01082183 0.077773906 0.72450793 -0.68486458 0.0026915001
0.001432593 0.028577404 -0.010533609 0.03875732 0.73509991 -0.67685014 0.0021442254
0.004408929 0.028310824 -0.010753228 -0.011471747 0.71773958 -0.69621712 0.0019418556
0.0078520458 0.028373949 -0.010757091 -0.045421511 0.69902307 -0.71365505 0.0018304366
0.0106419 0.02870298 -0.010656812 -0.071780518 0.68522811 -0.72478265 0.0013337885
0.013497165 0.028648026 -0.011156048 -0.11803485 0.62183917 -0.77419883 0.00068186043
0.01758913 0.029318871 -0.011323245 -0.15970652 0.62955016 -0.76036859 0.0004458818
0.059499495 0.027508514 -0.011776196 0.5628708 -0.44462261 -0.69676912 0.00093686703
0.061585866 0.02845946 -0.010624937 0.57956642 -0.38347396 -0.71906215 0.00091363088
0.063466817 0.029299317 -0.0094466675 0.65396607 -0.42842591 -0.62352204 0.0014282453
-0.022168888 0.032839809 -0.011796282 0.25449559 0.6623857 -0.70461142 0.00091925258
-0.019317126 0.032247216 -0.011331315 0.25016585 0.69145781 -0.677719 0.00053685176
-0.016514851 0.031869017 -0.010696429 0.23364843 0.73624057 -0.63510495 0.0010876401
-0.013646051 0.03125279 -0.010403441 0.19675437 0.76593447 -0.61207199 0.00094530184
-0.010584923 0.030789522 -0.01004814 0.18103823 0.74370158 -0.64353168 0.0015928487
-0.0079576327 0.030709838 -0.0094271004 0.14824273 0.75413775 -0.6397658 0.0016151401
-0.0054353727 0.030319519 -0.0093756542 0.11447619 0.76466566 -0.6341778 0.0010975671
-0.0021911878 0.030111412 -0.0090293372 0.079888046 0.76008373 -0.64489585 0.0011519621
0.02206542 0.030643404 -0.011243491 -0.19557108 0.59411502 -0.78024316 0.001085454
0.062210392 0.031179303 -0.011477418 0.55667418 -0.29044721 -0.77830225 0.0017233785
0.064124815 0.03164563 -0.01009133 0.64218056 -0.33840907 -0.6878106 0.001738368
-0.058989029 0.034966487 -0.011659387 -0.41606456 -0.19914371 -0.88726103 0.0013029644
-0.02762036 0.035467558 -0.01141146 0.30781218 0.67543632 -0.67010254 0.0035140661
-0.025234448 0.034910437 -0.010902174 0.29652175 0.70592868 -0.64322591 0.00060626387
-0.022619689 0.034367431 -0.010302992 0.28192112 0.75060719 -0.59758615 0.0012869445
-0.019873939 0.033676784 -0.0099116452 0.2663731 0.74416035 -0.61259347 0.0015233139
-0.017262459 0.033135913 -0.0094487909 0.24477579 0.78068 -0.57499874 0.0018969126
0.062920965 0.033699494 -0.011827421 0.54720044 -0.17820071 -0.81781179 0.0021962707
0.06462235 0.034369353 -0.010673552 0.58758521 -0.19403009 -0.78555459 0.00098848599
0.06641949 0.035122346 -0.0093678767 0.67562616 -0.24997935 -0.6935702 0.0020686379
-0.060000356 0.036844175 -0.011709945 -0.425239 -0.15192574 -0.89223897 0.0012116757
-0.033981539 0.038449969 -0.011388574 0.31502157 0.69298118 -0.6484893 0.0019914377
-0.031344276 0.037751447 -0.010779039 0.33339623 0.72026294 -0.6083324 0.0013042709
-0.028705327 0.036953684 -0.010300874 0.31405181 0.74365997 -0.59020454 0.0018203009
-0.025819857 0.036197655 -0.0096647199 0.31784099 0.74632317 -0.58478945 0.0011902638
0.064788587 0.037384335 -0.011196812 0.56612086 -0.097626753 -0.81852067 0.0015531022
0.06680616 0.037735205 -0.0096714003 0.66707414 -0.1432877 -0.7310819 0.0024018718
-0.061306141 0.039382409 -0.011601347 -0.37877449 -0.099835195 -0.92008847 0.0035215968
-0.04248384 0.041978855 -0.011868499 0.2942408 0.64461064 -0.70561999 0.0010599642
-0.040163253 0.041273501 -0.011517876 0.30466199 0.64943701 -0.69671559 0.0011781612
-0.037374489 0.040795207 -0.010608439 0.34005523 0.7081334 -0.61879677 0.0015287264
-0.034904309 0.039934423 -0.010243411 0.33637124 0.72895432 -0.59622145 0.0016222129
-0.032289095 0.039422762 -0.0093201892 0.35820243 0.75227821 -0.55296332 0.0019697535
0.046971753 0.040537056 -0.011896848 -0.20473199 0.51400971 -0.83299392 0.0006582099
0.064834192 0.040486716 -0.011311623 0.47981706 0.047747158 -0.87606835 0.0047202697
0.067005575 0.040489722 -0.0098097008 0.62285221 -0.029336948 -0.78178924 0.0031147448
-0.061142229 0.044311166 -0.011864075 -0.3142288 0.14207566 -0.93865585 0.0084940903
-0.048774134 0.044611476 -0.011897393 0.20717105 0.58169776 -0.78657991 0.0019534344
-0.046254445 0.044277433 -0.011338883 0.26403195 0.64756477 -0.71480554 0.0016003503
-0.043442994 0.043787498 -0.010554322 0.31116545 0.67922318 -0.66470444 0.0016805831
-0.040628269 0.042854208 -0.010109871 0.32707936 0.68146688 -0.65469223 0.00085679314
-0.038560733 0.042596534 -0.0092075095 0.38661766 0.71345329 -0.58438951 0.00096200249
0.050799638 0.043396439 -0.010997464 -0.22656412 0.5600819 -0.79685438 0.00062427024
0.052952472 0.043553453 -0.011651836 -0.18540987 0.53170836 -0.82638335 0.0026782027
0.055287801 0.044511028 -0.011593501 -0.16102037 0.51667058 -0.84090662 0.0036993681
0.058329899 0.044696044 -0.011884553 -0.01683658 0.43510881 -0.90022045 0.0023661456
0.061794739 0.044423923 -0.011765675 0.16394891 0.28902718 -0.94317758 0.0053183353
0.06450662 0.04342277 -0.011161856 0.38889223 0.17120948 -0.90523487 0.0051792013
0.067037567 0.043444023 -0.0097281141 0.56880027 0.081201702 -0.81845737 0.0034442535
-0.063494332 0.047379732 -0.010495869 -0.14844957 0.39465904 -0.90675628 0.0025245189
-0.061358649 0.046377741 -0.011347348 -0.15191941 0.33591861 -0.92955858 0.0029088445
-0.058686558 0.046953149 -0.011604088 -0.0649231 0.40763205 -0.91083544 0.0052510141
-0.055602543 0.047087263 -0.011493742 0.070161283 0.50268388 -0.86161846 0.0031690137
-0.052347947 0.046995018 -0.011027387 0.17567563 0.57247859 -0.80087852 0.0017365741
-0.049378023 0.046378139 -0.0106241 0.27007315 0.63651562 -0.72243226 0.0017394129
-0.046612568 0.046001654 -0.0098452661 0.31705278 0.69856381 -0.64147186 0.0016967943
-0.044781659 0.045440651 -0.0095273042 0.32480559 0.67142802 -0.66609746 0.0014391446
0.053016476 0.046416633 -0.0093352059 -0.20293453 0.57789773 -0.79047573 0.00086478563
0.056014113 0.046012007 -0.010738902 -0.17602059 0.55174482 -0.81522655 0.0028350807
0.05867165 0.046390619 -0.010969956 -0.050904639 0.47431055 -0.87888467 0.0018176904
0.061664138 0.046469785 -0.01098294 0.11203565 0.37308848 -0.9210065 0.0039161961
0.064582385 0.046365302 -0.010412895 0.3110922 0.28111431 -0.90785259 0.0073228558
0.066733189 0.046418313 -0.0094700875 0.49836895 0.18382977 -0.84725142 0.0045061274
-0.064201161 0.049412388 -0.009613961 -0.12755102 0.43969136 -0.88904572 0.0024219032
-0.06128474 0.049507767 -0.010130702 -0.10596217 0.44960806 -0.8869186 0.0022283613
-0.058288638 0.049465012 -0.010216737 0.033101108 0.53180903 -0.84621716 0.0059067816
-0.055604361 0.049235534 -0.010023348 0.13344312 0.60641032 -0.78387469 0.0036450571
-0.05294814 0.048841648 -0.0096514942 0.24545158 0.64578938 -0.72298658 0.002933674
-0.050175399 0.048226401 -0.0092215938 0.30507413 0.69684637 -0.64910311 0.0015562206
0.059528437 0.048283018 -0.0099515524 -0.1022635 0.5101983 -0.85395539 0.0055936887
0.061645281 0.049009901 -0.0097005321 0.017007783 0.46254539 -0.88643253 0.0032626884
0.064461358 0.049020018 -0.0094849635 0.17858227 0.3834607 -0.9061271 0.0062624025
0.066370629 0.048603058 -0.0091011226 0.38974601 0.30160147 -0.87013483 0.0051346361
-0.06173189 0.051138848 -0.0091880355 -0.049441822 0.53167892 -0.84550166 0.0082566356
-0.059853513 0.051245216 -0.0091090417 0.039838444 0.59991074 -0.79907441 0.0063569243
-0.0070807277 0.0027521672 -0.0067393743 -0.1079629 -0.85026944 -0.51515621 0.0017783762
-0.0043149781 0.0025031415 -0.0068336781 -0.082733542 -0.86204225 -0.50003833 0.0016802506
-0.0014098393 0.0023815907 -0.0070240092 -0.057737943 -0.86523843 -0.498025 0.0017543376
0.0014666826 0.0023514489 -0.0072114882 -0.028175328 -0.86580259 -0.49959183 0.0017868634
0.0046299421 0.0023330813 -0.0072739478 -0.00080423709 -0.86982214 -0.49336478 0.0017612661
0.0074957293 0.0023748474 -0.0072688642 0.027920166 -0.87333935 -0.4863115 0.0017445427
0.010476721 0.0024373312 -0.0071130744 0.057541411 -0.87611771 -0.47865093 0.0017210008
0.013484126 0.002590429 -0.0069089043 0.087480053 -0.87906241 -0.46861115 0.0016899962
0.016336137 0.0026957565 -0.0064836843 0.1166444 -0.88252676 -0.45556614 0.0015467979
0.018953815 0.0029685777 -0.0062972754 0.15490513 -0.90582252 -0.39432201 0.00061712315
-0.021155378 0.005827195 -0.0060224817 -0.28503042 -0.82014525 -0.49610424 0.00144896
-0.019042959 0.0055571282 -0.0068973643 -0.27555296 -0.8331759 -0.47946689 0.0014638335
-0.016266419 0.005055862 -0.0074151065 -0.23496625 -0.82878381 -0.50784677 0.001756837
-0.013458925 0.0044141472 -0.0075346008 -0.18686703 -0.82784384 -0.52891892 0.0021769418
-0.010430182 0.0038339288 -0.0076045981 -0.15490225 -0.83458394 -0.52865392 0.00076504663
-0.0072270627 0.0036490627 -0.0081226025 -0.1159944 -0.81270033 -0.57101971 0.0019589819
-0.0044156397 0.0034889365 -0.0083798282 -0.081282876 -0.79377377 -0.60275728 0.00067045295
-0.0014902056 0.0033125889 -0.0084863901 -0.056397978 -0.83319598 -0.55009431 0.0017261117
0.0015086256 0.0032898635 -0.0086837141 -0.033030346 -0.79145467 -0.61033463 0.00068046158
0.0045087286 0.003228372 -0.0086918427 -0.0078425286 -0.79371411 -0.60824043 0.00065725151
0.007457939 0.0032404312 -0.0086660841 0.025546433 -0.79848301 -0.60147518 0.00069577841
0.010540744 0.0033235762 -0.0085898582 0.053087011 -0.8068766 -0.58832973 0.00072360691
0.013694179 0.0034169918 -0.0083590364 0.077674843 -0.8524915 -0.51693809 0.0016947341
0.016556898 0.0035760701 -0.0080779521 0.10698956 -0.85683596 -0.50436628 0.0015278575
0.019566491 0.0038293789 -0.0077256188 0.16063611 -0.86778325 -0.47026396 0.00091064343
0.022490984 0.0042806594 -0.0075442842 0.17653549 -0.8714909 -0.45753571 0.0014600715
0.025505701 0.0049751466 -0.0075783832 0.21190216 -0.86387539 -0.45696488 0.0014558895
0.028334521 0.0054622199 -0.0071054874 0.23817219 -0.86659455 -0.43850645 0.0016683885
0.030398045 0.0056983577 -0.0063368985 0.28493091 -0.86621177 -0.41047731 0.0016347816
-0.027352912 0.0086570196 -0.0069004949 -0.33072692 -0.8195979 -0.46784505 0.00356409
-0.025090966 0.0082282359 -0.0076297321 -0.28813177 -0.79402882 -0.53525543 0.0016591749
-0.022690458 0.0073005194 -0.0075820736 -0.31646341 -0.8204152 -0.4762035 0.00070974213
-0.019756623 0.0065329242 -0.008060609 -0.28112125 -0.81269348 -0.51039225 0.00093066954
-0.016764224 0.0061078914 -0.0088009238 -0.21543857 -0.75649315 -0.61749846 0.00091280561
0.028812168 0.006341855 -0.0084840339 0.23003465 -0.8447445 -0.48320884 0.0015239993
0.031606976 0.0067463154 -0.0076709427 0.26273218 -0.84510016 -0.4655937 0.0014581811
0.034499608 0.0076480792 -0.0074924552 0.30896994 -0.83532554 -0.4547185 0.0014695795
0.037122272 0.0084435735 -0.0071180277 0.33389166 -0.84171557 -0.42430079 0.0014743028
0.039526775 0.0089925481 -0.0062321504 0.37746936 -0.83515006 -0.4000515 0.00097352016
-0.034325439 0.011480779 -0.0067592817 -0.35977519 -0.79906875 -0.48171675 0.0014234781
-0.031748299 0.010904172 -0.0076224827 -0.33848229 -0.79663926 -0.50079489 0.0018830834
-0.028699905 0.0098690744 -0.0079831537 -0.3315126 -0.78547657 -0.52261454 0.0017165758
-0.02578171 0.0093423855 -0.008894328 -0.29124478 -0.79054081 -0.53872228 0.0016709699
0.038009878 0.0093790982 -0.0082075596 0.32218206 -0.82109398 -0.47117233 0.0012828746
0.040514503 0.010170639 -0.0076601817 0.36025831 -0.82373422 -0.43780795 0.001426243
0.04326329 0.011291351 -0.0073303357 0.3875542 -0.80942476 -0.44117257 0.0013112803
0.045295686 0.011824264 -0.0063880007 0.42868739 -0.80617535 -0.40780923 0.00095626636
-0.041745596 0.014941427 -0.0061470577 -0.40119752 -0.75199777 -0.52301037 0.0021742766
-0.037196007 0.013371214 -0.0076575889 -0.38890046 -0.76862133 -0.50791496 0.0015648714
-0.034478921 0.012423836 -0.0081959637 -0.36550871 -0.79396123 -0.48582816 0.0013782885
-0.032900006 0.01226181 -0.0089502102 -0.30956817 -0.76275283 -0.56778145 0.0026482493
0.044303939 0.012411496 -0.008416391 0.38961047 -0.75914896 -0.52143693 0.00080760143
0.046589967 0.013212323 -0.0076372274 0.45227686 -0.79436475 -0.40550008 0.00072318153
0.049017463 0.014331358 -0.0071209371 0.47436634 -0.76890546 -0.42867354 0.0010717324
-0.04082435 0.01553499 -0.00799884 -0.43471289 -0.72872442 -0.52913648 0.001834805
0.05014655 0.015557065 -0.0080215344 0.49167421 -0.75877076 -0.42722765 0.0010141268
0.052367136 0.016683565 -0.0074388459 0.4970921 -0.75040936 -0.43564349 0.0011211799
0.054433197 0.017613288 -0.0065859705 0.53223097 -0.72413516 -0.43858701 0.0011008054
0.053518541 0.018275484 -0.0086447485 0.49427179 -0.66991478 -0.55399436 0.00099544425
0.055652946 0.019281516 -0.0077136802 0.54447806 -0.68103373 -0.48962909 0.0024295934
0.05772936 0.020438278 -0.0069261193 0.57135928 -0.66895336 -0.47544718 0.00091546698
0.05886694 0.022164769 -0.0078794332 0.60527521 -0.64427775 -0.46749136 0.0012186621
0.060717419 0.023216704 -0.0069137439 0.62162519 -0.60495263 -0.49760866 0.0012097347
0.059966903 0.024198735 -0.0089334873 0.61281586 -0.57616597 -0.54082298 0.0011402604
0.061886568 0.025205089 -0.0077542155 0.66296178 -0.57301116 -0.48180896 0.0014186793
0.063550904 0.026252916 -0.0067486996 0.67897999 -0.5487833 -0.48767093 0.0023270256
0.062710524 0.027281949 -0.0087797334 0.626849 -0.50933146 -0.58961147 0.0019701074
0.064517953 0.028436778 -0.00757665 0.70530492 -0.45885712 -0.5403657 0.0019250158
0.066237487 0.02958574 -0.0063086958 0.73790002 -0.45146716 -0.50167811 0.0009506456
-0.012478265 0.032549087 -0.0082729338 0.23156163 0.81704694 -0.52802801 0.0045098956
-0.010483038 0.032191399 -0.0080788312 0.19152832 0.84680772 -0.49621925 0.0019591406
-0.0076150433 0.031946257 -0.0075192587 0.16073596 0.82689011 -0.53890324 0.0023587439
-0.0043379767 0.031315878 -0.0076481542 0.11530158 0.82840186 -0.54813856 0.0015857216
-0.0012894127 0.030954778 -0.007657689 0.067598857 0.78894031 -0.61074024 0.0018560669
0.0014282437 0.030622678 -0.0078968806 0.038068727 0.75958288 -0.64929551 0.00058020733
0.0048551648 0.030311791 -0.0082427617 -0.027135072 0.73024315 -0.6826483 0.0011331015
0.065498702 0.0309745 -0.0083466182 0.7196973 -0.35314012 -0.59776908 0.0020559137
0.066903092 0.03183936 -0.0071138833 0.73862588 -0.38730198 -0.5517509 0.0022105579
-0.022131003 0.035516448 -0.0085300533 0.30786255 0.80916482 -0.50047272 0.0015608147
-0.019495534 0.035120819 -0.0075438875 0.30107182 0.84125888 -0.44904259 0.001960824
-0.016659427 0.034078412 -0.0077620558 0.25719437 0.83025956 -0.49448985 0.0016012643
-0.013664656 0.033557892 -0.0071392846 0.23486589 0.84624118 -0.4782404 0.0017818953
-0.01112471 0.033231333 -0.0065208278 0.20060253 0.85663408 -0.47532788 0.0016224948
0.067721158 0.034506105 -0.0076148519 0.75411469 -0.28508377 -0.59164029 0.0017041765
0.069180235 0.035700887 -0.0062653013 0.79196411 -0.31046197 -0.52574348 0.001881904
-0.028159056 0.038449034 -0.0078674359 0.3654139 0.79882193 -0.47786617 0.0014963767
-0.02563463 0.037463728 -0.0076242234 0.34745753 0.79905576 -0.49069667 0.0016230248
-0.022767792 0.036609475 -0.0071009141 0.32791674 0.83045727 -0.45034587 0.0019318131
-0.020843478 0.036069699 -0.0066837408 0.29405999 0.83646989 -0.46243578 0.0022291953
0.06826368 0.037347998 -0.0081087658 0.75737154 -0.17306659 -0.62963194 0.0022749435
0.069519855 0.037747964 -0.0066726403 0.79370236 -0.20517528 -0.57266021 0.0023224121
-0.034112658 0.04126567 -0.0078478027 0.38369638 0.79315162 -0.47295627 0.0019805059
-0.031422868 0.040099815 -0.00764358 0.37899908 0.79417974 -0.47501388 0.0017717923
-0.029399037 0.039583188 -0.0068164445 0.39016515 0.81097645 -0.43599132 0.0015141133
0.068504564 0.040477108 -0.0084660864 0.67697841 -0.074754201 -0.73219675 0.0020278469
0.069774359 0.040577412 -0.0070450632 0.78294796 -0.11045577 -0.61220253 0.0022361877
-0.042248052 0.044638161 -0.008990326 0.3451297 0.70642614 -0.6179381 0.0017097489
-0.040154539 0.044134207 -0.0081851557 0.39105323 0.772807 -0.49984661 0.002117106
-0.037451152 0.043126326 -0.0075958767 0.3932603 0.78035128 -0.48620796 0.0019939682
-0.035377685 0.042455591 -0.0069287224 0.40736297 0.7774325 -0.47922239 0.0014744429
0.068570666 0.043520138 -0.0085284617 0.70222163 0.031464797 -0.71126282 0.002970957
0.069904178 0.043436274 -0.0071379691 0.75479543 -0.014140983 -0.65580779 0.0028311319
-0.048483852 0.047893092 -0.0087407334 0.33917701 0.73240519 -0.59037405 0.0009932575
-0.046323784 0.047236994 -0.008252644 0.3540459 0.75035238 -0.55823177 0.0023649074
-0.043510363 0.046281222 -0.0075731101 0.3919259 0.76310128 -0.51387787 0.0020775073
-0.040780768 0.045314118 -0.0068593328 0.42182729 0.77719867 -0.46693048 0.0013914303
0.068203308 0.046470627 -0.0085057253 0.5671618 0.12197591 -0.81452405 0.0032982989
0.069876805 0.046463631 -0.0070112986 0.69785863 0.071961053 -0.71261138 0.0035794929
-0.067014337 0.050339252 -0.008395114 -0.096996516 0.42411706 -0.9003979 0.0023143685
-0.055060588 0.050680593 -0.0086646061 0.20277025 0.68488026 -0.69987369 0.0037759105
-0.052288964 0.05016645 -0.0080131907 0.2837182 0.71954173 -0.63384837 0.0029384119
-0.049558617 0.049365297 -0.0074930494 0.33778343 0.76564455 -0.54744017 0.0017054391
-0.046705354 0.04846707 -0.00677684 0.39608788 0.76565099 -0.50684601 0.0017904134
0.056897797 0.049810354 -0.0079302732 -0.17979516 0.54269844 -0.82045847 0.0022241434
0.059199393 0.049840808 -0.0087590516 -0.10640925 0.53434646 -0.83854097 0.0038328723
0.0612907 0.050625887 -0.0086257206 -0.10858399 0.51595217 -0.84970754 0.0041752579
0.064806625 0.050551441 -0.0087625617 0.1177748 0.41410401 -0.90257794 0.0052894102
0.067730851 0.049472589 -0.0081396177 0.45668533 0.21017405 -0.86444515 0.0061177583
0.069829203 0.049499787 -0.0066588805 0.68040103 0.13102962 -0.72103101 0.0051109283
-0.067592986 0.052712403 -0.0074715568 -0.03435795 0.44546211 -0.89464128 0.0040686177
-0.06453573 0.052392982 -0.0081791235 -0.052491229 0.49103296 -0.86955816 0.0072251437
-0.061611306 0.052774228 -0.007884508 0.022963528 0.6131295 -0.78964865 0.0087383175
-0.058478881 0.052573729 -0.0075984802 0.1679225 0.72714365 -0.66563058 0.0035543097
-0.055611085 0.051983975 -0.0073985429 0.22139622 0.73200297 -0.64432549 0.0043005287
-0.052839886 0.051516019 -0.0066390224 0.34130111 0.75828171 -0.555448 0.0016550791
0.06222596 0.052019488 -0.0078557627 0.0029162436 0.46276572 -0.88647586 0.0023140593
0.064695418 0.052447256 -0.0078492621 0.095073834 0.37735105 -0.92117703 0.0048875692
0.067595325 0.052431777 -0.0073423078 0.35919833 0.28573188 -0.8884446 0.011625887
0.069516771 0.052316755 -0.0063796286 0.61102563 0.16954438 -0.77324146 0.0067143454
-0.06957078 0.055098709 -0.0063106781 -0.18599974 0.35452697 -0.91635948 0.013364825
-0.067327954 0.05516693 -0.0066160196 0.0057189199 0.47519499 -0.87986189 0.0033174432
-0.064525075 0.054758202 -0.006718908 0.094488934 0.58301419 -0.80694872 0.010430264
-0.061644919 0.054333705 -0.0064743692 0.17897239 0.68761325 -0.70367384 0.0068504619
0.065178037 0.054989241 -0.0065498091 0.076138347 0.37772682 -0.92278129 0.0043478711
0.06760662 0.055191122 -0.0064220894 0.22849667 0.31805873 -0.92012388 0.011219586
0.069214575 0.05430717 -0.0061484976 0.4300262 0.2672644 -0.86234981 0.016814662
-0.013270816 0.0027177744 -0.0041244081 -0.1962063 -0.91713756 -0.34693199 0.0023302655
-0.010323687 0.0024501097 -0.0049871868 -0.15813787 -0.92875201 -0.33527917 0.0014226091
-0.0074729328 0.0019399304 -0.004862281 -0.13172242 -0.92578053 -0.35437208 0.0022183671
-0.0044874353 0.0014436109 -0.0044617769 -0.082500249 -0.93398005 -0.34767079 0.0023356196
-0.0015659292 0.0012989957 -0.0046840725 -0.056564767 -0.93554181 -0.34865725 0.0024578481
0.0014996789 0.001131996 -0.0046275752 -0.023293378 -0.93365628 -0.35741213 0.0024380675
0.0044034179 0.0010927276 -0.0046143141 0.0060678981 -0.93455327 -0.35577154 0.0023423161
0.007480707 0.001156528 -0.0046018614 0.038124699 -0.93685538 -0.34763259 0.0023358604
0.010472809 0.0013131737 -0.004585248 0.068209186 -0.93917447 -0.33659887 0.0022536307
0.013405498 0.00157591 -0.0045572887 0.095046565 -0.94256645 -0.32021019 0.0020156582
0.016485086 0.0019240669 -0.0044943462 0.1232568 -0.94423836 -0.30532202 0.0017887644
0.019467898 0.0024237696 -0.00458322 0.1649799 -0.94185871 -0.2927179 0.0018151243
0.022290235 0.0027414074 -0.0038766859 0.20027846 -0.94142163 -0.27131882 0.0020210824
0.024077503 0.0029185745 -0.0030407833 0.1761089 -0.97385186 -0.14352043 0.0030654995
-0.022229396 0.0055042715 -0.004360918 -0.30675235 -0.88378185 -0.35331666 0.0019822514
-0.019383218 0.004666423 -0.0047421972 -0.25831881 -0.87990987 -0.39878568 0.0018281457
-0.016516577 0.0036714897 -0.0044547846 -0.2457654 -0.90487206 -0.3475714 0.0014788316
-0.013856778 0.0033474141 -0.0053884643 -0.21990515 -0.90371841 -0.36733475 0.0023078071
-0.011990291 0.0031298434 -0.0058843824 -0.16244051 -0.88928467 -0.42753473 0.0052366499
0.020942057 0.0031215148 -0.0058117043 0.17513572 -0.93623513 -0.30461654 0.0023560408
0.022743352 0.0033070343 -0.0053361445 0.21015123 -0.9245168 -0.31797037 0.0015755009
0.025561007 0.0037266298 -0.0046151518 0.25465626 -0.9252038 -0.28133276 0.0012930305
0.028523596 0.0044937255 -0.0045502819 0.25536129 -0.91885251 -0.30083349 0.0018960448
0.031450026 0.0053467937 -0.004452202 0.28819251 -0.9159686 -0.27918905 0.0017354448
0.033620328 0.0058489102 -0.0037311586 0.31925365 -0.90995932 -0.26467168 0.0013966392
-0.029262949 0.0085282186 -0.0049789026 -0.35133812 -0.84869772 -0.39531472 0.0012872253
-0.025816033 0.0071174181 -0.0049090609 -0.33814389 -0.86010486 -0.38194013 0.0017928582
-0.022664679 0.0061745793 -0.0055756159 -0.32789704 -0.86515921 -0.37945101 0.0018184168
0.032416284 0.0061568241 -0.0059365104 0.28388456 -0.88329446 -0.37309593 0.00059012597
0.034794144 0.0065712896 -0.0047089844 0.34857312 -0.89697158 -0.27191705 0.0012712502
0.037506737 0.0075888298 -0.0046365703 0.35207388 -0.89085543 -0.28708988 0.0016330631
0.040151227 0.00857588 -0.0042398851 0.38461325 -0.88622648 -0.2582157 0.0017655146
-0.036214374 0.011428071 -0.0048697097 -0.37736809 -0.84082532 -0.38808 0.00079357292
-0.034380328 0.010583665 -0.0046674353 -0.37045413 -0.83627701 -0.40423334 0.001295593
-0.031776227 0.0097190887 -0.0054096244 -0.35319224 -0.84300292 -0.40571085 0.0017668032
0.041407611 0.0094050355 -0.0050597615 0.41877541 -0.86898732 -0.26360598 0.0016368238
0.04346006 0.010211646 -0.0045627221 0.41780922 -0.86993784 -0.26199928 0.0016688001
0.04607087 0.011436439 -0.0042345626 0.4517225 -0.85183924 -0.26517284 0.0016719876
-0.039219838 0.013421668 -0.0059549934 -0.40786135 -0.77530849 -0.48223001 0.00078253547
-0.038604379 0.012466085 -0.0045050648 -0.40140823 -0.82736075 -0.3928684 0.0011316505
0.047289893 0.012377585 -0.005039617 0.48324358 -0.83449835 -0.26474166 0.0014159036
0.049546245 0.013513688 -0.004542151 0.4973475 -0.82322484 -0.27376321 0.0018497577
0.051609192 0.014610602 -0.0040858146 0.50791496 -0.81045258 -0.29187176 0.0016253893
0.052930012 0.015741954 -0.0047743218 0.53129452 -0.79485703 -0.2931357 0.0016846942
0.055197567 0.017149799 -0.0043238895 0.55899811 -0.77665275 -0.29039913 0.0018122927
0.056443337 0.018399687 -0.0051530297 0.59067619 -0.75266957 -0.29084396 0.0015351746
0.058437947 0.019746317 -0.0044991011 0.61505044 -0.74142045 -0.26834437 0.0009456866
0.06020195 0.020712905 -0.0032110945 0.64112687 -0.708848 -0.29409334 0.0016523702
0.059714627 0.021411335 -0.0057363994 0.61678982 -0.66674793 -0.41835102 0.0011649457
0.061446995 0.02247557 -0.0044931374 0.67234033 -0.68404722 -0.2829096 0.0013045827
0.063192204 0.023844516 -0.0036179177 0.70119619 -0.64479393 -0.30424461 0.0016435907
0.062650539 0.024280133 -0.0055693332 0.67765892 -0.62895727 -0.38103962 0.00336416
0.064352475 0.025642658 -0.0044618403 0.72925305 -0.60545474 -0.31877023 0.0023411389
0.065569907 0.027661957 -0.0051626279 0.75911909 -0.56229055 -0.32797489 0.0019298259
0.066818573 0.028899631 -0.0043322616 0.78498989 -0.51364625 -0.3463501 0.0027361256
-0.0062411604 0.032753475 -0.005498087 0.13908626 0.86241364 -0.48672152 0.0010600283
0.068115287 0.031372916 -0.0046801944 0.82212043 -0.41321549 -0.39162615 0.0030534242
0.069227852 0.032488625 -0.0035346933 0.84081268 -0.40821373 -0.3555215 0.0023454339
-0.018445637 0.035631321 -0.0059128325 0.3124871 0.87169892 -0.37748227 0.0032450168
-0.016743498 0.035336282 -0.0052779596 0.26174721 0.88266599 -0.39037043 0.0029016905
