# .PCD v0.7 - Point Cloud Data file format
VERSION 0.7
FIELDS x y z normal_x normal_y normal_z curvature
SIZE 4 4 4 4 4 4 4
TYPE F F F F F F F
COUNT 1 1 1 1 1 1 1
WIDTH 558
HEIGHT 1
VIEWPOINT 0 0 0 1 0 0 0
POINTS 558
DATA ascii
-0.037142705 0.022992205 -0.01556468 -0.19578826 -0.32693481 -0.92454344 0.0018664493
-0.034399688 0.022618296 -0.015966581 -0.16782309 -0.27878866 -0.94557512 0.0040666037
-0.03146245 0.022456255 -0.016332306 -0.077234089 -0.21944039 -0.97256404 0.0039543463
-0.028494723 0.022584138 -0.016568311 -0.027610591 -0.15280321 -0.98787087 0.0051469598
-0.025385479 0.022621365 -0.016625088 0.0038793911 -0.078634918 -0.99689591 0.0062314332
-0.022438778 0.022524776 -0.016557604 0.034635749 0.092471071 -0.99511278 0.0057136221
-0.019563716 0.022556163 -0.016409045 0.051884141 0.14862889 -0.98753107 0.0042780344
-0.016559917 0.02249863 -0.016183805 0.068762399 0.19671501 -0.97804648 0.0033916207
-0.013580631 0.02249364 -0.015907161 0.078024998 0.24260134 -0.96698338 0.0027570573
-0.010590164 0.022526039 -0.015613094 0.073816575 0.27837715 -0.95763111 0.0022115379
-0.007676647 0.022272464 -0.015460276 0.066370435 0.32010889 -0.9450531 0.002349851
-0.0046580569 0.022002973 -0.015355363 0.047422413 0.35405123 -0.9340229 0.0024543523
-0.0016107293 0.021779252 -0.015300165 0.02894856 0.37769127 -0.92547899 0.0025437321
0.0015596069 0.0216785 -0.015275787 0.0060223853 0.39447519 -0.9188869 0.002651951
0.0045842999 0.021744158 -0.015271558 -0.018699775 0.39974371 -0.91643614 0.0025755977
0.0075513776 0.021785012 -0.015351672 -0.039767653 0.40048334 -0.91544068 0.0025864714
0.010440593 0.022022981 -0.01541964 -0.058428288 0.39145157 -0.91834188 0.0025181777
0.01351124 0.02224597 -0.01556737 -0.079165787 0.37008768 -0.92561752 0.0022228735
0.016492713 0.022500478 -0.015762448 -0.092953883 0.34498951 -0.93399239 0.0022720543
0.019531084 0.022548186 -0.016104465 -0.10329621 0.31811285 -0.94240862 0.0025891513
0.022549056 0.022542316 -0.016471287 -0.10174841 0.28421262 -0.95334697 0.0030283448
0.025518378 0.022504678 -0.016813699 -0.096382909 0.24618521 -0.96441853 0.0038655049
0.028430324 0.022540199 -0.017066732 -0.07185851 0.19793989 -0.97757673 0.0048430492
0.031334009 0.022473991 -0.017259063 -0.038816713 0.087193593 -0.99543482 0.0032049099
0.034391303 0.022576878 -0.017342348 0.00091672136 0.0065500103 -0.99997807 0.0034053824
0.037520591 0.022511674 -0.017267093 0.090814427 -0.13694423 -0.98640716 0.008597672
0.040487364 0.022501668 -0.016996533 0.11319804 -0.194364 -0.9743762 0.005142285
0.04342458 0.022678077 -0.016561892 0.18038611 -0.24894467 -0.95157105 0.0035319391
0.046467766 0.022447424 -0.015713608 0.27587393 -0.34311518 -0.89786726 0.0014104556
0.048824232 0.023480346 -0.015353506 0.32535917 -0.36675707 -0.8715679 0.0025218406
-0.042651456 0.026110033 -0.015278216 -0.26162851 -0.32551566 -0.90861988 0.0025184324
-0.040446345 0.02576476 -0.015723579 -0.20256978 -0.29117137 -0.93497849 0.0045508333
-0.037459284 0.025688609 -0.016266279 -0.12529449 -0.19103765 -0.97355324 0.0035848168
-0.034500923 0.025440665 -0.016557679 -0.055907708 -0.12326363 -0.99079788 0.0050359848
-0.03151321 0.025538642 -0.016679326 -0.030079948 -0.057332024 -0.99790186 0.009330851
-0.028465688 0.025520241 -0.016603835 0.039634053 0.13021618 -0.99069309 0.0056865495
-0.025366275 0.025596831 -0.016363412 0.077285938 0.20056647 -0.97662681 0.0042422195
-0.02238475 0.025518691 -0.016063549 0.097902335 0.2559056 -0.96173149 0.0031337247
-0.019463265 0.02551963 -0.015676986 0.11271936 0.30401275 -0.94597602 0.002695916
-0.016566651 0.025026653 -0.015461626 0.12402387 0.36213475 -0.92383784 0.0027653074
-0.013625138 0.02453348 -0.015243403 0.12074821 0.41383535 -0.90230829 0.0027921165
-0.011110984 0.024168808 -0.015065387 0.10905644 0.45194301 -0.88535541 0.0019195726
0.017170478 0.024229134 -0.015072506 -0.11797592 0.50071543 -0.85753471 0.0015510061
0.01958379 0.024548911 -0.015273319 -0.13340004 0.47230503 -0.87128204 0.0020655615
0.022553625 0.024981286 -0.015542017 -0.13423766 0.43873656 -0.88853282 0.0024898699
0.025540685 0.025363931 -0.015846808 -0.15815626 0.41337502 -0.89672059 0.0017626612
0.028486306 0.025481921 -0.016255714 -0.14957286 0.37379864 -0.91537017 0.0016676824
0.031560246 0.025525371 -0.016661862 -0.10564612 0.30400011 -0.94679606 0.003177511
0.034556262 0.025553543 -0.016972382 -0.071940914 0.24581228 -0.96664405 0.004012655
0.037517585 0.025529863 -0.01716263 -0.059852753 0.18996736 -0.97996432 0.0075837914
0.040432759 0.025520584 -0.017185668 0.018864192 0.050070398 -0.99856746 0.0039396244
0.043503243 0.025519919 -0.016985668 0.10970943 -0.10211387 -0.9887045 0.0067849583
0.046435036 0.025544554 -0.016546687 0.18373516 -0.17344075 -0.96755344 0.0051677893
0.049397457 0.025628682 -0.015832372 0.24797818 -0.21579282 -0.94442588 0.0029503277
0.05164377 0.02627736 -0.015296363 0.34084624 -0.29635549 -0.89218682 0.0030407568
-0.046076465 0.029003482 -0.015243704 -0.24437286 -0.26654536 -0.93232805 0.0026566302
-0.043340959 0.028585013 -0.015790451 -0.19259946 -0.17325464 -0.96586144 0.0038381105
-0.040459748 0.028627194 -0.016304927 -0.12874416 -0.089097291 -0.98766726 0.0051863147
-0.037545986 0.02854857 -0.016550431 -0.062482201 -0.04045644 -0.99722576 0.0098750694
-0.034634389 0.028554471 -0.016546749 0.029606339 0.14492783 -0.98899919 0.0054553109
-0.031601619 0.028519323 -0.016341086 0.076973051 0.21782188 -0.97294849 0.0044382676
-0.028510952 0.028567042 -0.015941015 0.11793985 0.28728092 -0.95055765 0.0030967279
-0.025709476 0.028407138 -0.015559533 0.14045127 0.35521907 -0.92417145 0.0029234865
-0.022835504 0.027729774 -0.015359063 0.15370421 0.42597303 -0.89158398 0.0029840195
-0.020118864 0.027225656 -0.015092975 0.16558807 0.46933642 -0.86735457 0.00190626
0.026431276 0.027179014 -0.015098367 -0.17163259 0.53450668 -0.82755351 0.0018403599
0.028785931 0.027562557 -0.015363932 -0.16283639 0.45403433 -0.87597781 0.00094276923
0.031687915 0.02817324 -0.015604674 -0.15856989 0.44705236 -0.8803407 0.0026898156
0.034429722 0.0285445 -0.015911777 -0.13809915 0.38700917 -0.91167569 0.0027654294
0.03745611 0.028535482 -0.016391199 -0.10453773 0.32749048 -0.93905365 0.0032610118
0.040517662 0.028497342 -0.016728541 -0.067284331 0.26177534 -0.96278065 0.0048250789
0.043530811 0.028513405 -0.016842794 -0.016214376 0.18940815 -0.98176461 0.0072697746
0.046467718 0.028634658 -0.016707607 0.089035012 0.084769882 -0.99241459 0.0063885069
0.049379908 0.028521774 -0.016304333 0.18964545 -0.048063423 -0.98067552 0.0035668788
0.052428622 0.028625378 -0.015558418 0.2481703 -0.14067486 -0.95844769 0.0035530897
0.054351989 0.0294613 -0.015099487 0.35047495 -0.21309885 -0.91200674 0.0033658617
-0.048844848 0.032149136 -0.015261437 -0.24210151 -0.17754801 -0.95386767 0.0038063086
-0.046454165 0.031671688 -0.015701411 -0.15935691 -0.1058321 -0.98153198 0.0043157418
-0.043478105 0.031546425 -0.016138423 -0.10474118 -0.037757158 -0.99378246 0.0074980101
-0.04043138 0.031545047 -0.016284501 -0.021658771 0.12487143 -0.99193645 0.0054878155
-0.037364293 0.031600546 -0.01616543 0.052926369 0.21767801 -0.97458464 0.0043564346
-0.034432366 0.031565085 -0.015830897 0.11478264 0.29205954 -0.94948733 0.0034478309
-0.031563237 0.031171374 -0.015495174 0.15463026 0.37208581 -0.91522765 0.0034317779
-0.028981561 0.030522032 -0.015275621 0.17816743 0.44693863 -0.87664264 0.0027027545
0.03517434 0.030201828 -0.015229901 -0.19259079 0.52793777 -0.82715809 0.0018297024
0.037687127 0.030840954 -0.015418571 -0.1687718 0.46862543 -0.86712533 0.0030306699
0.04062701 0.031409007 -0.01571469 -0.15409923 0.37385803 -0.91459477 0.0034915141
0.043467626 0.03153893 -0.016085627 -0.10900497 0.29616028 -0.94889784 0.003447914
0.046492826 0.031494353 -0.016302265 -0.0053562536 0.22644602 -0.97400898 0.004097376
0.049485974 0.031575494 -0.016196582 0.082216516 0.14570738 -0.98590559 0.0057505295
0.052385863 0.031415682 -0.01579345 0.16406903 -0.010990908 -0.98638767 0.0046395897
0.054706555 0.031757671 -0.015249731 0.27982551 -0.050672803 -0.9587127 0.0033740755
-0.051245019 0.035421208 -0.015025682 -0.22861649 -0.043561649 -0.97254145 0.0077215726
-0.049462702 0.034662727 -0.015346074 -0.13480738 -0.026313787 -0.99052233 0.004095207
-0.046359669 0.034602858 -0.015742917 -0.070410132 0.10954334 -0.99148512 0.003443314
-0.043397874 0.034493007 -0.015838187 -0.0060850563 0.19037981 -0.98169166 0.0043957527
-0.040588688 0.034534615 -0.015636694 0.076840654 0.27860728 -0.95732617 0.0038944054
-0.037670467 0.034052186 -0.015424911 0.1400923 0.37363669 -0.91693497 0.0034807937
-0.034886975 0.033459045 -0.015172861 0.18931589 0.45392266 -0.87069726 0.0024393692
0.041632924 0.033128001 -0.015090322 -0.19990681 0.50569916 -0.83922917 0.0017354985
0.043832153 0.033654891 -0.015291589 -0.16299222 0.44089547 -0.88263506 0.0031529425
0.046591043 0.034133799 -0.015500663 -0.087183073 0.35441288 -0.93101585 0.0033430415
0.049496338 0.034440976 -0.01559352 -0.0225139 0.23497723 -0.97174013 0.0039287233
0.052498125 0.034571607 -0.015468672 0.099661231 0.15184925 -0.98336637 0.0019262299
0.054869805 0.034434009 -0.01516414 0.17434421 0.12107672 -0.97721267 0.0040988615
-0.051132731 0.036642328 -0.01505561 -0.14385988 0.10590857 -0.98391449 0.0067973696
-0.049306996 0.037140522 -0.015195921 -0.069396883 0.18688865 -0.97992688 0.0021235126
-0.04643463 0.037040647 -0.01528681 0.0071687982 0.26449022 -0.96436173 0.0040469682
-0.043467395 0.036648035 -0.015221888 0.089349113 0.36879659 -0.92520583 0.0036951317
-0.040997073 0.036180492 -0.01509043 0.15963726 0.4463318 -0.88051343 0.0026130327
0.050740048 0.036143135 -0.01511632 -0.014617586 0.27265424 -0.96200109 0.0029555524
0.052569363 0.036285024 -0.015087568 0.036975637 0.25352344 -0.96662229 0.0036196366
-0.014253181 0.0088160019 -0.012286473 -0.13951646 -0.57118559 -0.80887711 0.0003392483
-0.010644256 0.0082740197 -0.0124664 -0.10521314 -0.55989021 -0.82185954 0.00033471736
-0.0074451556 0.007933937 -0.012614285 -0.062321376 -0.58710665 -0.80710703 0.0019572556
-0.0043200743 0.0076979599 -0.012739522 -0.068565197 -0.61924052 -0.78220201 0.0016084359
-0.0014730635 0.0080176936 -0.013182936 -0.051954031 -0.5378567 -0.84143388 0.00089417223
0.0015751737 0.0075727794 -0.013023008 -0.023485783 -0.60429502 -0.79641443 0.0012505985
0.0045034001 0.0078949267 -0.013364938 -0.0008752658 -0.57407707 -0.81880075 0.0019668993
0.0075127752 0.0076320558 -0.013213241 -0.0059200008 -0.59979856 -0.80012918 0.0018275519
0.010514647 0.007662084 -0.013202544 0.016368963 -0.60973686 -0.79243493 0.0017006365
0.013396138 0.007949532 -0.013326608 0.044384558 -0.61641872 -0.78616667 0.0019401206
0.01656419 0.0080601815 -0.013208247 0.062681355 -0.62508768 -0.77803367 0.0014909614
0.019476198 0.0082884934 -0.013132718 0.084305942 -0.63101166 -0.77117884 0.0014063653
0.022822076 0.0081266463 -0.012480439 0.088857748 -0.63144356 -0.77031374 0.0012002636
0.024493692 0.0089635672 -0.012955167 0.10481068 -0.61156839 -0.78421861 0.00062439759
-0.022591392 0.011749308 -0.012583728 -0.17632945 -0.54698151 -0.81836373 0.00064085273
-0.019057715 0.011185903 -0.013064478 -0.15282483 -0.53364158 -0.83178794 0.0007404926
-0.016152585 0.010608479 -0.013261923 -0.14632697 -0.54520494 -0.82543325 0.00075637153
-0.013286857 0.01065023 -0.013775787 -0.11396551 -0.52741301 -0.84193081 0.001075204
-0.010600209 0.010714197 -0.014153388 -0.096524268 -0.52894229 -0.84315068 0.0015315909
-0.0075984532 0.010468319 -0.014292596 -0.075260535 -0.50631475 -0.85905826 0.0017219952
-0.0045836605 0.010288149 -0.014410153 -0.062508002 -0.47954264 -0.87528944 0.0018032806
-0.0015475278 0.010173053 -0.014525995 -0.044953756 -0.46690413 -0.88316458 0.0020968819
0.0015200912 0.0099005923 -0.014510443 -0.03322769 -0.45434359 -0.89020658 0.0019304613
0.0044610072 0.0099965548 -0.014658423 -0.024898749 -0.45399201 -0.89065778 0.0022246202
0.0074868253 0.0098127425 -0.014622513 -0.0085452963 -0.45873693 -0.88853097 0.0022427957
0.010527027 0.0096542044 -0.014551821 0.0023430467 -0.46967763 -0.88283485 0.0022009427
0.013562581 0.0098615671 -0.014628203 0.021728067 -0.48156023 -0.87614363 0.0022266628
0.016537379 0.0099547887 -0.01457166 0.042717967 -0.50150901 -0.86409718 0.0018038969
0.019409647 0.010100927 -0.01446512 0.078621633 -0.54435986 -0.83515924 0.0026226002
0.022532173 0.010320792 -0.014299532 0.096681722 -0.55088323 -0.8289634 0.0013138728
0.025584083 0.010481337 -0.013956743 0.11508556 -0.55692488 -0.82255095 0.00068567944
0.028248945 0.01083013 -0.013735327 0.13935545 -0.55095387 -0.82281822 0.00063251395
0.03156561 0.011140609 -0.013168825 0.2031334 -0.5856455 -0.78470135 0.001150757
0.03460126 0.011531669 -0.012545274 0.22051324 -0.61399579 -0.75788063 0.00086495909
0.036178514 0.011584239 -0.012023065 0.23669317 -0.6235857 -0.74506187 0.00033455036
-0.028401189 0.013940357 -0.012618485 -0.21497273 -0.54372811 -0.81126225 0.00094212237
-0.025382007 0.013794608 -0.013373894 -0.19857503 -0.53486979 -0.82126874 0.00071335718
-0.022427121 0.014028708 -0.014237423 -0.15123118 -0.48457673 -0.86157686 0.0013666053
-0.019591818 0.013450745 -0.01443368 -0.15715188 -0.48135144 -0.86232477 0.0013591121
-0.016695222 0.012840547 -0.01457704 -0.12653677 -0.44638813 -0.88584763 0.0018668189
-0.013667327 0.012366829 -0.014726587 -0.10677517 -0.49004093 -0.86513519 0.0013835205
-0.010924475 0.012310849 -0.014978933 -0.061553109 -0.41160718 -0.9092803 0.004981182
0.02947583 0.012176623 -0.014511895 0.14556701 -0.5373404 -0.83070779 0.00052126974
0.031663671 0.012692742 -0.014372329 0.18654773 -0.52795315 -0.82853204 0.0023295484
0.034750417 0.013910455 -0.014457944 0.212852 -0.56905252 -0.79427534 0.0014382608
0.037421342 0.01386668 -0.013662157 0.23879495 -0.60358793 -0.76069605 0.00086031435
0.039970819 0.013632394 -0.01249695 0.30300674 -0.63942289 -0.70662946 0.00033356604
0.043465279 0.014865143 -0.012014219 0.35542464 -0.623025 -0.69678777 0.0012575865
-0.037250366 0.017606791 -0.012367323 -0.29213652 -0.53367108 -0.79363179 0.00059772562
-0.03418123 0.017146373 -0.013208268 -0.24155241 -0.53731662 -0.80804914 0.00090133573
-0.031354096 0.016719265 -0.013797675 -0.22440219 -0.5404563 -0.81089497 0.00083915441
-0.028589092 0.016259372 -0.014229008 -0.20381056 -0.51394331 -0.83326083 0.0017902427
-0.025527298 0.015847063 -0.014669145 -0.18696204 -0.45410806 -0.87110907 0.0025826476
-0.023021897 0.015479687 -0.014941601 -0.13949409 -0.43563652 -0.88924813 0.0042077769
0.037826512 0.015156643 -0.014513867 0.22544104 -0.56658196 -0.79256624 0.0013485553
0.040521145 0.015921799 -0.01414779 0.29432932 -0.55487162 -0.77813089 0.0023785753
0.043325711 0.016885996 -0.013757342 0.32973486 -0.56712961 -0.75474435 0.0014816113
0.046039876 0.01725148 -0.0128134 0.37110212 -0.58728319 -0.71929252 0.00098958251
-0.042286649 0.020524535 -0.012259001 -0.34075549 -0.50172049 -0.79508632 0.00043596918
-0.040096439 0.020021349 -0.012937598 -0.30216548 -0.50032353 -0.81140155 0.00097721408
-0.037324283 0.02007509 -0.014087063 -0.26901102 -0.48875898 -0.82990831 0.0021311692
-0.034548651 0.019399624 -0.014574657 -0.24665111 -0.4747217 -0.84486836 0.0014494515
-0.031533033 0.018302804 -0.014750883 -0.19391736 -0.42596197 -0.88371515 0.0018730407
0.044374786 0.019062454 -0.014849603 0.27593681 -0.4545179 -0.84691936 0.0026943705
0.046570141 0.019395392 -0.01412993 0.34332755 -0.52183741 -0.78090453 0.0022557206
0.049312152 0.019990589 -0.013215185 0.40466538 -0.50197977 -0.76437056 0.0015070379
0.05133108 0.020370601 -0.012397142 0.43798605 -0.57861179 -0.68802363 0.002162124
-0.045508541 0.023247998 -0.012542264 -0.34639078 -0.47037709 -0.81163961 0.00050468219
-0.042750247 0.022963326 -0.013694775 -0.33700454 -0.45676726 -0.82328099 0.0014374749
-0.040331166 0.022491543 -0.014413843 -0.31571323 -0.44511259 -0.83797371 0.0012268648
-0.037989251 0.021897677 -0.014885952 -0.25323236 -0.39593688 -0.88267052 0.0023874023
-0.0071207825 0.023643993 -0.014862448 0.092335574 0.37454435 -0.92259997 0.0024013582
-0.0043055615 0.023457253 -0.014714831 0.068645939 0.40665433 -0.91099948 0.0023994776
-0.0013879549 0.023260934 -0.014644 0.043868445 0.43084535 -0.9013589 0.0021944998
0.0015203722 0.023175394 -0.014601274 0.013555771 0.4418841 -0.8969698 0.002355031
0.0044100829 0.023195388 -0.014596395 -0.015053038 0.45066211 -0.89256769 0.0022786143
0.0073915385 0.02329221 -0.014639919 -0.042253751 0.45035875 -0.89184731 0.0024146365
0.010440844 0.023491871 -0.014726019 -0.068915248 0.44251719 -0.894108 0.0024909636
0.013110958 0.023733914 -0.01483719 -0.096013859 0.42371741 -0.90069133 0.002461243
0.047409814 0.021065714 -0.01479651 0.33900982 -0.47240806 -0.81357414 0.0010404976
0.049807217 0.022385741 -0.014450913 0.38227582 -0.42279169 -0.82165223 0.0015822729
0.052408587 0.022654429 -0.013299528 0.44004259 -0.48880374 -0.75328177 0.0010790809
0.054934002 0.023490936 -0.012374985 0.47027722 -0.49586904 -0.73003656 0.0017826059
-0.049323857 0.026296845 -0.012648355 -0.35071954 -0.41726151 -0.83838457 0.00080439419
-0.046384383 0.025904214 -0.013804237 -0.32100371 -0.41069826 -0.85339528 0.0021154808
-0.04378159 0.025351148 -0.014573123 -0.31001976 -0.40335962 -0.86092323 0.0019314908
-0.016362399 0.026489725 -0.014782456 0.16398537 0.42015681 -0.89251161 0.0025474408
-0.013347398 0.026009776 -0.014476786 0.15400888 0.4606027 -0.87414318 0.0020698179
-0.010452692 0.025569858 -0.014246292 0.12884337 0.49123141 -0.86144704 0.0013189466
-0.0074743167 0.025572633 -0.013835446 0.10294306 0.50610775 -0.85630465 0.0010668818
-0.0044680727 0.025534477 -0.013535491 0.076365963 0.51541936 -0.85352856 0.001029209
-0.0014877414 0.025509173 -0.013304565 0.058929935 0.58089137 -0.81184512 0.0019513533
0.0015016659 0.025540929 -0.013146277 0.028768089 0.56618088 -0.82377893 0.0029627811
0.004532719 0.025503911 -0.013150885 -0.0042555947 0.56940919 -0.82204312 0.0024530452
0.0075120144 0.025533894 -0.013216903 -0.048148286 0.58015567 -0.81308126 0.0028577666
0.010508456 0.025528418 -0.013423399 -0.07092981 0.55025947 -0.83197558 0.0009756753
0.013513415 0.025515568 -0.01375882 -0.10568403 0.54752541 -0.8300885 0.0010507454
0.01642677 0.025662303 -0.014081315 -0.13306886 0.53721654 -0.83288109 0.0012226534
0.019338971 0.026018936 -0.014368586 -0.15671919 0.51426756 -0.84318912 0.0016250961
0.022257915 0.02645861 -0.014679655 -0.1740265 0.53063077 -0.8295455 0.00051732006
0.02479825 0.026804129 -0.014982067 -0.17320287 0.49927497 -0.84895545 0.0008336415
0.052793235 0.025385786 -0.014501558 0.38343003 -0.35123888 -0.85417366 0.0012874742
0.055333242 0.025609666 -0.013317063 0.45716092 -0.4084301 -0.79005623 0.0014899087
0.057695068 0.026482072 -0.012371854 0.50117081 -0.42082307 -0.75613207 0.0021005285
-0.051841829 0.029312782 -0.013152738 -0.35942554 -0.33140725 -0.87234306 0.0013147193
-0.049324177 0.028663632 -0.013955872 -0.31779015 -0.33658919 -0.8864069 0.0019247356
-0.046920937 0.027863372 -0.014562335 -0.31477964 -0.33294591 -0.88885367 0.0023315924
-0.04487985 0.027151423 -0.014979128 -0.28916296 -0.32256562 -0.90129697 0.0083216541
-0.024673821 0.029555909 -0.01483933 0.19308412 0.41964784 -0.88691276 0.0027150624
-0.022213152 0.029155323 -0.014505608 0.19733198 0.47163892 -0.85942817 0.0021266816
-0.019426251 0.028643254 -0.01415229 0.19038971 0.51107585 -0.83818448 0.0012394217
-0.016410965 0.028502744 -0.013545607 0.18809262 0.53272718 -0.82511991 0.00097505632
-0.01357777 0.028299699 -0.013035505 0.17818035 0.6003992 -0.77959764 0.0015724225
-0.01053761 0.027894733 -0.012710666 0.14795804 0.61881119 -0.7714799 0.0016836956
-0.0075659831 0.027574033 -0.012451625 0.11741564 0.6389696 -0.76021802 0.001794557
-0.0047748322 0.027301332 -0.012308511 0.093755454 0.6607874 -0.74469447 0.0015120022
-0.0019060761 0.027082823 -0.012163651 0.070317797 0.67895097 -0.73080838 0.0015563642
9.6813499e-05 0.027073231 -0.012042459 0.022503611 0.66531831 -0.74622059 0.0036832546
0.0077466965 0.027012207 -0.012070606 -0.055201329 0.66269064 -0.74685597 0.0031733522
0.010608005 0.027165676 -0.012149041 -0.073250413 0.63563514 -0.76850653 0.001683947
0.013705897 0.027428204 -0.012302433 -0.10921584 0.68195003 -0.72319847 0.0016108218
0.016668346 0.027612761 -0.012659882 -0.148578 0.66481411 -0.7320838 0.0014756988
0.019666728 0.028001059 -0.012980016 -0.17567137 0.64726955 -0.74174231 0.0012532976
0.02258819 0.028441168 -0.013328261 -0.19232538 0.63099509 -0.75156915 0.001397547
0.025399994 0.028600121 -0.013909237 -0.19601397 0.56611955 -0.80067915 0.0013475645
0.028395023 0.02904924 -0.014345231 -0.20091191 0.53558737 -0.82023203 0.0016171196
0.031066837 0.029437244 -0.014742785 -0.19799915 0.49594247 -0.84548056 0.0021625173
0.053769913 0.027589114 -0.014873114 0.35051665 -0.21310931 -0.9119882 0.0033601159
0.055605359 0.028475938 -0.01431831 0.41216451 -0.25451708 -0.87483793 0.0017084538
0.058316253 0.028625343 -0.012964382 0.4678998 -0.32335246 -0.8225041 0.0026788767
0.060229231 0.029765386 -0.0122557 0.5421927 -0.342522 -0.76727158 0.0021147488
-0.05492834 0.031948172 -0.012761177 -0.41572917 -0.29990149 -0.85861999 0.00085444603
-0.052372914 0.031711768 -0.013893621 -0.35104755 -0.26266024 -0.89876312 0.0011668863
-0.049762487 0.031231388 -0.014759643 -0.30632475 -0.25274381 -0.91776127 0.0018608952
-0.031024121 0.032505862 -0.014757797 0.21647336 0.43150735 -0.87575155 0.0027592706
-0.028352447 0.031947382 -0.014354566 0.22206849 0.49324453 -0.84106797 0.0016784229
-0.025485547 0.03156491 -0.01378938 0.23005837 0.53532249 -0.81271333 0.0011330373
-0.022655794 0.031418588 -0.013059562 0.24071582 0.58346075 -0.77564782 0.0026322796
-0.019659912 0.03079438 -0.012682857 0.22296093 0.63761556 -0.73738378 0.0015207091
-0.017049119 0.030311763 -0.012321601 0.20369957 0.66485214 -0.71866417 0.0014141775
0.023214517 0.030141721 -0.012012456 -0.19669828 0.7068671 -0.67944741 0.0012185817
0.025729923 0.030514702 -0.012434139 -0.21656148 0.68434262 -0.69625878 0.0012642361
0.028563909 0.030937424 -0.012909378 -0.22363545 0.66244233 -0.71495277 0.0011900591
0.031551916 0.031440053 -0.013372635 -0.23158319 0.59922254 -0.76635599 0.0010163846
0.034462929 0.03167779 -0.014050847 -0.22532293 0.56167567 -0.79608423 0.001070994
0.03731335 0.03223671 -0.014495939 -0.22864677 0.51088029 -0.82868695 0.002039535
0.039569367 0.032645829 -0.014861634 -0.21129727 0.48978624 -0.84585041 0.0017590227
0.056145266 0.031454653 -0.014746133 0.35387626 -0.12636657 -0.92671633 0.0030573625
0.05837094 0.031575743 -0.01381189 0.40521055 -0.16212647 -0.89973295 0.0015395081
0.060747202 0.031701218 -0.012580103 0.50319237 -0.232665 -0.83226466 0.0030594375
-0.057730168 0.034808289 -0.012344828 -0.44794503 -0.26594126 -0.85359263 0.0019262898
-0.055416666 0.034660634 -0.013457928 -0.4252885 -0.26057136 -0.86673659 0.0012948054
-0.052710444 0.034612626 -0.014506615 -0.3291004 -0.16067687 -0.93052453 0.0028629415
-0.050927963 0.033357259 -0.014908063 -0.29132086 -0.15906973 -0.9433074 0.0090735964
-0.037197232 0.035444055 -0.014674134 0.20340417 0.43923903 -0.87504053 0.0024235684
-0.034385465 0.034878504 -0.014260918 0.23149253 0.49789876 -0.83576787 0.0014844933
-0.031490866 0.034570657 -0.013554529 0.25809649 0.53926289 -0.80161196 0.0011695755
-0.028604925 0.034176376 -0.012865591 0.27392706 0.61438376 -0.73993009 0.001434303
-0.02591797 0.03355366 -0.012426809 0.2615298 0.65125108 -0.71237218 0.0015835754
0.032486651 0.033227861 -0.012119186 -0.24949607 0.68299675 -0.68648905 0.00075081404
0.034802642 0.033632554 -0.012572517 -0.265129 0.66996443 -0.69343656 0.0015005737
0.037625637 0.034280363 -0.013062272 -0.29418686 0.60098094 -0.74315274 0.0019489985
0.040465537 0.034590747 -0.013831398 -0.23786587 0.52712595 -0.81581742 0.00073540234
0.043250792 0.035013583 -0.014420787 -0.22722371 0.4844299 -0.84480596 0.001811433
0.046145417 0.035575695 -0.014795074 -0.16629609 0.41416478 -0.89488167 0.0031464002
0.048115239 0.035906747 -0.014964066 -0.083019324 0.45631719 -0.88593584 0.0039810897
0.056364935 0.034828261 -0.014812523 0.22814786 0.03640487 -0.97294569 0.0042825122
0.058483023 0.034677461 -0.014148789 0.33879894 -0.026312539 -0.94049084 0.0039272779
0.061369132 0.034542602 -0.012832038 0.45300627 -0.10844567 -0.88488692 0.0031241223
-0.058253005 0.037698884 -0.012822375 -0.40779653 -0.15929143 -0.89907074 0.0047998279
-0.055381712 0.037565418 -0.013952272 -0.3046433 -0.046046037 -0.95135283 0.0044830916
-0.052423846 0.03769562 -0.014711426 -0.16087942 0.1323425 -0.97806096 0.005093236
-0.049653381 0.038572978 -0.014891116 -0.027116694 0.2356524 -0.97145897 0.0050066169
-0.046536032 0.0385097 -0.014812306 0.088032179 0.3460367 -0.93408191 0.0036458855
-0.04333587 0.038140692 -0.014550439 0.15858379 0.42895898 -0.8892948 0.0026702492
-0.040441584 0.037617721 -0.014213533 0.20372577 0.48694733 -0.84933984 0.0013269808
-0.0375049 0.037481926 -0.013473654 0.26193988 0.52724367 -0.80833262 0.0013376637
-0.034715127 0.037125327 -0.012785405 0.29173535 0.60463411 -0.74115324 0.0018212773
-0.032220818 0.036544304 -0.012297443 0.29191056 0.64955169 -0.70204759 0.001424371
0.040919866 0.036624398 -0.012456945 -0.30882394 0.62874895 -0.71365434 0.0014231313
0.043649755 0.037320204 -0.012998688 -0.28467309 0.58393025 -0.76025438 0.0014893498
0.046497162 0.037486345 -0.013776238 -0.21959221 0.51647711 -0.82766581 0.0014359489
0.049457289 0.037556332 -0.01436554 -0.12781061 0.4550938 -0.88122308 0.0019757212
0.052488353 0.037830982 -0.014553643 -0.033973057 0.34306219 -0.93869811 0.0055083781
0.055480938 0.037470691 -0.014565089 0.12782517 0.2630195 -0.9562853 0.0056363521
0.058458395 0.03758942 -0.014016991 0.25547242 0.12871036 -0.95821059 0.0052866167
0.061508954 0.037482698 -0.012968069 0.38093013 0.016678058 -0.92445338 0.0045073102
0.063265763 0.037592012 -0.012121885 0.51310992 -0.057089757 -0.85642213 0.0025149602
-0.060381405 0.041056868 -0.012248836 -0.42002913 -0.053554222 -0.90592903 0.003442208
-0.058415685 0.040514294 -0.012999946 -0.31410068 -0.019644897 -0.94918638 0.0072852052
-0.055552341 0.040639058 -0.013794406 -0.20077959 0.14834771 -0.96833909 0.0064833509
-0.052508287 0.040530443 -0.014207866 -0.06841626 0.2643238 -0.96200424 0.0063159047
-0.049414061 0.040574674 -0.014195072 0.01622116 0.35674548 -0.93406081 0.0060499297
-0.046493072 0.040512737 -0.013854576 0.13380237 0.445122 -0.88541698 0.0017211749
-0.043501437 0.040460937 -0.013215201 0.22499424 0.53944802 -0.81140214 0.0025342174
-0.040602796 0.039957076 -0.012694111 0.25725392 0.5983426 -0.75881928 0.0020777793
-0.038169622 0.039295956 -0.012340285 0.28802642 0.62003511 -0.72979259 0.0014641442
0.046780456 0.039594818 -0.012459049 -0.27483365 0.58065611 -0.76635814 0.0021682228
0.049677912 0.040326536 -0.012853883 -0.20926473 0.52860832 -0.82266736 0.0024516343
0.052503623 0.040538222 -0.013311958 -0.12457147 0.45222127 -0.88316357 0.0039016516
0.055485558 0.040506657 -0.01358722 0.0033846823 0.36573145 -0.93071431 0.0036710491
0.058516745 0.040582731 -0.01339179 0.14690335 0.2640118 -0.95326656 0.0050262036
0.061506338 0.040415414 -0.012744665 0.29453281 0.16967699 -0.9404574 0.0036911587
0.063284822 0.039918154 -0.01210244 0.42967495 0.11029404 -0.89622235 0.0036043972
-0.060336564 0.043343242 -0.012189502 -0.32087806 0.14656387 -0.93571162 0.0050246851
-0.058304064 0.043657228 -0.012673212 -0.21200995 0.21416827 -0.9535113 0.0032747339
-0.055463914 0.043448009 -0.01312118 -0.090833418 0.30542877 -0.94787264 0.0052713268
-0.052419145 0.043616578 -0.013021863 0.048124343 0.41060126 -0.91054416 0.0043825959
-0.04959897 0.043366939 -0.012804048 0.13640863 0.4929817 -0.85927975 0.0033261324
-0.046638053 0.042760998 -0.012535255 0.2107472 0.56333381 -0.79889971 0.0030053922
-0.044368215 0.042149752 -0.012294644 0.26320657 0.61364406 -0.74442142 0.0019897809
0.052918449 0.042450715 -0.012295626 -0.19688648 0.54165399 -0.81721884 0.002495626
0.055607282 0.04294648 -0.012467843 -0.092820592 0.46763125 -0.87903661 0.0034068348
0.058492038 0.043260917 -0.012462771 0.048159793 0.37233609 -0.92684764 0.0041393824
0.061204229 0.042847071 -0.012308978 0.24378574 0.25156236 -0.9366349 0.0051825386
-0.058165126 0.045449305 -0.01219366 -0.14945401 0.35153207 -0.92416918 0.0053169685
-0.055592701 0.045539994 -0.012265672 0.014723222 0.46463507 -0.88537985 0.0033898579
-0.05311713 0.045356873 -0.012205511 0.12426268 0.53116155 -0.83810872 0.0026556656
-0.0062113586 0.0049624885 -0.01000008 -0.079074323 -0.66621107 -0.74155921 0.00025079935
-0.003836283 0.0046544936 -0.0099672638 -0.070332184 -0.67527705 -0.73420316 0.00023933925
-0.00025253597 0.0059706424 -0.011654106 -0.038627211 -0.62248653 -0.78167671 0.0015994303
0.00083079404 0.0047068768 -0.010397039 -0.038487382 -0.63766438 -0.76935226 0.0011758085
0.0041919062 0.0051060007 -0.010926758 -0.0076613785 -0.63463002 -0.77277809 0.00067616813
0.0077031748 0.0053734793 -0.011217071 0.0097507332 -0.63538027 -0.77213788 0.00070750294
0.0099195652 0.0051065781 -0.010863057 0.02074906 -0.64197868 -0.76644164 0.00087647681
0.012833735 0.0054244185 -0.011019641 0.033287272 -0.64552075 -0.76301694 0.00061317091
0.015564811 0.0053243209 -0.010689449 0.06725318 -0.69399536 -0.71683156 0.00014096808
0.019672681 0.0058455747 -0.010659086 0.087452926 -0.66668171 -0.7401942 0.00045608368
-0.012869893 0.007917447 -0.011821089 -0.11307497 -0.56772965 -0.81541216 0.00017149214
-0.0097528817 0.0071038827 -0.011675202 -0.090096354 -0.60859203 -0.78835171 0.0011037497
-0.0080629755 0.0071185715 -0.011910606 -0.077097408 -0.62432528 -0.7773506 0.0012387456
-0.0017233284 0.0063863862 -0.011923109 -0.06489826 -0.62251651 -0.77991122 0.0017911285
0.016349871 0.0061371475 -0.01146724 0.070047624 -0.66630828 -0.74237907 0.00055669033
0.020419186 0.0065920427 -0.011361645 0.087452732 -0.66668296 -0.74019319 0.00045679582
0.021124061 0.0072378148 -0.011947277 0.093735225 -0.65633959 -0.74862015 0.00048244317
-0.018765582 0.0093406234 -0.011695325 -0.16693126 -0.57102454 -0.80378163 0.00016351673
0.03725329 0.011468965 -0.011468349 0.25461683 -0.62898624 -0.73453838 0.00074382039
-0.030950589 0.013891825 -0.011753485 -0.22485508 -0.56121904 -0.79653841 0.00036407716
-0.026073664 0.012229211 -0.011955246 -0.21100137 -0.54063112 -0.81436867 0.00075824402
0.041319247 0.01301266 -0.011173886 0.30300751 -0.63942951 -0.7066232 0.00033582322
0.044154231 0.014250346 -0.010943172 0.36266997 -0.64248639 -0.67504203 0.00083818065
0.046667393 0.014491179 -0.0095173893 0.39714217 -0.65340251 -0.64447135 0.00072233635
-0.033540595 0.015152584 -0.011877045 -0.24340048 -0.54439485 -0.80273938 0.0007694161
0.04653576 0.016029701 -0.011405917 0.37813702 -0.61281466 -0.69388086 0.0011455148
0.049251582 0.016836127 -0.010401839 0.41233712 -0.62684387 -0.66109371 0.0009148473
0.051778875 0.01746952 -0.0091538429 0.45994884 -0.62908494 -0.62665713 0.00066605816
-0.039928537 0.018347641 -0.011774021 -0.31232575 -0.52655888 -0.79068851 0.00018217904
0.050186608 0.018773245 -0.011755433 0.41691265 -0.58572906 -0.69505787 0.0017327669
0.052642178 0.019558404 -0.01074128 0.47330573 -0.59489012 -0.64968252 0.0013363071
0.054991234 0.02038602 -0.0097182272 0.51912588 -0.61353731 -0.59504652 0.0013533672
-0.045120496 0.021954136 -0.011830457 -0.35027722 -0.47283775 -0.80853593 0.00058997091
0.052851953 0.02106218 -0.011957474 0.44866404 -0.53765374 -0.71388304 0.0010662219
0.055602301 0.022283833 -0.010976418 0.49381813 -0.54909265 -0.67427063 0.0019902028
0.057906192 0.023226723 -0.0099234255 0.55883247 -0.5403623 -0.62905866 0.0011404452
0.056869607 0.024292063 -0.011618436 0.52818155 -0.51625645 -0.67416877 0.0014742499
0.058715053 0.025328116 -0.010889932 0.54735482 -0.4837459 -0.68292946 0.0024334956
0.060809929 0.026360927 -0.0098808808 0.58787251 -0.50868285 -0.62900531 0.001209163
-0.012976333 0.029716706 -0.011714848 0.19064842 0.69715804 -0.6911034 0.0015338302
-0.010430284 0.029369082 -0.011432849 0.16461805 0.71984965 -0.67432731 0.0016477719
-0.0074597392 0.029063368 -0.011064105 0.13514863 0.73515648 -0.664289 0.0017402141
-0.0044480083 0.028779909 -0.01084516 0.10452519 0.74079472 -0.6635493 0.0012517108
-0.0014777285 0.028632754 -0.010593511 0.070499316 0.74867833 -0.65917432 0.0011669882
0.0014880913 0.028481297 -0.010529629 0.041189604 0.73442316 -0.6774407 0.0023943258
0.0045167943 0.028395999 -0.010551112 0.0038216764 0.74419159 -0.66795528 0.0021662011
0.0075070504 0.028467225 -0.010545444 -0.025555201 0.75175762 -0.65894407 0.0025396398
0.010486573 0.028683791 -0.010574934 -0.078168169 0.73697692 -0.67138273 0.002397567
0.013424868 0.028925354 -0.010718762 -0.12269598 0.73154807 -0.67065877 0.0033670987
0.016420452 0.029093243 -0.011157043 -0.15785947 0.75138324 -0.64070559 0.0016742544
0.019288735 0.029439731 -0.011549652 -0.19371755 0.70133269 -0.68600726 0.00041953559
0.021569606 0.029770477 -0.011889618 -0.20998237 0.68829417 -0.69437629 0.0035865176
0.059624985 0.027550077 -0.011634074 0.5636462 -0.3962422 -0.72477233 0.0012678064
0.061544903 0.028668921 -0.010719491 0.5781548 -0.3776626 -0.72326201 0.0009970729
0.063416004 0.029248729 -0.0093966033 0.65037543 -0.4147644 -0.63638216 0.0011229928
-0.057794303 0.03224067 -0.011138076 -0.46234828 -0.30188924 -0.8337248 0.00067798403
-0.05663503 0.032074895 -0.011839122 -0.44137394 -0.30288279 -0.84466028 0.0011311151
-0.021879414 0.032735284 -0.011675309 0.25576532 0.69505692 -0.67192262 0.0018087449
-0.019274436 0.032286353 -0.011155969 0.24759805 0.72620982 -0.64133811 0.0017532012
-0.016428195 0.031712458 -0.010710984 0.23128773 0.74014574 -0.6314193 0.001398468
-0.013582151 0.031221861 -0.010305508 0.20010667 0.74186057 -0.64000016 0.0025289201
-0.010537728 0.030778622 -0.009928436 0.18141955 0.74249744 -0.6448136 0.0015875844
-0.0076586027 0.030443301 -0.0095809186 0.14410815 0.75718814 -0.63710201 0.0015296936
-0.0044199368 0.030160125 -0.0092718359 0.1068396 0.76538706 -0.63464004 0.0012518993
0.013628894 0.030180853 -0.0092267003 -0.13357285 0.81578147 -0.56272447 0.0040436522
0.016714998 0.030439103 -0.0096574491 -0.16595162 0.77031583 -0.61568958 0.001553283
0.019655837 0.03078898 -0.010133218 -0.19916588 0.75078338 -0.62980723 0.0013876866
0.022540197 0.031295452 -0.010507684 -0.21425389 0.73191327 -0.64683712 0.0012669446
0.025362557 0.031959351 -0.010762482 -0.23964392 0.73593771 -0.63321918 0.0004259198
0.028240129 0.032391816 -0.011365269 -0.24778852 0.71039546 -0.65874052 0.00051656662
0.030305959 0.032665309 -0.011854795 -0.25890216 0.69201034 -0.67386311 0.0033273825
0.062277991 0.031426322 -0.011450081 0.593472 -0.28658018 -0.75210547 0.0015386739
0.064097799 0.031735368 -0.010090366 0.63983375 -0.32901022 -0.694525 0.0018417594
-0.060836703 0.03544132 -0.010531617 -0.53147328 -0.28323594 -0.79831916 0.0010157935
-0.059000209 0.034798916 -0.011562754 -0.48133051 -0.29925489 -0.8238734 0.00055683224
-0.028185248 0.035552938 -0.011468871 0.30111641 0.69906276 -0.6485678 0.0017941362
-0.025348216 0.034848411 -0.010898627 0.29783541 0.71099037 -0.63701403 0.00069581508
-0.022625856 0.034265373 -0.010292994 0.27215964 0.711254 -0.64811027 0.0011132646
-0.019717962 0.033632789 -0.0097850543 0.268792 0.74426234 -0.61141181 0.0013763923
-0.017417885 0.033194993 -0.0093131326 0.24843453 0.75662285 -0.60481584 0.0013653614
0.025990987 0.033271551 -0.0093575837 -0.25170165 0.77299887 -0.58233935 0.0011172503
0.028643994 0.033687375 -0.0099680703 -0.26412138 0.75880951 -0.59535539 0.001393625
0.031586137 0.034341339 -0.010452054 -0.27741954 0.76367223 -0.58296072 0.0011931118
0.034301311 0.03503434 -0.010885893 -0.3014755 0.73526865 -0.60703588 0.0015622182
0.036939953 0.035584558 -0.011579531 -0.31440628 0.64358741 -0.69781375 0.0013955886
0.062867984 0.033919737 -0.011845278 0.55629861 -0.16976883 -0.81345582 0.0016745295
0.064592913 0.034581069 -0.010686034 0.60255951 -0.21646409 -0.76815706 0.0017251975
0.066425882 0.035209365 -0.0093229897 0.68766457 -0.25222474 -0.68080837 0.0017144304
-0.063210994 0.037799902 -0.0097599225 -0.54846454 -0.22629327 -0.8049708 0.0012084617
-0.061239112 0.037910182 -0.011222705 -0.51213729 -0.19646646 -0.83613175 0.002404382
-0.059704944 0.037035525 -0.011937065 -0.48746926 -0.19744301 -0.85052341 0.0019789545
-0.036048405 0.038993232 -0.011708842 0.31303638 0.67635775 -0.66674459 0.0011186182
-0.034168329 0.038430989 -0.011382209 0.31393641 0.6633749 -0.67924786 0.00089344761
-0.031396978 0.037721686 -0.010708353 0.32532498 0.72076219 -0.61209923 0.0013222321
-0.028619625 0.03697506 -0.010100804 0.33075991 0.73614132 -0.59050292 0.0021506397
-0.025955036 0.036292717 -0.0094729522 0.30813172 0.74004829 -0.59781551 0.0010876132
0.034944419 0.036399838 -0.0095437262 -0.32638475 0.74660301 -0.57970423 0.0013079665
0.03762421 0.03708753 -0.010262363 -0.34201914 0.72984529 -0.59190273 0.0017611469
0.040255118 0.037892241 -0.010902896 -0.36272588 0.69507146 -0.62072998 0.0016933869
0.042833086 0.038633145 -0.011571733 -0.32591072 0.64708394 -0.68924928 0.0021452201
0.064779818 0.037553698 -0.011143825 0.55953431 -0.09687683 -0.82312596 0.0011770001
0.066783018 0.037678696 -0.009611995 0.66270244 -0.13664566 -0.73631066 0.002592315
-0.064234242 0.040846869 -0.010001708 -0.54737693 -0.16060109 -0.82133168 0.0017353435
-0.061754134 0.040485952 -0.011494391 -0.47736764 -0.12117953 -0.8703078 0.0020210305
-0.042161129 0.041704074 -0.011864 0.29561561 0.61549503 -0.73060066 0.0038162686
-0.040095642 0.041285202 -0.011344439 0.30270597 0.65058374 -0.69649833 0.00092440454
-0.037425198 0.040669587 -0.01064248 0.32083055 0.68467206 -0.6544401 0.00056544371
-0.034742776 0.039936438 -0.010015347 0.35601604 0.71220613 -0.60499179 0.0014949706
-0.032302495 0.039315805 -0.009325305 0.36349249 0.7463432 -0.55753487 0.0019881793
0.041132543 0.039550733 -0.0096236039 -0.40124574 0.71079981 -0.57772446 0.0014818024
0.043686841 0.040293511 -0.010372672 -0.36154282 0.67312378 -0.64512885 0.0015605055
0.046313182 0.04099204 -0.011098968 -0.33929336 0.61895144 -0.70836377 0.0021964174
0.048768617 0.041619319 -0.011643712 -0.26860315 0.61478925 -0.74154335 0.0019237543
0.064722113 0.040568423 -0.011295878 0.47596142 0.049553562 -0.87806904 0.0047746287
0.06685441 0.040557705 -0.0098541435 0.62188727 -0.026021479 -0.78267431 0.00292367
-0.066405922 0.044896897 -0.0091687702 -0.57224739 -0.075981833 -0.81655353 0.0032191239
-0.064483792 0.043707918 -0.010264615 -0.49530715 -0.0520848 -0.86715513 0.0070265317
-0.061884284 0.043750633 -0.011552637 -0.37051326 0.053844903 -0.92726517 0.0058373655
-0.048768349 0.044598307 -0.011799885 0.20862122 0.6136089 -0.76155192 0.0021760096
-0.046326604 0.044163086 -0.011345876 0.2614103 0.59682781 -0.75859159 0.0016491672
-0.043420345 0.043585286 -0.010613925 0.30319798 0.66875106 -0.67885411 0.0020923165
-0.040712379 0.042844333 -0.010024833 0.35386711 0.69447345 -0.62648594 0.0015074275
-0.038336419 0.042282455 -0.0093194703 0.36701205 0.72147644 -0.58717453 0.0016043888
0.046774365 0.042693909 -0.0096821003 -0.37933689 0.67882842 -0.62872535 0.0015136629
0.049566846 0.043400433 -0.01039149 -0.31041557 0.63400191 -0.7082963 0.001852514
0.052356593 0.043864373 -0.011113665 -0.24284117 0.56971228 -0.78514713 0.0010124177
0.055289794 0.044438493 -0.011550168 -0.1719553 0.55805445 -0.81179219 0.0023619914
0.058414336 0.044684265 -0.011815545 -0.032051928 0.43512478 -0.89979947 0.0036677558
0.061770752 0.044252317 -0.011749442 0.159363 0.29373619 -0.94250858 0.0061223637
0.06450054 0.043402702 -0.011087869 0.38005415 0.17854716 -0.90756804 0.0050747069
0.067085981 0.043513741 -0.0096079493 0.56471694 0.08553274 -0.82084042 0.0035458519
-0.066145837 0.046779107 -0.0093165254 -0.4728125 0.085306861 -0.87702394 0.0065037613
-0.064315237 0.046510201 -0.010245948 -0.36807305 0.17559287 -0.91306591 0.005636801
-0.061331313 0.046583727 -0.011244589 -0.24317805 0.27155852 -0.93119305 0.007949369
-0.058525715 0.046911608 -0.011552417 -0.054575894 0.40246469 -0.91380727 0.0062797326
-0.055411998 0.047054991 -0.011396822 0.081639126 0.50995034 -0.85632104 0.0026423659
-0.052393306 0.046778571 -0.011098495 0.16976242 0.57050598 -0.8035568 0.0012439343
-0.049510024 0.04635657 -0.010565506 0.23557068 0.61868465 -0.74949044 0.0011033954
-0.04673728 0.045863967 -0.0099122906 0.32748696 0.67740583 -0.65869081 0.0019139082
-0.044648811 0.045298982 -0.0094755739 0.35882813 0.67244905 -0.64734423 0.0025361406
0.050677508 0.045094427 -0.0093630673 -0.3516598 0.65028507 -0.67339784 0.0034626257
0.052740082 0.045794193 -0.009661342 -0.31249195 0.6482501 -0.69434899 0.0019927125
0.055552613 0.046427548 -0.01019904 -0.25178629 0.58300585 -0.77246863 0.0031251055
0.05848749 0.046572942 -0.010756804 -0.077210397 0.4868978 -0.87003964 0.002896481
0.061502557 0.046507671 -0.01089418 0.086362883 0.39361915 -0.91520786 0.0058705709
0.064521879 0.046485581 -0.010321729 0.30399412 0.2862151 -0.90866303 0.0076583996
0.066659786 0.046427604 -0.0094350148 0.49216065 0.19032347 -0.84944385 0.0049246429
-0.066056073 0.048704129 -0.0091292411 -0.40966898 0.22233829 -0.88472426 0.0073870863
-0.064198658 0.049387246 -0.0095679937 -0.25642005 0.32442033 -0.91049451 0.0042039608
-0.061494313 0.049576975 -0.010001886 -0.12784982 0.43506077 -0.89127803 0.0052800924
-0.058497835 0.04946116 -0.010134904 0.078634128 0.57795256 -0.81227309 0.0019069017
-0.055556994 0.049262419 -0.0098819258 0.16549693 0.59870082 -0.78368872 0.0039863368
-0.052651867 0.048604894 -0.0096598808 0.23589863 0.63673216 -0.73411447 0.0024558257
-0.050506581 0.048197098 -0.0092668477 0.30552694 0.6922943 -0.65374458 0.0015432758
0.056733608 0.048190765 -0.0092274388 -0.29679987 0.62308264 -0.72365594 0.0022391211
0.058771677 0.048658308 -0.0094498601 -0.17929603 0.57889122 -0.79544824 0.0039637438
0.061571088 0.049048584 -0.0095864786 -0.027626228 0.49563476 -0.86809164 0.005041087
0.064266227 0.049042415 -0.0094462046 0.17326041 0.38673526 -0.90576851 0.0056937719
0.066263892 0.048490554 -0.0091046533 0.37591609 0.31453317 -0.87163979 0.0055256994
-0.061503362 0.051129606 -0.0091074444 -0.017459814 0.55899721 -0.82898569 0.0040601492
-0.059104025 0.051067274 -0.0090690907 0.10394597 0.63810956 -0.76289672 0.0027767769
0.055605214 0.019702764 -0.0083051287 0.52420568 -0.6140672 -0.59002531 0.0011795093
0.05762681 0.020009382 -0.0063528246 0.54493433 -0.61742276 -0.56730562 0.0008975552
0.058827765 0.022409553 -0.0081805484 0.56946498 -0.5903331 -0.5720284 0.00075996196
0.061028779 0.023636062 -0.0069739935 0.60798526 -0.58209085 -0.53992975 0.0010354621
0.061815076 0.025471585 -0.0080634085 0.62123621 -0.52080709 -0.58551311 0.0010635214
0.06357795 0.026623255 -0.0070887469 0.67026705 -0.51599497 -0.53337729 0.00098208722
-0.0010724227 0.029991295 -0.008966499 0.080192141 0.7737124 -0.62844133 0.00096878433
0.0019560345 0.029861093 -0.0088556036 0.033335481 0.77810144 -0.62725335 0.0010251066
0.0044803442 0.029866746 -0.0087833963 0.0029061865 0.84039915 -0.5419603 0.0026780125
0.0072940961 0.029870739 -0.0088274563 -0.020121148 0.82229871 -0.56870025 0.0042307074
0.062749758 0.027223937 -0.0086225756 0.6208331 -0.50629175 -0.59852725 0.0016284835
0.064559095 0.028674416 -0.0076709054 0.70953727 -0.46658471 -0.52806783 0.00071742234
0.066025607 0.029419215 -0.0064106761 0.71840221 -0.46157077 -0.52043319 0.00082710624
-0.015261516 0.032859899 -0.0088880975 0.24781594 0.75525773 -0.6067726 0.0014908967
-0.01322457 0.032587517 -0.0084241796 0.22404614 0.79996967 -0.55664331 0.00058568426
-0.010385617 0.032232884 -0.0078630084 0.19274919 0.83954364 -0.50795096 0.00147598
-0.0074936342 0.03180337 -0.007550857 0.16001697 0.85685301 -0.49009952 0.0013249961
-0.0045261974 0.031327602 -0.0075607537 0.12387697 0.84570187 -0.51907885 0.0021185542
-0.0015539854 0.030967558 -0.0075444193 0.084112391 0.85767072 -0.50727308 0.0022071975
0.0014973178 0.030849267 -0.0073696114 0.041370064 0.86401129 -0.5017699 0.0023039572
0.0045182304 0.030789232 -0.0073300744 0.0072428351 0.86603636 -0.49992853 0.0023382697
0.0074692941 0.030796619 -0.0073713423 -0.016481174 0.86081219 -0.50865567 0.0021827414
0.010527858 0.030912954 -0.007536002 -0.06767948 0.86131668 -0.50354058 0.0020452733
0.01349843 0.031224802 -0.007560079 -0.12715743 0.86757213 -0.48078021 0.0028131262
0.016477047 0.031742975 -0.0075697005 -0.18486361 0.86373216 -0.46881992 0.0015308318
0.019364335 0.032279279 -0.0078672199 -0.21982059 0.84330446 -0.4904249 0.0014161495
0.022105571 0.032644123 -0.0085241236 -0.24144064 0.80663222 -0.53949142 0.00041361694
0.024096522 0.032931529 -0.0089833345 -0.25476587 0.76701689 -0.58887976 0.0012795248
0.065474845 0.031382076 -0.0085380906 0.71103597 -0.34763953 -0.6112076 0.0017039776
0.066863731 0.031725511 -0.0070144543 0.73768371 -0.38749498 -0.55287468 0.0013229218
-0.024265271 0.035984781 -0.0089665446 0.3353453 0.74566323 -0.57578629 0.0017830133
-0.022206997 0.0355657 -0.0083453534 0.3086307 0.79072976 -0.5286715 0.00082472636
-0.019480128 0.034984417 -0.0076406938 0.28894591 0.83237761 -0.47292471 0.0017519161
-0.016542103 0.034059901 -0.007550627 0.24753581 0.83322829 -0.49442548 0.0022323898
-0.013668108 0.033538587 -0.0070389123 0.2220334 0.8519488 -0.4742198 0.0020314113
-0.010922356 0.033175301 -0.0064013884 0.19823363 0.86007231 -0.47008404 0.0015578589
0.020042967 0.033247143 -0.0064508738 -0.22731292 0.8614471 -0.45413396 0.0015440839
0.022715578 0.033639438 -0.0071063749 -0.23741229 0.8508172 -0.46877015 0.0017359762
0.025527649 0.034294456 -0.0074693467 -0.25172448 0.83770263 -0.48465365 0.001520029
0.028481122 0.035141014 -0.0076637319 -0.28005886 0.83841562 -0.46757486 0.0016043972
0.03092601 0.035564214 -0.0084331045 -0.30998635 0.80044943 -0.51301974 0.00062431686
0.067641757 0.034518909 -0.0076446966 0.75210738 -0.2817032 -0.59579998 0.0014716861
0.069207616 0.035922628 -0.0062722545 0.80594599 -0.30269656 -0.50874931 0.0037532428
-0.064459272 0.038142052 -0.0088752368 -0.55362749 -0.20764944 -0.80646038 0.0010992873
-0.030568296 0.038954791 -0.0086794905 0.35635948 0.7550444 -0.55037796 0.00060092501
-0.02821907 0.038331978 -0.0079486025 0.36446178 0.80159235 -0.47393805 0.0018144187
-0.025542805 0.037419271 -0.0074696215 0.33938164 0.83016902 -0.44231158 0.0015991564
-0.0227647 0.036556169 -0.0070222197 0.31404153 0.82810551 -0.46434814 0.0016098485
-0.02074595 0.036197212 -0.0061632488 0.32954729 0.83783948 -0.43522814 0.0010719714
0.029644834 0.036312602 -0.006203583 -0.31238276 0.84574246 -0.43259296 0.0012893577
0.031691507 0.03658076 -0.0071192002 -0.31728661 0.83532315 -0.44895932 0.0016525866
0.03452586 0.037482206 -0.0075731622 -0.35559237 0.81011152 -0.46612588 0.0031230552
0.037148807 0.038458213 -0.0080752661 -0.40989366 0.78434366 -0.46560937 0.0026944522
0.068178698 0.037425652 -0.0081454758 0.75093204 -0.16559905 -0.63927937 0.0021203023
0.069462314 0.037797756 -0.0066897175 0.78909332 -0.20161296 -0.58024478 0.0020969722
-0.066648737 0.040582806 -0.0079201777 -0.58466399 -0.16475968 -0.7943691 0.0011591694
-0.03643579 0.041713879 -0.0088085998 0.38074845 0.7388683 -0.55597144 0.0015709265
-0.03424466 0.041236643 -0.0078588016 0.3758902 0.7891748 -0.48570532 0.0019113504
-0.031579934 0.040195666 -0.0074336091 0.36763063 0.79261953 -0.48641735 0.0016685227
-0.029143857 0.039409697 -0.0067811655 0.3809641 0.81577796 -0.43516964 0.0014086043
0.037982829 0.03959351 -0.0069481977 -0.42859533 0.78342187 -0.45006245 0.0016296463
0.040431749 0.040632695 -0.0075675114 -0.45721313 0.77434081 -0.43743858 0.0010724617
0.042820562 0.041549157 -0.008300961 -0.43016869 0.72647578 -0.53589904 0.0019822228
0.068417341 0.040463284 -0.0084728682 0.67346019 -0.069440201 -0.7359547 0.0020057363
0.069786899 0.04065723 -0.0069598584 0.77506697 -0.10323757 -0.62338847 0.0020613242
-0.067287117 0.043564722 -0.0082529336 -0.57235008 -0.075955115 -0.81648403 0.0031771616
-0.042619396 0.044874944 -0.0087739294 0.37011942 0.71149164 -0.59732002 0.0007907683
