# .PCD v0.7 - Point Cloud Data file format
VERSION 0.7
FIELDS x y z normal_x normal_y normal_z curvature
SIZE 4 4 4 4 4 4 4
TYPE F F F F F F F
COUNT 1 1 1 1 1 1 1
WIDTH 572
HEIGHT 1
VIEWPOINT 0 0 0 1 0 0 0
POINTS 572
DATA ascii
-0.016461272 0.034159623 0.0077376273 0.25077394 0.84957337 0.46404466 0.0020381291
-0.013740883 0.033655081 0.0072453814 0.22615464 0.86025721 0.45695901 0.001910288
-0.011207351 0.033291787 0.0067008799 0.19336006 0.86845618 0.45650375 0.0016650233
-0.0087417215 0.033053201 0.006038459 0.20121652 0.89809674 0.39106807 0.0051789675
0.019776475 0.033307359 0.0066280263 -0.21918261 0.86178601 0.4574756 0.0016866617
0.02239587 0.033612318 0.0073652524 -0.23755315 0.83060527 0.50365013 0.001542256
0.025175316 0.034280375 0.0076384088 -0.25113353 0.82129788 0.51225162 0.0021017669
0.028070059 0.035042815 0.0079241255 -0.2847915 0.80516279 0.5201987 0.0014635943
0.031027025 0.035626262 0.0086501576 -0.29405206 0.77419168 0.56050038 0.0020054451
0.065900676 0.033131972 0.008842933 0.68408984 -0.32628009 0.65235144 0.0027579097
0.067613818 0.034492142 0.0075995927 0.75434899 -0.29326096 0.58732921 0.0019291257
0.069149703 0.035691705 0.0061831828 0.78720379 -0.31600383 0.52957696 0.0035278134
-0.066927798 0.037704159 0.0075310608 -0.71581322 -0.30196792 0.62962431 0.0018855592
-0.065740064 0.036830008 0.0085124765 -0.70511949 -0.33213475 0.62649262 0.0020188247
-0.030390251 0.038916841 0.0088928435 0.36874929 0.76731586 0.52464306 0.002402043
-0.028292917 0.038443096 0.0081518292 0.36200088 0.8043583 0.47112972 0.0017533437
-0.025567062 0.03748272 0.0077092987 0.34948322 0.81753552 0.45770863 0.0020479893
-0.02269136 0.036570415 0.007270284 0.31741875 0.84249192 0.43526167 0.0019009395
-0.020471897 0.036168352 0.0063983221 0.3152115 0.86275256 0.39534771 0.0022099926
0.029406033 0.03632478 0.0064895176 -0.30173299 0.84062898 0.44977793 0.0020719559
0.031642634 0.036679454 0.0072882269 -0.31760308 0.80171704 0.50633776 0.0021060414
0.034382377 0.037516672 0.0077971667 -0.36576727 0.77173322 0.5202328 0.002744264
0.037007883 0.038436472 0.0083840843 -0.392818 0.73674244 0.55036765 0.0024405466
0.068220727 0.037348334 0.008108764 0.75928015 -0.20012644 0.61922777 0.0023372315
0.069455422 0.037664354 0.0066559855 0.80291778 -0.22729969 0.5510515 0.0022727195
-0.069620684 0.041813679 0.0061434838 -0.79825377 -0.27518046 0.53578603 0.0047767931
-0.067704692 0.040533714 0.0079129338 -0.72396678 -0.2344771 0.64876235 0.0019387577
-0.036376216 0.041836575 0.0088216448 0.38249591 0.75723588 0.52942491 0.0011844346
-0.034196064 0.041401766 0.0078269215 0.39120689 0.79674083 0.46060956 0.0014922292
-0.031612832 0.040213481 0.0077168411 0.38290638 0.79796767 0.46543565 0.0015877937
-0.029095402 0.03954006 0.0067634676 0.38057038 0.82645905 0.41488746 0.0015746432
0.037805866 0.039557595 0.0073580178 -0.42310667 0.73703557 0.52702874 0.0015261209
0.040420331 0.040767867 0.007833791 -0.42768368 0.72846138 0.53519213 0.0012496853
0.042710412 0.041573454 0.0086148195 -0.42194787 0.69816422 0.57838285 0.0015392426
0.06853804 0.040373299 0.0085111363 0.71409571 -0.10999149 0.69135314 0.002384865
0.069784902 0.040527977 0.0070510712 0.79769373 -0.13172597 0.58850068 0.0022601315
-0.069444984 0.043614376 0.0069771814 -0.71743488 -0.16433641 0.6769644 0.0025330875
-0.06800323 0.043687075 0.0084862784 -0.62646753 -0.066159286 0.77663469 0.0028393075
-0.042203926 0.044769544 0.0088467887 0.38595301 0.74393767 0.54552454 0.0020029189
-0.040144466 0.044298545 0.0080195703 0.39554074 0.77222562 0.49720719 0.0019250183
-0.037561968 0.043172769 0.0076771802 0.39172399 0.78672481 0.47709164 0.0016608253
-0.035307944 0.042424176 0.0069911429 0.40613398 0.80733013 0.42810434 0.00160384
0.041402288 0.04219681 0.0065350579 -0.4505938 0.75505924 0.47628853 0.0010013047
0.043754265 0.042975146 0.0075448696 -0.43060884 0.71976852 0.54452676 0.0014248369
0.046270613 0.044093668 0.0081008375 -0.40066382 0.71233094 0.5762406 0.0022011602
0.048244365 0.044647705 0.0088153481 -0.38496453 0.68065745 0.62330395 0.0038287002
0.068630695 0.043466449 0.0087301116 0.68942606 -0.021075446 0.72404939 0.003169094
0.069946207 0.043523308 0.0072544138 0.78421557 -0.052429575 0.61826938 0.0026511347
-0.069953397 0.046599999 0.0070669116 -0.70027316 -0.11573645 0.7044307 0.003826404
-0.068161279 0.046406455 0.0086012436 -0.5825634 -0.018172286 0.81258208 0.0029931073
-0.048226096 0.047809459 0.0088696592 0.34010512 0.74863505 0.56909931 0.0010685009
-0.046148319 0.047355633 0.0081038922 0.37041378 0.7547825 0.54138446 0.002109647
-0.04348876 0.04635974 0.007528998 0.38782626 0.76783347 0.50992399 0.0013866809
-0.04108756 0.045488708 0.0068745767 0.42120796 0.79086608 0.4439761 0.0015299188
0.046963695 0.045466047 0.0067923418 -0.423554 0.72474658 0.54345602 0.0014852002
0.049529742 0.046255533 0.0077692275 -0.41153488 0.71556991 0.56444544 0.0017138409
0.052115113 0.047324553 0.0082847448 -0.39479694 0.69583404 0.59995872 0.0027004294
0.054352418 0.047892321 0.0089707496 -0.3455486 0.60774046 0.71501595 0.0031827765
0.068575822 0.046630304 0.0086791348 0.60384035 0.074904062 0.79357809 0.0042334232
0.070005447 0.046436477 0.0072427592 0.75345379 0.028120251 0.65689933 0.0037680736
-0.070158347 0.049910743 0.0071820212 -0.46431878 0.12472122 0.87684238 0.0051219054
-0.067709222 0.050071049 0.0086191427 -0.2679638 0.29643396 0.91669101 0.0051796045
-0.054478157 0.050601237 0.0087616416 0.23073727 0.68489116 0.69114709 0.0017064835
-0.052260146 0.05028782 0.0080595016 0.30810207 0.74063784 0.5971002 0.0024439795
-0.049638811 0.049417771 0.0076239752 0.3495141 0.7595346 0.54858643 0.0015766736
-0.04706635 0.048547927 0.0070205256 0.38829228 0.7627669 0.51712269 0.0015507999
-0.044969317 0.048025947 0.0060588121 0.44549337 0.79666543 0.40848494 0.0020194673
0.05075993 0.04800225 0.0064678174 -0.41587797 0.70758718 0.57128447 0.001692131
0.052965742 0.048795577 0.0071676448 -0.40234929 0.70305306 0.58637154 0.0015863857
0.056178268 0.049318798 0.0085030114 -0.2393036 0.58689535 0.77349055 0.0013688237
0.058459848 0.05033521 0.0085614165 -0.22909804 0.59998047 0.76651001 0.0025386193
0.060540795 0.050788503 0.0088547515 -0.16244741 0.55815637 0.81367826 0.0060662813
0.065897264 0.050953407 0.0089777652 0.31340444 0.31645477 0.8953402 0.015059373
0.06813328 0.04964887 0.0084896823 0.47888267 0.18803747 0.85750407 0.0085259117
0.069997214 0.049396828 0.0070267078 0.69484925 0.097014755 0.71258163 0.0059354133
-0.070243657 0.05294694 0.0070351856 -0.24556419 0.25329247 0.93570358 0.0073333005
-0.067378402 0.052668512 0.0080707511 -0.14872701 0.37431365 0.91529751 0.007619746
-0.064619556 0.05284182 0.0083161965 -0.042138968 0.51115423 0.85845536 0.0079563744
-0.061569937 0.052970506 0.0080775218 0.084659457 0.63836414 0.76506472 0.0041378448
-0.058392081 0.052650638 0.0077990647 0.18289314 0.72183335 0.66746283 0.0035498866
-0.055501029 0.052108034 0.0074377358 0.26199982 0.75409341 0.60224521 0.0022537091
-0.052970409 0.051505804 0.0068807798 0.33313048 0.75408214 0.56602484 0.0020784563
-0.050881512 0.051079869 0.0060951659 0.3613137 0.78196794 0.50791585 0.0013175632
0.056329921 0.051281754 0.0065116636 -0.38138357 0.69001597 0.61516231 0.001790327
0.058918603 0.051835459 0.0073735379 -0.3001501 0.65381974 0.69457155 0.0013770512
0.061838709 0.052301593 0.0080975583 -0.093687892 0.5029974 0.85919511 0.0042410465
0.064786516 0.052569229 0.0083891563 0.1053322 0.395529 0.91239357 0.0071267844
0.067698874 0.05248503 0.0079146475 0.37779844 0.26722834 0.88648593 0.0089331875
0.069819517 0.052350644 0.0067206505 0.67451227 0.15209116 0.72242743 0.0080906888
-0.07203567 0.055408925 0.0060837995 -0.18590839 0.34026748 0.92176795 0.012472523
-0.070061281 0.055787362 0.0065244311 -0.072443955 0.40586191 0.91105866 0.011856042
-0.067417249 0.055627145 0.0068465197 0.040738124 0.46762991 0.88298506 0.0095646409
-0.064659938 0.055071265 0.0068550361 0.13609166 0.61959636 0.77303267 0.0099457009
-0.061761837 0.054602534 0.0065260353 0.19487675 0.69897783 0.68807924 0.0060282918
-0.059250634 0.054170214 0.0061442056 0.24184658 0.7668013 0.59458047 0.0026731407
0.062155027 0.054473091 0.006508051 -0.29596868 0.55846417 0.7749325 0.0041297823
0.065026641 0.055207543 0.0069803721 0.024907667 0.41390231 0.90998042 0.0073846937
0.067888744 0.055446107 0.0068284175 0.31290117 0.30624187 0.89905995 0.01429641
0.069535635 0.055008184 0.0063297409 0.57355911 0.22073576 0.7888636 0.0091465907
-0.069995135 0.057264023 0.0060848584 -0.027628716 0.45718881 0.88894039 0.015071577
-0.068183698 0.057194572 0.0060294904 0.13881911 0.57251912 0.80805385 0.0070227957
0.065989427 0.057370149 0.0060079466 -0.15333234 0.38220501 0.91126758 0.021601535
0.067812435 0.057354689 0.0061403634 0.27536583 0.28201994 0.91904211 0.017405458
-0.018773107 0.0058227633 0.0094399545 -0.20359448 -0.79581016 0.5702942 0.00083089946
-0.016182804 0.0054578772 0.0097224955 -0.16807239 -0.79397213 0.58426011 0.0012512313
-0.013453563 0.005215927 0.01008502 -0.13760664 -0.7856037 0.60323399 0.0011689232
-0.010384655 0.0050055054 0.010390311 -0.10017049 -0.76964146 0.63056952 0.0013474368
-0.0074779917 0.0047392282 0.010437924 -0.065904208 -0.76391363 0.64194441 0.0015077725
-0.0045199455 0.0046459585 0.010558925 -0.036492746 -0.75795794 0.65128183 0.001440212
-0.0015090603 0.0045838538 0.010599424 -0.0079614213 -0.74700797 0.66476744 0.0015194047
0.0014650739 0.0046690968 0.010690034 0.021617867 -0.72761017 0.68565005 0.0017778664
0.0045704264 0.0047084345 0.010629103 0.040068042 -0.72993344 0.68234271 0.0019384995
0.007535541 0.0047417316 0.010448761 0.062578969 -0.74954677 0.65898669 0.0020065105
0.010474809 0.0049040238 0.010318249 0.090053618 -0.74647206 0.65929496 0.0017045933
0.013509062 0.0050801407 0.010066465 0.11628156 -0.75923622 0.64034301 0.0014140442
0.01643116 0.0053629479 0.0098099047 0.1405399 -0.75481576 0.6407041 0.0011247239
0.019275267 0.0056625865 0.0094301533 0.16029122 -0.75746572 0.63289213 0.00054526096
0.021391865 0.0058566593 0.0090777101 0.15616812 -0.75486183 0.63702047 0.00073250214
-0.027927147 0.0086489003 0.0095676472 -0.2693812 -0.79040676 0.55017352 0.0009790269
-0.025319017 0.0082327323 0.010161378 -0.2484296 -0.78897256 0.56196541 0.0012425899
-0.02248154 0.0076511353 0.01051151 -0.21465263 -0.77309066 0.59687108 0.0012936397
-0.019661084 0.0071257995 0.010815848 -0.19640334 -0.77082533 0.60601491 0.0011996343
-0.016713386 0.0066615036 0.011111501 -0.15529394 -0.75877601 0.63256836 0.0010593797
-0.013504708 0.0064090081 0.011532472 -0.1206426 -0.71668345 0.68688446 0.0010811676
-0.010489225 0.0062064538 0.011764986 -0.083676428 -0.72140658 0.68743783 0.0013387721
-0.0082392888 0.0060783317 0.011869493 -0.049186923 -0.70322645 0.70926237 0.0019839208
-0.0057150563 0.0060429377 0.011976036 -0.020589856 -0.68394029 0.72924739 0.0021205661
0.0048140348 0.0060188095 0.011914527 0.043249074 -0.65932459 0.75061357 0.0029785905
0.0079104956 0.0061449371 0.011872063 0.048892472 -0.67008632 0.74067122 0.0032107267
0.010766109 0.0062628896 0.011718333 0.077117756 -0.70292372 0.7070722 0.001954016
0.013640288 0.0064678988 0.011545076 0.10313077 -0.71975112 0.68652916 0.0017082841
0.016631287 0.006699001 0.011262902 0.13246529 -0.72632474 0.67446667 0.0014956159
0.019563766 0.0070214178 0.010944474 0.16277868 -0.70625973 0.68898499 0.0015657246
0.022504536 0.0074221869 0.010568459 0.17493461 -0.71163881 0.68041766 0.00065647956
0.025394039 0.0078708539 0.010219231 0.18430813 -0.69691551 0.69306505 0.0004795219
0.028345028 0.0081794737 0.0097515313 0.19705604 -0.70094991 0.68544734 0.00052016642
0.031243021 0.0085907904 0.0094306795 0.20697032 -0.69258589 0.69100511 0.00099699071
0.033527594 0.008859925 0.0091194278 0.24012613 -0.71639651 0.65506899 0.0020169809
-0.036607265 0.011866627 0.0094071757 -0.352855 -0.77091694 0.53026456 0.00082346547
-0.034354731 0.011333351 0.010020151 -0.31955776 -0.77080321 0.55113089 0.0010691859
-0.031532668 0.010700454 0.010640417 -0.27985692 -0.77003068 0.57335234 0.0013525434
-0.028742252 0.009853323 0.010836635 -0.2605648 -0.77349997 0.5777576 0.0010670295
-0.025788672 0.009472155 0.011582043 -0.22128759 -0.71890175 0.65894777 0.00074107019
-0.023729878 0.0091828639 0.011944895 -0.20337658 -0.71852994 0.66509598 0.0017872918
0.023746233 0.0091203423 0.011951433 0.17992708 -0.67098624 0.71930778 0.00170834
0.025929898 0.0093867676 0.011630471 0.18338394 -0.66264755 0.72613263 0.00087426556
0.028641423 0.0098190615 0.011204791 0.19578438 -0.65917391 0.72605658 0.00045311495
0.031582326 0.01037526 0.010880306 0.2017092 -0.63092285 0.74916601 0.00037496418
0.034448687 0.010566148 0.010312126 0.22368822 -0.65835482 0.71870202 0.0013331495
0.03736357 0.011039807 0.0098751197 0.25641802 -0.67872393 0.68817407 0.0025928412
0.03998911 0.011594052 0.0094311275 0.30327293 -0.6822508 0.66525143 0.0021730305
-0.042367119 0.014741543 0.0093240039 -0.43805701 -0.7356928 0.51658714 0.00090911158
-0.040286854 0.014307742 0.010294346 -0.38802934 -0.7257989 0.56802219 0.00097074854
-0.037671529 0.0133134 0.010708474 -0.35249147 -0.74749678 0.56302607 0.00084754138
-0.034742758 0.012624741 0.011517557 -0.30050552 -0.71733809 0.62858772 0.00058333896
-0.032665264 0.01207633 0.011847573 -0.28095388 -0.72671694 0.62685513 0.0017867944
0.032744192 0.012140878 0.011917291 0.1992685 -0.58919853 0.78303081 0.0012379072
0.03486082 0.012457355 0.011686713 0.21012154 -0.61022782 0.76385266 0.00028225881
0.037687887 0.012916766 0.011318296 0.2222687 -0.58233052 0.78197688 0.00047583971
0.04056951 0.013396152 0.010784085 0.25002685 -0.59112746 0.76684743 0.00067496049
0.043350413 0.013851753 0.010101645 0.33785799 -0.65387732 0.67697603 0.0026297758
0.045804918 0.014494691 0.009507779 0.37673858 -0.66829658 0.64144182 0.003106497
-0.045901708 0.017320642 0.0098392237 -0.46785107 -0.69780016 0.54239309 0.00090224511
-0.043597594 0.016564008 0.010729205 -0.41617212 -0.68795449 0.59457499 0.0008178507
-0.041072465 0.015502371 0.01126613 -0.38032535 -0.68999761 0.61583751 0.00093471381
0.041587282 0.01518508 0.011844062 0.2488403 -0.56639731 0.785667 0.00054736395
0.043766931 0.015765425 0.011484943 0.28134444 -0.5584017 0.78040558 0.0010471245
0.046594128 0.016354848 0.010767985 0.32426164 -0.57373923 0.75211549 0.0010915627
0.049245905 0.016999597 0.0099582477 0.40809241 -0.63867766 0.65234309 0.0026576605
0.051465049 0.017742462 0.0092726769 0.45175624 -0.64527529 0.61606497 0.0020177027
-0.05121896 0.020661525 0.0092629408 -0.50595909 -0.67548662 0.53639829 0.0010204139
-0.048732251 0.020332199 0.011068136 -0.46199134 -0.62616444 0.6280781 0.00082785735
-0.046742588 0.019101921 0.011295588 -0.44264197 -0.65724772 0.60999465 0.0013511385
-0.044752628 0.018264974 0.011859237 -0.42131931 -0.65567547 0.62656188 0.0012035311
0.047583356 0.018273706 0.011816378 0.32270211 -0.53701609 0.77940816 0.0012733565
0.049826283 0.019007182 0.01130296 0.35682741 -0.52344865 0.77374136 0.001449945
0.052424055 0.019611707 0.010329403 0.42248803 -0.57683879 0.69911432 0.0027517362
0.054725852 0.020421309 0.0095334733 0.48938993 -0.60195529 0.63098902 0.0023252966
-0.054511275 0.023643062 0.0097223865 -0.5432409 -0.61910421 0.56709731 0.0010915565
-0.052032221 0.022711098 0.010941348 -0.48384249 -0.58584654 0.65013862 0.0010947322
-0.049987022 0.021662896 0.011536305 -0.46375641 -0.60510302 0.6471324 0.00077641814
0.053074408 0.021719279 0.011540289 0.38476166 -0.48333573 0.78634924 0.001611956
0.055535529 0.022462027 0.010596563 0.44800735 -0.50349659 0.73876959 0.001330587
0.057807505 0.023224631 0.0096206954 0.53056955 -0.55479598 0.64085674 0.0018556701
-0.057682544 0.026510328 0.009595477 -0.59868503 -0.55978918 0.57289815 0.0011916722
-0.055402141 0.025623623 0.0109 -0.54679233 -0.55626571 0.62576884 0.0014423158
-0.053444661 0.024342688 0.01140188 -0.49688962 -0.55406541 0.66791636 0.0010499198
0.056318145 0.024680063 0.01158898 0.43106741 -0.43522844 0.79041582 0.0023169436
0.058548365 0.025449708 0.010630313 0.49086019 -0.44072276 0.75154483 0.0013033361
0.060672734 0.026204867 0.0095684109 0.57743174 -0.49339482 0.65048766 0.002019678
-0.060604073 0.029500511 0.0092263296 -0.63149774 -0.50422722 0.58903772 0.0010611622
-0.058279693 0.02851511 0.010724406 -0.5890556 -0.47992158 0.65014517 0.0015040082
-0.05657199 0.027441999 0.011476723 -0.56009156 -0.51507694 0.64883995 0.001063111
-0.010205287 0.029581266 0.011701681 0.1716142 0.69799149 0.69523835 0.0019039777
-0.0073350244 0.029313102 0.011297406 0.13941903 0.71011037 0.69014895 0.0014154955
-0.004429671 0.02903072 0.01106121 0.11414243 0.7353552 0.66800016 0.0011067691
-0.001577293 0.028787822 0.010890488 0.087811626 0.74715066 0.6588285 0.0013516364
0.00159559 0.028623819 0.010748617 0.052238591 0.72526592 0.6864841 0.0020663929
0.0046786177 0.028450813 0.010827035 0.015462531 0.72064531 0.69313151 0.0019397312
0.0073696258 0.028445922 0.010822885 -0.024214378 0.70728654 0.70651215 0.0020937424
0.010331756 0.028519727 0.01091615 -0.073133565 0.71421623 0.69609386 0.002810033
0.013543367 0.028787196 0.011024617 -0.10608985 0.68493319 0.72084075 0.002181795
0.016764402 0.029053496 0.011348066 -0.14532435 0.65476972 0.74172592 0.001814503
0.019287009 0.029469684 0.011519429 -0.17115131 0.67838198 0.71449649 0.0019171803
0.021552129 0.0298464 0.011764108 -0.18196437 0.63480812 0.75093788 0.0015972672
0.059239816 0.027937673 0.011564114 0.464405 -0.35007474 0.81349593 0.0014423042
0.061453864 0.028571805 0.010379218 0.55263549 -0.38575774 0.73877263 0.0022856926
0.063352786 0.02949249 0.0093715908 0.63211989 -0.41953659 0.65147036 0.001963859
-0.060850475 0.031226261 0.010268532 -0.64272535 -0.44693336 0.62221754 0.0020444023
-0.059317667 0.031010306 0.011553274 -0.57576048 -0.38472614 0.72144687 0.001672122
-0.02140571 0.032854229 0.011787873 0.26752687 0.69950372 0.66266423 0.0018081052
-0.019040314 0.032390136 0.011486517 0.25114784 0.70832759 0.65969449 0.001301688
-0.016402505 0.032009177 0.010892726 0.23497888 0.74046028 0.62968528 0.0011271844
-0.013531345 0.031305175 0.01069417 0.2075064 0.74142885 0.63814139 0.0018676199
-0.010559858 0.03080157 0.010401047 0.17544185 0.75168145 0.63576347 0.0019053521
-0.0076717339 0.030560821 0.0099116527 0.14786063 0.77392083 0.61577904 0.0014744793
-0.0046158726 0.030340508 0.0095198303 0.11684272 0.78024805 0.61445969 0.0012111213
-0.0013626422 0.030100495 0.0092760986 0.088030502 0.78030396 0.61917388 0.0010790512
0.00044585523 0.030050276 0.009064666 0.055843443 0.78747869 0.61380684 0.001958729
0.010995866 0.03005036 0.0091909524 -0.075805321 0.76952374 0.63410318 0.0013706663
0.013941077 0.030242002 0.0094383908 -0.11709864 0.74752331 0.65383232 0.0015431542
0.016616562 0.030404303 0.0098484103 -0.15963778 0.70315957 0.6928798 0.0014189689
0.0197651 0.030812781 0.010256619 -0.1890256 0.70955002 0.67882842 0.0019650271
0.022080705 0.030932097 0.010824031 -0.19648252 0.67352968 0.71256739 0.0017005337
0.026264729 0.032080695 0.010970938 -0.21150835 0.64499635 0.73433238 0.002132663
0.027991891 0.032083448 0.011534242 -0.21584518 0.62765735 0.74796861 0.0019053739
0.030815681 0.032698628 0.011847694 -0.22851883 0.64502084 0.72919619 0.0013534439
0.061913576 0.031295706 0.011302099 0.5077855 -0.29541975 0.8092472 0.00095697236
0.064057618 0.031708751 0.0099059623 0.61749482 -0.34121692 0.70871091 0.0021433744
-0.063595094 0.034750935 0.009695177 -0.65626228 -0.36742193 0.65903026 0.0019607802
-0.061724722 0.034295198 0.011210395 -0.5939784 -0.30241346 0.74547684 0.0017728776
-0.027783487 0.035673536 0.011637399 0.31493291 0.70265925 0.63803393 0.0013553762
-0.02541622 0.035201378 0.01102764 0.30204847 0.73844588 0.60288 0.0013148787
-0.022618499 0.034378983 0.010623898 0.28353861 0.74846625 0.59950328 0.0015391752
-0.019752886 0.033721298 0.010147342 0.26603711 0.76096886 0.5917353 0.001174411
-0.017332317 0.033421874 0.0094096502 0.26296192 0.78856671 0.5558899 0.0015980094
0.025926113 0.033318467 0.0094292928 -0.23713768 0.74225509 0.62675601 0.0012638544
0.028885128 0.033923164 0.0098729655 -0.25788262 0.71882814 0.64558697 0.00153619
0.031438969 0.034101989 0.010690084 -0.25051937 0.67304158 0.69588435 0.0021343601
0.034411456 0.034772117 0.011197782 -0.27185282 0.62616611 0.73076129 0.0023038087
0.037087448 0.035621271 0.011556583 -0.27804473 0.59107703 0.75717837 0.0021681755
0.062594883 0.03397597 0.011746808 0.49852997 -0.20042256 0.84338522 0.0019783897
0.064537562 0.034483824 0.010545988 0.58373922 -0.24981706 0.77255416 0.0018091147
0.066351853 0.035190329 0.0093220249 0.6723479 -0.26683933 0.69046724 0.002005277
-0.066092268 0.038937066 0.0091502378 -0.71497959 -0.29016817 0.63608694 0.0026690264
-0.063974373 0.03771862 0.010599136 -0.60858595 -0.21793953 0.76297158 0.0017292508
-0.062544234 0.037272666 0.01164819 -0.56475514 -0.18621702 0.80397445 0.0019982222
-0.033761274 0.038493093 0.011554119 0.32137185 0.67864144 0.66042858 0.0013110285
-0.031379141 0.037937302 0.010897328 0.33064321 0.72981155 0.59837294 0.0011568791
-0.028731715 0.037100893 0.010433974 0.32355756 0.73533744 0.595474 0.0013016918
-0.0260885 0.036454748 0.0097342273 0.32290599 0.7629503 0.56003439 0.0009609168
0.034971625 0.036512803 0.009586039 -0.32587689 0.70676208 0.62792647 0.0015900334
0.037629843 0.037157085 0.010311027 -0.34700367 0.68016648 0.64572585 0.0025830686
0.040439714 0.037628513 0.011332899 -0.30096531 0.55798841 0.77334905 0.0021837628
0.042898666 0.038595472 0.011659439 -0.29521704 0.57831293 0.76052678 0.0022928757
0.062715217 0.036207601 0.011991741 0.51156539 -0.109866 0.85219151 0.0030078397
0.064681701 0.037424251 0.011146949 0.53344464 -0.13043676 0.83571714 0.0013099831
0.066777207 0.037706107 0.0096533494 0.657152 -0.17424987 0.73334038 0.0024409874
-0.066545971 0.041222911 0.0093488982 -0.6448223 -0.15832835 0.74775422 0.0035491511
-0.064678147 0.040902767 0.010796886 -0.56052822 -0.080137804 0.82424879 0.0022207159
-0.042015627 0.041805703 0.011990748 0.30136472 0.64083803 0.70604956 0.0023781988
-0.039949678 0.041506454 0.011508916 0.31081897 0.66870242 0.67544705 0.0014763294
-0.037390061 0.040889803 0.010783552 0.34413382 0.72061706 0.60189962 0.0014444494
-0.03472466 0.039971903 0.010327797 0.34367016 0.73149723 0.58889943 0.0012532693
-0.032011617 0.039323982 0.0094619161 0.35803732 0.75606292 0.54788524 0.0010800868
0.041011024 0.039689943 0.0096458243 -0.39366719 0.67019999 0.62917256 0.0018172562
0.043718148 0.040173423 0.010671724 -0.33289742 0.60982698 0.71922898 0.0017788407
0.046546556 0.040776383 0.011500175 -0.25702414 0.50841749 0.82185781 0.0010657583
0.048903231 0.041654594 0.011734401 -0.24971004 0.53783351 0.80522054 0.002137189
0.064866789 0.040482063 0.011353922 0.4864848 -0.026370656 0.87329096 0.0029924167
0.067081444 0.04052693 0.0098524848 0.62261736 -0.074545115 0.77896768 0.0031473096
-0.066836029 0.043845866 0.0094863269 -0.57720518 -0.020358419 0.81634539 0.0034580177
-0.064126246 0.043813799 0.011297689 -0.39571649 0.13381693 0.90857112 0.0037304938
-0.062799469 0.044465639 0.011932417 -0.37568244 0.11247411 0.91989797 0.0064949384
-0.048427898 0.044866364 0.011857278 0.22148882 0.62542683 0.74818712 0.0018333583
-0.046090029 0.044360869 0.011500564 0.28254229 0.65867829 0.69736135 0.0012856106
-0.043371063 0.043817319 0.010750281 0.32485741 0.69731134 0.63892454 0.0013130886
-0.040726379 0.042965397 0.010264431 0.34377864 0.71516252 0.60857117 0.0015229497
-0.038343534 0.042397644 0.0095199803 0.37122861 0.73347896 0.56938386 0.00090486807
0.044676043 0.042111725 0.0093522565 -0.37679452 0.66373527 0.64612794 0.001340859
0.046876155 0.042680703 0.010033863 -0.34346372 0.6201995 0.70525551 0.0017803308
0.049802609 0.042986725 0.011071768 -0.24566844 0.52809066 0.81287593 0.0011116771
0.05266102 0.043888479 0.011430399 -0.18408009 0.46951097 0.86352408 0.0012447595
0.055376731 0.04446689 0.011778321 -0.1379289 0.43738356 0.8886345 0.0018256224
0.057704668 0.044830058 0.011927422 -0.058618829 0.44651517 0.89285386 0.005255708
0.062398184 0.04453804 0.011883981 0.16240954 0.2273331 0.96017843 0.0053377431
0.064661004 0.043469321 0.011327361 0.42492542 0.091293491 0.90061307 0.0039575864
0.067199565 0.043456346 0.0098929936 0.57641327 0.026408652 0.81673145 0.003969918
-0.066807829 0.046333876 0.0095728058 -0.50832087 0.072117805 0.85814267 0.0041648317
-0.064282633 0.046567615 0.010878392 -0.33196902 0.24124664 0.91191918 0.0027005658
-0.06150886 0.046982329 0.011695715 -0.17314608 0.35902026 0.91712862 0.0042883251
-0.058469463 0.047678538 0.011753367 0.0050133076 0.49961773 0.8662315 0.0030801292
-0.055172116 0.047503177 0.011618258 0.11895031 0.58096766 0.8051877 0.0024658826
-0.052394636 0.047143824 0.011279796 0.20307606 0.6156671 0.76138961 0.0016564021
-0.049420618 0.046578471 0.01073916 0.26925951 0.65130305 0.70943892 0.0012797433
-0.046652738 0.045967307 0.010117579 0.32874262 0.70897001 0.62393093 0.0013022091
-0.044368446 0.04539074 0.0095548397 0.36534017 0.71803474 0.59241253 0.0015480393
0.050476562 0.04538947 0.0093314843 -0.36605227 0.66290712 0.65311551 0.0022303758
0.052976273 0.046055265 0.0099291597 -0.2752656 0.57885563 0.76756436 0.0014516287
0.055742394 0.046316147 0.010715698 -0.19614144 0.51786911 0.83267051 0.0015468816
0.058608592 0.046281986 0.011325141 -0.047178395 0.4313702 0.9009406 0.0042190272
0.061711729 0.046436802 0.01134909 0.12983739 0.3291887 0.93529516 0.0056852624
0.064675219 0.04634944 0.010807668 0.32405189 0.22559576 0.91874748 0.0064707645
0.067159481 0.046396259 0.0096830726 0.51377797 0.13008276 0.84800392 0.0052930913
-0.0664239 0.049248457 0.0093902843 -0.27612171 0.31675202 0.90742767 0.0046703434
-0.064317726 0.049412921 0.010072897 -0.21090572 0.37767202 0.90159994 0.0039518038
-0.06145395 0.04964716 0.010478293 -0.067578413 0.49183261 0.86806327 0.0043515926
-0.058434796 0.04953482 0.010565558 0.053036015 0.55928373 0.82727802 0.0028608511
-0.055446256 0.049391337 0.010189764 0.17968857 0.63767028 0.74905843 0.0026594095
-0.052504014 0.048847817 0.0097574983 0.25968438 0.68342119 0.68227518 0.0017641357
-0.050280135 0.048279092 0.0094535556 0.31361434 0.68693542 0.65556526 0.0014424104
0.055982757 0.048428368 0.0092365248 -0.25099087 0.58318996 0.77258855 0.0019698949
0.058892228 0.048929896 0.0097898142 -0.14890045 0.51820004 0.8421979 0.0028491681
0.061764218 0.049271751 0.010028386 0.010609614 0.40847713 0.91270691 0.0045580147
0.064626329 0.049363721 0.0098619554 0.2066073 0.3280845 0.92177761 0.0066956948
0.066740915 0.049058225 0.0093567474 0.418385 0.24985 0.87322909 0.0062535629
-0.064217322 0.051432267 0.0091722067 -0.13297832 0.4707717 0.87217587 0.0058563869
-0.06138191 0.051364224 0.0093956981 0.0013641837 0.58228427 0.81298417 0.0040038531
-0.058431175 0.051330585 0.0091782464 0.13017341 0.64926839 0.74933672 0.0025312311
-0.056709006 0.051033475 0.0091338586 0.20965444 0.6628654 0.71878684 0.0037602349
0.062355995 0.051158842 0.0090418207 -0.048843358 0.47412324 0.87910271 0.0047628377
0.064358369 0.051201232 0.0091067366 0.12198 0.40755823 0.90499568 0.0070113032
-0.0067264456 0.0059992857 0.012049736 -0.056087542 -0.70946091 0.70250946 0.00052510219
-0.0035582932 0.005946802 0.012087637 -0.033104077 -0.70460296 0.70882916 0.0013332189
-0.00096508866 0.005902505 0.012036604 -0.003553333 -0.68889666 0.72485089 0.0017661699
0.0015724752 0.0059471442 0.012101901 0.022958398 -0.66333568 0.74796975 0.0022964084
0.0042043622 0.0058895806 0.012045913 0.048610739 -0.66777426 0.74277496 0.0027276855
-0.021640245 0.0088688573 0.012261208 -0.18830904 -0.70998669 0.67857099 0.00099596835
-0.019502128 0.0085383542 0.012482267 -0.16900434 -0.69726068 0.69660968 0.0010312131
-0.016413955 0.008216437 0.012820641 -0.13364333 -0.67570585 0.72495598 0.00092484499
-0.013365292 0.0078760218 0.012989593 -0.097521558 -0.67129189 0.73474944 0.0010609203
-0.010351216 0.007795746 0.013245805 -0.058609601 -0.63745666 0.7682538 0.0011144517
-0.0074525946 0.007729013 0.013383542 -0.031219125 -0.62223524 0.78220749 0.0014061158
-0.0045223231 0.0075405552 0.013333597 -0.014802368 -0.60988814 0.79234922 0.0015542967
-0.0015543221 0.0074663106 0.013299611 0.0079277894 -0.59960717 0.80025512 0.0016123052
0.0014627191 0.00752282 0.013289671 0.029300213 -0.5913291 0.80589795 0.0017971994
0.0045350543 0.0075097294 0.013163616 0.034364074 -0.58925033 0.80721939 0.0021014551
0.0075249448 0.0075890361 0.013049827 0.054890107 -0.57671821 0.81509709 0.0021675664
0.010484204 0.00775153 0.012947355 0.072201215 -0.58801109 0.80562401 0.0019280012
0.0134638 0.0079845889 0.012818318 0.094118118 -0.59745556 0.7963596 0.0018789944
0.016399231 0.0081961285 0.012606528 0.11313298 -0.6129095 0.7820121 0.0020087962
0.019260222 0.0084918216 0.012386168 0.13864127 -0.63851506 0.75701851 0.002214724
0.021617187 0.0087852208 0.01218555 0.1636043 -0.65289134 0.73957187 0.0018363112
-0.030546769 0.011714838 0.012337294 -0.25665492 -0.70107394 0.66529965 0.00093450578
-0.028317418 0.011328658 0.012747499 -0.2370455 -0.69247502 0.68138665 0.001039203
-0.025403352 0.010858082 0.013174048 -0.20167264 -0.67946976 0.70544249 0.0013677531
-0.022368357 0.010712183 0.013802653 -0.16670844 -0.63083267 0.75779837 0.0010802427
-0.01956697 0.010304769 0.014063546 -0.13530308 -0.60986495 0.78086984 0.0012732797
-0.016564202 0.0099788988 0.014300367 -0.10846602 -0.58155221 0.80624574 0.0016179142
-0.01349034 0.0097462842 0.014504924 -0.078803696 -0.5697242 0.81804913 0.0015805296
-0.010541048 0.0095912879 0.014615471 -0.048728343 -0.56785619 0.82168418 0.0013785368
-0.0074471589 0.0095224958 0.014684894 -0.020647882 -0.51783741 0.85522979 0.0019396706
-0.0044726846 0.0095448457 0.014724967 0.00044083383 -0.49412596 0.86939013 0.0020050765
-0.0015195777 0.0095436117 0.014691724 0.016099378 -0.47790852 0.8782621 0.0021615282
0.0014331276 0.0097077284 0.014700621 0.027912771 -0.46453089 0.88511693 0.0020734407
0.0045407359 0.0097754272 0.014608841 0.044407405 -0.46117753 0.8861959 0.0020099804
0.0075716455 0.009973173 0.014539423 0.054293714 -0.46149337 0.88548076 0.0017548719
0.010572065 0.010121175 0.014413491 0.07171154 -0.46041507 0.88480252 0.0016725293
0.013558399 0.010457687 0.014330695 0.081721611 -0.4631438 0.88250744 0.0012431509
0.016486069 0.010482577 0.014046661 0.093576171 -0.46921116 0.8781141 0.0011627318
0.019492634 0.010449353 0.013656854 0.11658815 -0.48599228 0.86615169 0.0013773992
0.022485016 0.010485683 0.013217584 0.14620641 -0.54819351 0.8234728 0.0024923985
0.025415355 0.010781121 0.012873996 0.16635326 -0.56951725 0.80496997 0.0024754908
0.028387098 0.011259545 0.012553164 0.18245505 -0.59440708 0.7831924 0.0016534099
0.030881494 0.01172454 0.01224621 0.19823107 -0.60519874 0.77099866 0.00054492359
-0.037001923 0.014614528 0.012616846 -0.33205441 -0.67777181 0.65602231 0.00079889433
-0.034319002 0.013944943 0.013131578 -0.28556362 -0.67649478 0.6788286 0.0013173076
-0.031419266 0.013498192 0.013773082 -0.24160841 -0.63723922 0.73181379 0.00099210092
-0.028588466 0.012955628 0.014194916 -0.20556873 -0.61765724 0.75910544 0.0013781196
-0.025805643 0.012569223 0.014610489 -0.17886606 -0.63765121 0.74927157 0.0011475602
-0.02344925 0.012206572 0.0148551 -0.15119313 -0.61216497 0.77614087 0.001300843
0.014602121 0.012168879 0.014975368 0.068003789 -0.36519355 0.92844445 0.0017670854
0.016948259 0.012308288 0.014887762 0.083728246 -0.34283036 0.93565851 0.0019130292
0.019683303 0.012643903 0.014748525 0.10331316 -0.36902654 0.92365897 0.0021495291
0.022608578 0.013018223 0.014572345 0.12001247 -0.40056419 0.90837508 0.001918943
0.025562881 0.013376349 0.014341465 0.13204262 -0.4301168 0.89306462 0.0016642952
0.028552277 0.013486561 0.013921622 0.15209073 -0.45568565 0.87705129 0.0016661985
0.031511743 0.013446934 0.01330327 0.18673807 -0.51809186 0.83469135 0.0017934273
0.034379486 0.013822998 0.012843094 0.19678475 -0.54550868 0.81467545 0.00079008378
0.037221696 0.01435589 0.012439828 0.21229291 -0.55637413 0.8033551 0.0004845256
0.039536279 0.014773783 0.012131333 0.2386796 -0.56838548 0.78738171 0.00065743923
-0.042742677 0.017473014 0.012375372 -0.3982794 -0.64651668 0.650684 0.0009678569
-0.040291987 0.016916629 0.013190891 -0.35878441 -0.63728684 0.68201113 0.0011535053
-0.037646241 0.016331391 0.013932266 -0.31005612 -0.60569847 0.73279911 0.0010748908
-0.034623403 0.015575442 0.014495364 -0.25038996 -0.61606145 0.74684203 0.00093831425
-0.032396127 0.015082438 0.014865222 -0.22975841 -0.60949445 0.75876719 0.0011478165
0.026508596 0.015157117 0.01493904 0.10170633 -0.2953181 0.94997001 0.0014935062
0.02877376 0.015554753 0.014831356 0.12534635 -0.33481598 0.93390924 0.0024737979
0.031606689 0.015935002 0.014607661 0.14518987 -0.38414142 0.91178685 0.0026603967
0.034583155 0.016340999 0.014303808 0.16431484 -0.43521568 0.88520497 0.0019957395
0.037510645 0.016472625 0.013727081 0.19861434 -0.46340609 0.86360127 0.0011931931
0.040448088 0.016572265 0.013000689 0.22383761 -0.50421941 0.83406204 0.00058726157
0.04330425 0.017117998 0.012535733 0.25833994 -0.51563758 0.81693226 0.0011211652
0.045539763 0.017735871 0.012217786 0.30105057 -0.54252404 0.78424251 0.0016077515
-0.048141219 0.020919846 0.01219853 -0.44728926 -0.62734288 0.63747412 0.0013761715
-0.045998786 0.020172091 0.012890525 -0.41887084 -0.59588969 0.68517351 0.00086203619
-0.043558676 0.019521685 0.013728779 -0.37773407 -0.58071607 0.72116971 0.0010872894
-0.040846653 0.018658463 0.014420899 -0.33011553 -0.58217794 0.7430293 0.0011624584
-0.03893999 0.018195495 0.014847899 -0.31463647 -0.58375341 0.74848908 0.00079463935
0.035407439 0.018157432 0.014929622 0.12145458 -0.27751678 0.95301265 0.003195199
0.037825841 0.018631972 0.014746587 0.170459 -0.34831214 0.92174959 0.0034384001
0.040661767 0.01924012 0.014403999 0.20714831 -0.4001632 0.89272559 0.0013590598
0.04351376 0.019492017 0.013759438 0.23280482 -0.41653267 0.87880743 0.00074139767
0.046461385 0.01958283 0.012938055 0.2759268 -0.45954451 0.84420568 0.0010867062
0.049094457 0.020241564 0.012415607 0.32802427 -0.48333907 0.81165475 0.0018295291
0.051237322 0.02092253 0.012044575 0.37584189 -0.51478362 0.77054572 0.0017744317
-0.051392447 0.023625854 0.012347721 -0.47570151 -0.56723928 0.67227048 0.0013707796
-0.04921224 0.022925986 0.013199883 -0.43875748 -0.55526793 0.70651925 0.00098074367
-0.046785921 0.0223126 0.014149239 -0.40258807 -0.52337068 0.75100332 0.0012040633
-0.044611067 0.021525187 0.014749336 -0.38910311 -0.52607435 0.75620407 0.001651034
-0.0033387109 0.023878846 0.014929747 0.089803323 0.50409418 0.85896707 0.0018636056
-0.0011012167 0.023758858 0.014820145 0.073520549 0.5009082 0.86237216 0.0016381835
0.0017168674 0.023565829 0.014744351 0.048982564 0.44818473 0.89259803 0.0020922872
0.0046152808 0.023369616 0.014731191 0.021254182 0.43355808 0.90087485 0.0023607898
0.0074551851 0.023354623 0.014707208 -0.0051127505 0.42789367 0.90381467 0.0023369044
0.010435918 0.023407048 0.014723542 -0.029196108 0.41800702 0.90797454 0.0024554613
0.013441622 0.02347644 0.014814151 -0.050672978 0.38625008 0.92100114 0.0026919481
0.016152678 0.023797782 0.014856402 -0.074953437 0.35475183 0.93195122 0.0028633331
0.018593764 0.023955585 0.014961575 -0.082403526 0.31236818 0.94638032 0.0022885657
0.041649695 0.021141045 0.014933527 0.14918983 -0.27314103 0.95033485 0.0030002499
0.043909758 0.021812709 0.014724297 0.21509212 -0.32305261 0.92161399 0.0021818292
0.046579763 0.02241361 0.014229577 0.25403896 -0.36157942 0.89706439 0.00082707132
0.04951774 0.022481935 0.013353233 0.29973221 -0.40342575 0.86452776 0.0007089384
0.052229274 0.022869555 0.01257132 0.34723637 -0.43088815 0.83292401 0.0018994873
0.054297719 0.0236865 0.012101522 0.41232321 -0.46176076 0.7853449 0.002114211
-0.054437608 0.026452888 0.012407563 -0.51953822 -0.52203411 0.67643219 0.0011435996
-0.052260108 0.025623368 0.013288134 -0.46957856 -0.49984381 0.727772 0.0014425177
-0.049837627 0.025141537 0.014413659 -0.41957843 -0.46901309 0.77716196 0.0014569107
-0.047631804 0.024171919 0.014907942 -0.4070878 -0.49147806 0.76988888 0.00059515506
-0.013046168 0.026636159 0.014766635 0.17013536 0.52106273 0.83638954 0.0016913479
-0.010285961 0.026206836 0.014514563 0.15027414 0.5195539 0.84111917 0.0016585604
-0.0074495031 0.025803754 0.014298412 0.13332796 0.54169202 0.82993579 0.0016327787
-0.0044930428 0.025566131 0.014041446 0.10406704 0.54526609 0.83177817 0.0012069379
-0.001554042 0.025413707 0.013814563 0.074678354 0.55377197 0.8293128 0.0013171283
0.0014171696 0.025472492 0.013545019 0.051671747 0.55559331 0.82984704 0.0013491468
0.0044546342 0.025423277 0.013447148 0.023123726 0.56064898 0.82773066 0.0015261337
0.0074594938 0.025416326 0.013438744 -0.013351174 0.55739796 0.83013809 0.0016635625
0.010448875 0.02540822 0.0135486 -0.039503388 0.55213106 0.83282107 0.001987597
0.013432424 0.025415286 0.013744104 -0.070040971 0.50939876 0.85767549 0.0013744286
0.016495559 0.025467267 0.014012663 -0.094694093 0.48824838 0.86755198 0.0021140219
0.019543219 0.025468688 0.014412098 -0.11322612 0.44274259 0.88947105 0.0021823866
0.022593638 0.025946114 0.014593792 -0.11780323 0.40295294 0.90760744 0.0024564203
0.025262045 0.026433274 0.014718675 -0.11501195 0.35450834 0.92795265 0.003003615
0.027717447 0.026739899 0.014914428 -0.10517629 0.31541115 0.94310856 0.0026076909
0.047330558 0.024537198 0.014837094 0.20530099 -0.24988894 0.94625944 0.0031546464
0.049637843 0.025334822 0.014442391 0.27274182 -0.30065179 0.91390395 0.0011689947
0.052511845 0.025495304 0.013565909 0.31850615 -0.34076518 0.88455236 0.00059201528
0.055278186 0.025748283 0.012612586 0.3847819 -0.37850663 0.84182876 0.0017739193
0.057293311 0.026777416 0.01213628 0.45275167 -0.40514585 0.79427499 0.0020811409
-0.057284404 0.029255157 0.012151074 -0.54886317 -0.45254505 0.70281732 0.0015940806
-0.055324007 0.028687811 0.013217151 -0.49080968 -0.4150438 0.76605773 0.0019136274
-0.052933991 0.028193785 0.014438722 -0.44034937 -0.3825596 0.81224412 0.0014715099
-0.050935924 0.02710237 0.014892091 -0.43395984 -0.44374838 0.78407037 0.0012652614
-0.021588793 0.029589934 0.014854156 0.21771857 0.54351074 0.81067544 0.0014875379
-0.019365247 0.029199341 0.01451645 0.21200421 0.5566473 0.80324215 0.0016501971
-0.016468596 0.028711582 0.014092697 0.20466124 0.58426046 0.78533655 0.0014374834
-0.013599959 0.028464835 0.013543266 0.18894196 0.62143576 0.76034111 0.001489201
-0.010640791 0.02810562 0.013166338 0.15911226 0.63171184 0.75869852 0.0020519192
-0.0076394663 0.027847875 0.012783332 0.13623354 0.64232659 0.75422615 0.0012882772
-0.0045902273 0.027620563 0.012494782 0.10858422 0.66072595 0.74273187 0.0015431765
-0.0017472306 0.027362728 0.012341945 0.081558935 0.67266417 0.73543924 0.0015016643
0.0012711496 0.027223734 0.012200496 0.048376046 0.65053195 0.75793666 0.0012820181
0.0043554404 0.027157912 0.012117705 0.022437651 0.62060475 0.78380251 0.0013969445
0.0078346981 0.02715564 0.012097101 -0.017017374 0.62872833 0.77743876 0.0016128911
0.01050907 0.027244074 0.012168878 -0.054161098 0.62843966 0.77597046 0.0013112222
0.013611023 0.027489834 0.012268807 -0.082500584 0.63068736 0.77163929 0.0014448048
0.016597562 0.027647499 0.012566726 -0.11760565 0.59503895 0.79504561 0.0020940099
0.019793076 0.027989855 0.012881525 -0.13864876 0.55739135 0.81859118 0.0017370819
0.022614561 0.028108737 0.013335543 -0.15697104 0.5215252 0.83867258 0.0019187579
0.025563315 0.028372701 0.013729289 -0.14770009 0.4846099 0.86217052 0.0023258035
0.02851598 0.028342227 0.014276621 -0.13359848 0.41554216 0.89970887 0.0023824719
0.031529892 0.028793314 0.014550057 -0.13252157 0.37770492 0.91639352 0.0022504709
0.034358237 0.029375602 0.014732726 -0.12930898 0.32300285 0.93752241 0.0030054699
0.036911767 0.029775398 0.014923306 -0.12640306 0.32646683 0.93671858 0.0025666545
0.050508004 0.027549252 0.014853851 0.21157022 -0.17420545 0.9617123 0.0033339048
0.052618805 0.028438464 0.01446839 0.28230354 -0.22987771 0.9313758 0.0016862418
0.05553532 0.02851289 0.013489794 0.34162501 -0.27094308 0.89993453 0.0010551801
0.058096599 0.028825292 0.012536362 0.418401 -0.30985993 0.85377252 0.0020571968
-0.058312416 0.032104608 0.012882915 -0.50278729 -0.29414847 0.81282324 0.0025232586
-0.055683646 0.031611245 0.014344464 -0.43090355 -0.25765556 0.86483276 0.0020760787
-0.053761363 0.030048104 0.014769102 -0.46647906 -0.3588798 0.80845696 0.0017435518
-0.030338774 0.032925524 0.014906673 0.23577571 0.52834487 0.81563568 0.0011548462
-0.028102126 0.03251496 0.014661284 0.24948116 0.59477043 0.76420367 0.0015423454
-0.025318082 0.031918306 0.014190924 0.25449508 0.58649057 0.76893497 0.0018814087
-0.022498304 0.031432286 0.013647357 0.24193983 0.61418957 0.75115663 0.0011162255
-0.019654073 0.031049138 0.013066602 0.23057736 0.65400869 0.72049063 0.0017364925
-0.016760932 0.030512188 0.012657166 0.22155893 0.65895712 0.71880949 0.0012456481
-0.014476998 0.030284034 0.012180514 0.20041128 0.69814599 0.68733364 0.0014072505
0.023806043 0.030068817 0.012163175 -0.17515472 0.54850072 0.81759882 0.00076463301
0.025975704 0.030541934 0.012320254 -0.18188068 0.59190911 0.7852152 0.0016829873
0.028836865 0.030754583 0.012860427 -0.18256095 0.56530911 0.80442351 0.0025627257
0.031740695 0.031156156 0.013291526 -0.18331964 0.49242184 0.85083169 0.0021340749
0.034630585 0.031320862 0.013826916 -0.1525559 0.41415867 0.89732903 0.0019849944
0.037575711 0.031413455 0.014378483 -0.15135852 0.38123316 0.91200429 0.0018362198
0.040510114 0.031925343 0.014676589 -0.14154707 0.32129034 0.9363423 0.0022906866
0.043266315 0.032487091 0.014869848 -0.11741865 0.25613442 0.95948327 0.002119045
0.045587357 0.032742821 0.014983299 -0.065531358 0.19888708 0.97782898 0.002217826
0.053224038 0.031274188 0.01481634 0.20895529 -0.09347672 0.97344732 0.0032615319
0.055509344 0.031473964 0.014232169 0.27675909 -0.14722289 0.94959456 0.0026230514
0.058519702 0.031485852 0.01313704 0.3685964 -0.21287373 0.9048875 0.0019691733
0.060561914 0.031995244 0.012333605 0.46559113 -0.26382327 0.84476161 0.0019041133
-0.060488664 0.034922827 0.012441387 -0.55152267 -0.26753473 0.7900936 0.0020461068
-0.058328662 0.034917831 0.013808389 -0.45110211 -0.15178177 0.879471 0.0031197981
-0.056299482 0.033772156 0.014651608 -0.40235239 -0.13906914 0.90486038 0.0031748908
-0.036391295 0.035751205 0.014885731 0.22726613 0.5339312 0.81441242 0.0011149027
-0.0342048 0.035344429 0.014583586 0.25664157 0.57265723 0.77858764 0.0018160908
-0.031362262 0.034693383 0.014075908 0.26926485 0.5890398 0.76192427 0.0013367514
-0.028540049 0.034312896 0.013317632 0.27877215 0.63809156 0.71772236 0.0015628815
-0.025559565 0.033683456 0.01276076 0.27579293 0.67234182 0.68694592 0.0010743227
-0.023412194 0.033299491 0.012251978 0.26427501 0.68103462 0.68289864 0.0016611603
0.032863017 0.033174824 0.01205394 -0.24690233 0.65763152 0.7117303 0.0026180439
0.035202079 0.03336126 0.012687113 -0.211981 0.51104933 0.83300215 0.0017958521
0.037676334 0.03407041 0.012958331 -0.21212119 0.48221925 0.8499819 0.0019958792
0.040551469 0.034395013 0.01358204 -0.19532703 0.41892946 0.88676131 0.002217002
0.043521676 0.034284983 0.01427386 -0.15127082 0.35404772 0.92291248 0.0017995769
0.046429135 0.034633242 0.014592374 -0.11809761 0.30826324 0.94394213 0.0017608056
0.049450826 0.034973219 0.014780934 -0.048642591 0.22002327 0.97428107 0.0023074509
0.052769229 0.034664128 0.014838323 0.080620274 0.095521763 0.99215728 0.0031014017
0.055545304 0.034392547 0.014488593 0.21159917 -0.008753147 0.97731733 0.004428857
0.058542773 0.034446992 0.013667818 0.31962526 -0.084607132 0.94375914 0.0027092693
0.061238285 0.034605037 0.012595615 0.42324647 -0.1490864 0.89366418 0.0023093754
-0.061405454 0.038200069 0.012650617 -0.45527309 -0.082867824 0.88648707 0.0039346558
-0.057859082 0.037487116 0.014409844 -0.36298051 -0.01935474 0.93159568 0.0050490922
-0.05652881 0.037734833 0.014890184 -0.31684443 0.0092852674 0.94843209 0.0042985617
-0.042840142 0.038685426 0.014848925 0.18921787 0.52267337 0.83126962 0.0015883602
-0.040342383 0.038205527 0.014461254 0.23741539 0.5442118 0.80465364 0.0015155603
-0.037424468 0.037530474 0.013998332 0.26356629 0.57723737 0.77287114 0.00087684317
-0.034619011 0.037196402 0.0132214 0.29836386 0.63395655 0.71349716 0.0015313266
-0.031729229 0.036577675 0.012583273 0.30253515 0.66505933 0.68276542 0.0011296981
-0.029779291 0.03615484 0.012130729 0.31218183 0.68591374 0.65731645 0.00071957166
0.041436393 0.03684305 0.012395469 -0.2358699 0.48755759 0.8406266 0.001665946
0.043764696 0.037099089 0.012978937 -0.19815341 0.43011966 0.88075668 0.0020787278
0.046557587 0.037384052 0.013528725 -0.17336026 0.40577093 0.89738303 0.0018529799
0.049537826 0.037355438 0.014062631 -0.095262006 0.3093718 0.94615763 0.0021345273
0.052626058 0.037372302 0.014328 -0.0082132556 0.2318472 0.97271752 0.0032330556
0.05559535 0.037350491 0.014262249 0.11824371 0.13050172 0.98437166 0.0043018567
0.058582563 0.037441924 0.013773055 0.25663751 0.034892913 0.96587765 0.0041577904
0.061554302 0.037472509 0.012794564 0.36036935 -0.045201134 0.93171388 0.0031185793
0.063280292 0.038161032 0.012093832 0.47992948 -0.094543286 0.87219799 0.0021504874
-0.061059315 0.040463693 0.013020592 -0.38791138 0.051553592 0.92025381 0.0032505665
-0.057942878 0.040676516 0.014221616 -0.24511603 0.18472008 0.95173353 0.0039827651
-0.055384226 0.040813275 0.01474501 -0.12958366 0.25091645 0.95929611 0.0040797135
-0.052436732 0.04141609 0.014743124 0.017175658 0.38125202 0.92431158 0.0032768897
-0.049325448 0.041256163 0.014586912 0.11348056 0.45349255 0.88400602 0.0022270954
-0.046325251 0.040833116 0.014281435 0.18142739 0.51672149 0.83670962 0.0014121959
-0.043493122 0.040469483 0.013772069 0.23322587 0.5667069 0.79022086 0.0013023362
-0.040638633 0.040188652 0.013021275 0.28735954 0.62385297 0.72679561 0.0013683399
-0.037889846 0.039445546 0.012578663 0.30193397 0.65873748 0.68913049 0.0012067008
0.044951726 0.03910828 0.012062149 -0.31575415 0.58954096 0.74346548 0.0027874664
0.047083829 0.039646253 0.012471522 -0.21206672 0.46657634 0.85868174 0.0019021747
0.04973989 0.040181324 0.012854285 -0.17502272 0.429353 0.8860153 0.0020255202
0.052612316 0.040329508 0.013303144 -0.1064895 0.36251083 0.92587578 0.0026874212
0.055705562 0.040318467 0.013566528 0.020990819 0.26846075 0.96306187 0.003219744
0.058666404 0.040391285 0.013410985 0.16807093 0.16706096 0.97151577 0.0042260177
0.061602298 0.040430497 0.012753087 0.27601665 0.090130016 0.95691758 0.0040331925
0.063338749 0.040510435 0.012121329 0.39978647 0.037426621 0.91584384 0.0037614079
-0.061345588 0.043557841 0.012638999 -0.32675731 0.16435479 0.93070787 0.0049775154
-0.058351532 0.04356847 0.01347526 -0.17514327 0.2915422 0.94038719 0.0050661745
-0.055399917 0.043507658 0.013823795 -0.036048394 0.38457698 0.92238879 0.0037718669
-0.052417554 0.043567546 0.013685186 0.06903445 0.45910037 0.88569814 0.0022659507
-0.049469694 0.043481108 0.013254352 0.1788408 0.539087 0.82304388 0.0022152993
-0.046735778 0.043077201 0.012830332 0.23601615 0.60196465 0.76284653 0.0019241885
-0.044115253 0.04243036 0.012445626 0.28436118 0.63648999 0.71695125 0.0012131452
0.053037696 0.042438239 0.012388578 -0.17585172 0.4576202 0.87158465 0.0019113549
0.055778097 0.042967889 0.012589658 -0.069489114 0.38081357 0.92203707 0.0027478426
0.058616292 0.043303341 0.012622833 0.050440174 0.29310989 0.95474726 0.0041534696
0.061523151 0.043217015 0.012364308 0.21637446 0.19694516 0.95623994 0.0040182886
0.063341953 0.042371649 0.012045168 0.34440565 0.1191708 0.93122673 0.0044164648
-0.060816664 0.045743618 0.012306207 -0.19438928 0.36262074 0.91143793 0.0043502641
-0.058358409 0.046106361 0.012540882 -0.065104842 0.42328656 0.90365362 0.0042454782
-0.05555702 0.046031404 0.012581797 0.053532157 0.50337285 0.86240953 0.0030864081
-0.052609831 0.045645021 0.012455562 0.14939611 0.56299412 0.81284589 0.0030359891
