# .PCD v0.7 - Point Cloud Data file format
VERSION 0.7
FIELDS x y z normal_x normal_y normal_z curvature
SIZE 4 4 4 4 4 4 4
TYPE F F F F F F F
COUNT 1 1 1 1 1 1 1
WIDTH 569
HEIGHT 1
VIEWPOINT 0 0 0 1 0 0 0
POINTS 569
DATA ascii
-0.044260275 0.015419046 0.0082879774 -0.45628336 -0.74805832 0.48188603 0.00095192785
0.047824059 0.015275933 0.0087304516 0.40056932 -0.67359018 0.62114453 0.0047564446
0.049417578 0.015652828 0.0079098828 0.41911671 -0.82501638 0.37906355 0.0037644401
0.052170891 0.016886469 0.0071636499 0.49705747 -0.72840458 0.47155121 0.0023364378
0.054227434 0.017758798 0.0063139359 0.51895446 -0.70745069 0.4797914 0.0012368264
-0.054034445 0.020960633 0.0063311397 -0.57769996 -0.72856927 0.36803493 0.0044311997
-0.052102145 0.02018646 0.0071468786 -0.54571438 -0.71542978 0.43629798 0.0011561919
-0.049873557 0.018913129 0.0077400976 -0.53276229 -0.72685349 0.43341476 0.0010600332
-0.047909182 0.018133612 0.0087421285 -0.49754617 -0.71224332 0.4951337 0.0011018241
0.053175546 0.018607248 0.0084687304 0.47060388 -0.64697152 0.59996659 0.0017059981
0.055382051 0.019484257 0.0074671921 0.51624334 -0.68274409 0.51706219 0.0023548165
0.057606068 0.020578101 0.006534623 0.56750971 -0.65297377 0.5015555 0.0012604313
-0.057277855 0.023771135 0.0062498241 -0.63055772 -0.68475533 0.36538631 0.0073509752
-0.055306252 0.022760881 0.0072676237 -0.58013296 -0.69634306 0.42255422 0.001104206
-0.053234994 0.021612577 0.0080783144 -0.55043089 -0.70345312 0.44964382 0.0013580631
0.056354787 0.021344151 0.0087033082 0.49557301 -0.57856125 0.64782268 0.0017334706
0.058451757 0.022250379 0.0076303775 0.55385762 -0.62881333 0.54574317 0.0026874628
0.060685635 0.023494495 0.006575407 0.61483043 -0.59200519 0.52106947 0.0013826228
-0.060229432 0.026717765 0.0062338109 -0.67148644 -0.60735631 0.42452851 0.0038647503
-0.05837791 0.025630929 0.0073340149 -0.63802046 -0.63341135 0.43785843 0.0012547303
-0.056455482 0.02451203 0.0083209155 -0.58219844 -0.62868243 0.51556116 0.0011419075
0.059588447 0.024405815 0.0086806752 0.57245243 -0.54815918 0.6097703 0.0017507917
0.061413486 0.025323775 0.0076364041 0.61814439 -0.54907846 0.56250376 0.002381304
0.063387334 0.026264371 0.0062176837 0.65484464 -0.52617723 0.54250908 0.0025732024
-0.063052304 0.029927364 0.006039469 -0.75007039 -0.58084887 0.31624204 0.012153126
-0.061191857 0.028695909 0.0072516962 -0.69618922 -0.54991668 0.46142417 0.0017477464
-0.059453949 0.027601382 0.0083272466 -0.63132322 -0.56214929 0.53424633 0.001154465
0.01011443 0.029850252 0.008970337 -0.08813554 0.72355843 0.68461329 0.0021926351
0.062562123 0.027459856 0.0083120205 0.61375797 -0.48642352 0.62184674 0.0024631633
0.063833058 0.029009944 0.0080343084 0.63140744 -0.43636146 0.64102519 0.0043671052
-0.063775569 0.031903919 0.0069644339 -0.71467096 -0.48725256 0.50182706 0.0023487972
-0.062333558 0.030990737 0.0080574686 -0.70901042 -0.47370216 0.52240837 0.0027795711
0.011596477 0.03065386 0.008035237 -0.094370633 0.75172287 0.65269208 0.001007728
0.01366388 0.030882377 0.008080544 -0.11406182 0.74256361 0.65999186 0.00087653269
0.016701419 0.031747106 0.0075976979 -0.15128842 0.79029709 0.59375274 0.0014192342
0.019385284 0.032353114 0.0076976954 -0.21032269 0.79082513 0.5747695 0.002185601
0.021917515 0.032426096 0.008719204 -0.21761753 0.72504866 0.65341187 0.0013016665
0.065037228 0.031163044 0.0082515571 0.65131575 -0.36562636 0.66490996 0.0021530634
0.066604793 0.031960994 0.0068853311 0.71639001 -0.37291068 0.58968049 0.0033536628
-0.066293269 0.035419941 0.0064445841 -0.75569218 -0.41559029 0.50617588 0.0025127421
-0.064814679 0.034346398 0.0075983736 -0.73085922 -0.40461114 0.54966784 0.0023526833
-0.062969044 0.0330071 0.008759913 -0.69984257 -0.39102289 0.59776384 0.0012856188
0.019611731 0.033135481 0.0065085189 -0.19775867 0.826832 0.52653623 0.0015168991
0.02275235 0.033556763 0.007266596 -0.22890088 0.83021545 0.50827819 0.0018297012
0.025456214 0.034088437 0.0077296505 -0.25231692 0.82538801 0.50504547 0.0021746389
0.028482582 0.034860961 0.008141296 -0.26240262 0.7581926 0.59689933 0.0011652408
0.031785697 0.035665333 0.008620589 -0.30141804 0.74752623 0.59190512 0.0017129374
0.065790661 0.034088384 0.0089889448 0.68576521 -0.30297375 0.6617651 0.0050045568
0.066809207 0.033630162 0.0076494338 0.66772616 -0.31222564 0.67576396 0.0032823789
-0.066899918 0.037646826 0.0070903492 -0.75141352 -0.35183045 0.55820519 0.0029458052
-0.065506212 0.036994338 0.0084304772 -0.69338107 -0.29808593 0.65602398 0.0016833344
0.029698448 0.036482859 0.0060176067 -0.28402087 0.88897693 0.35923839 0.0026457515
0.032328751 0.036353834 0.0079557896 -0.30030981 0.75807422 0.57891053 0.0012082501
0.034769855 0.037372164 0.0080355294 -0.33055758 0.72729224 0.60147959 0.0025948426
0.037317686 0.038412008 0.008392578 -0.37781006 0.74111372 0.55498654 0.0022065942
-0.069170289 0.041505586 0.0062414454 -0.76423126 -0.29312253 0.57448226 0.0035680898
-0.067657091 0.040391557 0.007475181 -0.73977572 -0.24746321 0.62569463 0.0023800684
-0.065922953 0.039239887 0.008872129 -0.68560475 -0.21520711 0.69543654 0.0024467378
0.037939951 0.039755896 0.0068159923 -0.4355309 0.75157738 0.49542341 0.0020526182
0.040554643 0.041039877 0.0072912551 -0.43014008 0.73531044 0.52373481 0.0020404733
0.042660672 0.041763924 0.0080707166 -0.43879288 0.72311932 0.53344101 0.0013551374
-0.069477111 0.043517094 0.0064755254 -0.76346791 -0.21750012 0.6081205 0.0027702989
-0.068138711 0.043248031 0.0078142816 -0.69574118 -0.1608467 0.70005184 0.0021594304
0.04167141 0.042336605 0.0062111006 -0.47423103 0.76509362 0.43558785 0.0022544833
0.044141844 0.042929217 0.0076608998 -0.42582262 0.71737504 0.55140567 0.0023760493
0.046024032 0.044220936 0.0074731326 -0.41447026 0.73554206 0.53590322 0.0034355782
0.048525143 0.044540737 0.0087474901 -0.37611881 0.6415292 0.66856188 0.001482114
-0.069928221 0.04643669 0.0066561257 -0.72506177 -0.12885517 0.67652178 0.0046163173
-0.068189926 0.046342153 0.0081755612 -0.63201958 -0.055824235 0.77293909 0.0026982985
0.047292251 0.045433834 0.0067809089 -0.46049273 0.75697243 0.46361536 0.0027829714
0.049849346 0.046537533 0.007327992 -0.42425075 0.74537838 0.51422018 0.0021351513
0.052421357 0.047199354 0.0083399983 -0.37883911 0.65169007 0.65710038 0.0037052012
0.054739852 0.047896113 0.0087918378 -0.29683003 0.60634404 0.73772544 0.0026628256
-0.070270903 0.049466576 0.0066553075 -0.66815102 -0.09010151 0.73854989 0.0053239409
-0.067886688 0.049206469 0.0082622264 -0.54803342 0.032710481 0.83581656 0.0038995903
-0.065868884 0.050277319 0.0088588176 -0.35144201 0.21291441 0.91167754 0.0055971257
0.052156985 0.048423931 0.0067062769 -0.44774315 0.72928035 0.5173744 0.0018466919
0.055272192 0.049496662 0.0075236806 -0.40753087 0.70561749 0.57967442 0.0018363764
0.058029898 0.050052613 0.0083637349 -0.27939636 0.6295374 0.72499681 0.0025751861
0.06045628 0.050848342 0.0085309679 -0.18674931 0.59185559 0.78411198 0.0053134747
0.06387762 0.050753709 0.0089647863 -0.19049166 0.53428519 0.82356071 0.0032637164
0.066458464 0.049985986 0.0088686831 0.053192534 0.41179714 0.90972179 0.0077289934
-0.070497938 0.052322052 0.006560219 -0.57890666 -0.033130087 0.81472045 0.0046971575
-0.068104051 0.052067868 0.0076392959 -0.48634437 0.070477545 0.87092024 0.0033599294
-0.064668387 0.052008126 0.0084075369 -0.22289371 0.32504448 0.9190563 0.0044830651
-0.061963849 0.052435033 0.0081419889 -0.18500958 0.38548541 0.9039759 0.0049914271
0.056436241 0.051363498 0.0062437863 -0.40402007 0.69528353 0.59443134 0.0025806469
0.05849389 0.051920228 0.0068128523 -0.34525666 0.67290908 0.65421045 0.0020389622
0.061378464 0.052566461 0.0074480218 -0.29396254 0.60233819 0.74214202 0.004898068
0.063950211 0.052686471 0.0079775415 -0.11984699 0.48941764 0.86377496 0.0036390699
0.06723389 0.053345338 0.0074309679 -0.078526355 0.43737912 0.89584213 0.0041747335
-0.070562638 0.054628614 0.0062989779 -0.48552117 0.058841974 0.87224239 0.0042753806
-0.068146192 0.054750443 0.0068431199 -0.3169423 0.21482687 0.92379487 0.0037069868
-0.065724179 0.054305673 0.0071804188 -0.1952451 0.34249762 0.91900748 0.0032951729
0.062247731 0.054399252 0.0063689002 -0.32546064 0.62039727 0.7135703 0.0048857345
0.064436391 0.054998595 0.0066674985 -0.24783546 0.54627258 0.80010241 0.0067298161
0.066538408 0.055598192 0.0066126538 -0.29934499 0.52989239 0.79347754 0.0083470959
-0.018748997 0.0058259489 0.0091454582 -0.20823582 -0.7899664 0.57670695 0.0010026192
-0.016243868 0.0055605564 0.0095186532 -0.16458999 -0.78525716 0.59689319 0.0011721241
-0.013439287 0.0052823704 0.009841783 -0.13393597 -0.78319949 0.60717356 0.0010156612
-0.010514035 0.0050817113 0.010129672 -0.10315119 -0.77504826 0.62342608 0.0010571721
-0.007492878 0.0047974456 0.010161793 -0.068777405 -0.76334584 0.64231831 0.0010677469
-0.0044175843 0.0047149304 0.010300265 -0.035162672 -0.75472981 0.65509278 0.00108659
-0.001611108 0.004624343 0.010285366 -0.011911645 -0.7501477 0.66116303 0.0013366793
0.0014727169 0.0046542133 0.01033112 0.012822389 -0.74291646 0.6692614 0.0015069697
0.0044639884 0.0047569931 0.010338014 0.038320534 -0.73086095 0.68144977 0.0014898311
0.0074725063 0.0048271231 0.01019747 0.06382291 -0.73389995 0.67625248 0.0012986119
0.010514224 0.0049789362 0.010044442 0.09020447 -0.73991138 0.66662908 0.0014656184
0.013414259 0.0052053253 0.0098691275 0.11555117 -0.75130409 0.64976168 0.0013388515
0.016227473 0.0054426873 0.009588792 0.13803354 -0.74963862 0.64729333 0.0012601548
0.018989826 0.0057531013 0.0092858998 0.15898484 -0.75513536 0.63599873 0.0006005459
-0.027684549 0.0087624276 0.0095103122 -0.26937431 -0.78445452 0.55863094 0.00085338671
-0.025311472 0.0083258497 0.0099531664 -0.24887006 -0.77903777 0.5754683 0.0010970699
-0.022443721 0.0077703353 0.010334053 -0.2109983 -0.7680257 0.60466218 0.0011033439
-0.019568248 0.0071758782 0.010551873 -0.19231822 -0.7710669 0.60701686 0.00099252874
-0.016629178 0.0068246629 0.010953435 -0.15535037 -0.74877769 0.64435881 0.00098161737
-0.013621542 0.0066058459 0.011369221 -0.11688111 -0.70449221 0.70002109 0.0011131968
-0.010634744 0.0064236247 0.011616012 -0.082719088 -0.70414108 0.70522547 0.0011355169
-0.0076249717 0.0062651066 0.01174554 -0.049428139 -0.70681858 0.70566595 0.0014785463
-0.004550118 0.0061528613 0.011824573 -0.02622349 -0.71050596 0.70320237 0.0008885024
-0.0015783815 0.006134972 0.011865192 -0.0016969615 -0.69298768 0.72094744 0.00095629512
0.0016788428 0.0061421418 0.011820091 0.014343524 -0.67848653 0.73447275 0.0015071032
0.004591363 0.0062510967 0.011814622 0.037640911 -0.6847316 0.7278226 0.0011217233
0.0076411115 0.0063261688 0.0116931 0.05878374 -0.67505628 0.73542058 0.0013465348
0.010528813 0.0064935097 0.01157295 0.080397598 -0.66389567 0.74349093 0.0016486207
0.013594304 0.0066776848 0.011355711 0.10270279 -0.66043091 0.74383008 0.0017480351
0.016745146 0.0069626248 0.011106665 0.1316061 -0.66472781 0.73540235 0.0016611315
0.01951628 0.0071143322 0.010653131 0.16416347 -0.70141429 0.69359088 0.001312451
0.0223665 0.0074899928 0.010289709 0.17406674 -0.69795918 0.6946609 0.0010142105
0.025416307 0.0080817398 0.010053375 0.185385 -0.68742359 0.70219743 0.00048570888
0.028327355 0.0083284788 0.0095059993 0.19412147 -0.69714284 0.69015133 0.00042627571
0.030973775 0.0087455893 0.0092569478 0.20495076 -0.68258166 0.70148224 0.00076130655
-0.036416717 0.011854336 0.009238041 -0.35350227 -0.76502168 0.53831029 0.0011563943
-0.034210052 0.011393777 0.009858992 -0.32251304 -0.7639823 0.55885273 0.00097198319
-0.031467587 0.010740238 0.010384697 -0.27560252 -0.75988489 0.58874291 0.00096652843
-0.02865676 0.009938132 0.010635869 -0.25762588 -0.76630658 0.5885601 0.0010254792
-0.025732478 0.0095557878 0.011338584 -0.22492628 -0.73954368 0.63441575 0.00094890309
-0.023324132 0.0091969594 0.011760717 -0.19442335 -0.7058202 0.68118823 0.0014985803
0.022974795 0.0090730842 0.011747998 0.16466156 -0.65660536 0.73604077 0.0014268438
0.025554825 0.0095797367 0.011512407 0.18664686 -0.64411825 0.74180496 0.0012145056
0.028577689 0.0098474268 0.010850989 0.19432048 -0.64961082 0.7350139 0.00056638283
0.031406503 0.010475066 0.010616045 0.2044507 -0.63054156 0.74874371 0.00036381368
0.03430365 0.010714605 0.010082411 0.21996576 -0.65407693 0.72373915 0.00090302539
0.037424002 0.011223273 0.0096335281 0.2522139 -0.67049205 0.69773096 0.0023208046
0.039559435 0.011636886 0.0093257772 0.30160046 -0.68202329 0.66624427 0.0019281197
-0.04223666 0.014810407 0.0092195701 -0.43118668 -0.73116457 0.52865529 0.0011130564
-0.040244456 0.014262523 0.0099387243 -0.39742005 -0.72627336 0.56087816 0.0010688528
-0.037549783 0.013398566 0.010546823 -0.34909782 -0.74238676 0.57183272 0.00074703869
-0.03482746 0.012685586 0.01117624 -0.30269825 -0.72672373 0.61664116 0.00091695489
-0.032504458 0.012248307 0.011776769 -0.28063926 -0.70824957 0.64778405 0.0012060947
0.032239083 0.012251666 0.011886017 0.19804265 -0.59468049 0.77918816 0.00053354155
0.034550387 0.012712884 0.011552771 0.20835237 -0.58993757 0.78010452 0.00040373614
0.037643272 0.013050794 0.011014238 0.22317685 -0.5906074 0.77548367 0.00086598162
0.04047722 0.013493832 0.010474181 0.26805553 -0.61196983 0.74406934 0.0015362736
0.043294959 0.013870762 0.0097594121 0.32650706 -0.66387683 0.6728006 0.0023250729
0.045587588 0.014573371 0.009359681 0.37546894 -0.67395997 0.63623977 0.0016423275
-0.045862779 0.017454371 0.0097035691 -0.47051698 -0.6930511 0.54616302 0.0010519486
-0.043480773 0.016518308 0.010417425 -0.42190105 -0.70003068 0.57615668 0.00097806321
-0.04091553 0.01567647 0.011222015 -0.37681633 -0.68173522 0.62709373 0.00083972886
-0.038769502 0.015125365 0.011839148 -0.36078453 -0.68072695 0.63753062 0.001329232
0.041068472 0.015410627 0.01174374 0.24330613 -0.54452926 0.8026768 0.00066048169
0.043732859 0.015976999 0.011230003 0.26900783 -0.53026938 0.80402064 0.00072378479
0.046618082 0.016305365 0.010306342 0.34870833 -0.60207629 0.71826643 0.0025470145
0.049197517 0.017127192 0.00973887 0.40326929 -0.62698174 0.66653413 0.0021534469
0.051087454 0.017741505 0.0091503114 0.4394933 -0.65032607 0.61961412 0.0021169744
-0.051201608 0.020764973 0.0092011373 -0.50791889 -0.66471052 0.54788536 0.00087987719
-0.049150709 0.020030553 0.010039487 -0.48565921 -0.66808176 0.56373924 0.0013697919
-0.046779975 0.019038243 0.010835397 -0.45057783 -0.65817815 0.60314268 0.001109857
-0.04448688 0.018254774 0.011675305 -0.42400765 -0.65089726 0.62972248 0.0012827368
0.047355484 0.018386712 0.011558835 0.33095965 -0.56760812 0.75384796 0.0031075664
0.049615204 0.019121839 0.01109246 0.35991257 -0.52113372 0.77387506 0.0013507027
0.052257136 0.019705206 0.010118802 0.4365119 -0.57160628 0.69478309 0.0028938656
0.054473005 0.020695575 0.0095528103 0.47942868 -0.58977383 0.64985758 0.0019828132
-0.05442429 0.023621321 0.0094291903 -0.5499447 -0.61536545 0.56470007 0.0012675188
-0.052332077 0.022670744 0.0102722 -0.50555921 -0.63532382 0.58375812 0.0018197987
-0.050070424 0.021726906 0.011160663 -0.47915211 -0.62992603 0.61123353 0.00113723
0.050506089 0.02119239 0.011950702 0.33386591 -0.45016342 0.8281827 0.0011037112
0.052972641 0.021836476 0.011262084 0.40051892 -0.47977746 0.78063959 0.002312053
0.05557216 0.022617273 0.010281901 0.46551478 -0.50688922 0.72550625 0.0021310837
0.057767794 0.02339698 0.009371751 0.53084689 -0.55476302 0.64065564 0.0027353335
-0.057475764 0.026531383 0.0094683627 -0.58854055 -0.56909275 0.57424158 0.0012530532
-0.055459511 0.025539877 0.010399083 -0.54525852 -0.5628342 0.62121731 0.001799479
-0.053323638 0.024640298 0.0114091 -0.51215339 -0.57065469 0.64191282 0.00083858287
0.0048871669 0.026831256 0.011970795 0.017488698 0.56798846 0.82285076 0.0012980555
0.0087346593 0.026984069 0.011888053 -0.031220956 0.67139632 0.74044061 0.0014225903
0.055819012 0.024870083 0.011546419 0.42751956 -0.42904535 0.79570544 0.002070663
0.058452316 0.025287386 0.010185669 0.510203 -0.47628391 0.71613306 0.0019900887
0.060539275 0.026779037 0.0096405894 0.55753869 -0.45749229 0.69271314 0.0019383043
-0.060260609 0.029579824 0.009290223 -0.63461566 -0.50207305 0.58752495 0.001481692
-0.058394965 0.028570807 0.010296171 -0.59728599 -0.48027724 0.64232635 0.0014413134
-0.056390528 0.027666189 0.011407513 -0.56128794 -0.50084722 0.65886861 0.0011037284
0.0039659794 0.027553875 0.011387102 0.02827888 0.5754925 0.81731796 0.0015115599
0.0082204882 0.027678881 0.01130224 -0.010606695 0.6228267 0.78228796 0.0011022069
0.011007627 0.028194182 0.0109745 -0.044685032 0.65197569 0.75692201 0.0019414466
0.013217883 0.02828598 0.01111269 -0.097174868 0.66239983 0.74282128 0.0019277945
0.016328692 0.028858794 0.011113152 -0.1479786 0.68216777 0.71606523 0.0018647974
0.019048449 0.029117707 0.011475012 -0.17300235 0.6162414 0.76832068 0.0021503614
0.021916231 0.029640384 0.011734937 -0.17797661 0.66728932 0.72322148 0.001230688
0.058970716 0.02806549 0.011361004 0.4604685 -0.35925311 0.81173027 0.0016064752
0.06133794 0.028424714 0.0099737775 0.56632495 -0.43500504 0.70003337 0.0017590565
0.063099079 0.029387876 0.0090793669 0.56886131 -0.40600151 0.71523398 0.0015047066
-0.063134961 0.032956991 0.0090562459 -0.67122209 -0.39274025 0.62866217 0.0025522942
-0.06107552 0.031712208 0.0099816816 -0.63961595 -0.42864212 0.63808888 0.0015623124
-0.059214871 0.031020904 0.011242141 -0.58430856 -0.3933309 0.70984101 0.001299787
0.016211759 0.03031512 0.0095398091 -0.14204419 0.71988505 0.67940336 0.0011961941
0.019367237 0.030649375 0.010021666 -0.17922767 0.72307819 0.66710967 0.00093437789
0.022692584 0.031013092 0.010614317 -0.19351801 0.69280159 0.69467747 0.0015515005
0.025207434 0.031672746 0.010696952 -0.2163341 0.68452674 0.69614846 0.0011461582
0.028195413 0.032021031 0.011329745 -0.22164814 0.64974028 0.72712427 0.0014370491
0.031145101 0.03271953 0.011648566 -0.23377539 0.651124 0.72207111 0.0017204853
0.059984554 0.030398794 0.011791363 0.50307393 -0.32447755 0.80101871 0.0013242334
0.061274301 0.03130443 0.011285505 0.50216484 -0.29387638 0.81330627 0.0030567041
0.06357301 0.031441685 0.0097308084 0.56281936 -0.35000983 0.74881738 0.0021719199
-0.063485011 0.034981575 0.0095229521 -0.66469765 -0.36363539 0.65264565 0.001669584
-0.061774343 0.034267437 0.010730148 -0.60634309 -0.31954685 0.72817445 0.0011962353
-0.059916284 0.03318147 0.011823602 -0.59066176 -0.33224076 0.73534667 0.002380389
0.026619561 0.03314507 0.0096252337 -0.22923088 0.7042563 0.67191982 0.0011889066
0.028858554 0.03343964 0.01014315 -0.23692271 0.69535738 0.67848778 0.0013760251
0.03143055 0.034158051 0.010331094 -0.26518133 0.69128251 0.67216617 0.0020099673
0.034262765 0.034737427 0.010862375 -0.26873225 0.6629191 0.69879985 0.0031071994
0.036930151 0.035467289 0.011337122 -0.29916039 0.64027393 0.7074973 0.0028103269
0.039206993 0.035728239 0.011958566 -0.28982595 0.57774317 0.7630294 0.00085907261
0.062130317 0.033801991 0.011584571 0.47700813 -0.20809554 0.85390836 0.002153401
0.064385079 0.034741081 0.010325569 0.5794208 -0.24518831 0.7772736 0.0028020088
-0.064215906 0.037429381 0.0098869568 -0.65861094 -0.27190372 0.70164096 0.0020181583
-0.062270686 0.037293665 0.011457338 -0.58147663 -0.21145871 0.78560174 0.0019829229
0.035540063 0.036312539 0.0098561468 -0.32755181 0.6788522 0.65716779 0.0016646783
0.038020726 0.037219718 0.010197209 -0.34919012 0.64463037 0.68008673 0.0015137626
0.040463518 0.037741244 0.010973746 -0.33778092 0.60569966 0.72043872 0.0026888275
0.043099292 0.038465694 0.011556551 -0.30316609 0.54911667 0.77882046 0.0022795415
0.045357116 0.038932007 0.011991515 -0.2533887 0.50361234 0.82593513 0.0025091704
0.063583657 0.037470642 0.011430281 0.45890632 -0.12523825 0.87961382 0.0032204683
0.066403836 0.038186107 0.0096410364 0.57900137 -0.16427985 0.79860473 0.0063547431
-0.066235721 0.041241989 0.0092264647 -0.66239083 -0.17979479 0.72726351 0.0020511192
-0.064645283 0.040313616 0.010306969 -0.60363704 -0.15471816 0.78210264 0.0026497394
-0.06264694 0.040031448 0.011713384 -0.54000688 -0.088264659 0.83701974 0.0022596756
0.040673591 0.039516345 0.0093729794 -0.38426387 0.67551309 0.62930393 0.0026470944
0.04349868 0.040274478 0.010214763 -0.35485229 0.63985372 0.68166494 0.0015848337
0.046208173 0.040733114 0.011094615 -0.29951802 0.56741983 0.76702261 0.0021575629
0.048906863 0.0413583 0.011650715 -0.24965531 0.51471603 0.82020706 0.0028683776
0.064515561 0.040302701 0.011115134 0.42518941 -0.0089884903 0.90505975 0.0046706265
-0.066497847 0.043496829 0.0093382373 -0.63399887 -0.088292107 0.76827723 0.0027787557
-0.064624228 0.043280285 0.010627057 -0.52735877 -0.0046040271 0.84963024 0.0023026664
-0.062469978 0.043619048 0.011764776 -0.47917742 0.01986682 0.8774932 0.0019756556
0.046794571 0.042784654 0.0096258596 -0.35875592 0.63859445 0.68080199 0.0020069443
0.049548384 0.043441352 0.010314209 -0.32160011 0.60020602 0.73234284 0.002517039
0.052333124 0.043685842 0.011158063 -0.23595062 0.52634454 0.81687748 0.0014194003
0.055203985 0.04423688 0.011552528 -0.16864222 0.45779642 0.87291592 0.0025044216
0.05822926 0.044585913 0.011789306 -0.06160672 0.42877692 0.9013074 0.003002834
0.061442636 0.043976177 0.011835877 0.061462682 0.31140652 0.94828707 0.0055994238
0.063975617 0.043788474 0.011231108 0.29263547 0.15760216 0.94314688 0.0042170999
0.066238642 0.042516168 0.010185315 0.42302582 0.044511091 0.90502369 0.0026709794
-0.06659399 0.046279509 0.0093212789 -0.58450782 0.0016064629 0.81138641 0.0025311615
-0.064842083 0.046103757 0.010305582 -0.50129956 0.052260991 0.86369419 0.0025331448
-0.062007487 0.046162326 0.011481731 -0.39486855 0.16190192 0.90435976 0.0037497371
-0.058908835 0.047143988 0.011627869 -0.099035613 0.3724907 0.92273653 0.0033102427
-0.055684377 0.047021896 0.011603599 -0.033953957 0.42082715 0.90650517 0.0011105323
-0.053942353 0.046450727 0.011798143 0.042254228 0.47254896 0.88029093 0.00021721935
0.050668534 0.045470357 0.0090124663 -0.38529453 0.66104162 0.6438728 0.0038229001
0.052609999 0.045739401 0.0097647123 -0.29166389 0.58368796 0.75778657 0.0032778177
0.055529948 0.046506546 0.010231944 -0.23820476 0.54494572 0.80392331 0.0028200899
0.058293216 0.046434805 0.01089146 -0.1117053 0.4536995 0.88412595 0.003084552
0.061182726 0.046736047 0.010915928 -0.015495139 0.41673928 0.908894 0.0030651973
0.064466342 0.046553567 0.010487358 0.26452491 0.24492858 0.93275756 0.0058233785
0.066901579 0.04739809 0.0093296859 0.24125566 0.26653972 0.93314111 0.0053450256
-0.066414878 0.048608147 0.0091609722 -0.4629004 0.13782583 0.8756296 0.0060945982
-0.064944953 0.048945669 0.009641761 -0.38134012 0.19395645 0.90385872 0.0046300762
-0.061640047 0.0493531 0.010233095 -0.18480137 0.38854501 0.9027077 0.0024762212
-0.058812432 0.048634004 0.010813875 -0.052057832 0.44628623 0.89337486 0.0015571914
0.056588393 0.048148051 0.009421071 -0.26770246 0.58170664 0.76808381 0.0020575195
0.058863096 0.048772633 0.0096006542 -0.194902 0.55569279 0.80821949 0.0035775385
0.061353724 0.049368247 0.009633949 -0.099218778 0.51069015 0.85402066 0.0041777743
0.064160854 0.049609564 0.0095141567 -0.033195406 0.47203347 0.8809554 0.0049041011
-0.062825836 0.051049281 0.009113824 -0.16738342 0.36978742 0.91391468 0.0038225583
-0.021631779 0.0088466788 0.012065694 -0.18689676 -0.72608101 0.66172194 0.00096170435
-0.019367144 0.0086774491 0.012300202 -0.17052783 -0.70096421 0.69250959 0.00087803957
-0.016254442 0.0083096279 0.012595934 -0.13509724 -0.6935007 0.70767605 0.0011081566
-0.013437608 0.0080585256 0.012802901 -0.097741976 -0.65766186 0.74694532 0.0011210281
-0.010640382 0.0078277867 0.012890715 -0.068458766 -0.64961153 0.75717783 0.0010089193
-0.0075699547 0.0077367439 0.013032407 -0.031714048 -0.62515527 0.77985585 0.0014560332
-0.0046015363 0.0075930967 0.013009785 -0.0154825 -0.61321861 0.78976148 0.0016854173
-0.0015692723 0.0074642836 0.01293359 0.0021893831 -0.60036081 0.79972625 0.0015252389
0.0014711333 0.0075735846 0.012961718 0.025044523 -0.58757091 0.80878502 0.0016618941
0.0044762706 0.0076360805 0.012889236 0.040964589 -0.58059144 0.81316388 0.0014613932
0.0075544091 0.0077473833 0.012790285 0.053805936 -0.58263582 0.81095022 0.0017216044
0.010393171 0.007908443 0.012691462 0.071743794 -0.58804202 0.80564225 0.00166071
0.013527011 0.0082031433 0.012592085 0.089774624 -0.60457587 0.79147238 0.0016770022
0.016265646 0.0083767064 0.012372856 0.11154681 -0.61190802 0.78302354 0.0017251039
0.01929081 0.0086824084 0.012158582 0.13733634 -0.63022155 0.76417249 0.0014754252
0.021742372 0.0089811236 0.012069372 0.16449401 -0.63095468 0.75818074 0.0011031294
-0.030471362 0.01180537 0.012114745 -0.2587755 -0.71125257 0.65357101 0.00088836253
-0.028330075 0.011418954 0.012489608 -0.23251383 -0.70706648 0.66782802 0.00081839185
-0.02554325 0.010958221 0.012882259 -0.20470308 -0.68716252 0.69706839 0.0011330199
-0.02240452 0.010318514 0.013089971 -0.18532225 -0.67143339 0.71751857 0.0010165301
-0.019560641 0.010351238 0.013735941 -0.13421814 -0.60186177 0.78724074 0.00081562309
-0.016562957 0.010062352 0.013998143 -0.10919163 -0.58175039 0.80600476 0.0011824702
-0.013586752 0.010000641 0.014291501 -0.076037586 -0.55896384 0.82569826 0.0011454992
-0.010624772 0.0098947389 0.014423798 -0.044726018 -0.53766865 0.84196913 0.0014055476
-0.0075417953 0.0099086203 0.014533268 -0.014470394 -0.51590139 0.85652572 0.0014725139
-0.0044599827 0.0099393353 0.01456961 0.0039477008 -0.49086684 0.8712256 0.0017075557
-0.001549804 0.0097968038 0.014445378 0.01546481 -0.49301839 0.86988145 0.0014029173
0.0014703827 0.0099200606 0.014419687 0.032434598 -0.47983572 0.87675864 0.0013209974
0.0045949421 0.010133114 0.014388613 0.048100617 -0.46569517 0.88363701 0.0013792524
0.0076127937 0.010122877 0.014203723 0.05454677 -0.46467564 0.88379925 0.0013737718
0.010547023 0.010341463 0.014130841 0.061884604 -0.45640427 0.88761789 0.0016814194
0.013444109 0.010313473 0.013870685 0.082105465 -0.45917752 0.88454205 0.0014368611
0.016526742 0.010321232 0.013571829 0.10316446 -0.47022671 0.87649518 0.0019332792
0.01944316 0.010517902 0.01330633 0.12965751 -0.53017312 0.83791727 0.0020458288
0.022299603 0.010386621 0.012794288 0.14763947 -0.56524831 0.81160152 0.0022743167
0.02525582 0.010977836 0.012657383 0.16494761 -0.57350731 0.80242229 0.0024641773
0.027904034 0.011491326 0.012452986 0.18434347 -0.59043199 0.78575277 0.0017499349
0.030383874 0.011842885 0.012154086 0.19820748 -0.60845488 0.76843768 0.00073248934
-0.036737826 0.014639362 0.012420592 -0.32097107 -0.67995584 0.65927058 0.0012289516
-0.034338389 0.014075548 0.012911582 -0.29070106 -0.66852081 0.6845237 0.0011031934
-0.031471264 0.013456182 0.013366843 -0.24795197 -0.65241838 0.71614945 0.0015722887
-0.02869528 0.013170614 0.013974753 -0.20394929 -0.61433381 0.76223266 0.0008808889
-0.025626784 0.01268243 0.014355904 -0.17801836 -0.60802776 0.77370006 0.001088078
-0.022781897 0.012459562 0.014761301 -0.14390391 -0.57463175 0.80566114 0.0016283228
-0.020298114 0.012203029 0.014957283 -0.11856151 -0.54465443 0.83023769 0.0011392969
0.0080994321 0.012028982 0.014993778 0.052483078 -0.34475023 0.93722612 0.00041736616
0.011069751 0.012215449 0.014917742 0.067058802 -0.34674731 0.93555832 0.0015617979
0.013280179 0.01247909 0.014849586 0.072443135 -0.36368462 0.92870092 0.0016933568
0.01637451 0.012627139 0.014660732 0.085483685 -0.35775164 0.92989588 0.0013783486
0.019344758 0.013014881 0.014529452 0.11204318 -0.38676149 0.91534799 0.0016027752
0.022430204 0.013328534 0.014317752 0.11258598 -0.41072613 0.90478092 0.0018846993
0.025495587 0.013322718 0.013929051 0.13319635 -0.43299782 0.89149964 0.0029002901
0.028516378 0.013598541 0.01358832 0.15047124 -0.46087843 0.87461388 0.0023437683
0.031431474 0.013461532 0.012949189 0.18043397 -0.51053983 0.84070957 0.002307669
0.034746528 0.014150707 0.012583356 0.19717057 -0.54483056 0.81503582 0.0011195696
0.037415117 0.014654078 0.012200293 0.21421567 -0.55509645 0.80372852 0.00037235735
-0.042476512 0.017640686 0.01235479 -0.39209118 -0.6425311 0.65834516 0.0014571977
-0.040314358 0.016983656 0.012891077 -0.36088052 -0.63760662 0.68060499 0.0012062272
-0.037637632 0.016270936 0.013502565 -0.31086999 -0.61090213 0.72811985 0.00088447431
-0.034716275 0.015790267 0.014281622 -0.25761208 -0.58367825 0.77003616 0.0013832714
-0.032126851 0.015262356 0.014721463 -0.21548522 -0.59976315 0.77061677 0.0012660287
0.023778923 0.015188957 0.014905194 0.077839874 -0.21934609 0.97253704 0.0019033339
0.025835052 0.015747797 0.014829874 0.1015108 -0.33073196 0.93824941 0.0014184538
0.02873533 0.016225381 0.014648553 0.13458923 -0.37612382 0.91674238 0.001909233
0.03169173 0.016281985 0.014328536 0.14609604 -0.39775935 0.9057833 0.0020694104
0.034447681 0.016230296 0.013878639 0.16165487 -0.41969436 0.89315414 0.0024182948
0.037525196 0.016525678 0.013346703 0.19903176 -0.47444206 0.85749114 0.001382964
0.040316395 0.016609399 0.012648189 0.22572681 -0.50074041 0.83564734 0.00066850957
0.042851653 0.017154088 0.012282115 0.25117552 -0.51656973 0.81857592 0.00078445801
-0.048005935 0.020930484 0.012164108 -0.43725818 -0.60248369 0.66769654 0.0013798045
-0.045946527 0.020251499 0.012632835 -0.43300495 -0.60562903 0.66762286 0.0011374701
-0.043433156 0.019424999 0.013348103 -0.37944257 -0.57654721 0.72361356 0.00096866954
-0.04065327 0.018841032 0.014273174 -0.33428553 -0.55477649 0.76188987 0.0013209395
-0.038589694 0.01824696 0.014720738 -0.30856007 -0.57397854 0.75851125 0.0009640202
0.031999819 0.018182827 0.014959612 0.08173342 -0.19610776 0.97717011 0.0023272552
0.034833573 0.018549338 0.014745394 0.13447417 -0.32746249 0.93524593 0.002731361
0.037674844 0.019465132 0.014663913 0.1721849 -0.37006289 0.91291064 0.0021551168
0.040418308 0.019246355 0.014051914 0.2060639 -0.41928217 0.8841607 0.0014597625
0.043295819 0.019214422 0.013267105 0.24011807 -0.45052427 0.85986704 0.0011329768
0.046005242 0.019330477 0.01253695 0.27639359 -0.48444295 0.83001304 0.0021566704
0.048751161 0.020331101 0.01225381 0.32605171 -0.48390922 0.81210965 0.0015990585
-0.051268153 0.023772707 0.012214917 -0.47818795 -0.57279503 0.66576421 0.0012424592
-0.049239308 0.02291633 0.012805331 -0.45002681 -0.56914896 0.68814623 0.0012284737
-0.046701219 0.022192875 0.013725062 -0.4063493 -0.53486669 0.74080896 0.0014318438
-0.044251248 0.021533174 0.014564323 -0.35354578 -0.5192799 0.77804482 0.001633833
-0.0063414942 0.02389797 0.014996692 0.1113083 0.38666564 0.91547817 0.0012959455
-0.0034292792 0.023640536 0.014732644 0.090159684 0.39675096 0.91348779 0.0017193216
-0.0013899745 0.023282468 0.014749618 0.069800004 0.41249505 0.9082818 0.0016443771
0.0018585005 0.022952449 0.014669886 0.049590502 0.41951472 0.90639299 0.001787948
0.0046786284 0.023015648 0.014542405 0.022209847 0.42259258 0.90604758 0.0017736694
0.0076528685 0.022849409 0.014586501 -0.0036558071 0.40673205 0.91354024 0.0022844709
0.010473048 0.023052815 0.014543731 -0.02701927 0.40915728 0.91206378 0.0019004144
0.013591681 0.023051031 0.014676403 -0.052570652 0.38226742 0.92255515 0.0026926897
0.016457943 0.023156578 0.014821473 -0.046745554 0.277924 0.95946503 0.0026223476
0.019254275 0.023503438 0.014908596 -0.078335576 0.28806627 0.95440108 0.003254253
0.021843715 0.023942661 0.01490142 -0.072117098 0.22573899 0.97151488 0.0029484183
0.040994227 0.021557732 0.014853185 0.13395095 -0.24512292 0.96019369 0.0042851605
0.043757573 0.02221738 0.014503571 0.20635375 -0.33483198 0.91940504 0.0024478082
0.046566535 0.022231653 0.013759407 0.23865901 -0.34494224 0.9077757 0.001397917
0.04935753 0.022358313 0.012973494 0.29926342 -0.40457696 0.86415213 0.0010076176
0.052142773 0.023095574 0.012340616 0.35294214 -0.43353593 0.82914323 0.0013345772
-0.05436616 0.026672743 0.01225559 -0.51429391 -0.51002884 0.6894725 0.0015738723
-0.0522996 0.025652567 0.012908693 -0.47423118 -0.51232356 0.71598136 0.001623721
-0.049783457 0.025244482 0.014131955 -0.41117156 -0.45644984 0.78904468 0.0012079753
-0.047572698 0.024343014 0.014746337 -0.37888995 -0.45876783 0.80372536 0.001512518
-0.015742287 0.026861968 0.014857123 0.156102 0.4131144 0.89720047 0.00066590303
-0.014152955 0.026233187 0.014901776 0.12802532 0.40220684 0.90655351 0.00042405681
-0.0075161476 0.025465377 0.014161425 0.11417034 0.37111607 0.92154109 0.0016346867
-0.0044657532 0.025173763 0.013947524 0.087848902 0.43169051 0.89773369 0.00074118597
-0.0013834613 0.025008496 0.0137175 0.076865509 0.43906271 0.8951624 0.00094452815
0.0014335376 0.025018461 0.013522772 0.057777986 0.51937616 0.85259026 0.0016512867
0.0046819216 0.025115602 0.013299031 0.016655765 0.53516287 0.84458464 0.001776366
0.0073822765 0.025112804 0.013317064 -0.012645844 0.5277335 0.84931588 0.0018690587
0.010563779 0.025412407 0.013215039 -0.041753195 0.55190533 0.83286077 0.0019275321
0.013565248 0.025378315 0.013444904 -0.073908202 0.52058303 0.8506062 0.0030713202
0.016500132 0.025466476 0.013673934 -0.096090548 0.47075251 0.8770169 0.0014325944
0.019415911 0.025348486 0.014109222 -0.11365337 0.44686142 0.88735431 0.0016460023
0.022338152 0.025527129 0.014409621 -0.084794074 0.33317748 0.93904346 0.0020773236
0.025618121 0.025719276 0.014710265 -0.10020416 0.32344434 0.94092661 0.0019650527
0.02805523 0.026248956 0.014795712 -0.087422267 0.26223069 0.9610371 0.0030729969
0.030910421 0.026802355 0.014895875 -0.077116482 0.2153684 0.9734832 0.0029119565
0.044883113 0.024329167 0.014979366 0.14294726 -0.15941784 0.97680706 0.0036720533
0.046822153 0.025051931 0.014719152 0.19351734 -0.19775441 0.96096009 0.0037624612
0.049485389 0.025379799 0.0141543 0.2484445 -0.27667269 0.92829281 0.0017974315
0.052110888 0.025277674 0.013239212 0.31822598 -0.3636629 0.87548929 0.0011154047
0.054902434 0.025823995 0.012443642 0.3883706 -0.37221569 0.84298503 0.0018587854
-0.057206955 0.029742187 0.012209194 -0.55512047 -0.4318257 0.71089232 0.0013059421
-0.055314768 0.028702902 0.012851305 -0.50971174 -0.43263152 0.7436558 0.0018725222
-0.052759159 0.028149972 0.014114041 -0.44528976 -0.39352244 0.80427426 0.0012717269
-0.050645076 0.027434671 0.014873212 -0.3943722 -0.37455601 0.83915335 0.002479224
-0.01869926 0.027874326 0.014886317 0.16250665 0.39463669 0.90435255 0.0011480197
-0.017033393 0.027339611 0.014844479 0.16111545 0.41417694 0.8958233 0.00062538701
0.013985036 0.027261943 0.012175156 -0.078254402 0.58900839 0.80432916 0.0028550888
0.016780589 0.027584292 0.012335254 -0.11690591 0.62128788 0.77481252 0.0023672218
0.019585196 0.027808765 0.01265287 -0.14203997 0.58340383 0.79966533 0.0021340449
0.022484768 0.028234569 0.012902797 -0.15565886 0.54606044 0.82315755 0.0016698977
0.025506064 0.028531868 0.013295788 -0.17401534 0.51484472 0.83943647 0.0031112311
0.02895684 0.028211696 0.014080889 -0.11636821 0.35411686 0.92793298 0.0013463396
0.031606272 0.028540425 0.014332702 -0.11828253 0.38636181 0.91473156 0.0031050832
0.034276608 0.028398491 0.014724605 -0.089045689 0.25008661 0.96412009 0.0022880903
0.037156507 0.029225305 0.014790767 -0.090101868 0.24129194 0.96626079 0.0023736442
0.040663075 0.029669123 0.014917263 -0.059350368 0.15305114 0.98643446 0.0043330477
0.049654722 0.028061714 0.0147579 0.18160167 -0.13728374 0.97374225 0.0039169709
0.052455235 0.028375665 0.014148623 0.25340238 -0.19436713 0.94763315 0.0026893439
0.05560584 0.028489873 0.013084088 0.35315758 -0.28583702 0.89082938 0.0013211909
0.057784487 0.029250197 0.012444799 0.42036137 -0.3129375 0.85168451 0.0022033658
-0.057980176 0.031730536 0.012566001 -0.54468471 -0.35804263 0.75836933 0.0021009296
-0.055633828 0.031344075 0.013884746 -0.46465659 -0.29515973 0.83485019 0.0017261237
-0.053585377 0.030792274 0.014790208 -0.41966069 -0.2796829 0.8635174 0.0026329355
-0.029580183 0.032414507 0.014818591 0.14529875 0.37344417 0.9162029 0.0023369391
0.026258055 0.030410416 0.012179328 -0.18427242 0.62030089 0.762411 0.001410119
0.02882411 0.030727053 0.012566134 -0.1871662 0.57786387 0.79438168 0.0022633616
0.031517398 0.03118619 0.01290752 -0.18433836 0.54878801 0.81538403 0.0031032427
0.034476355 0.031476032 0.013390863 -0.18004316 0.48269728 0.85708094 0.0036540609
0.037965987 0.030989936 0.014261854 -0.12173259 0.31666121 0.94069487 0.0028589529
0.040564403 0.031364229 0.014529913 -0.11068243 0.28895068 0.95092428 0.0030453764
0.043611288 0.031718321 0.014768167 -0.092976734 0.23693326 0.96706671 0.0029616635
0.046342697 0.032244388 0.014870261 -0.050675917 0.17812677 0.9827019 0.0018926944
0.049740616 0.031805404 0.014917546 0.085125543 0.017549472 0.99621564 0.0027919672
0.052468572 0.03150076 0.01459676 0.1532502 -0.033135317 0.98763174 0.0026192034
0.055409271 0.031006968 0.013821905 0.28905898 -0.16238105 0.94343913 0.0025858616
0.058451664 0.031927958 0.012908637 0.37930888 -0.20846085 0.90148151 0.0015654027
0.060314015 0.032651097 0.012233291 0.45309272 -0.21434014 0.86531222 0.0037882931
-0.060371265 0.035295725 0.01229906 -0.56597394 -0.26071846 0.78211206 0.0024812156
-0.058622133 0.034316417 0.013092219 -0.51189035 -0.24496941 0.8233822 0.0025522215
-0.056175161 0.034183763 0.014392986 -0.43208694 -0.19265632 0.88101321 0.0022796125
-0.035598021 0.035651863 0.014442014 0.16476271 0.37219399 0.91341388 0.0021408794
0.035149463 0.033428129 0.012328593 -0.22884719 0.58973694 0.77449292 0.0021073809
0.037697271 0.034108542 0.012640942 -0.24390502 0.52777386 0.8136124 0.0037740115
0.040563647 0.034261834 0.013343441 -0.18577696 0.3919338 0.90104097 0.0024941321
0.043464612 0.034270778 0.013961348 -0.14012039 0.32354954 0.9357788 0.002147987
0.046631023 0.034520801 0.014319726 -0.093950771 0.24149479 0.96584344 0.0023634762
0.049527127 0.034452263 0.014572919 -0.020379758 0.1927689 0.98103261 0.0030292012
0.052848905 0.03426962 0.014511053 0.10547011 0.057572152 0.99275452 0.0028602681
0.055539202 0.03419153 0.014143576 0.22296007 -0.059007149 0.97304004 0.0041130763
0.057703901 0.034406658 0.013569973 0.32020006 -0.11650362 0.94015896 0.0032839973
0.060810529 0.034522764 0.012419911 0.42558181 -0.181419 0.88654792 0.0024826075
-0.060859941 0.037549648 0.012471485 -0.53500772 -0.16746117 0.82808417 0.0026437251
-0.058729511 0.037462678 0.013627714 -0.45292443 -0.099278592 0.88600409 0.001939439
-0.056202915 0.037264515 0.014677525 -0.35297951 -0.031879123 0.9350878 0.0029247608
-0.043907236 0.038958341 0.014590864 0.089819334 0.38433677 0.91881323 0.0007109443
0.041183032 0.036455028 0.012275051 -0.27499411 0.56105679 0.7807647 0.0033335073
0.043591045 0.036939785 0.01272151 -0.22967494 0.48628676 0.8430745 0.0036567557
0.046518885 0.037532687 0.013140691 -0.2001535 0.42487839 0.88284594 0.0021930002
0.049533624 0.037201244 0.013796252 -0.068275847 0.28163871 0.95708823 0.0023507571
0.05238856 0.037508577 0.013950889 -0.019407367 0.24495368 0.9693405 0.0024536746
0.05535008 0.037590925 0.013896402 0.041879978 0.19930911 0.9790414 0.0046588699
0.058193333 0.037370302 0.01353 0.26498717 0.020313647 0.96403795 0.0090655321
0.060686409 0.037016474 0.012759145 0.41037071 -0.13428399 0.90197772 0.0036115223
-0.061127637 0.040427491 0.012604561 -0.48414809 -0.037147015 0.87419724 0.0019848968
-0.058853105 0.039983422 0.013589488 -0.42057732 -0.019539529 0.90704626 0.0025557533
-0.055942673 0.040095683 0.014453797 -0.27746141 0.11702906 0.95358235 0.00363817
-0.05274795 0.040678948 0.014644814 -0.054751709 0.31038383 0.94903326 0.0021039736
-0.049832165 0.04082299 0.014480182 -0.019730385 0.32058868 0.94701302 0.0018812745
-0.046526585 0.040176924 0.014385309 0.088148504 0.40962514 0.90798521 0.00051418296
-0.044506218 0.039209165 0.014563625 0.092965841 0.38276646 0.91915572 0.00079374423
0.047114424 0.039406929 0.012330286 -0.25155118 0.52169657 0.81520224 0.0029674205
0.049632341 0.040034637 0.012606224 -0.18193243 0.46145219 0.86831009 0.0026246207
0.052431718 0.040505882 0.012885346 -0.12088305 0.37446514 0.91932756 0.0026752693
0.055651482 0.040776838 0.013092663 0.025960464 0.23132747 0.97252953 0.0051922831
0.058255993 0.040659204 0.013037551 0.035559673 0.26842934 0.96264285 0.0026527436
0.061226927 0.040570825 0.012545031 0.29217541 0.086277984 0.95246506 0.0041065118
-0.061305281 0.042990435 0.01239121 -0.44859216 0.039678201 0.89285535 0.0022675972
-0.058857001 0.043082558 0.013126609 -0.27992097 0.16688819 0.94540596 0.0037726869
-0.055824239 0.043242712 0.013551931 -0.14832582 0.28703633 0.94636649 0.0027024199
-0.052917637 0.0433238 0.013483281 -0.011475529 0.39914876 0.91681433 0.00078836421
-0.050331414 0.042400755 0.013764538 0.032702889 0.40148905 0.91527981 0.0013008243
0.053474627 0.042439193 0.012182041 -0.1818748 0.48519331 0.85528302 0.0025854243
0.055480178 0.042738758 0.012340843 -0.097791202 0.41120446 0.90628237 0.0029803193
0.058307704 0.043071497 0.012373898 -0.019570814 0.36097845 0.93236876 0.0028608127
0.060681373 0.043314211 0.012198324 0.19688573 0.23955621 0.95070964 0.010581715
-0.060527645 0.045447469 0.012118571 -0.2034024 0.3387211 0.91863787 0.00327715
-0.058461294 0.045668546 0.0123556 -0.10577977 0.37806132 0.91971755 0.003664274
-0.05592031 0.045849007 0.012339318 -0.035316899 0.40792027 0.9123342 0.0014200332
-0.053470336 0.045507766 0.012348873 0.0064715273 0.43610513 0.89987242 0.0011579476
-0.018470248 0.011923957 0.015066886 -0.11187778 -0.55929744 0.82138282 0.0015426703
-0.016542146 0.011739416 0.015144696 -0.084687047 -0.5287587 0.84453672 0.0011350316
-0.013522361 0.011471963 0.015235598 -0.054819085 -0.49377602 0.86785954 0.001470287
-0.010418817 0.011341381 0.015306132 -0.022318641 -0.4801825 0.87688458 0.0015426935
-0.0074779713 0.011364811 0.015348911 -0.00080307183 -0.46115664 0.88731843 0.0018251416
-0.0046674246 0.011413343 0.015342768 0.014957125 -0.44641441 0.8947013 0.0018400202
-0.0014455656 0.011333365 0.015226579 0.025906146 -0.43757167 0.89881027 0.001806284
0.0016495979 0.01142932 0.015162489 0.040997345 -0.41796517 0.90753758 0.0017709724
0.0040628817 0.011793789 0.015150094 0.053000513 -0.40501776 0.91277134 0.0012883898
0.0070654429 0.011787825 0.015076249 0.056512635 -0.36237109 0.93031907 0.0024770892
-0.030056324 0.014958108 0.015127501 -0.19538733 -0.603531 0.77302921 0.0011941609
-0.027958576 0.014651018 0.015264328 -0.17599258 -0.56608039 0.8053444 0.0015135891
-0.025371153 0.014260134 0.015500906 -0.14355823 -0.54122299 0.82853401 0.0018001206
-0.022479113 0.013813479 0.015672984 -0.10490028 -0.49993682 0.85968548 0.0024621233
-0.019488091 0.013412449 0.015776802 -0.089389518 -0.4710947 0.87754166 0.0020218915
-0.016490692 0.013357466 0.015988057 -0.060609795 -0.4305355 0.90053636 0.0019851224
-0.013594802 0.013278453 0.016076367 -0.023965564 -0.3929002 0.91926879 0.0020531989
-0.010544827 0.013242172 0.016098179 -0.0049031749 -0.36342007 0.93161243 0.0017072347
-0.0076405886 0.013150886 0.016032873 0.006335374 -0.34926072 0.93700415 0.0016715672
-0.0047164056 0.013329748 0.016008427 0.025197852 -0.34439066 0.93848825 0.0013658324
-0.0015601926 0.013103123 0.015821043 0.032580823 -0.33722463 0.94086033 0.0012917394
0.0013958012 0.013056302 0.01569014 0.047967769 -0.31512243 0.94783807 0.0012936686
0.0045158216 0.013203732 0.015561496 0.047619484 -0.31895754 0.94657207 0.0010483672
0.0074048331 0.013350673 0.015450751 0.051915996 -0.30470702 0.95103014 0.00099067111
0.010530503 0.013587696 0.015361086 0.054872911 -0.3034541 0.95126468 0.0010081563
0.013621794 0.013891374 0.015266453 0.061598793 -0.29720077 0.95282596 0.0013812056
0.016804535 0.014226362 0.015153272 0.07588546 -0.30859065 0.94816303 0.0015242951
0.019076232 0.014605972 0.015135074 0.075706616 -0.27974996 0.95708328 0.0023706628
0.021695428 0.014834404 0.015007233 0.085348636 -0.28435764 0.95491171 0.0005175292
-0.036501914 0.017704016 0.015126098 -0.26763326 -0.55795091 0.78553373 0.0019460397
-0.034207616 0.017249824 0.015465921 -0.226509 -0.53496802 0.81394285 0.002028039
-0.031397007 0.016608842 0.015753308 -0.18470971 -0.5046432 0.84333712 0.0019009836
-0.028533969 0.016290942 0.0161152 -0.14549774 -0.46304074 0.87431324 0.0020795446
-0.025579918 0.016219143 0.016503353 -0.10714686 -0.42431119 0.89915496 0.0024105862
-0.022481008 0.016102284 0.01673991 -0.069759607 -0.37441143 0.92463493 0.0023236217
-0.019500405 0.016336506 0.016953226 -0.05333047 -0.34279272 0.93789613 0.0023323952
-0.016830642 0.016369294 0.016986486 -0.020864625 -0.31931332 0.94741946 0.002336913
-0.01336356 0.015735319 0.016817268 -0.0078739468 -0.29279077 0.95614409 0.0021678042
-0.010742593 0.016029077 0.016800506 0.017279254 -0.24398232 0.96962571 0.0024673513
-0.0074703447 0.016311672 0.016716894 0.050441489 -0.14598401 0.98800021 0.0041690348
-0.0044774222 0.01634635 0.016542945 0.050364885 -0.12083197 0.99139446 0.0038964204
-0.0015771899 0.016341697 0.016394667 0.048831236 -0.11044149 0.99268234 0.0033223694
0.001489518 0.016375719 0.016238375 0.047398057 -0.085285507 0.99522853 0.0030410611
0.0044550737 0.016414154 0.016105251 0.047074325 -0.074040107 0.99614364 0.0032037892
0.0074809664 0.016333085 0.01599022 0.04038576 -0.0882743 0.99527717 0.002812084
0.010391447 0.016356848 0.015877573 0.043243475 -0.089412294 0.9950555 0.0024616234
0.013817725 0.015994804 0.015660267 0.050529242 -0.19593261 0.97931468 0.0015045495
0.016364763 0.016386723 0.015635312 0.039488725 -0.12083964 0.99188626 0.0019108944
0.019579699 0.015970146 0.01534217 0.073481217 -0.24162859 0.96758258 0.0015230248
0.022195758 0.016501354 0.015286607 0.075339034 -0.26217875 0.96207398 0.001386362
0.025400309 0.016992547 0.015216533 0.061827868 -0.21096557 0.97553617 0.0019202093
0.028412934 0.017554624 0.015109072 0.076531179 -0.26180327 0.96208215 0.0022868251
0.030613776 0.017769188 0.015057383 0.087328583 -0.2289203 0.96952015 0.0015446445
-0.042158019 0.02079335 0.015068716 -0.34130988 -0.52730292 0.77811265 0.0014048021
-0.04019133 0.020214191 0.015423162 -0.29141092 -0.49790251 0.8168065 0.0027118702
-0.037493359 0.019472403 0.015852582 -0.24854322 -0.46293548 0.85083318 0.0023778123
-0.034645911 0.019287158 0.01646024 -0.18560614 -0.41782668 0.88936567 0.0022740562
-0.031567678 0.019209599 0.016973225 -0.13616425 -0.3665697 0.92037272 0.0029500809
-0.02861201 0.019185519 0.017286563 -0.11550722 -0.33273765 0.93591869 0.0032751472
-0.025674496 0.018891154 0.017372161 -0.074948505 -0.31326371 0.94670403 0.0028497151
-0.022733232 0.018894194 0.017444236 -0.030893641 -0.24881239 0.96805888 0.0023062818
-0.019748153 0.019048523 0.017445177 0.0022267625 -0.13967036 0.99019557 0.003138293
-0.016373198 0.019020395 0.017304741 0.032925904 -0.063608825 0.99743158 0.0031971331
-0.013401881 0.019376988 0.017060833 0.070203692 0.032570925 0.99700081 0.0031095974
-0.010468594 0.019123746 0.016849577 0.078897528 0.075613759 0.99401098 0.0032356109
-0.0075183613 0.018942203 0.016636724 0.077875428 0.020845944 0.99674517 0.0024381757
-0.0044605322 0.019459108 0.016314222 0.073230222 0.11785885 0.99032652 0.0025925462
-0.0014187935 0.019399868 0.016108254 0.052569687 0.12573937 0.99066949 0.0021081574
0.0014423337 0.019142456 0.015993595 0.042625271 0.12281745 0.99151349 0.001972575
0.0045546242 0.019270146 0.015842265 0.035535756 0.12941132 0.99095404 0.0023245539
0.0077821943 0.019066839 0.015807133 0.029898603 0.054783382 0.99805057 0.0018546043
0.010749773 0.019190254 0.015742812 0.015063129 0.051736213 0.99854714 0.0021525598
0.013691429 0.019136794 0.015723253 0.027368821 0.045879073 0.99857199 0.0024225006
0.016476672 0.019240022 0.015711144 0.022944322 0.026045643 0.9993974 0.0027894443
0.019357396 0.019469136 0.015677379 0.012816603 0.0095435055 0.99987227 0.0023766712
0.022404658 0.019402402 0.015628714 0.027510408 -0.041535828 0.9987582 0.002090232
0.025567012 0.019481221 0.015534468 0.030401252 -0.079621196 0.99636149 0.001660401
0.028424699 0.019500986 0.015413478 0.033468511 -0.10317424 0.99410009 0.0015124745
0.031500272 0.019258399 0.015174759 0.087212227 -0.24398535 0.96584946 0.0015122608
0.034342792 0.020113122 0.015158681 0.095236018 -0.26603612 0.95924699 0.002137671
