# .PCD v0.7 - Point Cloud Data file format
VERSION 0.7
FIELDS x y z normal_x normal_y normal_z curvature
SIZE 4 4 4 4 4 4 4
TYPE F F F F F F F
COUNT 1 1 1 1 1 1 1
WIDTH 547
HEIGHT 1
VIEWPOINT 0 0 0 1 0 0 0
POINTS 547
DATA ascii
-0.013514448 -0.049460758 -0.0068533067 -0.032228149 0.29743007 -0.95419943 0.0058305883
-0.010523743 -0.049505863 -0.0070848945 -0.1304252 0.35008863 -0.92759222 0.0062600342
-0.0074242107 -0.049467895 -0.0076687257 -0.23883004 0.38964263 -0.88945985 0.0070041008
-0.0047328738 -0.049145643 -0.0083792517 -0.34716168 0.43879083 -0.82881927 0.0054047611
-0.0024929093 -0.048233081 -0.0087413331 -0.35080302 0.64301294 -0.68078738 0.0032880791
0.039826348 -0.048137873 -0.0080602309 0.44744715 0.88898981 -0.097407296 0.0073571056
-0.051949933 -0.046383101 -0.0075463131 -0.92355394 0.36029527 -0.13128383 0.069571622
-0.049610902 -0.045473058 -0.0079192305 -0.058070406 0.90956396 -0.41148663 0.020617669
-0.046231177 -0.046246801 -0.0078456393 0.053748231 0.67683691 -0.73416817 0.0333189
-0.043554451 -0.046090346 -0.0080717811 -0.17614788 0.54320824 -0.82091212 0.010810547
-0.040541194 -0.045730468 -0.0080958856 -0.21090077 0.58896786 -0.78015232 0.012583878
-0.036688842 -0.045156531 -0.008849008 -0.045115836 0.57001871 -0.82039213 0.013229461
-0.034442734 -0.045436207 -0.0085668862 0.1793032 0.59075433 -0.78667641 0.012505186
-0.03132866 -0.046079129 -0.0082550505 0.2197324 0.51207125 -0.83036178 0.007558757
-0.028511202 -0.046317916 -0.0076921154 0.20456976 0.54518956 -0.81296951 0.0086783441
-0.025601486 -0.046448559 -0.0070780651 0.17411466 0.51723164 -0.83794725 0.0079198629
-0.022602977 -0.046836484 -0.006741351 0.14438674 0.49646747 -0.85596293 0.006675961
-0.019599793 -0.047216754 -0.0064296476 0.12502947 0.50564849 -0.85363173 0.0055273287
-0.016465189 -0.047552485 -0.0062434427 0.066508278 0.5033403 -0.86152488 0.004483819
-0.01340899 -0.047715764 -0.0061818473 0.0012446344 0.52408642 -0.85166419 0.0042605884
-0.01039026 -0.047599379 -0.0062370948 -0.077872016 0.55261946 -0.82978773 0.0036661178
-0.0073560453 -0.047345985 -0.0064980318 -0.15524788 0.59238398 -0.79055631 0.0036265601
-0.0043235347 -0.046963375 -0.006953428 -0.2156779 0.61971039 -0.75461382 0.0037290237
-0.0014529793 -0.046493292 -0.0074773207 -0.261911 0.71500707 -0.64820331 0.0020099375
0.001319527 -0.045860633 -0.0079018446 -0.25944746 0.7677415 -0.58588392 0.0005682052
0.004088094 -0.045394037 -0.0085001653 -0.23177946 0.792234 -0.56448531 0.00027088408
0.0060633752 -0.045121219 -0.008736019 -0.21397945 0.80821592 -0.54863465 5.4494027e-05
0.032579515 -0.045110866 -0.0076142102 0.29478127 0.95521903 -0.0257036 0.0025428268
0.034411989 -0.045720052 -0.0075215111 0.33719271 0.94140434 0.0076758903 0.0034749084
0.037415788 -0.046817802 -0.0080062198 0.41687307 0.90882528 0.015923655 0.0029683616
-0.051484961 -0.044931903 -0.0063734124 -0.52164024 0.81463015 -0.25351351 0.052190434
-0.049717117 -0.04490136 -0.0064600124 -0.13036712 0.91456324 -0.3828558 0.05246992
-0.046715911 -0.044849873 -0.0062919757 0.018192727 0.8611635 -0.50800252 0.0066968501
-0.043551434 -0.044897605 -0.0064118016 -0.15388748 0.7776103 -0.60962349 0.010081041
-0.040269345 -0.043991785 -0.0071263127 -0.18293534 0.78580743 -0.59079713 0.0080890739
-0.037574157 -0.044038314 -0.007503862 -0.036790732 0.8030898 -0.59472114 0.0097161112
-0.034591172 -0.044286933 -0.0071963668 0.12959747 0.79289711 -0.5954147 0.0061853286
-0.031647712 -0.044513464 -0.0067990958 0.14361772 0.74769521 -0.64832544 0.0050338865
-0.028762246 -0.0446891 -0.0063162795 0.14539547 0.71874845 -0.67989767 0.0028265752
0.002034215 -0.044656586 -0.0065544373 -0.2357866 0.7834239 -0.57502317 0.0002412467
0.0045696278 -0.044326928 -0.0071559772 -0.21821879 0.80352485 -0.55383068 0.00014340998
0.0074663479 -0.043825809 -0.0074655036 -0.17842868 0.82170063 -0.54126817 0.00019426562
0.010508263 -0.043293785 -0.0075220377 -0.13453993 0.83690596 -0.53055388 7.5426775e-05
0.013462906 -0.042920902 -0.0075333077 -0.076533422 0.86171722 -0.50158364 0.00056532578
0.016504319 -0.042776108 -0.0076828785 -0.025278736 0.88177931 -0.47098449 0.0010995917
0.019556189 -0.042721719 -0.0076290513 0.053454321 0.91265094 -0.40522945 0.0024126114
0.022433864 -0.042967718 -0.0077374163 0.09226384 0.92941159 -0.35732546 0.0024372463
0.025313331 -0.043340232 -0.0076126014 0.13437672 0.94177788 -0.30821657 0.0017239316
0.02849553 -0.044085044 -0.0080611352 0.16339561 0.95048267 -0.26435691 0.0018902119
0.031053487 -0.044687755 -0.007844476 0.21204276 0.95827729 -0.19168335 0.0021183076
0.014580254 -0.04197016 -0.0062460639 -0.027670497 0.87314534 -0.48667401 0.0019938911
0.017066322 -0.041898426 -0.0061642267 0.023996703 0.9132942 -0.40659305 0.0031220713
0.018468978 -0.041943341 -0.0060943854 0.070016995 0.91187549 -0.40445116 0.0019964098
-0.036528792 -0.015704237 -0.0061942101 -0.45773652 -0.17840488 -0.87100452 0.015755288
-0.035318058 -0.016341658 -0.0062257336 -0.11693678 -0.18048126 -0.97660244 0.027101055
-0.036885742 -0.013369991 -0.0064621498 -0.50557303 -0.10337308 -0.85656869 0.011722018
-0.034967858 -0.013674502 -0.006763442 -0.22691342 -0.14424555 -0.96317363 0.015192316
-0.031929642 -0.013146122 -0.0062525533 0.20518957 -0.20556803 -0.95689029 0.00010860582
-0.037207469 -0.010425665 -0.0067478097 -0.54343671 -0.08661931 -0.83496928 0.015091382
-0.034846734 -0.010510783 -0.0073541068 -0.30169544 -0.12180544 -0.94559151 0.020841831
-0.031486861 -0.0106291 -0.0066988878 0.21065125 -0.18765704 -0.95938051 0.00021995702
-0.029196952 -0.010140441 -0.0062232241 0.24621665 -0.18584788 -0.95122969 0.00013634373
-0.037332252 -0.0074643628 -0.007000064 -0.62246531 -0.04011726 -0.78161854 0.022539621
-0.034717444 -0.0074540856 -0.0078452434 -0.31268057 -0.031895399 -0.9493227 0.049112748
-0.03149274 -0.0074422085 -0.0073064445 0.20968655 -0.15338188 -0.96566331 0.0004990045
-0.028541898 -0.0074533587 -0.0065221176 0.25830635 -0.15095317 -0.95419651 0.00011030871
-0.026687544 -0.0067198151 -0.0061380952 0.26127315 -0.14593261 -0.95416981 9.3321287e-05
-0.037523553 -0.0045652562 -0.0070921448 -0.66651297 0.00044851413 -0.74549329 0.058627341
-0.034744974 -0.0044962945 -0.0082233092 -0.34996554 0.030719845 -0.93625867 0.089381367
-0.031905983 -0.0045213872 -0.0078623425 0.022323342 -0.025243724 -0.99943203 0.051861424
-0.028484374 -0.0044783689 -0.0069126831 0.26394591 -0.10644493 -0.958646 9.6684809e-05
-0.026081871 -0.0041784858 -0.0062520336 0.26700386 -0.10504232 -0.95795363 7.6284712e-05
-0.037499987 -0.0015105712 -0.007247956 -0.76252717 -0.014208636 -0.64680016 0.065568872
-0.034818962 -0.0014460627 -0.0084489118 -0.68683481 -0.1492542 -0.71132344 0.11391992
-0.031480148 -0.0015611585 -0.0079804324 0.15593451 -0.043113474 -0.98682606 0.0067202426
-0.028583797 -0.0015400174 -0.007188845 0.2604773 -0.044986352 -0.96443141 0.00022069942
-0.025793865 -0.0013434992 -0.006421892 0.25972116 -0.052677751 -0.9642458 0.00028459047
-0.023918023 -0.00020391936 -0.0060214344 0.27892077 -0.044747263 -0.95927107 0.00081119238
-0.037454206 0.0015428633 -0.0072716922 -0.80736744 0.010662018 -0.58995265 0.082583837
-0.034831326 0.0015240423 -0.0084554926 -0.67131615 -0.019523174 -0.74091393 0.099424846
-0.031487368 0.0015098518 -0.0080020549 0.15493754 0.026304549 -0.98757404 0.0069629825
-0.02858771 0.0016784107 -0.0072120726 0.25675875 0.024433853 -0.96616662 0.00019105349
-0.025347784 0.001192363 -0.0063905492 0.25423291 0.026310218 -0.96678513 0.000285207
-0.023932697 0.00086941017 -0.0060385843 0.25760341 0.011480544 -0.96618253 0.00028124044
-0.037515953 0.0044639562 -0.007141558 -0.66877162 0.048175056 -0.74190539 0.045355808
-0.034732103 0.0045402609 -0.0083287479 -0.28481567 -0.01775209 -0.95841789 0.084249087
-0.031616431 0.0044157966 -0.0078383675 0.10302306 0.08979734 -0.99061733 0.012092143
-0.028571522 0.0045014918 -0.0070316959 0.24851359 0.080523625 -0.96527565 0.00012561285
-0.025714699 0.004207545 -0.0062991208 0.24816532 0.07262817 -0.96599126 0.00015655962
-0.037381813 0.0074345157 -0.0070108701 -0.65551525 0.023898516 -0.75480372 0.018781023
-0.034725584 0.0075318175 -0.007990309 -0.25883847 0.13185532 -0.95687866 0.045410369
-0.031428229 0.0071977996 -0.007515844 0.17967351 0.12388741 -0.97589409 0.0025390307
-0.028348988 0.0073432098 -0.0066885198 0.23524159 0.11887235 -0.9646402 0.00014442952
-0.026283739 0.007351201 -0.0061788387 0.23431227 0.11811002 -0.96496004 8.494185e-05
-0.037188023 0.010540414 -0.0068313177 -0.57054055 0.072498314 -0.81806332 0.016763818
-0.034722839 0.010517422 -0.007568948 -0.1904268 0.16017292 -0.96854645 0.031297501
-0.03153402 0.010418539 -0.0070622158 0.1943202 0.15272057 -0.96897686 0.00033465726
-0.028786218 0.010675081 -0.0063659307 0.22751176 0.1456784 -0.96281683 0.00011400997
-0.026865803 0.0094615277 -0.0060676895 0.23191953 0.13445552 -0.96339768 0.00014643963
-0.037041064 0.013444283 -0.0065257526 -0.51425993 0.10196378 -0.85155165 0.0157253
-0.03478403 0.013495773 -0.0070222863 -0.10137492 0.18392803 -0.97769809 0.020279905
-0.03162203 0.013369937 -0.0065396689 0.18501756 0.18430494 -0.96529794 0.00019662867
-0.029484443 0.013129715 -0.0061139353 0.2131388 0.17777276 -0.96071255 0.00011386381
-0.036689457 0.016007736 -0.0062522967 -0.38625327 0.19507565 -0.90152866 0.020599565
-0.034798954 0.016427308 -0.0064083724 -0.034682859 0.18810289 -0.98153681 0.012877415
-0.032179013 0.015671922 -0.0061545693 0.17546122 0.19917475 -0.96412796 0.00013130251
-0.035183471 0.018239718 -0.0060587786 -0.037999805 0.19748652 -0.97956878 0.012493025
-0.040535599 0.044382926 -0.0069526001 -0.18977933 -0.74614072 -0.63816762 0.010949901
-0.037697557 0.044368546 -0.0072219446 -0.060651239 -0.80308038 -0.592776 0.010274714
-0.035027754 0.044457488 -0.0067595164 0.12402771 -0.8102771 -0.57277238 0.0046422635
-0.031696931 0.044834159 -0.0065654516 0.13588305 -0.76147234 -0.63379461 0.003840385
-0.029734399 0.044991691 -0.0062824367 0.11913133 -0.73043925 -0.67250746 0.0016727796
0.0022949995 0.044954736 -0.0063844929 -0.22983314 -0.78665501 -0.57301897 0.0002234603
0.0049145711 0.044428568 -0.0066535813 -0.21894933 -0.79937327 -0.55952072 0.00021404021
0.0076527442 0.044311393 -0.007418422 -0.19012982 -0.81532478 -0.5468967 9.1558722e-05
0.010460673 0.043822061 -0.0075129792 -0.13435872 -0.8362456 -0.53163999 0.00015072121
0.013506344 0.043467999 -0.0075748512 -0.083998211 -0.85227549 -0.51630503 0.00023107629
0.016769078 0.043331761 -0.0077463309 -0.042448025 -0.86960852 -0.49191386 0.0006575727
0.019481739 0.043196056 -0.0074639376 0.034007557 -0.90604925 -0.42180368 0.0019153267
0.022545403 0.043625496 -0.0079487162 0.072339304 -0.92171556 -0.38106096 0.00081309304
0.025229648 0.043875232 -0.0075477851 0.10455319 -0.93246251 -0.34580687 0.0015384494
0.028279472 0.04453931 -0.0076340688 0.12879348 -0.92761993 -0.35061881 0.0008834388
-0.052006137 0.04675433 -0.0074110441 -0.95268786 -0.25121653 -0.17110252 0.065899283
-0.049428914 0.045810521 -0.0075112344 -0.035183139 -0.9103241 -0.41239813 0.034928385
-0.046114899 0.046864636 -0.0079038292 0.068505101 -0.35069802 -0.93397963 0.031523447
-0.043392818 0.046664104 -0.0081309751 -0.25202879 -0.54042733 -0.80275762 0.014226645
-0.040157113 0.04590353 -0.0081935069 -0.15413418 -0.6295681 -0.76150286 0.022690749
-0.037427261 0.045395225 -0.0076961289 0.029772647 -0.68476671 -0.72815388 0.011836296
-0.034291435 0.045670863 -0.0082263779 0.16957161 -0.62209171 -0.76436079 0.0084635168
-0.031159634 0.046990827 -0.0084212171 0.20252046 -0.36594599 -0.90833306 0.0062704775
-0.028905347 0.047209129 -0.0079721287 0.22064015 -0.34512755 -0.91225266 0.0051033776
-0.025444599 0.04702254 -0.0070962482 0.2073247 -0.38970259 -0.89730066 0.0051654154
-0.022356911 0.047446653 -0.0067605837 0.12984262 -0.41500422 -0.90050673 0.010421504
-0.019955784 0.047598913 -0.0063949861 0.13637203 -0.47582129 -0.86890548 0.0027139834
-0.017509246 0.047705472 -0.0061070705 0.088747285 -0.5405513 -0.83661711 0.0041363989
-0.014778524 0.047830611 -0.0060456232 0.039625928 -0.53362179 -0.84479439 0.0025724329
-0.010166284 0.047897678 -0.0060879206 -0.083124503 -0.58480674 -0.80690235 0.0027239691
-0.0072990977 0.047536504 -0.0062693409 -0.15031609 -0.61717576 -0.77233356 0.0027644353
-0.0043789786 0.047328126 -0.0068067517 -0.20909284 -0.6434828 -0.73634911 0.0034489881
-0.0014192964 0.046909224 -0.0073796161 -0.28662288 -0.67977625 -0.67509371 0.0029142015
0.0013194951 0.046256389 -0.0077140066 -0.25806886 -0.77402341 -0.57817662 0.00058250298
0.004128559 0.045562927 -0.0079988996 -0.22832817 -0.79600525 -0.56057274 0.00020455271
0.0072926572 0.04521326 -0.0086977007 -0.18227056 -0.81881511 -0.54435217 0.00013497638
-0.052215442 0.049511101 -0.0074866735 -0.99529111 -0.090485021 -0.034757197 0.039561663
-0.048044529 0.048148196 -0.0089363679 0.3299073 -0.56327581 -0.75754976 0.035638433
-0.046631448 0.04949582 -0.0088637825 0.0016140001 -0.11223519 -0.99368036 0.031995248
-0.044733886 0.048059918 -0.0088949781 -0.16943483 -0.16147536 -0.97222298 0.0067302445
-0.028186008 0.049274676 -0.0086734779 0.24188413 -0.1879108 -0.95193577 0.0065240241
-0.025436984 0.049628284 -0.0081589958 0.19660588 -0.12770995 -0.97212976 0.0051862686
-0.022717381 0.049628314 -0.0076584532 0.18202685 -0.18444279 -0.96584016 0.0097378939
-0.019485164 0.049548369 -0.007089918 0.12652031 -0.27114969 -0.95418578 0.0071623302
-0.016504794 0.049590096 -0.0068018897 0.059915099 -0.30776161 -0.94957507 0.0058397898
-0.01345184 0.049616385 -0.0067247362 -0.017434435 -0.35363665 -0.93522036 0.0050588432
-0.010386069 0.049517568 -0.0068921824 -0.12327845 -0.38162398 -0.91605979 0.0044945637
-0.0073969699 0.049547728 -0.0074615036 -0.23411283 -0.43921062 -0.86734372 0.0062955711
-0.0046601039 0.049341667 -0.0082124965 -0.31005204 -0.50646651 -0.80458647 0.0056754039
-0.00228907 0.048476886 -0.008599828 -0.35251933 -0.61117041 -0.70866132 0.0046315198
-0.052084487 0.052480828 -0.0074750558 -0.93668574 0.33733308 -0.093947753 0.082408987
-0.048139855 0.053145047 -0.0086509818 0.36669943 0.5193767 -0.77186751 0.044430967
-0.046437126 0.052674763 -0.0086206552 0.0038775755 0.26525679 -0.96416998 0.028883366
-0.043875366 0.053665098 -0.0087980004 -0.22049078 0.39578801 -0.89147949 0.020147672
-0.0410023 0.053911727 -0.0089066429 -0.22773917 0.51415884 -0.82690722 0.0080264313
-0.030242955 0.053550534 -0.0088980449 0.20281018 0.19086012 -0.96043766 0.0036235433
-0.028319299 0.052880857 -0.0087399073 0.19376244 0.14990182 -0.9695285 0.0042565204
-0.025254915 0.052491043 -0.0082110064 0.17290594 0.10030122 -0.97981799 0.0035229318
-0.02273339 0.05281182 -0.0078069954 0.11444501 0.096448846 -0.98873651 0.0068675983
-0.019715834 0.052539706 -0.007431529 0.10179602 0.018418899 -0.99463481 0.0054639447
-0.01666704 0.052603308 -0.0072571095 0.012866306 -0.0048348317 -0.99990553 0.0066548828
-0.013396699 0.052520689 -0.0073299613 -0.071271002 -0.088225007 -0.99354756 0.0071230638
-0.010348649 0.052524041 -0.0077239512 -0.21956776 -0.1486973 -0.96419871 0.0062724422
-0.0075950734 0.052510377 -0.0084430249 -0.33447585 -0.21533935 -0.91747195 0.0071262051
-0.0057451334 0.051363222 -0.008752238 -0.37185666 -0.33069938 -0.86738724 0.010508476
-0.051671356 0.054984096 -0.007371115 -0.79823732 0.59141314 -0.11422614 0.070064217
-0.049771558 0.055543382 -0.0077252104 -0.10466079 0.91657656 -0.38591895 0.073532805
-0.045977499 0.055144489 -0.0071157957 0.041346084 0.77512413 -0.6304546 0.026671417
-0.043591589 0.055068582 -0.0075432342 -0.22955184 0.73107427 -0.64252341 0.02834007
-0.040418308 0.055694845 -0.007842252 -0.32007203 0.66883177 -0.67098272 0.027432116
-0.037527233 0.05638269 -0.0085046003 -0.084747799 0.67088425 -0.73670352 0.011151947
-0.034423757 0.056276273 -0.0084446697 0.087184303 0.55598652 -0.82660621 0.0070821545
-0.031529669 0.055865765 -0.0082919002 0.12399865 0.46506292 -0.8765505 0.0068385298
-0.028510353 0.055581633 -0.0079956865 0.12426111 0.39050362 -0.91217661 0.0048791678
-0.025379477 0.055474326 -0.0075752991 0.11473756 0.38927066 -0.91394949 0.0082908859
-0.022475742 0.055604491 -0.0072042183 0.089422554 0.32253477 -0.94232422 0.0061407681
-0.019529173 0.055497039 -0.0069921431 0.04800567 0.27188694 -0.96113104 0.0051692259
-0.016454937 0.055593327 -0.0069341739 -0.022627996 0.22256318 -0.97465563 0.0044703525
-0.013443631 0.055505361 -0.0071837376 -0.11974153 0.18201171 -0.97597837 0.0050938404
-0.010444666 0.055551201 -0.0077530355 -0.27595282 0.088561229 -0.95708251 0.0053887912
-0.0079657128 0.055570826 -0.0085806949 -0.42162684 0.045435138 -0.90563047 0.005477753
-0.040350709 0.057372194 -0.0068152454 -0.3187919 0.76279873 -0.56259209 0.016397022
-0.037536278 0.057509344 -0.007135374 -0.11071417 0.79022819 -0.60272861 0.0071945987
-0.034581285 0.057612818 -0.007077063 0.0056040143 0.77812743 -0.62808132 0.0078336708
-0.031626176 0.057780758 -0.0067980494 0.034346029 0.69821614 -0.71506268 0.010419734
-0.028581535 0.057715114 -0.0067002061 0.046926577 0.69233841 -0.72004539 0.0077118245
-0.025534963 0.057607383 -0.0065499507 0.046184443 0.61972874 -0.78345603 0.0065432172
-0.022561433 0.05760093 -0.0063556619 0.031390578 0.55676031 -0.83007985 0.0063288105
-0.019466937 0.057536442 -0.0062854737 -0.0040006805 0.49928838 -0.86642659 0.0061553423
-0.016517559 0.057683617 -0.0063104588 -0.067087218 0.43772933 -0.89660043 0.0059880558
-0.013379068 0.058153491 -0.0064945798 -0.15926991 0.38655901 -0.90840811 0.0066580414
-0.010494848 0.058536172 -0.0070580803 -0.27537963 0.33823785 -0.89986736 0.0069085746
-0.0076430351 0.058578271 -0.0082539087 -0.45446569 0.24922906 -0.85518759 0.0062121195
-0.0058105355 0.059679635 -0.0088601578 -0.58672369 0.27287403 -0.76242709 0.0047729001
-0.0098048029 0.060613465 -0.0063419887 -0.32815653 0.51736259 -0.79034752 0.0044326964
-0.0072983634 0.061317831 -0.0072081895 -0.440202 0.46680757 -0.76701552 0.0055634207
-0.0052035539 0.061846573 -0.008400999 -0.59954834 0.39223599 -0.69763368 0.0046640388
-0.0063923337 0.063276261 -0.0063397507 -0.5082382 0.57025939 -0.64536673 0.0012478324
-0.0042801942 0.064240165 -0.0073167342 -0.56277823 0.52963853 -0.63463664 0.0013004231
-0.0023850165 0.06518998 -0.0083357627 -0.6007486 0.55829763 -0.57219303 0.00038992512
-0.0033218395 0.06627474 -0.0062795826 -0.56902677 0.57794118 -0.5849722 0.00034237199
-0.0013381714 0.067282274 -0.0073693027 -0.58832651 0.58537078 -0.55786461 0.00022183557
0.00064183021 0.068382241 -0.0083020581 -0.5752973 0.60986215 -0.54506981 0.00015845893
-0.000239751 0.06933561 -0.0062333941 -0.56827027 0.61343366 -0.54842335 0.00018132241
0.0017124033 0.070169188 -0.0073025324 -0.5517869 0.64003754 -0.53468049 0.00021827528
0.0037795082 0.071244262 -0.0081533957 -0.53702611 0.65856022 -0.52716357 0.00015500774
0.0026451761 0.072066717 -0.0061803968 -0.52676398 0.668257 -0.52531177 0.00043439696
0.0048080003 0.072819807 -0.0071408711 -0.51200831 0.68678015 -0.5159269 0.00033877735
0.0071482682 0.074003786 -0.0077956938 -0.47411111 0.72819299 -0.49492776 0.000577175
0.0093146674 0.074693456 -0.008834213 -0.4598836 0.74206257 -0.487699 0.00060673838
0.0082401019 0.075374 -0.0067830123 -0.44349927 0.77450573 -0.45105347 0.0014605901
0.010461415 0.076164834 -0.007546728 -0.41544381 0.80419177 -0.42506713 0.0018023505
0.013158157 0.077382945 -0.0077990238 -0.38708222 0.85410219 -0.34738582 0.0017596124
0.015274068 0.07784611 -0.0088967616 -0.39213502 0.85147399 -0.34816989 0.0057252562
0.014200347 0.07815253 -0.0068274327 -0.36206996 0.88394105 -0.29589447 0.0030825343
0.016360926 0.078727745 -0.0076035294 -0.32117817 0.91222084 -0.25435752 0.0019780861
0.019248152 0.079636149 -0.0077057271 -0.29199961 0.94104308 -0.17080456 0.0023139191
0.022439683 0.080491833 -0.0079393806 -0.27759546 0.95234823 -0.12638661 0.0028163756
0.024436457 0.080888964 -0.007325958 -0.22203119 0.97491205 -0.015770601 0.0031102835
0.034156978 0.080812052 -0.0062712803 0.20111014 0.97574788 0.086433493 0.0044117207
0.026115233 0.081311665 -0.0079074576 -0.17919531 0.98234344 -0.053763054 0.0039165393
0.027797086 0.08149378 -0.0071670674 -0.15979519 0.9871096 -0.0089527406 0.0031599058
0.031263709 0.081551239 -0.0077358931 0.074627072 0.99467814 0.071037166 0.0030709498
0.033612467 0.081240267 -0.0087589417 0.18162473 0.98334086 0.0073018665 0.003890051
0.014900454 -0.078265123 -0.0048581604 -0.31553429 -0.92839193 -0.19628181 0.00044053508
0.015036304 -0.078138635 -0.0059413686 -0.32106137 -0.91005081 -0.2621586 0.00072911347
0.01820986 -0.079067141 -0.0059511103 -0.32365409 -0.91124684 -0.25471035 0.00093041291
0.0057959035 -0.075306162 -0.0034101992 -0.44422427 -0.80441225 -0.3944436 0.0020502242
0.007700352 -0.075717404 -0.0045039617 -0.41623595 -0.81942129 -0.39407656 0.0011779394
0.010647191 -0.076883897 -0.0047144033 -0.37935686 -0.86554587 -0.32698423 0.0011664775
0.012672644 -0.077426791 -0.0055771722 -0.38567388 -0.86151105 -0.33023381 0.0015663652
0.0021035653 -0.07274349 -0.0040010149 -0.50214708 -0.70040417 -0.50722998 0.0011075172
0.004237595 -0.073672846 -0.0047598165 -0.47868961 -0.74117315 -0.47065765 0.0015689696
0.0064483946 -0.074617296 -0.0054694265 -0.47113118 -0.75036645 -0.4636654 0.00060845318
-0.001100761 -0.069965258 -0.0040479954 -0.54231519 -0.62561488 -0.56080317 0.00028511524
0.00077079982 -0.070727609 -0.0050427318 -0.54062748 -0.6440711 -0.54119718 0.00031427352
-0.00640534 -0.066272169 -0.0031875707 -0.46229538 -0.61474001 -0.6390444 0.00078735157
-0.0043269806 -0.066966422 -0.0042067082 -0.5176006 -0.59813893 -0.61181647 0.00054380758
-0.0023349684 -0.067753159 -0.005261743 -0.56179518 -0.60088587 -0.56861454 0.00027586034
-0.0099560013 -0.063566998 -0.0034722034 -0.36188847 -0.61423123 -0.70125365 0.00088723516
-0.0074149952 -0.06415423 -0.0043826518 -0.44821095 -0.5855478 -0.67545593 0.00082352507
-0.005109455 -0.065018833 -0.0053239646 -0.53311288 -0.57934391 -0.61656415 0.00076099113
-0.024487168 -0.060003217 -0.003369916 -0.055198975 -0.76964152 -0.63608575 0.0020257807
-0.022731354 -0.060162548 -0.0033856516 -0.079347305 -0.74239028 -0.66525245 0.0012959931
-0.019616276 -0.060436804 -0.0034928061 -0.10051011 -0.70026952 -0.7067675 0.0017600666
-0.016303148 -0.060706321 -0.0038195872 -0.15242775 -0.65175152 -0.74295741 0.0021975664
-0.012826282 -0.061003312 -0.0044928179 -0.25904799 -0.59095109 -0.76398355 0.0043207724
-0.010452955 -0.06170949 -0.0048082098 -0.33412531 -0.59391648 -0.73186308 0.0025436745
-0.0082911355 -0.062227 -0.0055049197 -0.42317137 -0.56388682 -0.70919508 0.0021783651
-0.042895984 -0.057445407 -0.0038968271 -0.25403962 -0.92663985 -0.27713266 0.077112637
-0.040692687 -0.057874627 -0.0044900915 -0.11823877 -0.97041708 -0.21050029 0.10983362
-0.037530996 -0.058466475 -0.0040970733 -0.11674687 -0.88954735 -0.44167382 0.0463547
-0.034341574 -0.058788672 -0.0040819268 -0.069998965 -0.88231879 -0.4654178 0.00078960432
-0.031514429 -0.05868854 -0.0046816519 -0.049218945 -0.83027446 -0.55517733 0.0044165957
-0.02856376 -0.058979053 -0.0044677998 -0.045341 -0.83129388 -0.55398077 0.0015009524
-0.025635157 -0.05889605 -0.0047275415 -0.0017294411 -0.72809631 -0.68547273 0.0056836065
-0.022476971 -0.058784582 -0.0049864873 -0.020355403 -0.6535781 -0.75658524 0.0052244873
-0.019523045 -0.05829462 -0.0055060647 -0.018227482 -0.41086087 -0.91151583 0.0037261387
-0.016616473 -0.058718342 -0.0054641906 -0.082922354 -0.44724753 -0.890558 0.0033604978
-0.013828401 -0.059379142 -0.0054979608 -0.17593865 -0.45461851 -0.87313658 0.005673673
-0.011553363 -0.059819642 -0.0058379434 -0.28708103 -0.496932 -0.81892806 0.0044443775
-0.051364481 -0.054876577 -0.0045258682 -0.97699934 -0.21281555 0.013477328 0.010599113
-0.049298435 -0.056168351 -0.0034134989 -0.46998775 -0.82698733 -0.3085506 0.081189267
-0.045904003 -0.055791818 -0.0049584177 -0.082547553 -0.92679721 -0.36637789 0.021196961
-0.043014456 -0.056586247 -0.0039533339 -0.25407669 -0.92666042 -0.27702996 0.076970503
-0.040921751 -0.05619657 -0.0052993326 -0.14420493 -0.96068215 -0.23726538 0.079353593
-0.037813213 -0.056118201 -0.0036064996 -0.41072974 -0.90806526 0.081967399 0.089502782
-0.051733341 -0.05244714 -0.0044315564 -0.99098915 -0.13228071 0.021029793 0.0071000266
-0.051918302 -0.049347881 -0.0044550444 -0.99947691 0.025347194 0.020085292 0.0021329003
-0.051781029 -0.046493005 -0.0044362345 -0.92796284 0.34150219 -0.14920209 0.062104594
-0.024573885 -0.045177404 -0.0058810879 0.14912096 0.6416108 -0.75239521 0.0054235044
-0.022330964 -0.045490306 -0.0057217502 0.13408735 0.63787091 -0.75838071 0.0018404829
-0.01939832 -0.045677055 -0.0053547793 0.11613142 0.61113447 -0.78296119 0.0021184459
-0.016484147 -0.046025839 -0.0052603595 0.0715295 0.56587869 -0.8213799 0.0044443649
-0.013434886 -0.046127539 -0.0051337713 0.016065154 0.57260269 -0.81967556 0.0037348624
-0.010572945 -0.046055436 -0.0051210639 -0.050917763 0.60663915 -0.79334497 0.0024934483
-0.0076280832 -0.04588503 -0.0052677267 -0.11126828 0.65412545 -0.74815726 0.0016842188
-0.0046140868 -0.045453157 -0.0054023415 -0.15636304 0.71009248 -0.68652695 0.0011770601
-0.0017873569 -0.045156989 -0.0057352395 -0.19871686 0.74757767 -0.63375014 0.0013199792
0.032327291 -0.045277078 -0.0040318761 0.36979377 0.91992348 0.13035841 0.0024781544
0.034042966 -0.045910392 -0.0046130698 0.36021242 0.93125415 0.054888267 0.0013448157
0.037362572 -0.047387701 -0.0048167477 0.38591585 0.92169052 0.039441615 0.0013836471
-0.051417444 -0.044450518 -0.0044244472 -0.68150997 0.71133268 -0.1719014 0.043295186
-0.049461018 -0.044220161 -0.0045126709 -0.20073742 0.93126035 -0.30407017 0.037702445
-0.046520483 -0.044242293 -0.0045790705 -0.061342053 0.90254581 -0.42620206 0.0094430195
-0.043176521 -0.043578636 -0.0042429003 -0.26141706 0.81571496 -0.51601386 0.011441211
-0.040902108 -0.043107063 -0.0048060636 -0.16291735 0.79461753 -0.58484262 0.011663082
-0.037475321 -0.042669367 -0.0046170284 -0.026116641 0.8170709 -0.57594532 0.011134043
-0.034463998 -0.042825896 -0.0046317275 0.020077787 0.76311082 -0.64595568 0.010176127
-0.031494409 -0.043077976 -0.0045890287 0.10204132 0.75095415 -0.65242267 0.0074909292
-0.02842086 -0.043265358 -0.0043632318 0.070883758 0.68747216 -0.72274297 0.0064526624
-0.025477834 -0.043576743 -0.0042939298 0.11484712 0.65345871 -0.74819899 0.0032661783
-0.022545701 -0.043773562 -0.0040415777 0.12064333 0.61633569 -0.77818733 0.0028651145
-0.019472321 -0.043957416 -0.0037399204 0.10073563 0.60824186 -0.78733361 0.0022279276
-0.016484752 -0.044300336 -0.0037168509 0.071121275 0.61678261 -0.78391391 0.00066660991
-0.013538915 -0.044331867 -0.0035455024 0.026770756 0.60915488 -0.79259926 0.0013570989
-0.010308966 -0.044356942 -0.003595643 -0.028491726 0.63582301 -0.77130878 0.00057819107
-0.0072981562 -0.044249043 -0.0037342834 -0.07123249 0.6553095 -0.75199425 0.0011282867
-0.0043348395 -0.044040401 -0.0039400216 -0.10229114 0.68978041 -0.71675611 0.0014863983
-0.0013741323 -0.043903362 -0.0043249032 -0.15371752 0.7573697 -0.63463533 0.0015952954
0.0014899611 -0.043401763 -0.0045489226 -0.20123768 0.7775417 -0.5957619 0.00071634335
0.0044392548 -0.042789191 -0.0048969421 -0.2011807 0.8033967 -0.56042844 0.0002721546
0.0073298006 -0.042510685 -0.0054341312 -0.15883629 0.82593852 -0.54092205 0.000204304
0.010113627 -0.042180765 -0.0056357258 -0.12002292 0.8440057 -0.52273214 0.00024381757
0.012546298 -0.042084415 -0.0058850162 -0.071172282 0.85647535 -0.51125783 0.0006425032
0.020675611 -0.042107478 -0.0058481749 0.087047465 0.94107646 -0.32679948 0.0026263085
0.022819331 -0.042279273 -0.0050837006 0.14853668 0.94654202 -0.28634775 0.0014641242
0.025231715 -0.042827152 -0.0049248086 0.19708176 0.95661348 -0.21459116 0.0018455568
0.028429223 -0.043761451 -0.0046654316 0.30312231 0.95241702 -0.031916954 0.0020399352
0.031124184 -0.044737387 -0.0043792715 0.31557214 0.94849873 0.027648013 0.0012130364
-0.043120105 -0.041994911 -0.0030002166 -0.2814033 0.74752963 -0.60167408 0.018680694
-0.040100113 -0.041856896 -0.0030918729 -0.19323026 0.7775352 -0.59841543 0.017683323
-0.037448112 -0.041723389 -0.0032316137 -0.04073083 0.48145446 -0.87552422 0.025470635
-0.034406226 -0.041588169 -0.00323404 0.010982153 0.42754972 -0.90392512 0.021452799
-0.031693097 -0.041710138 -0.003190754 0.052708969 0.50502443 -0.86149406 0.016042858
-0.029227361 -0.041898277 -0.0031446239 0.047860049 0.56411946 -0.82430494 0.015258306
-0.026769862 -0.041918471 -0.0030945309 0.03190114 0.53545201 -0.84396291 0.018112553
0.004846619 -0.04167309 -0.0034326829 -0.17487997 0.7929371 -0.58366764 0.00091937906
0.0077021499 -0.041496057 -0.0039429259 -0.13222551 0.83315116 -0.53700614 0.00040651066
0.010607623 -0.041194826 -0.0041787918 -0.078367002 0.86461335 -0.4962886 0.0012718478
0.013496835 -0.041149829 -0.0045010322 -0.012271024 0.89821845 -0.4393782 0.0021114924
0.016352547 -0.041322093 -0.0047634323 0.031611998 0.92052025 -0.38941377 0.0028927301
0.019308114 -0.041503727 -0.0044540106 0.092536576 0.93632954 -0.33870926 0.0023018532
0.021604437 -0.041878868 -0.0044025867 0.18760535 0.95497257 -0.22985132 0.0013131276
-0.03692973 -0.031107834 -0.0031559048 -0.17767414 -0.12517665 -0.97609574 0.019581636
-0.034928102 -0.030950611 -0.0030829713 0.040704597 -0.11584767 -0.99243259 0.002813888
-0.037509527 -0.02837456 -0.00342682 -0.26804826 -0.078273058 -0.96022052 0.018755423
-0.034595411 -0.028542742 -0.0034187722 0.031327207 -0.14703035 -0.98863578 0.0048847175
-0.032318693 -0.028040549 -0.0031170726 0.13494354 -0.14751935 -0.9798103 0.00025722056
-0.039059523 -0.024281083 -0.0034135187 -0.65108168 -0.084982246 -0.75423515 0.016217321
-0.037712522 -0.025462968 -0.0038133159 -0.41013217 -0.076224506 -0.90883523 0.033112664
-0.034395646 -0.025640124 -0.0039368551 0.050013315 -0.18302043 -0.98183614 0.0040124999
-0.031355321 -0.025492979 -0.0034106669 0.14804873 -0.16799746 -0.97460687 0.00021628209
-0.029096587 -0.025128307 -0.0031498477 0.12727749 -0.15508182 -0.97966844 0.00022026303
-0.026831534 -0.024446048 -0.003016605 0.099446826 -0.12343989 -0.98735654 0.00015512489
-0.039262276 -0.022579992 -0.0032795549 -0.82752377 -0.030225497 -0.56061655 0.037433557
-0.037646875 -0.022494832 -0.0043613981 -0.52324235 -0.10479054 -0.84571654 0.034276936
-0.035025619 -0.022170609 -0.0048402622 -0.16347094 -0.19081627 -0.96791857 0.021092407
-0.031285733 -0.022443444 -0.0039972807 0.17314664 -0.19263054 -0.96587461 0.00032154855
-0.028315408 -0.022722058 -0.0034531814 0.14132346 -0.1641027 -0.9762674 0.00020894311
-0.02569188 -0.022019798 -0.003194402 0.1372249 -0.14235467 -0.98025727 0.00022051857
-0.023474853 -0.021262676 -0.0030087263 0.1317475 -0.11362982 -0.98474914 0.00015165974
-0.039421231 -0.019468768 -0.0034452463 -0.90822458 -0.0062907171 -0.41843575 0.024638047
-0.03772204 -0.019439209 -0.0048706383 -0.58825833 -0.14871395 -0.79488134 0.042212162
-0.035030883 -0.019267166 -0.0055050892 -0.10351233 -0.20552631 -0.97316194 0.028777963
-0.031553127 -0.019410159 -0.0046996111 0.19796674 -0.2135136 -0.95667195 0.00010108355
-0.028242951 -0.019719677 -0.003998131 0.17515829 -0.18255703 -0.96746701 0.00041049509
-0.025309511 -0.019447515 -0.0035431813 0.1497878 -0.15451352 -0.97657013 0.00020588638
-0.022774665 -0.019295355 -0.0031651033 0.15445125 -0.13390331 -0.9788844 0.00024024425
-0.039363202 -0.016586388 -0.0038057931 -0.94947809 -0.024179967 -0.31290045 0.03383344
-0.037874598 -0.016637903 -0.0052725174 -0.67891032 -0.12686642 -0.72317749 0.036977839
-0.033822969 -0.016867166 -0.0058119623 0.073650546 -0.22800918 -0.97086942 0.0092251627
-0.031584308 -0.016677631 -0.0053716167 0.18734434 -0.21096574 -0.95937252 0.002304245
-0.028523054 -0.016730998 -0.0046534613 0.20839185 -0.20367064 -0.95660394 0.00021297875
-0.025507949 -0.01672147 -0.004052063 0.18989539 -0.16982524 -0.96700519 0.00031387119
-0.02250796 -0.016791483 -0.0034815706 0.1797585 -0.13687921 -0.97414112 0.00019571155
-0.0199719 -0.015760135 -0.0031495597 0.17841069 -0.11428288 -0.97729677 0.0001288554
-0.039268773 -0.013828234 -0.0041989796 -0.94056296 -0.061412796 -0.33402076 0.034277745
-0.03837499 -0.013576847 -0.0051789903 -0.79665363 -0.085388318 -0.59837431 0.033953249
-0.030958934 -0.014229957 -0.0057771327 0.21579598 -0.2103872 -0.95350373 8.7667053e-05
-0.028252363 -0.014047173 -0.005206007 0.21438283 -0.1880939 -0.9584679 0.00013279209
-0.025524238 -0.013616232 -0.0046112286 0.22588876 -0.17897551 -0.95757097 0.00028624438
-0.022319382 -0.013678086 -0.003903602 0.20347188 -0.13971479 -0.96906084 0.00024597457
-0.020015195 -0.013854817 -0.0033975244 0.19060853 -0.11831038 -0.97451067 0.00010215663
-0.017811488 -0.012691386 -0.0030556116 0.19370647 -0.10363058 -0.97557086 0.00010328194
-0.039155718 -0.010693179 -0.0045919451 -0.97044796 0.029685706 -0.23947755 0.023181686
-0.038528547 -0.01042275 -0.0050134468 -0.92005777 0.012417309 -0.39158586 0.024875084
-0.027930733 -0.011039885 -0.0057121227 0.24385403 -0.17895003 -0.95315903 0.00015389806
-0.025484737 -0.01049792 -0.00516622 0.24641918 -0.16231346 -0.95547473 0.00014700819
-0.022513805 -0.01052459 -0.0043980777 0.22960414 -0.14017943 -0.96313637 0.0002116845
-0.01898895 -0.010957141 -0.0035405823 0.21246196 -0.10664077 -0.97133297 9.2318711e-05
-0.017094728 -0.010399544 -0.0031398139 0.21551903 -0.10612938 -0.97071528 7.9194848e-05
-0.039055705 -0.0069617792 -0.0050677992 -0.95436621 0.033760723 -0.29672459 0.028732067
-0.038544893 -0.0075887409 -0.0047046281 -0.96384108 -0.010422697 -0.26627386 0.026155932
-0.025363814 -0.007420809 -0.0056311134 0.26209092 -0.1399031 -0.95484841 0.00010395983
-0.022504419 -0.0076122219 -0.004816141 0.25498995 -0.12866904 -0.95834464 8.6944885e-05
-0.019484125 -0.0075775017 -0.0040327674 0.2401108 -0.11584316 -0.96380872 6.9695132e-05
-0.016734015 -0.0075090891 -0.0033637802 0.23155025 -0.10107432 -0.96755803 3.9967996e-05
-0.014922228 -0.0065026945 -0.0030668252 0.22609001 -0.091313675 -0.96981704 5.2009309e-05
-0.039442081 -0.0042310916 -0.0043190462 -0.94970542 0.020924106 -0.31244478 0.03643113
-0.038300764 -0.0042695459 -0.004718733 -0.89797962 0.072360262 -0.43404672 0.062607743
-0.035157222 -0.0034188677 -0.0044011637 -0.70755082 0.6817342 -0.18603872 0.13924061
-0.024671029 -0.0047224485 -0.0057888497 0.27217281 -0.10557672 -0.95643902 8.0493664e-05
-0.022443267 -0.0044952948 -0.0051920693 0.26355609 -0.10723497 -0.95866513 4.3135573e-05
-0.019528832 -0.0045754313 -0.0043958966 0.25327721 -0.10247418 -0.96195102 4.0608262e-05
-0.016541056 -0.0047863913 -0.0036000176 0.2427336 -0.092631347 -0.96566039 4.4437002e-05
-0.014405789 -0.0042567216 -0.0031155208 0.238516 -0.085835338 -0.96733785 3.7831865e-05
-0.039414722 -0.0015565152 -0.0035892806 -0.89634383 0.04833591 -0.4407168 0.033587962
-0.037648808 -0.001477045 -0.0038934869 -0.83174241 0.12842169 -0.54010409 0.068014942
-0.034935094 -0.0015821462 -0.004330162 -0.72465324 0.33789006 -0.60058981 0.15873657
-0.024664486 -0.0024477576 -0.0059957202 0.27351964 -0.057788674 -0.9601289 0.0002359198
-0.022570485 -0.001452839 -0.0055269077 0.26493621 -0.060657889 -0.96235621 0.00022570061
-0.019399088 -0.0015901655 -0.0046570175 0.26147607 -0.061008591 -0.96327996 0.00018747911
-0.016233563 -0.0017487159 -0.0038302082 0.25522313 -0.048831932 -0.96564829 0.00020691963
-0.013909224 -0.0014508315 -0.0032152431 0.24685626 -0.057097435 -0.9673686 0.00013248809
-0.039505988 0.0015593702 -0.0035655156 -0.91792923 -0.089767262 -0.38645536 0.02978153
-0.037783455 0.0014484326 -0.0038473606 -0.80319548 -0.11845919 -0.58381879 0.067589559
-0.034940291 0.0013733518 -0.0043255836 -0.9523496 -0.24613531 -0.18013228 0.22810024
-0.02229693 0.0015736873 -0.0055453568 0.25497386 0.022242136 -0.96669209 0.00034314871
-0.019879976 0.0018481055 -0.0048950729 0.25594169 0.020148339 -0.96648216 0.00033039061
-0.016452089 0.001527732 -0.0039810608 0.25179514 -0.0020234683 -0.96777844 0.00014761371
-0.01370958 0.0015121363 -0.0032632593 0.25026521 -0.0042004818 -0.96816826 0.00018728025
-0.039431769 0.0046819025 -0.0043440606 -0.94814587 -0.017880298 -0.31733227 0.032671545
-0.038664173 0.004895309 -0.0048429398 -0.92958772 -0.075708672 -0.36074221 0.046052966
-0.035433128 0.0030470868 -0.0039207824 -0.57760477 -0.50269794 -0.64316994 0.12611631
-0.024574112 0.0054680333 -0.0059413025 0.24329616 0.076159947 -0.96695739 0.00016365729
-0.02259101 0.0043803127 -0.0054936502 0.24917141 0.060148586 -0.96658975 0.00012611602
-0.019467104 0.0044184499 -0.0047093872 0.24532871 0.056934875 -0.96776658 4.6276928e-05
-0.016641488 0.004885606 -0.0039492967 0.24298428 0.05461891 -0.96849132 4.2493168e-05
-0.013953466 0.0043889768 -0.0032491307 0.24824238 0.039734919 -0.96788269 4.7468806e-05
-0.039042696 0.0076006427 -0.0049566142 -0.96316522 0.015867896 -0.26844186 0.027098246
-0.038533781 0.0074804942 -0.0045793005 -0.97694308 0.044898633 -0.20872557 0.024706671
-0.024893895 0.0080924705 -0.0057684318 0.2283307 0.11581895 -0.96667016 7.3474621e-05
-0.022422653 0.0074559581 -0.0052077211 0.23884715 0.094315648 -0.96646601 9.377017e-05
-0.019431084 0.0074018314 -0.0044718604 0.24154413 0.082649127 -0.96686375 5.5428303e-05
-0.016018091 0.007085118 -0.0036483963 0.23885062 0.072064281 -0.9683786 4.6218996e-05
-0.014171657 0.0073191631 -0.0031744197 0.23335601 0.069864146 -0.96987832 3.829788e-05
-0.039190609 0.011030425 -0.0045478395 -0.94214827 0.039138366 -0.33290368 0.034416575
-0.038609963 0.010463494 -0.005004155 -0.91281205 -0.004124789 -0.4083592 0.025132472
-0.027447235 0.01132719 -0.0059186229 0.22508046 0.1464341 -0.96327347 0.00014444144
-0.025963657 0.011005553 -0.0056443089 0.2268599 0.1407728 -0.96369994 0.00012597359
-0.022520207 0.010325875 -0.0049463683 0.23025714 0.12126156 -0.96554506 0.00020022866
-0.019590929 0.010754767 -0.0042039976 0.22847541 0.10688602 -0.96766442 0.00010880687
-0.016685326 0.010318266 -0.0035147592 0.23189038 0.092091009 -0.96837294 7.315207e-05
-0.014701413 0.00999803 -0.0030785785 0.22363067 0.084738165 -0.97098339 5.8952959e-05
-0.039259374 0.013676222 -0.0043025422 -0.95599633 0.046230517 -0.28971317 0.033042122
-0.038481053 0.013549293 -0.0051531442 -0.84424835 0.044811454 -0.53407562 0.032340843
-0.030343335 0.014636803 -0.0059536621 0.19990993 0.18850687 -0.96150988 9.3376912e-05
-0.028171403 0.013924791 -0.0056596049 0.21380648 0.1727414 -0.96148175 7.2198243e-05
-0.025286771 0.013293527 -0.0051301825 0.21350224 0.15524136 -0.96452934 0.00011463116
-0.022324571 0.013718148 -0.0044243545 0.20755406 0.14228597 -0.96782023 0.00010991414
-0.019396439 0.013568996 -0.0037784572 0.21219695 0.12151424 -0.96964264 8.2965089e-05
-0.016718725 0.013063735 -0.0032656786 0.21775615 0.10387284 -0.97045994 9.7899676e-05
-0.039349463 0.016614046 -0.0039359448 -0.93692017 0.036022451 -0.3476823 0.035407964
-0.038100686 0.016625997 -0.0052810288 -0.62202251 0.12531118 -0.77290696 0.049586397
-0.033443272 0.017706955 -0.0059647597 0.09160579 0.21170752 -0.97303051 0.0036080137
-0.031130651 0.016585676 -0.0057526915 0.17868242 0.20116968 -0.96312165 0.00012518976
-0.028577909 0.01682502 -0.0051928065 0.19342574 0.19002788 -0.96253616 5.1226383e-05
-0.025550021 0.016260484 -0.0046745329 0.19741437 0.16815001 -0.96579146 0.00010043573
-0.022760799 0.016769582 -0.0040521654 0.1922849 0.15293644 -0.96934873 7.1599454e-05
-0.019544242 0.016290782 -0.0034891535 0.19515301 0.13139953 -0.9719308 9.2246657e-05
-0.017737957 0.01644201 -0.0030873793 0.19228826 0.12123721 -0.97382075 7.1698618e-05
-0.039427649 0.019479824 -0.0035673722 -0.93303007 -0.0075680907 -0.35971874 0.025865003
-0.037670087 0.019537825 -0.0050777211 -0.50749272 0.15972033 -0.84672344 0.031001294
-0.034543388 0.019762911 -0.0056252107 -0.0035242708 0.23398454 -0.97223389 0.0075080493
-0.03144278 0.019338541 -0.0052247751 0.16792902 0.21352707 -0.96239597 0.00011704348
-0.028549487 0.019823054 -0.0045945705 0.17814314 0.19097909 -0.96529377 0.00011720081
-0.025437614 0.019301711 -0.0041171438 0.17275234 0.1723295 -0.96977276 0.00011523962
-0.022556195 0.019482186 -0.0035767034 0.16832945 0.15041362 -0.97418737 8.4462685e-05
-0.02014686 0.019202428 -0.0031743869 0.18143813 0.14368668 -0.97284859 7.4506628e-05
-0.039350282 0.022397486 -0.0033662089 -0.78215289 0.017191447 -0.62284929 0.031415302
-0.037660703 0.022489337 -0.004558539 -0.46191704 0.11447342 -0.87950468 0.034061197
-0.034628939 0.022485189 -0.0050056996 0.005904783 0.22918291 -0.97336549 0.0042617521
-0.031431224 0.022449976 -0.0045258342 0.15224451 0.2141685 -0.96485931 0.00010701956
-0.028348207 0.02256578 -0.0040026181 0.15579928 0.1883354 -0.96966821 0.00017606882
-0.025423231 0.022479305 -0.0035374891 0.15747795 0.17257187 -0.97232687 9.4774419e-05
-0.022864064 0.022160083 -0.0031986041 0.16015033 0.15247275 -0.97524554 9.974822e-05
-0.039182678 0.024849042 -0.0032265366 -0.63358164 0.11211699 -0.76550901 0.038509235
-0.037675876 0.025437059 -0.0040150578 -0.44966826 0.094946988 -0.88813484 0.0329176
-0.034525946 0.025504529 -0.0042998283 -0.040059865 0.18923534 -0.98111427 0.0078470875
-0.031540439 0.025643559 -0.0038617279 0.13382517 0.19241606 -0.9721455 5.6727597e-05
-0.028559206 0.025542974 -0.0034580671 0.13610555 0.17842394 -0.97449487 9.5194009e-05
-0.025896573 0.0249153 -0.0031927284 0.13850588 0.16211894 -0.97700232 9.5391202e-05
-0.02341741 0.024195917 -0.0030207594 0.14231917 0.14128181 -0.97968602 7.3227253e-05
-0.037533306 0.028408982 -0.0035349678 -0.30474213 0.11792802 -0.94510591 0.017925672
-0.0345737 0.028507931 -0.0036910016 0.033453718 0.16838834 -0.9851529 0.0024704586
-0.031610448 0.028417928 -0.0033270766 0.1223454 0.18039869 -0.97595489 7.0596107e-05
-0.029277489 0.027761748 -0.0031533139 0.12000995 0.16731972 -0.97857136 0.00013311273
-0.037038025 0.031238308 -0.0032170478 -0.20552631 0.11906806 -0.97138137 0.01850673
-0.034689788 0.031164356 -0.0031929698 0.027336311 0.14064184 -0.98968309 0.0032794599
-0.032568675 0.030461559 -0.0030556156 0.1071899 0.15782858 -0.98163158 0.00022020844
-0.036361553 0.033330094 -0.003057179 -0.1832432 0.12883322 -0.97458911 0.016592622
-0.034539409 0.041872308 -0.0031231213 0.0051137912 -0.17707904 -0.98418331 0.03094691
-0.032343503 0.041834939 -0.0030385545 0.047278706 -0.17323765 -0.98374462 0.027613129
0.0052273683 0.041883096 -0.0030932545 -0.15716372 -0.80635571 -0.57016665 0.00073781877
0.0078700222 0.041608602 -0.0033919397 -0.13376386 -0.83402765 -0.53526169 0.00044213462
0.010389201 0.041468255 -0.003783138 -0.097166531 -0.853396 -0.51212686 0.00071080506
0.013029949 0.041569944 -0.0043005394 -0.05197785 -0.87285572 -0.48520228 0.0011197189
0.016082451 0.041722406 -0.0044583674 0.041471321 -0.90788084 -0.41717219 0.0021266756
0.018792722 0.04167515 -0.003315754 0.083506539 -0.92776746 -0.36369526 0.00060120982
-0.051430482 0.044743549 -0.0036758836 -0.90501016 -0.41120058 -0.10895302 0.016326254
-0.049505003 0.044581614 -0.0041050063 -0.26039892 -0.92530364 -0.27569127 0.05129467
-0.046648499 0.044673685 -0.0043660761 -0.072735116 -0.89192659 -0.44629195 0.00483196
-0.042842571 0.043555021 -0.0041008983 -0.262438 -0.7405411 -0.61864799 0.0055642254
-0.041204803 0.04362585 -0.0049811159 -0.1767212 -0.75763798 -0.62829477 0.010642103
-0.037549391 0.042577386 -0.0037191659 0.017680924 -0.70239502 -0.7115677 0.032599606
-0.034522764 0.042736128 -0.0038990518 0.035336141 -0.38548756 -0.92203611 0.028695023
-0.031258307 0.042883158 -0.0038351172 0.042450428 -0.38639817 -0.92135471 0.020436369
-0.027913596 0.042987697 -0.0036324156 0.074178219 -0.48075372 -0.87371248 0.0041240477
-0.025844278 0.043309387 -0.0036389856 0.083276339 -0.44573468 -0.89128315 0.0038736043
-0.022689866 0.043926731 -0.0037011562 0.10647901 -0.59237492 -0.79859519 0.0045553204
-0.019518062 0.04398942 -0.0033184031 0.10130199 -0.55568779 -0.82519633 0.0049931644
-0.016822729 0.044450395 -0.0033715791 0.068756022 -0.56637394 -0.82127535 0.0037951001
-0.012967858 0.044685036 -0.0033971854 0.027698535 -0.56920516 -0.82172883 0.0034510214
-0.010435894 0.044516262 -0.003270346 -0.023030322 -0.6035502 -0.79699236 0.0023574841
-0.0072428603 0.044423342 -0.0034030946 -0.064452015 -0.65952903 -0.74891084 0.00081026019
-0.0046032011 0.044344217 -0.0036493887 -0.094679356 -0.69786948 -0.70993942 0.0009668094
-0.0015132144 0.04402196 -0.0038155101 -0.12795942 -0.73326081 -0.66779864 0.0017607935
0.0017263332 0.043818343 -0.0044867559 -0.20063978 -0.77702612 -0.59663558 0.00086030789
0.0041927933 0.04318491 -0.0046021636 -0.19807081 -0.7936663 -0.57520574 0.00049305661
0.0074146395 0.042698372 -0.0049209753 -0.1587069 -0.82169145 -0.54738951 0.00011326539
0.010348951 0.042380214 -0.0052329148 -0.11953638 -0.84256989 -0.52515435 0.00028213148
0.013342214 0.042364657 -0.0057684197 -0.072949417 -0.86109823 -0.50317812 0.00054808921
0.016242905 0.042228572 -0.0055197077 0.024548039 -0.91619617 -0.39997756 0.0022429998
0.01929727 0.04217349 -0.0048462111 0.071475372 -0.92476302 -0.37377089 0.00092371431
0.021994554 0.042699959 -0.0051022093 0.076052845 -0.92782682 -0.36517581 0.00065919233
-0.051744636 0.046528887 -0.004463281 -0.97740674 -0.19377805 -0.084416166 0.030314559
-0.049871515 0.045188364 -0.0058453381 -0.098614767 -0.92259675 -0.37294829 0.020371513
-0.045552142 0.045017317 -0.0053502629 -0.076144375 -0.86947364 -0.48807544 0.0026619309
-0.043498304 0.045134548 -0.0056858473 -0.18189181 -0.82560635 -0.53412497 0.0094874753
-0.041729726 0.045235623 -0.0059732748 -0.23707065 -0.77451152 -0.58645505 0.0095846104
-0.027361473 0.045181971 -0.0059426078 0.15045875 -0.7010082 -0.69710094 0.0015303618
-0.02537816 0.045340106 -0.0056699188 0.13624342 -0.68966269 -0.71119839 0.0012385758
-0.021926116 0.045992419 -0.0055657178 0.13766161 -0.61364824 -0.77748638 0.0033353167
-0.019040423 0.046392385 -0.0054483972 0.11716328 -0.57375044 -0.81060666 0.0039399075
-0.016136361 0.046494972 -0.0051279282 0.080588825 -0.56186748 -0.82329237 0.0031042304
-0.013387344 0.046730086 -0.0051876348 0.015036776 -0.57807142 -0.81584764 0.0029399537
-0.010434759 0.046549585 -0.0050861458 -0.055636317 -0.60709929 -0.79267585 0.0025547997
-0.0072916276 0.046113726 -0.0050214562 -0.10795751 -0.65210289 -0.75040466 0.0020641778
-0.0044760723 0.045849945 -0.0052599404 -0.15036632 -0.70522577 -0.69285387 0.0015438596
-0.001620831 0.045332551 -0.0053752339 -0.18684541 -0.74959493 -0.6349774 0.0012837078
0.00056896836 0.045067746 -0.0057838536 -0.21671887 -0.7818355 -0.58460778 0.00041097999
-0.051931221 0.049565911 -0.0044508618 -0.99867433 -0.034533784 0.038171347 0.0019376572
-0.051791254 0.052572656 -0.0045239273 -0.97827435 0.20496026 0.031153558 0.020294873
-0.051404197 0.055207402 -0.0044124555 -0.8655988 0.4990373 -0.041236918 0.028701901
-0.049574677 0.05639885 -0.004474849 -0.28997406 0.92072266 -0.26112244 0.055514891
-0.046639904 0.056360785 -0.0046042125 -0.056106042 0.94021159 -0.33593783 0.013162815
-0.043386456 0.056443796 -0.0046726749 -0.26967323 0.87299395 -0.40639624 0.026279906
-0.041258853 0.056487691 -0.0050092889 -0.33490473 0.83624101 -0.43421167 0.033177208
-0.038946744 0.056711964 -0.0033348191 -0.0020949326 0.89511073 -0.44583905 0.10925984
-0.042784352 0.057842541 -0.0038996686 -0.25621539 0.8785215 -0.40317932 0.037105065
-0.040682331 0.05821402 -0.0047492734 -0.29010886 0.85365558 -0.43256086 0.032034621
-0.037397955 0.058758888 -0.0045423657 -0.16039225 0.90312988 -0.3982847 0.034193818
-0.034460694 0.059042126 -0.0045379708 -0.11778553 0.86475295 -0.48818937 0.013823185
-0.03157771 0.059230734 -0.0045867884 -0.048242532 0.8529405 -0.51977408 0.001379161
-0.028492978 0.059176054 -0.004937517 -0.013875099 0.79201937 -0.61033815 0.0030532104
-0.025446765 0.059149671 -0.0050621382 -0.01126573 0.7354365 -0.67750001 0.0038568906
-0.022366986 0.059131477 -0.0051840283 -0.027474964 0.63288456 -0.77375859 0.0063284077
-0.01941235 0.059092265 -0.0053144707 -0.052386124 0.56144381 -0.82585508 0.0063576088
-0.016490545 0.0591405 -0.0055448227 -0.10984234 0.50857782 -0.85398078 0.0059866249
