# .PCD v0.7 - Point Cloud Data file format
VERSION 0.7
FIELDS x y z normal_x normal_y normal_z curvature
SIZE 4 4 4 4 4 4 4
TYPE F F F F F F F
COUNT 1 1 1 1 1 1 1
WIDTH 560
HEIGHT 1
VIEWPOINT 0 0 0 1 0 0 0
POINTS 560
DATA ascii
0.0018172014 0.0092941746 0.025770297 0.21213856 -0.92637998 0.31115475 0.0077735018
0.004691462 0.010123705 0.025555283 0.37126917 -0.88473463 0.28178668 0.010722636
0.0071356986 0.011313872 0.025372434 0.52965295 -0.81724268 0.22711708 0.0025591615
-0.04582819 0.013703751 0.025414193 -0.75360101 0.027594961 0.65675265 0.004491352
-0.044624496 0.013420881 0.02671217 -0.5888831 0.0080897035 0.80817771 0.0060453457
-0.012838248 0.013033099 0.026833255 -0.1574876 -0.41863835 0.89439344 0.058902893
-0.011011858 0.01230703 0.026676767 -0.21252814 -0.39304939 0.89461946 0.06190313
0.00851693 0.012486586 0.026034251 0.61157405 -0.75091875 0.24919501 0.0038175147
0.010118839 0.013838264 0.025427829 0.71035254 -0.66206408 0.23889413 0.0034257665
-0.046042878 0.016070487 0.024714928 -0.87502939 -0.0060639563 0.48403192 0.0026319618
-0.044798765 0.015691126 0.026567448 -0.72029185 0.0049965461 0.69365317 0.0042522149
0.01154207 0.015651073 0.025757719 0.80910414 -0.5468238 0.21525392 0.002755699
0.012461849 0.016937068 0.025362113 0.84204936 -0.49826854 0.20659472 0.0026002356
-0.045691065 0.019514242 0.02561749 -0.73653311 -0.0013840053 0.67640013 0.0036314661
-0.044662226 0.019058628 0.026678117 -0.70226431 0.0051840399 0.71189743 0.0024275756
0.013459447 0.019215154 0.025516024 0.90580767 -0.36250341 0.21932565 0.0024856101
-0.046035785 0.023089623 0.024724618 -0.88326448 0.021434382 0.4683848 0.0054521672
-0.04476634 0.023048704 0.026602099 -0.72788024 0.019234683 0.68543452 0.00340671
0.014297525 0.022349209 0.025394892 0.95915902 -0.15768631 0.23483807 0.0017854499
-0.046700481 0.024563974 0.024269518 -0.77045745 0.038305704 0.6363396 0.0041174353
0.014459779 0.025096083 0.025422916 0.96955377 0.0030530237 0.24485962 0.0026658215
-0.045256067 0.029170189 0.025245523 -0.71337301 0.046818882 0.69921881 0.0033235792
-0.044059958 0.029406236 0.026408119 -0.63514084 -0.018781221 0.77216798 0.0078193117
0.014130685 0.028275333 0.025546812 0.94767326 0.2269326 0.22453746 0.0016136719
-0.045703698 0.031001352 0.024657857 -0.74944621 0.01878665 0.66179866 0.0021572015
-0.044240836 0.031873155 0.026243338 -0.70572501 -0.0063541601 0.70845747 0.0017837443
0.011916691 0.032940339 0.026802618 0.78813946 0.52309912 0.32435089 0.020466667
0.01329485 0.030882372 0.025465731 0.9210881 0.32130125 0.219914 0.0015934339
-0.0453582 0.034536235 0.025085412 -0.76824003 0.0089609995 0.64009929 0.0020173285
-0.044118237 0.034383446 0.026383316 -0.70523924 -0.001231127 0.70896846 0.00094226148
0.011717077 0.033958212 0.024829943 0.83398372 0.51017982 0.21020865 0.00088724372
0.01232427 0.033106126 0.024244331 0.89199769 0.38921511 0.22989519 0.0019105328
-0.045561496 0.037227225 0.0248583 -0.73330247 -0.0091548115 0.67984098 0.0027475609
-0.044025641 0.03731953 0.026399329 -0.64854872 0.042422891 0.7599901 0.0093711941
-0.045903493 0.040421899 0.024585163 -0.67676896 -0.10650133 0.72845131 0.0069867377
-0.044308141 0.04112719 0.025838768 -0.6012097 -0.015967464 0.79893172 0.0036527356
-0.048278157 0.044888597 0.024028219 -0.55381608 -0.22749549 0.80095792 0.0077935513
-0.046186633 0.043428391 0.024768323 -0.52169901 -0.10261782 0.84693557 0.0050589093
-0.043716606 0.043681677 0.026311293 -0.56326872 -0.027349534 0.8258211 0.0012884098
-0.04841489 0.046687488 0.024104416 -0.46162671 -0.057535212 0.88520646 0.0066648806
-0.046524625 0.046196099 0.024768963 -0.44216293 0.016304022 0.89678663 0.0027378898
-0.044366982 0.046301518 0.025820328 -0.47944927 0.024255143 0.87723434 0.0036146003
-0.046904352 0.049781054 0.02431917 -0.38448641 0.036131069 0.9224233 0.0015185364
-0.043982267 0.04956134 0.025776163 -0.52288055 0.017519502 0.85222596 0.0037814428
-0.0032368721 0.050025091 0.026549477 0.78001904 0.091359936 0.61905056 0.0051766108
-0.0019954778 0.049754966 0.024911921 0.74051052 0.044068672 0.67059833 0.015765954
-0.048144553 0.051133551 0.024007589 -0.43448716 0.073045887 0.8977111 0.0056013591
-0.046373092 0.052411251 0.024516482 -0.43442559 0.072228909 0.897807 0.003621801
-0.0435642 0.05255634 0.025986448 -0.54713184 0.016425848 0.83688527 0.0035046847
-0.0033505149 0.052530415 0.026290454 0.78119922 0.14769228 0.60655981 0.010898557
-0.0023249043 0.052476801 0.02489334 0.73244023 0.15539955 0.6628592 0.014883447
-0.046527449 0.054450586 0.024278572 -0.49203023 0.031926189 0.86999249 0.0063918652
-0.0039205588 0.055458017 0.025887247 0.77842289 0.25271207 0.57462549 0.01501842
-0.0026545979 0.054870799 0.024523731 0.74265951 0.28262079 0.60710984 0.012885308
-0.0047132187 0.058388017 0.02496019 0.7422803 0.27237761 0.61223394 0.015775114
-0.0063379914 0.060223248 0.025586504 0.67790788 0.29131106 0.6749658 0.028648587
-0.030360801 -0.06622152 0.027757538 -0.37726608 -0.79754472 0.47073641 0.029541079
-0.028399676 -0.066906109 0.027800098 -0.27597371 -0.92043656 0.27683035 0.014759354
-0.025435653 -0.067591831 0.02789476 -0.12176029 -0.9208957 0.37030464 0.023286717
-0.022485362 -0.067848995 0.027888054 -0.02320586 -0.9280557 0.37171778 0.028792124
-0.019496661 -0.067646399 0.027874624 0.12946005 -0.93238193 0.33749676 0.017225301
-0.016468799 -0.066930637 0.027888238 0.28367603 -0.90676147 0.31194788 0.027203973
-0.014514023 -0.066211864 0.02779234 0.43731761 -0.84722799 0.30159259 0.018537024
-0.034064408 -0.063902646 0.027851658 -0.5058955 -0.72754657 0.46340671 0.01537293
-0.031694584 -0.065198667 0.028142307 -0.43194228 -0.78368205 0.44639468 0.021119695
-0.02840432 -0.064460583 0.028831666 -0.11582124 -0.36014619 0.92567825 0.042518776
-0.025493512 -0.064600699 0.028831424 -0.045493349 -0.36020949 0.9317615 0.016757973
-0.022511415 -0.06454546 0.028835518 0.025539765 -0.30667207 0.95147258 0.015943252
-0.019547092 -0.064532697 0.028830044 0.067990109 -0.32218552 0.94423193 0.01953825
-0.016498502 -0.064539231 0.028829092 0.12928607 -0.38885036 0.91218442 0.049932804
-0.013055174 -0.0652977 0.027899314 0.48147675 -0.81303531 0.32734326 0.021196546
-0.01088277 -0.063940026 0.027886873 0.56830382 -0.78074706 0.25973976 0.015303318
-0.036538024 -0.06178401 0.027607322 -0.55486894 -0.64152735 0.52968204 0.014311532
-0.035191346 -0.061953854 0.028397458 -0.47598135 -0.60298675 0.64019424 0.02201068
-0.031550262 -0.061456636 0.028834501 -0.045514286 -0.090738863 0.99483413 0.0040818392
-0.028890336 -0.061558057 0.028833883 -0.21112257 -0.1170682 0.97042376 0.018637657
-0.02527469 -0.062079739 0.029391618 -0.13842236 -0.31020567 0.94053799 0.024842545
-0.022457305 -0.062335569 0.029443104 0.0093849385 -0.58582324 0.81038451 0.026781596
-0.019259792 -0.061894916 0.029379189 0.22311589 -0.45261964 0.8633393 0.034426235
-0.016950801 -0.061172165 0.029056851 0.37567887 -0.089410298 0.92242676 0.036060929
-0.013453784 -0.061521243 0.028830094 0.089229614 -0.10445353 0.99051875 0.0051725493
-0.0095310183 -0.062504388 0.027996166 0.63051617 -0.67968363 0.37480596 0.021783434
-0.0079986928 -0.061158042 0.02785931 0.69773 -0.62412381 0.35162804 0.016949575
-0.039584666 -0.058169469 0.027735166 -0.57349551 -0.39824918 0.71589142 0.011221467
-0.037409529 -0.058661837 0.028695606 -0.28141481 -0.27019179 0.92076164 0.033921245
-0.0344777 -0.058595885 0.02883712 -0.056695007 -0.073193461 0.99570495 0.0036400284
-0.031504769 -0.058549915 0.028792024 -0.0056432737 -0.041187346 0.99913549 0.0017875076
-0.028923666 -0.058785196 0.02872245 -0.24927032 -0.073333435 0.96565336 0.017433509
-0.01805803 -0.057664648 0.029446751 0.85209125 0.088998005 0.51577109 0.022396283
-0.01705315 -0.058710895 0.029045761 0.42546254 0.011090109 0.90490812 0.035337459
-0.013528585 -0.058540702 0.02883216 0.048224729 -0.020627836 0.99862349 0.005493585
-0.010474297 -0.058592532 0.02883129 0.10866681 -0.12195869 0.98656863 0.012314023
-0.0066584032 -0.05909447 0.028017143 0.73057699 -0.52986783 0.43069413 0.019245794
-0.0056122513 -0.057668246 0.027876671 0.7680847 -0.44818124 0.45736149 0.016247621
-0.039891008 -0.055578832 0.028516972 -0.41432121 -0.19236846 0.88956857 0.02678963
-0.037656892 -0.055710357 0.028839484 -0.18478283 -0.12047664 0.97536695 0.016324438
-0.034673363 -0.055670228 0.028838888 -0.078161865 -0.19303693 0.97807336 0.027145592
-0.031858921 -0.05578823 0.028838458 0.013727557 -0.27201551 0.96219492 0.044665281
-0.029080108 -0.055892501 0.028770616 -0.1700833 -0.21650603 0.96135157 0.051362835
-0.01822537 -0.05592135 0.029464066 0.49930874 0.00080918899 0.86642379 0.043012012
-0.016592911 -0.055645999 0.028804168 0.22441362 -0.17009187 0.95953494 0.037146043
-0.013555785 -0.055807263 0.028833905 0.010399398 -0.20167039 0.97939831 0.022407899
-0.010560309 -0.055671077 0.028833205 0.11067883 -0.20348315 0.97280258 0.024938533
-0.0075126798 -0.055711906 0.028832525 0.28388566 -0.19276787 0.93928134 0.023134986
-0.0047809952 -0.055515949 0.027905397 0.80244124 -0.31109416 0.5092234 0.014886331
-0.042150542 -0.052417304 0.027112862 -0.58989346 -0.093302958 0.80207247 0.0039411481
-0.039932963 -0.052618932 0.028760381 -0.27887589 -0.089308038 0.95616543 0.013423786
-0.037515141 -0.05255644 0.028842479 -0.23537457 -0.096444912 0.96710771 0.025152678
-0.034193754 -0.053642098 0.029248452 -0.077846661 -0.37162524 0.92511326 0.039315715
-0.031475775 -0.053703349 0.029375426 0.016292226 -0.37265006 0.92782897 0.038802404
-0.029398553 -0.053496856 0.028867042 0.15213667 -0.32028461 0.93502527 0.034156803
-0.026261359 -0.05150523 0.029623307 0.12623806 -0.014054331 0.99190038 0.015678296
-0.022648774 -0.051860843 0.029591426 0.10741781 0.24753633 0.96290559 0.0058674212
-0.019108586 -0.052373905 0.029294638 0.047157384 0.08197505 0.99551803 0.036008615
-0.016260773 -0.053391654 0.029317338 -0.082722098 -0.3038339 0.94912702 0.035728641
-0.013588743 -0.05366173 0.029365271 -0.0032262621 -0.31054977 0.95055163 0.022800721
-0.010289922 -0.053061035 0.029365018 0.26376179 -0.33097243 0.90602815 0.036306769
-0.0073552229 -0.052477758 0.028834753 0.27276307 -0.04917001 0.96082389 0.017888537
-0.0040870407 -0.052625198 0.028008569 0.79970831 -0.12860872 0.58645248 0.014411476
-0.042384062 -0.049544569 0.027065277 -0.58804035 -0.030415352 0.80825961 0.0014359762
-0.040304471 -0.049558777 0.02876105 -0.34597829 -0.035531458 0.93756944 0.012655704
-0.037872065 -0.04975247 0.028849171 -0.33781815 -0.063894525 0.93904018 0.027580664
-0.035952833 -0.048788264 0.027575381 -0.34174693 -0.12099517 0.93197066 0.044198312
-0.025437767 -0.049525585 0.029670609 0.19760683 0.023162054 0.98000765 0.01169575
-0.022500811 -0.049201556 0.028619327 0.03505994 -0.055707324 0.9978314 0.022573534
-0.020058163 -0.050010372 0.028970748 -0.18621914 -0.060328964 0.98065424 0.018475661
-0.009307757 -0.049430232 0.029137805 0.34683794 -0.061003026 0.93593919 0.031619839
-0.0074243867 -0.049379885 0.028845845 0.3539902 -0.0080902772 0.9352141 0.029183174
-0.0038672006 -0.04955199 0.028090298 0.75100398 -0.024165003 0.65985531 0.018623564
-0.042375427 -0.046486966 0.027230768 -0.55877525 -0.013240244 0.82921344 0.0019223329
-0.040045951 -0.046921581 0.02881231 -0.31759715 -0.050620452 0.94687361 0.012748637
-0.037724532 -0.046044521 0.028546907 -0.32758769 0.022462007 0.94455379 0.029716395
-0.024960063 -0.046036631 0.029242655 0.01120341 0.0052286913 0.99992359 0.04546601
-0.022232577 -0.046623498 0.02945851 0.015335322 -0.24815464 0.96859896 0.019723816
-0.020409904 -0.045785848 0.029546982 -0.14821735 -0.21464448 0.96538043 0.016004501
-0.0095279478 -0.046634041 0.029153712 0.353414 0.042832386 0.93448591 0.028586466
-0.0073664621 -0.046342287 0.028839067 0.26388514 0.067605108 0.96218199 0.037568048
-0.003963206 -0.046948023 0.027895838 0.74170351 -0.0050559868 0.67070889 0.0203078
-0.042345095 -0.043713029 0.027253222 -0.54189593 0.0046181921 0.84043294 0.0005224963
-0.040025689 -0.043849777 0.028633371 -0.33728057 -0.0073815142 0.94137526 0.011581898
-0.03753097 -0.043472219 0.028778158 -0.28758833 -0.047009513 0.95659977 0.035483375
-0.030585535 -0.042248935 0.028271161 0.094605781 0.28905383 0.95262676 0.035666902
-0.02771505 -0.043112792 0.028679017 -0.23597609 0.015947908 0.97162801 0.053858809
-0.026088009 -0.04413097 0.02907229 -0.11249069 -0.017904684 0.99349147 0.057611082
-0.019115767 -0.04416167 0.029304193 0.022530748 0.011765826 0.99967694 0.050339755
-0.012632118 -0.042174719 0.028263437 0.11676724 0.14958237 0.98183024 0.019777097
-0.0097914925 -0.043563578 0.028761035 0.17981203 0.1603125 0.97055006 0.028239759
-0.0074389949 -0.043400019 0.028840667 0.2916404 0.10300343 0.95096588 0.036211323
-0.0048047882 -0.043758582 0.028324921 0.5173111 -0.017158942 0.85562527 0.051449589
-0.042376321 -0.040125273 0.027254742 -0.55433071 -0.019234849 0.83207422 0.0017999826
-0.040448941 -0.040355068 0.028262746 -0.33464491 0.002083001 0.94234204 0.0076674079
-0.036851786 -0.039981186 0.028827041 -0.066772468 -0.018239096 0.99760151 0.0028079902
-0.035168856 -0.040387735 0.02882662 -0.0022922764 -0.029582459 0.9995597 0.001102363
-0.031058524 -0.040045716 0.028826244 -0.082104795 0.045144532 0.9956007 0.012975344
-0.02882251 -0.040418435 0.028656729 -0.34611988 -0.16533211 0.92350763 0.01566471
-0.018159747 -0.040068232 0.029260822 0.30427533 0.023862904 0.95228517 0.022087691
-0.017292432 -0.039885376 0.029229101 0.34802735 0.044980042 0.93640471 0.029286563
-0.012706066 -0.039697215 0.028875895 0.0080595817 -0.062957495 0.99798369 0.0099982014
-0.010178152 -0.040527616 0.028843313 -0.050690062 -0.097605303 0.9939335 0.0078337546
-0.0072218012 -0.040150255 0.028581362 0.10729408 -0.23610497 0.96578592 0.049528304
-0.0043098871 -0.039542273 0.028044464 0.063547626 -0.72777933 0.68286085 0.056318849
-0.0014546601 -0.039565165 0.028129175 0.04567999 -0.82330751 0.56575447 0.023056276
0.0013887002 -0.039340373 0.028074026 0.15117395 -0.88716388 0.43598926 0.016194569
0.0032656216 -0.039045773 0.027428791 0.25400436 -0.88097161 0.39921281 0.021933805
-0.042645197 -0.037790205 0.02728913 -0.54893887 -0.026097139 0.83545506 0.0025145826
-0.04062793 -0.037831999 0.028213024 -0.32152936 -0.040125087 0.94604903 0.0049787606
-0.037277956 -0.037709221 0.028813863 -0.093152247 -0.018214416 0.99548525 0.0028720805
-0.034368861 -0.037498329 0.028828675 0.010491794 -0.035805263 0.9993037 0.00048194244
-0.031562194 -0.037121464 0.028850326 -0.022511076 -0.039994732 0.99894619 0.0057673901
-0.028962398 -0.037610389 0.028737135 -0.27944222 -0.036980305 0.95945013 0.017995315
-0.018204784 -0.036066469 0.02886904 0.045791883 0.30365416 0.95168126 0.032649565
-0.016542312 -0.037692428 0.028885692 0.21638635 0.10634392 0.9704988 0.037381783
-0.013022265 -0.037781544 0.028645424 -0.045030147 -0.10896921 0.99302465 0.010205793
-0.010176204 -0.037390459 0.02903763 -0.14594376 -0.21162288 0.96639335 0.0067490824
-0.0066256449 -0.03819529 0.029038657 -0.030293381 -0.59670037 0.80189222 0.024607694
-0.0050770682 -0.038309734 0.029222066 -0.046528623 -0.64382029 0.76376081 0.025361102
-0.001460943 -0.038338751 0.029651521 -0.018562263 -0.60739243 0.79418498 0.012030199
0.0021419213 -0.038397878 0.02929116 0.17504154 -0.70423424 0.68805128 0.018663364
0.0045954981 -0.038171947 0.028436664 0.34975097 -0.76271868 0.54399854 0.021504533
0.0072733201 -0.03688683 0.02818262 0.45937735 -0.71393955 0.52845317 0.019838061
-0.042116102 -0.0334251 0.02777423 -0.48780206 -0.046182502 0.87173182 0.027206881
-0.040369488 -0.034080349 0.028418792 -0.19486889 -0.08028844 0.97753763 0.007035119
-0.037567832 -0.034327194 0.02901233 -0.08902292 -0.070735581 0.99351466 0.0031081238
-0.034585606 -0.0341064 0.029146487 0.034205504 -0.032192543 0.99889618 0.0015545565
-0.031925432 -0.034322612 0.028887281 0.060267519 -0.018896507 0.99800336 0.00060043897
-0.028527198 -0.034723252 0.028674258 -0.16513236 0.0027651724 0.98626757 0.025885252
-0.021080222 -0.033462532 0.028272592 0.13144535 0.20078236 0.97077733 0.018164493
-0.019110186 -0.034331091 0.028870551 0.10533021 0.24013682 0.96500772 0.031482015
-0.016577912 -0.034596384 0.028780306 0.066047594 0.039477706 0.99703526 0.023291383
-0.013274317 -0.034442935 0.029041653 -0.20167364 -0.17064114 0.96447361 0.0039830389
-0.010935952 -0.035075996 0.029561235 -0.21614085 -0.22746767 0.94949543 0.0040024384
-0.0084567461 -0.035819978 0.029987652 -0.17816117 -0.33269697 0.9260515 0.00085447065
0.0055077095 -0.035794973 0.029959025 0.24599722 -0.4218142 0.87267303 0.0053537171
0.0081985779 -0.035133682 0.029265027 0.47166711 -0.59736055 0.6486066 0.025880655
0.01011191 -0.034348708 0.028207969 0.65401053 -0.57488447 0.49170935 0.021258205
-0.042213593 -0.031856764 0.028577456 -0.49748617 0.033724301 0.86681616 0.040760312
-0.040414661 -0.031521045 0.028961778 -0.23787446 0.030234452 0.9708252 0.020925334
-0.037155163 -0.031361561 0.029344464 -0.012336819 0.0030530021 0.99991924 0.0033981481
-0.034312576 -0.031432491 0.029354298 0.050180223 0.0055486085 0.99872476 0.0016717896
-0.031992797 -0.031727556 0.028956274 0.054756988 0.0013804466 0.99849874 0.0012951313
-0.028623449 -0.031601641 0.028785156 0.050969969 -0.031906076 0.9981904 0.00071277306
-0.025338424 -0.030119883 0.028875999 0.011799433 -0.076937407 0.99696612 0.00072040095
-0.022206262 -0.031291597 0.028873431 0.0008787004 -0.030431515 0.99953645 0.0022338312
-0.019071897 -0.031148627 0.028845811 -0.092414863 -0.014157372 0.99561995 0.006561765
-0.016107835 -0.031194801 0.028906142 -0.1920421 -0.10409594 0.97585028 0.0058063972
-0.013611573 -0.031934295 0.02956371 -0.28879592 -0.17337814 0.94156092 0.0030509953
0.0089801941 -0.032536004 0.029922053 0.45298377 -0.25264654 0.85497105 0.0062012947
0.011357021 -0.032296695 0.028567575 0.69412786 -0.46408865 0.55028015 0.025711628
0.012422521 -0.031016912 0.028071418 0.77098501 -0.39415753 0.50022197 0.027231291
-0.040282119 -0.029806718 0.028937934 -0.38604084 0.070368938 0.91979384 0.027555533
-0.036921129 -0.028296087 0.028957106 -0.029305838 0.046439663 0.99849111 0.0024050488
-0.033870786 -0.028283058 0.028856233 0.0422405 0.017377725 0.99895638 0.0016562877
-0.031703826 -0.028556602 0.028855497 0.03252231 -0.021587785 0.99923784 0.0021027087
-0.028754588 -0.028496049 0.02883216 0.00068089075 -0.047842577 0.9988547 0.00064332056
-0.025450062 -0.028560385 0.02883042 0.010651896 -0.072878063 0.99728394 0.00041738874
-0.022270828 -0.028548885 0.028811809 0.016037595 -0.034921616 0.99926138 0.0013242487
-0.019499747 -0.028348399 0.028763592 -0.10771435 -0.045044202 0.9931609 0.0089233862
-0.017087057 -0.028500089 0.028796233 -0.20200408 -0.067614362 0.97704792 0.0094885388
-0.014462763 -0.029172966 0.029793473 -0.28211454 -0.089327425 0.95521301 0.006879848
0.011489738 -0.028826796 0.029866818 0.48586553 -0.17137167 0.85706854 0.005567295
0.013280082 -0.028633578 0.028218117 0.88776803 -0.25360993 0.38412228 0.013892567
-0.042818081 -0.025245259 0.027642502 -0.48040086 -0.24332599 0.84261942 0.012293701
-0.04004981 -0.025387948 0.028604098 -0.141931 -0.033297785 0.98931634 0.0081702014
-0.037418988 -0.025350584 0.029090011 -0.068713404 -0.055351917 0.99609977 0.0041828267
-0.034521148 -0.025432682 0.029126843 -0.037418503 -0.091474093 0.99510413 0.0015807118
-0.031694341 -0.025375662 0.029161381 -0.00074156479 -0.090966411 0.99585372 0.00017508988
-0.028528087 -0.025494151 0.029097959 0.0010368255 -0.091454089 0.99580878 0.00012103277
-0.02544268 -0.025052957 0.029228879 0.020913204 -0.073372051 0.99708533 0.0007748222
-0.022285178 -0.025157282 0.029099582 0.084609427 -0.058381055 0.9947024 0.0013170148
-0.019728573 -0.025156664 0.02864 -0.0082314946 -0.026842507 0.99960583 0.0098537588
-0.016836945 -0.025571071 0.028732594 -0.23679815 -0.050133314 0.97026455 0.0099886963
-0.014867378 -0.025723375 0.029972799 -0.333597 -0.025393587 0.94237375 0.0046383785
0.011882091 -0.025351791 0.029841218 0.50160611 -0.066160895 0.86256248 0.0037382534
0.013732489 -0.025735063 0.028313864 0.89689004 -0.095287658 0.43186638 0.014607993
-0.04323088 -0.022455145 0.027693219 -0.5276081 -0.10252527 0.84327829 0.0081817796
-0.04067605 -0.022419959 0.028875466 -0.18515939 -0.057338856 0.98103428 0.0029532709
-0.037576377 -0.022549326 0.029409567 -0.077005379 -0.058096506 0.99533653 0.0013612485
-0.034533963 -0.022372836 0.02944948 -0.01419154 -0.051102098 0.99859267 0.00057495298
-0.031619225 -0.022534033 0.029446857 0.0015833244 -0.054144479 0.99853182 0.00037173135
-0.028363114 -0.022481786 0.029448146 -0.0059326501 -0.040443443 0.99916428 0.00035239302
-0.025418133 -0.022428667 0.029448932 0.036268573 -0.044025738 0.99837184 0.0013235681
-0.02251447 -0.022447966 0.029441752 0.09568844 -0.041962907 0.99452645 0.0018605482
-0.019853486 -0.022595899 0.02885823 0.07197544 -0.016189987 0.99727499 0.0067978073
-0.016413977 -0.022790333 0.029026369 -0.32899058 0.082572646 0.94071621 0.0082906457
-0.01491843 -0.02239202 0.029913034 -0.38506776 0.061425421 0.92084187 0.0060693752
0.011831143 -0.021862149 0.029888377 0.40908155 0.054171219 0.91088849 0.0052738534
0.01367232 -0.022819038 0.028480699 0.89224082 0.03503393 0.45019868 0.0088323122
-0.042837691 -0.019436587 0.02793389 -0.5211764 0.0024400165 0.85344553 0.0044810036
-0.039699338 -0.019857259 0.029157316 -0.16678704 -0.022779806 0.98572981 0.0027315803
-0.037283938 -0.019382143 0.029436499 -0.083296292 -0.0056253388 0.99650896 0.0018882812
-0.034391001 -0.019568959 0.02945832 -0.011442037 -0.0021199647 0.99993235 0.00013875074
-0.031289812 -0.019310778 0.029453004 0.00020691681 -0.0013078741 0.99999911 0
-0.028507205 -0.019344231 0.029456144 -0.00059850258 -0.0013492102 0.99999887 7.7347604e-06
-0.025661578 -0.019406455 0.029456645 0.00067230058 -0.001983209 0.99999785 3.2152896e-06
-0.022611715 -0.019384705 0.029449603 0.10279544 -0.011648343 0.99463433 0.00158113
-0.019680463 -0.01945976 0.028812887 0.1082996 0.0071254037 0.9940927 0.0076988204
-0.016985614 -0.019997887 0.028225958 -0.25178096 0.080525585 0.96442837 0.017496282
-0.014699815 -0.019391252 0.029702932 -0.38780737 0.13774504 0.91139007 0.0048603029
0.011335024 -0.018991357 0.029779226 0.47664937 0.19057754 0.85818732 0.013402179
0.012942806 -0.019898759 0.028607083 0.82908809 0.1976213 0.52302849 0.013219082
-0.043126829 -0.016386628 0.02776204 -0.51954067 0.0016947463 0.85444409 0.0042513888
-0.040289838 -0.016921861 0.029001368 -0.15603741 -0.0019990273 0.98774916 0.0024048525
-0.037279289 -0.016320879 0.029437298 -0.058824945 -0.0015341382 0.99826717 0.00067611568
-0.034470316 -0.016504189 0.029463725 -0.0041817226 0.00039867026 0.99999118 1.2060384e-05
-0.031600166 -0.016206017 0.029449275 -0.0012632066 -0.00072330283 0.99999887 6.7795481e-06
-0.028467162 -0.016366057 0.029462209 -0.00028219103 -0.0014445843 0.99999887 1.3157663e-06
-0.025466302 -0.016368309 0.02945675 0.011529789 -0.0022283038 0.9999311 0.00038764501
-0.022396913 -0.016325027 0.029461147 0.099632889 -0.013692734 0.99493009 0.0020234424
-0.019757217 -0.016604764 0.028869474 0.16797355 0.010956033 0.98573065 0.0010282705
-0.017165305 -0.016414797 0.027812496 -0.10372002 0.10707383 0.98882627 0.034662023
-0.013396023 -0.017099369 0.029751498 -0.36112332 0.14600487 0.92101717 0.0037515194
0.0080431942 -0.015126717 0.029917706 0.22894886 0.12337035 0.96558905 0.0023993975
0.010782422 -0.016859401 0.029360089 0.47933748 0.30839893 0.82166028 0.02117444
0.012331095 -0.017451352 0.028128685 0.8459456 0.34357649 0.40783733 0.016756097
-0.043217931 -0.013200536 0.027704507 -0.55130798 0.028158668 0.83382654 0.0044818944
-0.040480834 -0.013720399 0.028920293 -0.32124567 -0.0075097373 0.94696617 0.0060831597
-0.037598554 -0.013850155 0.029418983 -0.060827073 0.0022875587 0.9981457 0.00060010079
-0.034586959 -0.013481385 0.029453389 -0.012164158 0.0032222338 0.99992085 9.9558871e-05
-0.031584825 -0.013483003 0.029465266 -0.0004860223 -0.0017677031 0.99999833 5.1166476e-06
-0.028623784 -0.013553579 0.029464431 -0.0004770206 -0.0017002288 0.99999851 3.4345824e-06
-0.025342867 -0.013593773 0.029463409 0.0212733 -0.00024391316 0.99977362 0.00078816066
-0.022576982 -0.013436551 0.029463135 0.11200581 0.01072877 0.9936496 0.0020277111
-0.019778704 -0.013545775 0.028821586 0.16843618 0.0016579417 0.98571116 0.0009181457
-0.016807554 -0.013350946 0.02772066 0.088323459 0.15134753 0.98452675 0.021670129
0.0080852322 -0.013950718 0.029758954 0.22203957 0.23344196 0.94668013 0.0026406029
0.0093714138 -0.0135641 0.028472576 0.59873068 0.51957548 0.60955966 0.02998111
-0.043022715 -0.010425469 0.027836347 -0.51394665 -0.00044516809 0.85782212 0.0037557851
-0.039750773 -0.010536739 0.029147739 -0.15843561 0.0059429696 0.98735136 0.0023022739
-0.037606787 -0.010816786 0.029426232 -0.074133061 0.011616722 0.99718076 0.00071965699
-0.034475636 -0.010615423 0.029467693 -0.013167765 -0.0014516913 0.99991226 0.00011171793
-0.031375468 -0.010807292 0.029466921 -0.00017904023 -0.001404671 0.99999899 5.757196e-06
-0.028302776 -0.010618575 0.029466325 0.00031363632 -8.1257662e-05 0.99999994 3.9198794e-06
-0.025521854 -0.010770205 0.02946531 0.014055525 0.0083515095 0.99986637 0.00046548762
-0.022441179 -0.011002243 0.02946127 0.10765738 0.010287815 0.99413478 0.0022375782
-0.019599184 -0.01072186 0.028732659 0.16288568 -0.00020488803 0.98664498 0.00093364465
-0.016448764 -0.010320182 0.027633017 0.26260579 0.0018746558 0.96490145 9.6768417e-05
-0.014572253 -0.01049427 0.027170427 0.26529002 -0.0053057005 0.96415406 4.803414e-05
0.002774772 -0.010051253 0.029430401 0.11471748 0.24579024 0.96251082 0.002377654
0.0050904891 -0.011406625 0.029590681 0.12718385 0.24309202 0.96162909 0.0031846478
0.00657344 -0.011662196 0.029394105 0.11651914 0.24448709 0.96262634 0.0032011822
-0.04333926 -0.0075486936 0.027633285 -0.52407646 0.0027342592 0.85166687 0.0045690644
-0.040348846 -0.0072622453 0.028983375 -0.16169968 0.0062847324 0.98681998 0.0025227033
-0.037291877 -0.0073964386 0.029439991 -0.064001836 0.0033286654 0.99794418 0.001052623
-0.034521222 -0.0076257084 0.029469514 -0.005507654 0.0023626608 0.99998206 6.2168423e-05
-0.031468209 -0.0075796875 0.029466094 0.001362443 0.0017039317 0.99999762 2.0786283e-05
-0.028467225 -0.0074736387 0.029462555 0.0015644724 0.0018021114 0.99999714 1.1085654e-05
-0.02557997 -0.0077760881 0.02945058 0.00054315024 0.00034495915 0.99999982 3.0085087e-06
-0.022411304 -0.0076353867 0.029454883 0.11845519 0.011135275 0.99289697 0.002092029
-0.019615177 -0.0075713396 0.028734781 0.20226607 0.0049679698 0.97931796 0.00050609454
-0.016675472 -0.007551102 0.027689144 0.26597559 -0.00032018591 0.96397972 0.00013560636
-0.014336811 -0.0078207161 0.027108179 0.25914037 0.0051083118 0.96582615 0.00012850732
-0.042875245 -0.0045742826 0.027923502 -0.52489346 -0.00077595125 0.85116762 0.0052921106
-0.040132247 -0.0049796444 0.029040575 -0.157984 0.0013408253 0.98744071 0.0025045115
-0.03731719 -0.0044779214 0.029438781 -0.066159673 -0.0047503444 0.99779773 0.0010599784
-0.03447609 -0.0044227527 0.029464873 -0.0046382961 -0.00044483817 0.99998909 6.1048595e-05
-0.031550337 -0.0044502961 0.029459095 0.00077581796 -0.0003757806 0.99999958 3.195713e-05
-0.02897799 -0.0046141376 0.029432043 0.0032866432 0.0010813965 0.99999404 1.7218648e-05
-0.025470227 -0.0042920467 0.029450689 0.015580755 -0.00088943721 0.99987823 0.00054319948
-0.022689898 -0.0044934573 0.029447632 0.099532023 0.0034509825 0.99502838 0.0023580394
-0.019731883 -0.0044135628 0.028796755 0.20803456 0.0022415419 0.9781189 0.00048864796
-0.016450992 -0.0046865703 0.027583729 0.26702994 0.0043239123 0.96367854 0.00016166056
-0.014381597 -0.0044899909 0.027120346 0.25023758 0.0060463669 0.96816564 0.00012500757
-0.043291409 -0.0015492165 0.027670704 -0.50233495 7.1495051e-05 0.86467314 0.003017996
-0.040149577 -0.0015184539 0.029051397 -0.19553123 -0.0010833387 0.98069692 0.0034271888
-0.037431266 -0.0013177764 0.029442929 -0.070728391 -0.013062124 0.99741012 0.00083589996
-0.034642685 -0.0013366108 0.029470047 -0.015285723 0.00014212226 0.99988317 0.00021471984
-0.03165016 -0.0014855744 0.029470161 0.00099992706 -0.00082118181 0.99999923 2.6612366e-05
-0.028497379 -0.0014161285 0.029460762 -0.00018890938 -0.00093966298 0.99999952 5.6683261e-06
-0.025484659 -0.0012077716 0.029460844 0.00032934727 -0.0012408779 0.99999917 4.7904296e-06
-0.022494435 -0.00094353512 0.029453117 0.11657982 -0.015021926 0.99306774 0.0019881353
-0.019645218 -0.0013791681 0.028754434 0.20161755 0.0019616943 0.97946239 0.0006721057
-0.016519479 -0.0016704018 0.027614724 0.2787393 -0.0045598568 0.96035606 0.00021140336
-0.014031972 -0.00075083948 0.027080037 0.25579891 -0.0056919036 0.96671325 0.00011346118
-0.043128349 0.0012892976 0.027784968 -0.51670235 -0.0015321571 0.8561638 0.0048641944
-0.039872643 0.0014229866 0.029106019 -0.21068895 -0.0085021826 0.97751617 0.0030562258
-0.037288409 0.0016812201 0.029446146 -0.054212529 0.0016372513 0.99852806 0.00063306373
-0.034624733 0.0013647653 0.029471969 -0.0084956754 -0.00043640996 0.99996382 7.0255715e-05
-0.031343237 0.0016231646 0.029462729 0.00013599885 0.00088636513 0.99999964 3.4484522e-06
-0.028561918 0.0015024375 0.029456489 -0.00012839187 0.00087091507 0.99999964 9.6627318e-06
-0.025548674 0.001540871 0.029462948 0.00021453745 0.00078508118 0.9999997 5.168487e-06
-0.022328373 0.0017080476 0.029463079 0.12418835 0.0026203899 0.99225521 0.0022589541
-0.019554138 0.0013070621 0.02874567 0.19988216 0.00075021863 0.97981972 0.00071277656
-0.016477033 0.0013595934 0.027614657 0.27596188 0.016836241 0.96102113 0.0016075786
-0.014425345 0.0017873044 0.02722466 0.24887903 0.00029401263 0.96853459 0.00097924157
-0.042969864 0.0042366949 0.02787515 -0.51730269 -0.0050354875 0.85578769 0.004699674
-0.040133704 0.0048805219 0.029054834 -0.16235469 0.00089425116 0.98673213 0.0020527772
-0.037318278 0.0044391593 0.029446477 -0.071691573 -0.0036885857 0.99742001 0.0016984791
-0.034532387 0.0045903334 0.029460669 -0.01151968 -0.0013650093 0.99993277 0.00011800622
-0.031702828 0.0042191315 0.029456992 -0.00019369298 -0.0010713889 0.9999994 9.2757564e-06
-0.028455002 0.0043994542 0.029453296 -7.1392235e-05 -0.0003062757 0.99999994 2.0478367e-06
-0.02547273 0.0043377541 0.029459219 -0.00047082995 -0.00041556897 0.99999982 6.0477714e-06
-0.02279949 0.0044737966 0.029456191 0.11111343 0.008751953 0.99376923 0.0025027972
-0.019429218 0.0046115126 0.028670516 0.27684709 0.0081017483 0.96087986 0.00063617644
-0.01653575 0.0041494109 0.027665619 0.27333346 -0.0019857921 0.96191728 0.0020951792
-0.014283249 0.0045911297 0.027173281 0.24648038 -0.0085893208 0.96910971 0.001036584
-0.043220095 0.0070995404 0.027729884 -0.50702846 0.0032231212 0.86192334 0.0037161657
-0.040605467 0.0074013928 0.028895067 -0.31316227 0.0050548594 0.94968623 0.0054284069
-0.037691515 0.0074059083 0.029433882 -0.086626559 -0.0030211683 0.99623626 0.00064939476
-0.034599438 0.0078923386 0.029467538 -0.0045101293 -0.0016289091 0.9999885 1.5627229e-06
-0.031662121 0.0076223994 0.029462803 -0.00074950751 -0.0016216208 0.99999845 3.9278243e-07
-0.028577987 0.0078026303 0.029467102 0.00013363431 -0.0014678621 0.99999893 1.0402639e-05
-0.025573157 0.0076445402 0.029458554 -0.00010576865 -0.0013416393 0.99999911 2.8183943e-06
-0.022589609 0.007712096 0.029466273 0.14817956 -0.012603851 0.98888022 0.0032331257
-0.019578246 0.0074963556 0.02873468 0.23586322 0.0080615571 0.97175282 0.0016031211
-0.017011782 0.0073945243 0.027829915 0.26707166 -0.012737384 0.96359247 0.0011395829
-0.014394587 0.0075278161 0.027219877 0.23926917 -0.020065218 0.97074598 0.00046998006
-0.043035764 0.010307307 0.027838537 -0.51432347 0.0053281365 0.85757977 0.0045564012
-0.040134024 0.010995425 0.029040517 -0.16611607 0.00012616508 0.98610616 0.0020659589
-0.037934091 0.010217499 0.029416909 -0.10656387 0.0019292105 0.994304 0.0020983974
-0.034408491 0.010582091 0.029469848 -0.0086508477 0.00044332634 0.99996251 6.1760271e-05
-0.031378023 0.010533703 0.029469563 7.8467558e-05 -0.00046466297 0.99999988 0
-0.028427092 0.01074253 0.029469533 0.00043435409 -0.00074059819 0.99999964 9.3108492e-06
-0.025619797 0.010440025 0.029468525 0.00011851795 -0.00045797302 0.99999988 5.9898066e-06
-0.022536619 0.010647593 0.029468674 0.14478023 -0.023073891 0.98919481 0.0036752063
-0.019546792 0.010437405 0.028644074 0.23399991 -0.02629094 0.97188109 0.0016069305
-0.016469711 0.010208014 0.02777262 0.24130876 -0.020333203 0.97023535 0.00073822215
-0.014149236 0.010954682 0.027175367 0.14659688 -0.11454839 0.98254162 0.023040021
-0.0095974896 0.011756312 0.028216416 -0.36915377 -0.57137972 0.73297387 0.034852237
-0.0074648997 0.01087941 0.028237343 -0.24641119 -0.70957065 0.66014475 0.023025341
-0.0041679516 0.010003048 0.02855242 -0.019494565 -0.78668535 0.61704618 0.017927986
-0.0014303486 0.0096228356 0.028305521 0.080736235 -0.83226025 0.54847473 0.019936452
0.0017670975 0.0099983625 0.028406702 0.25258228 -0.81125855 0.52731562 0.016014813
0.0044918288 0.010690899 0.028206475 0.36613613 -0.81038499 0.45740631 0.020340461
0.0065685287 0.011619803 0.028135581 0.45057073 -0.75988883 0.46856689 0.019658517
-0.043068524 0.013390423 0.027823282 -0.51135892 0.0028929738 0.85936242 0.0043246476
-0.039680786 0.013090174 0.029179735 -0.1594941 0.002145123 0.98719656 0.0022785293
-0.037374172 0.013858357 0.02945976 -0.075462393 -0.0012375194 0.99714792 0.00075279782
-0.03449782 0.013331633 0.029466189 -0.0089717116 -0.0013247723 0.99995893 4.5602108e-05
-0.031478725 0.013439562 0.02946754 -0.00053004414 -0.00029990153 0.99999982 0
-0.028311152 0.013610985 0.029465463 0.00045769147 -0.0007830378 0.99999958 3.7857308e-06
-0.025382947 0.013495598 0.029461047 0.014671578 0.00080921268 0.99989206 0.0004912279
-0.022322893 0.013465862 0.029466089 0.10617649 -0.0028133388 0.99434334 0.0026959628
-0.019515824 0.013798276 0.028701834 0.20759462 -0.028264986 0.97780651 0.0021444173
-0.016433321 0.01337479 0.027747326 0.17625053 -0.084185831 0.9807387 0.0084210625
-0.013421441 0.013710146 0.027602291 -0.11521228 -0.29781136 0.94764686 0.052139729
-0.010253361 0.012827666 0.029038979 -0.35996675 -0.59627616 0.71755058 0.020963525
-0.008122351 0.012484727 0.029799068 -0.32994264 -0.55289924 0.76514071 0.019534167
0.0050483854 0.012592275 0.029841827 0.25844625 -0.4920356 0.83132815 0.010860275
0.0078975875 0.013030186 0.028632974 0.50150847 -0.65972704 0.5596869 0.019778583
0.0096921222 0.014203879 0.028136417 0.66118503 -0.59695685 0.4543972 0.017964253
-0.043325815 0.016385447 0.027668357 -0.55494404 -0.027795462 0.83142322 0.0053882548
-0.040187906 0.01593663 0.029056588 -0.15403089 -0.0076752841 0.98803627 0.002568918
-0.037379678 0.01670412 0.029457284 -0.045622688 -0.0051772869 0.9989453 0.00061229215
-0.034546629 0.01658242 0.029481687 -0.013500454 -0.0027960262 0.99990493 0.00019282576
-0.031579331 0.016353633 0.029473405 -0.00044953756 -0.001364675 0.99999899 4.055496e-06
-0.028830431 0.016477894 0.02947301 0.00017707513 -0.00128152 0.99999917 8.3785299e-06
-0.025337566 0.016463272 0.029472563 0.0097738486 -0.00057474867 0.99995208 0.00024667481
-0.022615699 0.016589688 0.029482245 0.112591 -0.0027311768 0.99363762 0.002400663
-0.019753849 0.016491473 0.028873308 0.15769462 -0.029563108 0.98704529 0.004773811
-0.01660184 0.016501145 0.02779956 0.017764222 -0.13351403 0.9908877 0.018588031
-0.013775533 0.016236017 0.028607849 -0.35181054 -0.32138455 0.87917084 0.024257246
-0.011282045 0.015072329 0.02984369 -0.45540711 -0.50706661 0.7317704 0.015102417
0.0087652784 0.015384537 0.029813169 0.4527393 -0.36337173 0.81424075 0.010894026
0.011005838 0.016166234 0.028523484 0.73095351 -0.4814432 0.4836522 0.017969256
0.012196492 0.017469766 0.027740868 0.79940414 -0.44038263 0.40867618 0.015468744
-0.042959023 0.01941227 0.027897676 -0.50702447 0.001004518 0.86193109 0.0028558276
-0.040333163 0.01965777 0.028985469 -0.27307403 -0.015631404 0.96186608 0.0026690457
-0.037488621 0.019480839 0.029448496 -0.058228474 -0.0081547489 0.99826998 0.00051002135
-0.034642398 0.019139485 0.029486949 -0.0042222352 -0.00050367054 0.999991 1.3494249e-05
-0.031620402 0.019469902 0.029477224 -0.00062116451 -0.00032999992 0.99999976 8.6702166e-06
-0.028499896 0.01944679 0.029483587 0.00042169294 -0.0014348339 0.99999887 5.0814874e-06
-0.025595332 0.019357832 0.029475808 -0.0002760512 -0.0010619306 0.99999934 3.2588243e-06
-0.022706209 0.019355183 0.029478433 0.095514596 0.0051853764 0.99541456 0.0015831807
-0.019569946 0.019469876 0.028786914 0.13283716 -0.057955369 0.98944199 0.01257927
-0.016463801 0.019535398 0.028288882 -0.20827913 -0.17618613 0.96206975 0.02197052
-0.014587902 0.019783286 0.029755613 -0.29275575 -0.20740213 0.93342292 0.015484609
0.011313022 0.019348271 0.029795228 0.52720964 -0.22287145 0.81998682 0.0086720614
0.01289269 0.019360926 0.028263375 0.84782094 -0.35076562 0.39769727 0.015719024
-0.043234769 0.022421489 0.027720414 -0.53394252 -0.0087589454 0.84547549 0.0050388332
-0.03968424 0.022915253 0.029185919 -0.14912926 0.017688857 0.9886595 0.0027220699
-0.037410934 0.022419194 0.029461334 -0.054032054 0.0071659302 0.99851346 0.0023780607
-0.034721036 0.022614865 0.029477963 -0.01717818 0.013414449 0.99976242 0.00038320004
-0.031645197 0.022627166 0.029482493 0.00050845154 0.019478364 0.99981022 0.00020044473
-0.028827637 0.022582218 0.029477157 0.00087107293 0.019032968 0.9998185 0.00020160018
-0.025861531 0.022534927 0.029484814 0.017521776 0.038705107 0.99909711 0.00081211695
-0.022547578 0.02269185 0.029455937 0.10270423 0.031852927 0.99420184 0.0018724636
-0.019529728 0.022402845 0.02874859 0.028729398 -0.026793495 0.99922806 0.010814581
-0.016627638 0.022568757 0.028739253 -0.29822907 -0.048831392 0.95324445 0.010498782
0.011793834 0.021838965 0.029882079 0.46002167 -0.120576 0.8796826 0.0077306628
0.013519731 0.02237707 0.028429076 0.8849203 -0.14241207 0.44343525 0.016296625
-0.043386716 0.024542848 0.027652079 -0.54482538 0.046779335 0.83724368 0.0082164975
-0.040044617 0.024671668 0.029071908 -0.20587485 0.058238894 0.97684377 0.0027182912
-0.038096789 0.024325997 0.029437607 -0.083675601 0.045676138 0.99544567 0.0023392632
-0.03472973 0.024644768 0.029527552 -0.017078893 0.050645612 0.99857062 0.00052540703
-0.031444598 0.024589807 0.029526766 0.003806358 0.049143076 0.99878442 0.00073081983
-0.028391104 0.024345383 0.029526247 -0.001689203 0.043118138 0.99906856 0.00053770846
-0.024917655 0.024923632 0.029500078 0.040814672 0.10120809 0.99402773 0.0017608709
-0.021811031 0.025037823 0.029283911 0.090131298 0.061659902 0.99401933 0.0020917894
-0.019473733 0.025633553 0.028598573 0.058707036 0.020446746 0.99806583 0.0029325727
-0.01636624 0.025464458 0.029161314 -0.3018021 0.011784003 0.95329773 0.0060439501
0.011796864 0.025238197 0.029878236 0.36846745 -0.01967855 0.92943239 0.007214563
0.013668825 0.025328744 0.028477807 0.8830865 0.05072841 0.46645993 0.018151205
-0.042523865 0.028935254 0.027484423 -0.59487957 0.048363999 0.80235857 0.0071816151
-0.039849322 0.029508481 0.028778834 -0.15139365 0.0071857064 0.98844743 0.0063083372
-0.037401795 0.029250653 0.029036909 -0.084085457 0.017614495 0.99630278 0.0050990935
-0.034634124 0.029193684 0.029028662 -0.0015766759 -0.014433279 0.99989462 0.0026792723
-0.031199224 0.028484171 0.028865539 0.030120967 0.049730659 0.99830836 0.0013392889
-0.028358139 0.028682377 0.028864704 0.01273927 0.052447714 0.99854243 0.0010571084
-0.025353946 0.028595481 0.028862046 -0.017158842 0.033700876 0.99928463 0.0026547387
-0.022450492 0.028628062 0.028843636 0.013765277 -0.071066357 0.99737662 0.0068024206
-0.019428657 0.028657878 0.028779767 0.0099851349 -0.038141172 0.99922246 0.0031900224
-0.016759971 0.028571423 0.028770346 -0.24466312 0.011703398 0.96953756 0.0063376836
-0.013945421 0.029835004 0.029975602 -0.31505403 0.094800197 0.94432724 0.0033341241
0.011643047 0.028688207 0.029717265 0.29784685 0.049221981 0.95334387 0.0040361397
0.013233826 0.028199628 0.028567102 0.8288179 0.1506975 0.53884226 0.013094867
-0.042520251 0.031235114 0.027995389 -0.59414554 -0.060106128 0.80210871 0.0049171993
-0.040764496 0.03129461 0.028861528 -0.15534012 -0.00068415381 0.98786086 0.0070725535
-0.037572484 0.031429667 0.029373506 -0.043241389 -0.049760941 0.99782473 0.0032847945
-0.034367632 0.031194894 0.029328877 0.026424041 -0.019344667 0.99946356 0.0020355054
-0.031773146 0.03150804 0.029006118 0.053087298 -0.0031374476 0.99858493 0.0010121323
-0.028644966 0.031651266 0.02886695 -0.058156241 -0.085317351 0.99465513 0.0091078207
-0.025472231 0.03155338 0.028865647 -0.045183275 -0.12942506 0.99055928 0.012983875
-0.022316024 0.031460449 0.028863125 0.013148235 -0.18324298 0.98297971 0.014187295
-0.019486612 0.031656791 0.028861342 0.089549504 -0.16570227 0.98210162 0.014956802
-0.017089661 0.031677466 0.028824773 -0.068988308 -0.094821766 0.99310094 0.01344998
-0.014557322 0.031411175 0.029486252 -0.2370736 0.10938717 0.96531373 0.0065318174
0.011142526 0.031500772 0.029466994 0.62854511 0.32518858 0.70652914 0.023159444
0.012572227 0.031152297 0.028089222 0.88413215 0.29860952 0.35936424 0.013613479
-0.043191131 0.034170054 0.027074629 -0.67839378 -0.018076509 0.73447609 0.0032916432
-0.041302644 0.033590224 0.028875582 -0.25674424 0.027972763 0.96607447 0.0074727619
-0.037781496 0.033821438 0.029361745 -0.055981755 0.040512893 0.99760956 0.0023342222
-0.034492448 0.034018714 0.029285207 0.048493002 0.026831534 0.99846309 0.0015100554
-0.031747472 0.03461105 0.02889579 0.02579774 0.023711609 0.99938595 0.0039817924
-0.028234361 0.034631588 0.028873045 -0.19461024 -0.15989424 0.96776068 0.017958378
-0.025419649 0.033869956 0.029289206 -0.10688379 -0.30437887 0.94653547 0.013223561
-0.022359587 0.033138648 0.029315045 0.013833107 -0.3211517 0.94692671 0.016048511
-0.019286817 0.034212857 0.029288294 0.14458464 -0.31886646 0.93670666 0.014891845
-0.017079417 0.034673341 0.028947145 0.20841458 -0.17968524 0.96139306 0.021613125
-0.014011279 0.035021078 0.028987965 0.0042660795 0.072412133 0.99736571 0.019355092
0.0078623667 0.035540402 0.029595163 0.24955444 0.15009397 0.95665795 0.0064064078
0.010450006 0.033573732 0.028720265 0.59250265 0.40496865 0.69637704 0.014116315
-0.039850563 0.037871595 0.028506815 -0.20315409 0.045807261 0.97807467 0.0052749063
-0.037246369 0.037946034 0.028893277 -0.022314716 0.049342081 0.99853259 0.0016830768
-0.03440173 0.037433278 0.02889874 0.024118401 0.04797769 0.99855709 0.0010659815
-0.031857524 0.037611313 0.02889812 -0.0028539705 0.034320984 0.99940675 0.0056950632
-0.029155076 0.037345748 0.028869603 -0.27308831 -0.0505112 0.96066195 0.012704918
-0.016960762 0.037466537 0.029159199 0.24607626 -0.13629143 0.9596203 0.021995572
-0.013442543 0.037582386 0.028821651 0.1655329 -0.024828609 0.98589176 0.014884904
-0.011646247 0.037582368 0.028821656 0.065172657 -0.017146997 0.99772668 0.007010655
-0.042682018 0.03991561 0.027160916 -0.56165016 -0.0099143945 0.82731551 0.0018780801
-0.040080227 0.041207388 0.028519947 -0.24372901 -0.050009191 0.96855319 0.0099787544
-0.03730046 0.040586602 0.028896337 -0.12137388 -0.094333246 0.98811418 0.0067054904
-0.034376029 0.040574148 0.028900096 -0.045461621 -0.099014036 0.99404705 0.0080540581
-0.031705964 0.040449306 0.028871873 0.006657477 -0.10098919 0.99486524 0.0084617902
-0.029328568 0.040058933 0.028827034 -0.19680884 -0.019724304 0.98024344 0.010126847
-0.016185373 0.04064405 0.028823355 0.2403263 0.023241157 0.97041392 0.0114006
-0.013474797 0.040643521 0.028823519 -0.029029258 -0.093720019 0.99517536 0.010825284
-0.01046306 0.040642731 0.028823759 0.11756428 -0.16425991 0.97938621 0.015666619
-0.0077519026 0.041668706 0.028824331 0.11445583 -0.20629124 0.97177356 0.019758591
-0.042304922 0.043388318 0.027351525 -0.55819571 -0.013927409 0.82959247 0.00078518788
-0.040009201 0.0433551 0.028698627 -0.24016877 -0.056548975 0.96908265 0.010648533
-0.037479848 0.043561038 0.028903151 -0.16689762 -0.1967736 0.96613938 0.015641674
-0.03464793 0.044269171 0.02929429 -0.11005034 -0.26365986 0.95831746 0.024210351
-0.032128669 0.044175327 0.029095393 0.17415464 -0.22116858 0.95955956 0.022515355
-0.028959623 0.043738127 0.028825179 -0.077150933 -0.15723258 0.98454338 0.034125026
-0.016537229 0.043737125 0.028825482 -0.23228122 -0.1793877 0.95596313 0.016393391
-0.013106268 0.04417102 0.029115448 -0.14118853 -0.29443568 0.94518435 0.024802886
-0.0099742003 0.044537835 0.029226217 0.17867313 -0.3094025 0.93399465 0.028895415
-0.0080565475 0.044009078 0.028868649 0.19516246 -0.27782911 0.94059694 0.028405484
-0.0052766241 0.044295207 0.028855314 0.36552104 -0.28069404 0.88747126 0.029382527
-0.042454917 0.045634571 0.027297297 -0.56327623 0.019977605 0.82602715 0.0017769274
-0.039795462 0.046279538 0.028873377 -0.37570584 -0.13917646 0.91622871 0.015975306
-0.037362542 0.04585534 0.029255688 -0.27754024 -0.22640118 0.93365616 0.018003032
-0.031082015 0.045541339 0.029415993 0.18632156 -0.34265459 0.92079973 0.023744535
-0.029275019 0.04685786 0.029197399 0.20308062 -0.21511064 0.95524108 0.022834564
-0.026074314 0.047924131 0.028827816 0.21290772 0.0062722107 0.97705221 0.029926496
-0.019163067 0.047501024 0.028828401 -0.19622032 -0.039761849 0.97975338 0.021647098
-0.016434593 0.046820637 0.029001681 -0.28039527 -0.19495691 0.93987787 0.025816133
-0.014132195 0.045475286 0.029248118 -0.2129617 -0.38036579 0.89998293 0.030703135
-0.0072967247 0.046165377 0.029419219 0.36547336 -0.28063786 0.88750869 0.029369796
-0.004370078 0.046584204 0.028408507 0.61740524 -0.2261847 0.75342643 0.038575549
-0.042380039 0.049096446 0.027198168 -0.61209464 0.020734804 0.79051268 0.0044223391
-0.039818034 0.049068991 0.028869636 -0.41253585 -0.13701271 0.90057856 0.014359294
-0.027680784 0.050041307 0.02882955 0.32952052 -0.02715295 0.94375789 0.025939917
-0.025227418 0.050041765 0.028829411 0.17048328 -0.050509673 0.98406523 0.025762511
-0.022467351 0.050041758 0.028829414 0.0018531979 -0.00073910842 0.99999803 2.7680029e-05
-0.019707311 0.050043147 0.028828997 -0.15316519 0.027418409 0.98782015 0.021991955
-0.017256236 0.050169855 0.028791038 -0.30703831 0.013636441 0.95159942 0.015355259
-0.0042129564 0.049745329 0.028262606 0.75211269 0.076511249 0.65457815 0.016304936
-0.04091775 0.052294064 0.028368069 -0.58891153 0.054123461 0.80638325 0.0064387228
-0.028247112 0.051989984 0.028758714 0.3158727 0.11077758 0.94231248 0.013053011
-0.025297383 0.05217693 0.028830936 -0.021496149 -0.023009907 0.99950415 0.00036563823
-0.022526061 0.052176654 0.028831016 0.00038097033 -0.10161093 0.99482417 0.010405928
-0.019754762 0.052176647 0.02883102 0.019916872 -0.020831425 0.99958462 0.00035502628
-0.017291388 0.052177567 0.028830742 -0.28386098 0.037642218 0.95812631 0.010154413
-0.006291627 0.052782495 0.029132772 0.67503756 0.19608603 0.71124858 0.013550431
-0.0040670568 0.05241017 0.02802399 0.76694983 0.15422443 0.6228987 0.010664819
-0.039964665 0.05541965 0.028831786 -0.46096116 0.14929448 0.87477195 0.0094973948
-0.028192034 0.055418763 0.028832048 -0.23003958 -0.1708997 0.958058 0.013372861
-0.025266767 0.055665798 0.028982123 -0.13402025 -0.26691723 0.95435518 0.013538727
-0.022304876 0.055513341 0.029126139 0.011280908 -0.26335424 0.96463323 0.016773857
-0.019646872 0.055719007 0.028936714 0.1426979 -0.19223662 0.97091836 0.018251676
-0.017173599 0.055572648 0.028832497 -0.028762322 -0.022956621 0.99932265 0.038753282
-0.0071945041 0.055546362 0.028918479 0.50229293 0.26123989 0.82429099 0.019715725
-0.0046000928 0.05537159 0.02791791 0.75330245 0.20173322 0.62597054 0.013631462
-0.038292293 0.058694795 0.028833615 -0.12873749 0.15409663 0.97963303 0.010498695
-0.030810466 0.058692671 0.028834239 -0.2026612 -0.10910055 0.9731524 0.016787097
-0.028424112 0.058819238 0.028905019 -0.31418708 -0.15619439 0.93642396 0.01526918
-0.026400765 0.057616193 0.029473923 -0.23579933 -0.23282988 0.94349825 0.012720416
-0.018638195 0.058181018 0.029308172 0.30496487 -0.14853862 0.94070864 0.015697777
