# .PCD v0.7 - Point Cloud Data file format
VERSION 0.7
FIELDS x y z normal_x normal_y normal_z curvature
SIZE 4 4 4 4 4 4 4
TYPE F F F F F F F
COUNT 1 1 1 1 1 1 1
WIDTH 556
HEIGHT 1
VIEWPOINT 0 0 0 1 0 0 0
POINTS 556
DATA ascii
-0.046756569 0.042685773 -0.012530722 0.21214241 0.56425142 -0.7978822 0.0030452376
-0.044566307 0.042189006 -0.012218088 0.26043135 0.6133092 -0.74567246 0.0017307322
0.050784394 0.042186931 -0.01201263 -0.27557582 0.58485299 -0.76289248 0.0019749808
0.052906334 0.042434409 -0.012256376 -0.19009802 0.5351454 -0.823093 0.0024662109
0.05561164 0.042865846 -0.012461984 -0.081413873 0.45899776 -0.88469934 0.0032949867
0.058504906 0.043081928 -0.012455095 0.056189295 0.36586583 -0.9289698 0.0039989226
0.061077978 0.04282726 -0.012262467 0.22864978 0.26583591 -0.93650973 0.0048997952
-0.05795832 0.045465857 -0.012133289 -0.10799803 0.374749 -0.92081469 0.0043452415
-0.055427335 0.045467004 -0.012243734 0.010975464 0.45906377 -0.88833547 0.0037375984
-0.053134445 0.045263089 -0.012177646 0.12707861 0.53532964 -0.83502883 0.0025226052
-0.05088193 0.045169931 -0.012053223 0.15241848 0.57629997 -0.80289912 0.0017989675
-0.012900966 0.0057512904 -0.0095301587 -0.18829668 -0.76009023 -0.62193817 0.001365582
-0.0105148 0.0055218968 -0.009847871 -0.13434824 -0.70976084 -0.69151282 0.0010135177
-0.0077042454 0.005382787 -0.010141161 -0.10863211 -0.71980047 -0.68562841 0.00091460691
-0.004385117 0.0050838822 -0.010326421 -0.077112824 -0.70434296 -0.70565891 0.00081399805
-0.0014626853 0.0050877449 -0.010595167 -0.049273528 -0.68805945 -0.72397947 0.0012473917
0.001324119 0.0048018433 -0.010464118 -0.029368166 -0.70360482 -0.70998442 0.0013915084
0.0044690794 0.0050426694 -0.010842452 -0.0054311692 -0.68933779 -0.72441965 0.0010491839
0.0074802404 0.0050737332 -0.010846609 0.011935574 -0.70985752 -0.70424414 0.0014805251
0.010390863 0.00503807 -0.010738729 0.036490586 -0.71268231 -0.7005372 0.0012774469
0.013439825 0.0051635006 -0.010611841 0.063845962 -0.73169369 -0.67863679 0.0011484621
0.016440576 0.0052711195 -0.010386834 0.095757313 -0.7543658 -0.64943266 0.0011184884
0.019539852 0.0054381187 -0.010053913 0.12698507 -0.76476836 -0.63166773 0.0013380274
0.022381939 0.0056780186 -0.0096238935 0.15771811 -0.78851354 -0.59445053 0.0010902811
-0.022067513 0.0085510351 -0.009637583 -0.26983511 -0.72821617 -0.62999225 0.00073680014
-0.019254554 0.0081451871 -0.010284018 -0.23223382 -0.73013663 -0.64262581 0.0015186712
-0.016072115 0.0079672467 -0.010978994 -0.17583162 -0.68309563 -0.70884669 0.001422617
-0.013343018 0.0074251159 -0.011175699 -0.15808456 -0.65243745 -0.74117112 0.0014591567
-0.010283805 0.0070063081 -0.011443423 -0.11955057 -0.65793097 -0.74352843 0.00095996109
-0.0074710464 0.0067787562 -0.011622395 -0.093062617 -0.66387999 -0.74202615 0.0012261636
-0.0046410621 0.0063960827 -0.011669062 -0.081076279 -0.67893404 -0.72970903 0.0013427926
-0.0019345602 0.0063330629 -0.011851683 -0.048126344 -0.64897996 -0.75928175 0.0018340867
0.0016514477 0.0061456133 -0.01193684 -0.023455895 -0.6683321 -0.74349314 0.0034756616
0.0041617621 0.0060853208 -0.011873735 -0.012551603 -0.61417234 -0.7890721 0.0010112275
0.0085970387 0.0060088746 -0.011838676 0.0094650323 -0.71914256 -0.69479811 0.0016070483
0.010399619 0.0060879658 -0.01187213 0.028964972 -0.69435978 -0.71904486 0.0023829334
0.013486069 0.0062296828 -0.011752486 0.059731819 -0.72944599 -0.68142551 0.0012348762
0.016726827 0.0064677647 -0.01169307 0.080915548 -0.69111204 -0.7182039 0.0011058386
0.01965245 0.0065627536 -0.011358763 0.1134251 -0.71486384 -0.69000322 0.001280071
0.022390721 0.0070447279 -0.011341079 0.13966155 -0.72853667 -0.6706183 0.002250141
0.025649616 0.0071884594 -0.010686242 0.19067477 -0.76337618 -0.61717093 0.0015251578
0.028484622 0.0078033628 -0.010485973 0.21092202 -0.76607758 -0.60715485 0.0019015635
0.031372197 0.0082123149 -0.0099530239 0.25386947 -0.77801508 -0.57466757 0.0015254138
0.03378576 0.0087376852 -0.0095267035 0.28253523 -0.77695954 -0.56259018 0.0011296844
-0.030655062 0.011716873 -0.0095043434 -0.30476713 -0.71221936 -0.63234532 0.0011490384
-0.028483879 0.011297243 -0.0099923303 -0.28959277 -0.71645117 -0.63469183 0.00087775564
-0.025394548 0.010716697 -0.010677462 -0.25739616 -0.70788544 -0.65775782 0.0014130762
-0.022602541 0.0099377483 -0.01092632 -0.25513443 -0.7167936 -0.64893252 0.0014646056
-0.019511737 0.0095591312 -0.011655882 -0.19542857 -0.63514853 -0.74725765 0.0014381632
-0.017078187 0.0090352288 -0.011839101 -0.17460075 -0.6732673 -0.71848851 0.0013614132
0.029575652 0.0091212597 -0.011707246 0.19924949 -0.71599299 -0.66906929 0.0014889712
0.031985514 0.0096068159 -0.011443884 0.21576627 -0.67897213 -0.70174199 0.00096876413
0.034610987 0.010234984 -0.01106687 0.27383882 -0.70862895 -0.65027475 0.0016530979
0.037407178 0.010969375 -0.010683147 0.30262527 -0.73196304 -0.61044914 0.0016733952
0.039902113 0.011223499 -0.0095729241 0.33266833 -0.71177411 -0.61863506 0.0010761982
0.042029716 0.011845487 -0.009131588 0.36452329 -0.74826902 -0.55427092 0.0014003438
-0.0367034 0.014639409 -0.00962801 -0.35952115 -0.69671452 -0.62075233 0.00090238726
-0.03431569 0.014019364 -0.010304503 -0.32338417 -0.70708948 -0.62884593 0.0011939554
-0.031301092 0.013488024 -0.011132595 -0.27774653 -0.65383911 -0.70381206 0.0010235165
-0.028335264 0.012764851 -0.011618949 -0.2334421 -0.60126185 -0.76419169 0.001268344
-0.026360452 0.012280889 -0.011942746 -0.24200387 -0.63766712 -0.73131025 0.0023805529
0.038476918 0.012290949 -0.011712776 0.28816581 -0.67873639 -0.67548311 0.0012682416
0.040786974 0.012856918 -0.011090559 0.31905472 -0.68949819 -0.65022796 0.001260295
0.043747116 0.013824387 -0.010547024 0.35889545 -0.69058651 -0.62792063 0.0011449428
0.046175759 0.014411647 -0.009583978 0.41427189 -0.69169456 -0.59155518 0.0012538721
-0.0401894 0.01710432 -0.010337749 -0.38503239 -0.66272116 -0.6423012 0.0013144249
-0.037717704 0.016354838 -0.010931037 -0.35655874 -0.67643434 -0.64443964 0.0016024553
-0.034445357 0.015483861 -0.011735017 -0.28816754 -0.62168401 -0.72833264 0.0012943494
0.044524606 0.015332516 -0.011762339 0.35673591 -0.63625246 -0.68404841 0.0015287878
0.046770621 0.01609939 -0.011151045 0.3946819 -0.64880186 -0.65060151 0.001337498
0.049363744 0.016786641 -0.010131162 0.43762618 -0.66374213 -0.60657203 0.0015084943
0.051525652 0.017602468 -0.0093978783 0.48147482 -0.66022199 -0.57644504 0.0011791205
-0.045487866 0.020704266 -0.0103848 -0.43327692 -0.60547101 -0.6675896 0.00063765934
-0.04338342 0.019641144 -0.010752548 -0.40409675 -0.60336202 -0.68750274 0.0010933774
-0.040731918 0.018550545 -0.01141359 -0.36074176 -0.59973067 -0.71427476 0.00081471447
0.05022274 0.018552449 -0.011399893 0.43146351 -0.61704051 -0.65810359 0.00087388413
0.052486807 0.019567037 -0.010674727 0.46282718 -0.60546589 -0.64745808 0.0010504381
0.054587018 0.020270083 -0.0097664576 0.51020879 -0.61317754 -0.60307574 0.0010232114
-0.051053353 0.023721436 -0.0092513599 -0.47132859 -0.62494951 -0.62232429 0.00097450189
-0.049291052 0.023187742 -0.010052401 -0.44761404 -0.57816589 -0.68217725 0.00085009099
-0.046784028 0.022378556 -0.011084272 -0.43151745 -0.59622109 -0.67698824 0.00091363757
-0.04427629 0.02139907 -0.011901861 -0.39412114 -0.56966907 -0.72121125 0.0010795763
0.053632561 0.021676205 -0.011809253 0.48093897 -0.55024046 -0.68259293 0.0012592055
0.055525579 0.022357853 -0.010956891 0.49245128 -0.50609583 -0.70806688 0.0012958527
0.057711884 0.023124268 -0.0097538074 0.55588722 -0.56205821 -0.61243778 0.0018505806
-0.05424796 0.026345324 -0.0092540085 -0.52300584 -0.60072803 -0.60464102 0.00043406399
-0.052078437 0.025757829 -0.010412904 -0.46142438 -0.55391246 -0.69301409 0.0010373322
-0.049284637 0.024849504 -0.011597309 -0.41124675 -0.51480228 -0.75223309 0.0010968007
0.0019131433 0.026950352 -0.011934125 0.023309408 0.68119836 -0.73172772 0.0023829972
0.0044186418 0.026923703 -0.01194924 -0.011962725 0.69453865 -0.71935594 0.0018503378
0.0070524467 0.026918331 -0.011938267 -0.047377355 0.70294183 -0.70966762 0.0017353155
0.056616861 0.024556899 -0.01174685 0.51775503 -0.48493281 -0.70481914 0.00068989745
0.058647703 0.025480166 -0.010891845 0.5202828 -0.45685518 -0.72151864 0.001210111
0.06073593 0.026247267 -0.0097075831 0.59843218 -0.48889592 -0.63471228 0.0016677247
-0.057274923 0.029613174 -0.0096820593 -0.5383321 -0.53824955 -0.648449 0.0023665926
-0.055185989 0.028635876 -0.010513714 -0.49520898 -0.4932732 -0.71515709 0.0012125551
-0.052755147 0.027928 -0.011702145 -0.45568454 -0.49740854 -0.73819798 0.0017933002
-0.01536693 0.029955357 -0.011905562 0.2220732 0.66398495 -0.71400803 0.002988395
-0.013036165 0.029638089 -0.011672632 0.18915977 0.68812788 -0.70049876 0.0013198042
-0.010334741 0.029310869 -0.011340674 0.1617786 0.7007376 -0.69483411 0.0016206502
-0.0074538714 0.028967855 -0.011044585 0.13502708 0.69951826 -0.70174205 0.0016446653
-0.0044635092 0.028782472 -0.010742064 0.10900054 0.72758013 -0.67730802 0.001657036
-0.0015174503 0.028569514 -0.010573003 0.080025889 0.73844165 -0.66955185 0.0018419866
0.0014907728 0.02842579 -0.01050071 0.032145735 0.73794383 -0.67409605 0.0024256164
0.0044796038 0.028363539 -0.010506415 -0.0050170235 0.73650265 -0.67641598 0.0021909049
0.0074885762 0.028430043 -0.010514024 -0.046959553 0.74315947 -0.66746449 0.0025158003
0.01052729 0.028657546 -0.010568024 -0.083684526 0.75124973 -0.65469128 0.00164038
0.013413963 0.028864369 -0.010738585 -0.12472749 0.75378501 -0.64517534 0.0015951488
0.016386935 0.029141799 -0.011088046 -0.15776907 0.74621356 -0.64674127 0.0015180045
0.019253815 0.029479137 -0.011445027 -0.18960996 0.6982109 -0.69032568 0.00097462971
0.021544198 0.029744672 -0.011870298 -0.21196947 0.67316467 -0.70846194 0.0018931457
0.059513979 0.027729619 -0.011659752 0.54274386 -0.3849026 -0.74651128 0.0026107333
0.061466847 0.028688045 -0.010636165 0.58100945 -0.38245532 -0.71843994 0.0019717654
0.063367873 0.0293721 -0.0093888026 0.63790417 -0.42330793 -0.64334184 0.0021373453
-0.058142375 0.032102171 -0.010675337 -0.50164127 -0.36618924 -0.78374839 0.0011193887
-0.05632627 0.031313058 -0.011534339 -0.46710759 -0.36452699 -0.80556226 0.001476627
-0.021965131 0.032622069 -0.011657151 0.2569055 0.67219859 -0.6943692 0.0015473984
-0.01932125 0.032174028 -0.011154144 0.2470298 0.69695491 -0.67322367 0.0011728285
-0.016452149 0.031681638 -0.010628954 0.2314291 0.74321026 -0.62775719 0.0012250657
-0.013568764 0.031117762 -0.010307732 0.20160668 0.74053341 -0.64106554 0.0023221783
-0.010564912 0.030736106 -0.0098960968 0.17701238 0.7494303 -0.63798189 0.0014847909
-0.0077219387 0.030383987 -0.0095811849 0.14328712 0.75806803 -0.63624018 0.0015166742
-0.0049195713 0.030162992 -0.0092616072 0.10988857 0.76797169 -0.63098645 0.0010784665
-0.0025136836 0.030045249 -0.0090672588 0.084898546 0.76658416 -0.6365068 0.0010852978
0.011595768 0.030024534 -0.0090459874 -0.087793536 0.7818861 -0.6172086 0.0010405491
0.013930299 0.030177534 -0.0092912894 -0.12468238 0.78272933 -0.60974509 0.0012487267
0.016631981 0.030447081 -0.0096447412 -0.16662891 0.77150947 -0.61400974 0.001387559
0.019633573 0.030818561 -0.010064199 -0.20455475 0.75519514 -0.62276608 0.0015560425
0.022602402 0.031261034 -0.010530856 -0.22320656 0.74075788 -0.63360602 0.0015603703
0.025478788 0.031964544 -0.010771678 -0.23951633 0.74514341 -0.62240922 0.0012399218
0.028307766 0.032398358 -0.011336324 -0.24530685 0.70049137 -0.67017633 0.00073540979
0.030517222 0.032760028 -0.01183446 -0.25710684 0.68719655 -0.67945343 0.0024967382
0.062090967 0.031335846 -0.01137341 0.54951257 -0.29123813 -0.78308135 0.001278766
0.06413383 0.031801827 -0.0099660838 0.63118792 -0.33455279 -0.69976872 0.001757462
-0.060898826 0.035360642 -0.010396783 -0.54703236 -0.32825866 -0.77006608 0.0013491024
-0.058860574 0.03439239 -0.011425721 -0.49555817 -0.3210941 -0.80704445 0.0011612796
-0.030348677 0.035851009 -0.011940554 0.30545247 0.64478582 -0.70067823 0.0037833971
-0.028130367 0.035407089 -0.011432732 0.29924777 0.65829188 -0.6907261 0.0014254929
-0.025333868 0.034858387 -0.010740712 0.2996147 0.72489476 -0.62028915 0.0012233768
-0.022623844 0.034156606 -0.010290609 0.27582198 0.7377286 -0.61618072 0.0021180345
-0.019759214 0.03356396 -0.0097669214 0.26562789 0.7488758 -0.6071465 0.0011763439
-0.017579438 0.033195097 -0.0092221703 0.24878433 0.75387293 -0.60809702 0.0011847048
0.026066622 0.033288669 -0.0094109215 -0.24387449 0.7700569 -0.58952308 0.00091008359
0.028756106 0.033739619 -0.0099450508 -0.26095363 0.75831908 -0.59737384 0.0013042451
0.031444672 0.034221016 -0.01051832 -0.26631179 0.74079329 -0.61668748 0.0018119193
0.034282841 0.035021689 -0.010885376 -0.30651632 0.72973591 -0.61117369 0.0015195173
0.036942791 0.035607319 -0.011608492 -0.30652079 0.66397166 -0.682046 0.0019136434
0.062716722 0.033863276 -0.011823446 0.54285759 -0.17960069 -0.82039583 0.002014895
0.064395383 0.034649123 -0.010741577 0.59711397 -0.20026088 -0.77675641 0.0017928816
0.066355973 0.035265114 -0.0092828469 0.68330699 -0.23609629 -0.69090527 0.0020665545
-0.063434109 0.038114592 -0.0096956799 -0.57131845 -0.26898909 -0.77539676 0.0012830868
-0.061332021 0.03775407 -0.011059135 -0.53191203 -0.23845552 -0.81253219 0.0018443691
-0.059651051 0.036793455 -0.011853814 -0.48251647 -0.20713292 -0.85104281 0.0025287261
-0.036382586 0.038914263 -0.011789287 0.31690902 0.67597598 -0.66530073 0.0012042517
-0.034154437 0.038318928 -0.011337827 0.31765163 0.66669106 -0.67425549 0.0010438493
-0.03138715 0.037664652 -0.010625341 0.32665977 0.7125361 -0.62095547 0.0012799242
-0.028687298 0.036910299 -0.010087662 0.32708928 0.73082596 -0.59908772 0.0018856673
-0.026239678 0.036294643 -0.009473891 0.31853294 0.74278295 -0.58890611 0.001174373
0.035035193 0.036470231 -0.0095779486 -0.33238679 0.74822259 -0.57417941 0.0012664628
0.037668135 0.03708132 -0.010295765 -0.34279695 0.72501904 -0.59735894 0.002090801
0.040336493 0.037935361 -0.010906461 -0.35148728 0.67262203 -0.65118068 0.0016570161
0.042902485 0.038594857 -0.011632731 -0.32602295 0.64490855 -0.69123226 0.0018757764
0.064706154 0.037510429 -0.011081764 0.55515373 -0.08902213 -0.82697004 0.0017938287
0.066695914 0.037756003 -0.0095780818 0.65374869 -0.13054782 -0.74536556 0.0023420609
-0.064048387 0.040652752 -0.010024746 -0.55094081 -0.17960212 -0.81498915 0.0025264956
-0.061917644 0.040762275 -0.011401896 -0.43516001 -0.043181986 -0.89931697 0.0025865994
-0.042511933 0.041776083 -0.011815353 0.28057021 0.63460505 -0.72010893 0.0017428047
-0.040236413 0.041315552 -0.011263384 0.30250606 0.65569043 -0.69178039 0.0013135237
-0.037453748 0.040592525 -0.010605098 0.32847857 0.69820809 -0.63608754 0.0016345285
-0.034713935 0.039852384 -0.0099702543 0.35261804 0.7250374 -0.59159219 0.0012709716
-0.032493208 0.039264493 -0.0093642334 0.36467466 0.73015213 -0.57783234 0.0012059637
0.041164998 0.039568052 -0.0096094245 -0.40061289 0.70073199 -0.5903253 0.0013658135
0.043715719 0.040247332 -0.010422534 -0.3605037 0.66151333 -0.65759957 0.0016513515
0.046282038 0.040930893 -0.011114984 -0.31638628 0.62867409 -0.71040028 0.001825069
0.048814584 0.041592404 -0.011650409 -0.26348725 0.60212672 -0.75366962 0.0019625414
0.062920034 0.04175723 -0.011942377 0.35955471 0.14446749 -0.92187285 0.0090574296
0.064631082 0.040508248 -0.011250056 0.48272353 0.041217867 -0.87480223 0.0040668813
0.066856541 0.04054575 -0.0097487969 0.62147337 -0.023478979 -0.78308344 0.0030013754
-0.066333562 0.044543535 -0.0091426438 -0.58154565 -0.079592861 -0.80961078 0.003083312
-0.064203337 0.043970108 -0.010406639 -0.42738602 0.044263203 -0.90298498 0.0023931363
-0.061567981 0.043826886 -0.011596827 -0.2961731 0.15282765 -0.9428283 0.0040515019
-0.051275786 0.04491654 -0.011984914 0.12202159 0.5725776 -0.81071919 0.0033462031
-0.048978683 0.044639055 -0.011724015 0.20898964 0.60442722 -0.76875943 0.0018970611
-0.046247352 0.044089574 -0.011262621 0.2652497 0.61235869 -0.74475461 0.0013833352
-0.043458406 0.043538243 -0.010562673 0.29904103 0.64897084 -0.69957942 0.00096718431
-0.040751152 0.042878285 -0.009886805 0.35538509 0.70020866 -0.61920041 0.0016985643
-0.038574815 0.042298332 -0.0093384041 0.37148094 0.71597481 -0.59108543 0.0014837201
0.044730268 0.042002928 -0.009263996 -0.3670944 0.70029414 -0.61223346 0.0024822697
0.046903197 0.042694841 -0.0097300578 -0.37457204 0.67577487 -0.6348418 0.0016502457
0.049656365 0.043415312 -0.010420989 -0.30849159 0.6264174 -0.71584511 0.0018627662
0.052412003 0.043803677 -0.011176434 -0.237684 0.56376487 -0.79099643 0.0012005422
0.055303331 0.044328704 -0.011572328 -0.1548395 0.50965685 -0.84633011 0.0023864219
0.058395546 0.044538569 -0.011823854 -0.021607161 0.42768377 -0.90367019 0.00343612
0.061832771 0.044044986 -0.011719029 0.18037076 0.29055357 -0.93970478 0.0051597259
0.064502433 0.043493856 -0.0109774 0.39613241 0.16701339 -0.90287632 0.0050532729
0.066906959 0.0434816 -0.0096387668 0.5688085 0.084749229 -0.81809193 0.0036711961
-0.066275172 0.045758922 -0.0092039863 -0.45008332 0.083308794 -0.88909203 0.0037913166
-0.064409003 0.046797611 -0.010093907 -0.30945781 0.22479369 -0.9239608 0.0041669882
-0.061358575 0.046747703 -0.011132083 -0.18394673 0.34126619 -0.92179233 0.0051344302
-0.05851594 0.046869624 -0.011488393 -0.049455132 0.42206243 -0.90521681 0.0052901036
-0.055444732 0.046990171 -0.01136795 0.08597701 0.51816899 -0.85094589 0.002447977
-0.052402139 0.046713736 -0.011058391 0.17357339 0.5727244 -0.80116099 0.0014580876
-0.049514811 0.046442773 -0.010388211 0.26364619 0.6397503 -0.72194898 0.0015728694
-0.046728209 0.04579547 -0.0098503437 0.31878483 0.679717 -0.66057622 0.0017067367
-0.044481833 0.045284111 -0.0092665637 0.3555429 0.69248527 -0.62773675 0.0019870631
0.050711773 0.045206886 -0.0092606395 -0.36329159 0.66329432 -0.65426284 0.002184222
0.052784357 0.045760389 -0.0097257216 -0.29837957 0.63428801 -0.7131958 0.0020876836
0.055606961 0.046397284 -0.010224209 -0.23073134 0.57216054 -0.78701675 0.0030517997
0.058533352 0.046498399 -0.01076779 -0.070587598 0.48366204 -0.8724038 0.002872739
0.06150071 0.046504732 -0.010812688 0.092938602 0.39108559 -0.91564977 0.005462172
0.064537741 0.046498552 -0.010209054 0.30397847 0.28224194 -0.9099102 0.007012831
0.066615097 0.046289504 -0.0093940785 0.49695382 0.18948978 -0.84683561 0.0046349736
-0.066117659 0.048591617 -0.0090901563 -0.34726003 0.22485794 -0.91041172 0.0073725614
-0.064121217 0.049531199 -0.0094628548 -0.20294023 0.36403409 -0.90900743 0.0076521575
-0.061363269 0.049613714 -0.0098926211 -0.065307602 0.49170613 -0.86830872 0.0054694046
-0.058455471 0.049494416 -0.010027825 0.026706278 0.55315667 -0.83264911 0.0043370761
-0.055546548 0.049149334 -0.0098920437 0.14868332 0.61574656 -0.77378905 0.0040140236
-0.052687243 0.048623294 -0.0095605804 0.23912321 0.65954179 -0.71261817 0.0025830707
-0.050609443 0.048141018 -0.0092906766 0.30425951 0.67766875 -0.66947085 0.0023539925
0.056651801 0.048168726 -0.0092175212 -0.26920763 0.62679052 -0.73120511 0.0026964725
0.058712184 0.048605461 -0.0094414279 -0.17176612 0.57113057 -0.80268693 0.0040073488
0.061578352 0.04900131 -0.009567027 -0.01672391 0.48220485 -0.87589884 0.0049109287
0.064342178 0.048951313 -0.0094071068 0.19305629 0.36554089 -0.91055423 0.006008158
0.066233203 0.048405387 -0.0090921056 0.38901484 0.29654095 -0.87219888 0.0069163097
-0.063319921 0.051151112 -0.0090191821 -0.13923569 0.44093463 -0.88667363 0.0087397285
-0.061748788 0.051112205 -0.0091003738 -0.013771554 0.5705896 -0.8211199 0.0045553632
-0.0077260104 0.0027576138 -0.0063176462 -0.13086843 -0.8494336 -0.51121032 0.00093065295
-0.0048844824 0.0026750602 -0.0069546793 -0.10100032 -0.8500253 -0.51696795 0.0011255327
-0.0013747099 0.0024577654 -0.0070885252 -0.048279282 -0.84884572 -0.52643144 0.0013092586
0.0015918087 0.002357933 -0.0071199145 -0.030044148 -0.84656769 -0.53143251 0.0014289232
0.0045059873 0.0024948707 -0.0075413724 -0.010433157 -0.84213018 -0.53917342 0.0017299221
0.0070404215 0.0026740392 -0.007695375 0.025451832 -0.85512537 -0.5177961 0.0016917295
0.010479784 0.002319904 -0.0068008392 0.048650727 -0.88272148 -0.46737126 0.0018706211
0.013032985 0.0026230467 -0.0069169253 0.086331926 -0.8535409 -0.51382369 0.0017152677
0.016625253 0.0027804151 -0.0063932124 0.12029028 -0.91221344 -0.39165932 0.0008474171
0.018661065 0.0028935187 -0.0060449969 0.15581614 -0.89701241 -0.4136304 0.0012268804
-0.019021187 0.0056984848 -0.0070674364 -0.23653218 -0.80509835 -0.54393858 0.0011803745
-0.016443156 0.005256163 -0.0074332464 -0.20969115 -0.80913943 -0.54892898 0.00090177136
-0.013549628 0.0048034168 -0.0079537462 -0.19850306 -0.80209905 -0.56323504 0.001040332
-0.010535615 0.004060945 -0.007845303 -0.13626759 -0.8229031 -0.55159914 0.0012797357
-0.0074845036 0.0037585353 -0.0080982149 -0.1170053 -0.81449491 -0.56824988 0.0019095094
-0.0044057555 0.0035094535 -0.0083680805 -0.093749367 -0.82941973 -0.55070323 0.0012787732
-0.001775539 0.0034478204 -0.0085978452 -0.058687717 -0.82282621 -0.56525463 0.0015603144
0.0015918975 0.0032313818 -0.0085337041 -0.030643601 -0.82050121 -0.57082278 0.0015640904
0.0043857582 0.0033624442 -0.0088394769 0.00065604493 -0.84176511 -0.53984362 0.002363859
0.0077605508 0.0032563352 -0.008560732 0.041513458 -0.79473668 -0.60553294 0.001344164
0.010833979 0.0033726569 -0.0085783275 0.052887663 -0.80890054 -0.58556193 0.0011128898
0.013295112 0.0036040796 -0.0085694641 0.08643695 -0.81939483 -0.56667519 0.0021056151
0.016284749 0.0036572993 -0.0081335139 0.11037716 -0.83257937 -0.54279691 0.001260714
0.01975829 0.0039466592 -0.0076916534 0.14752713 -0.84225148 -0.51850575 0.001317045
0.022671124 0.004451775 -0.0075558554 0.17330487 -0.84925163 -0.49873555 0.0013268105
0.025532922 0.005124744 -0.0076711439 0.20387585 -0.84356815 -0.49681732 0.001408438
0.028225586 0.0055735931 -0.0071053528 0.24128446 -0.84801519 -0.4718602 0.0010684072
0.031282358 0.0059945546 -0.0063193357 0.24912055 -0.83119273 -0.49704888 0.00038718327
-0.025223888 0.0084679667 -0.0079019181 -0.28979984 -0.76402128 -0.57644379 0.00080721424
-0.022677485 0.0075076655 -0.0078380574 -0.27817553 -0.77586305 -0.56626403 0.00087655778
-0.019829188 0.0067267604 -0.008245619 -0.24955334 -0.78356916 -0.56898373 0.0010537563
-0.017302999 0.0062642684 -0.0086406581 -0.20977387 -0.79268175 -0.5724076 0.0014944708
0.026643099 0.0060647479 -0.0088077858 0.21017337 -0.82126611 -0.53042346 0.0016976692
0.028791785 0.0063231634 -0.0082487855 0.23867442 -0.82996732 -0.50417137 0.0017757877
0.031564601 0.0068011726 -0.0075975871 0.27199164 -0.84189701 -0.46607932 0.0011927914
0.034447048 0.0078564975 -0.0076648211 0.3010782 -0.82869309 -0.47182593 0.001223653
0.037082341 0.0084360475 -0.0068955589 0.32910967 -0.83190572 -0.44678828 0.0011702641
-0.03383138 0.011644355 -0.0074069183 -0.33603895 -0.7568931 -0.56052715 0.00059888442
-0.031573776 0.011260677 -0.0082618454 -0.30562991 -0.7431637 -0.59522939 0.0011188609
-0.028692983 0.0099431053 -0.0080797803 -0.30001327 -0.75817817 -0.57892817 0.00082985009
-0.026383121 0.0092372289 -0.0083991457 -0.29110792 -0.7621274 -0.57828891 0.00085081148
0.037790626 0.0093977256 -0.0082001118 0.33350357 -0.80914187 -0.48380247 0.00131104
0.040498681 0.010230726 -0.007516101 0.36398134 -0.81345683 -0.4536579 0.0011806383
0.043193962 0.011330166 -0.0072090821 0.40337133 -0.80357844 -0.43766803 0.0017637084
0.045290332 0.011968859 -0.0063816751 0.43307364 -0.80515999 -0.40517229 0.0011318229
-0.039040588 0.014353123 -0.0075580645 -0.37125161 -0.71286845 -0.59497124 0.00074041437
-0.038254749 0.014362541 -0.0081684794 -0.36825201 -0.71116996 -0.59885544 0.00035504391
-0.034814641 0.012795923 -0.0084416904 -0.35037124 -0.730775 -0.58583951 0.00032588083
0.044217251 0.012357884 -0.0081871916 0.39901406 -0.78685075 -0.4708012 0.0014090349
0.046609424 0.013370317 -0.0076118838 0.44391572 -0.78424174 -0.43347865 0.0013240521
0.049145445 0.014514081 -0.0070388243 0.46605414 -0.76733094 -0.4404507 0.0012657485
-0.043208372 0.017115587 -0.0079967836 -0.43354663 -0.6647287 -0.60841852 0.00060866168
-0.040461883 0.015586188 -0.0083123222 -0.41887599 -0.69457912 -0.58489549 0.00044622569
-0.038827356 0.015071234 -0.0087779239 -0.38733342 -0.68865013 -0.61297131 0.00079327251
0.050394423 0.016067 -0.0083247051 0.46870664 -0.71220529 -0.52256829 0.0013086108
0.051936883 0.016490923 -0.0073087378 0.49032632 -0.7023434 -0.51603663 0.0013370378
0.054342318 0.017632376 -0.0064376751 0.53779209 -0.73308325 -0.41637555 0.00080018002
-0.048044372 0.020383505 -0.0078688404 -0.48230448 -0.66205233 -0.57364547 0.00016596608
-0.046220008 0.019297997 -0.0081487857 -0.46747625 -0.66040909 -0.58764434 0.00024997705
-0.044604577 0.018500205 -0.0085555092 -0.45683098 -0.66163236 -0.59459919 0.00022369486
0.053563457 0.018301928 -0.0083354386 0.52147835 -0.70167637 -0.48550031 0.0016580626
0.055728436 0.019505186 -0.0076994156 0.55052531 -0.66634816 -0.50289363 0.0017877747
0.057880335 0.020560194 -0.0065784021 0.5890069 -0.64847994 -0.48222888 0.0010170039
-0.052545659 0.023667006 -0.007726517 -0.51361185 -0.63087332 -0.58155113 0.00035252303
-0.049925834 0.022037353 -0.0081710443 -0.4895196 -0.64933848 -0.58200526 0.00021926971
0.056790471 0.021311017 -0.0088899909 0.54506421 -0.60644472 -0.57890403 0.0013973154
0.058703434 0.022198478 -0.00774517 0.59126443 -0.63334489 -0.49928012 0.0017502088
0.060988706 0.023569606 -0.0067382799 0.62418586 -0.61276138 -0.48468083 0.0013649792
-0.055851933 0.026202448 -0.0074282642 -0.5265224 -0.60014862 -0.60215932 0.00046708036
-0.05326511 0.024898944 -0.008525162 -0.51156336 -0.61351466 -0.6015836 0.00065092708
0.059749018 0.024318378 -0.0089744721 0.57165521 -0.5388878 -0.61871654 0.0012776554
0.061874758 0.025518769 -0.0078340275 0.64651251 -0.53397739 -0.54487586 0.0024495546
0.063450292 0.026253797 -0.0066155735 0.67929053 -0.53062397 -0.50695425 0.0017783243
-0.058302619 0.029095197 -0.0081510367 -0.56893367 -0.55450481 -0.6073212 0.00070996233
-0.056629539 0.027366813 -0.0080342088 -0.55416256 -0.5660159 -0.61035228 0.00084498234
-0.0010958633 0.029944155 -0.0088697933 0.078441411 0.79254466 -0.60474783 0.0014922342
0.0017364911 0.029844223 -0.0087505979 0.037236102 0.79233235 -0.60895222 0.0011661277
0.0044633667 0.029801466 -0.0087300865 0.0016832339 0.80534357 -0.59280598 0.0014572262
0.0073284055 0.029853838 -0.0087223211 -0.043294389 0.80818641 -0.58733332 0.0012711807
0.0098418733 0.029921737 -0.0088829277 -0.082765169 0.78927356 -0.60843837 0.00079833902
0.012033448 0.029976459 -0.0089280009 -0.12834603 0.76867765 -0.6266275 0.0014896445
0.062780604 0.027589332 -0.0087218583 0.64787155 -0.45670095 -0.6096611 0.002207136
0.064415932 0.02870485 -0.0076883631 0.70046884 -0.4513151 -0.5528636 0.0014231089
0.06618844 0.02977258 -0.0062869154 0.72922808 -0.43621647 -0.52720171 0.0015363001
-0.060969818 0.031683229 -0.0077570416 -0.59801781 -0.47912449 -0.64250636 0.00046299811
-0.059984971 0.03034248 -0.0075189075 -0.58239335 -0.49932781 -0.64147472 0.00071290211
-0.015536144 0.032835804 -0.0088270744 0.2448203 0.76981002 -0.58945358 0.00076538883
-0.013216477 0.032528494 -0.0083199451 0.21656907 0.81599945 -0.5359503 0.0015322563
-0.010348585 0.032214239 -0.0077204914 0.1985272 0.84255409 -0.50068909 0.0014553143
-0.0075080977 0.031705715 -0.007571572 0.15794951 0.85437965 -0.49506292 0.001955041
-0.0045040883 0.031247946 -0.0075543597 0.12230096 0.84703654 -0.51727331 0.0020550396
-0.0015268225 0.030917199 -0.0075005204 0.08295583 0.85562032 -0.51091307 0.0023093629
0.0014461157 0.0308119 -0.0073246867 0.042936448 0.86239082 -0.50441891 0.0022941458
0.0044779829 0.030747913 -0.0072929119 0.0029057569 0.86462992 -0.50240093 0.0023362883
0.0074780979 0.030773973 -0.0073171933 -0.036845092 0.8658756 -0.49890068 0.0023248137
0.010526157 0.030896844 -0.0074941781 -0.084399141 0.86513287 -0.49439034 0.0020960839
0.013463038 0.031192699 -0.0075636227 -0.12876791 0.85704988 -0.49888307 0.0023325628
0.016445765 0.03172572 -0.0075867237 -0.18886468 0.86165345 -0.47104505 0.0018607326
0.019324256 0.032273334 -0.0078324424 -0.22418988 0.83877516 -0.49618044 0.001759936
0.022056684 0.032609377 -0.0085721249 -0.24584156 0.79647779 -0.55243552 0.0010669888
0.024128759 0.032916129 -0.0089842537 -0.25348216 0.76586735 -0.59092635 0.0011083243
0.065475538 0.031341761 -0.0083630569 0.6899603 -0.35001525 -0.63359618 0.00165948
0.066727102 0.031812605 -0.0070688976 0.7377845 -0.39202458 -0.54953671 0.0017879142
-0.063896827 0.034866888 -0.0071739703 -0.64242721 -0.41157636 -0.64644587 0.0010709004
-0.062244654 0.034165822 -0.0084912675 -0.59172285 -0.43691918 -0.67747009 0.001241334
-0.024383763 0.035890386 -0.0088775102 0.32285133 0.7518301 -0.57490742 0.001281505
-0.022168756 0.035486776 -0.0082460558 0.30776876 0.80808139 -0.50227773 0.001544681
-0.019462442 0.034899291 -0.0076085608 0.29472962 0.83243167 -0.46924624 0.001630866
-0.016549347 0.034017522 -0.0074745584 0.24598056 0.83036631 -0.49998522 0.0017875225
-0.013706167 0.033525836 -0.0069667413 0.22775128 0.84527898 -0.48335582 0.0018505058
-0.011283468 0.033172663 -0.0064082597 0.20277783 0.86716419 -0.45487082 0.0010516673
0.020129798 0.033255946 -0.0065644784 -0.23482357 0.8589443 -0.45505238 0.0017386377
0.022614421 0.033627469 -0.00721027 -0.24603631 0.84600443 -0.47301444 0.0019689843
0.025503853 0.034247417 -0.0075728777 -0.25241515 0.83752203 -0.48460644 0.0017815974
0.028379906 0.035084568 -0.0076562683 -0.29350647 0.84195435 -0.45273265 0.0014168967
0.031046934 0.035613015 -0.0083721764 -0.30480659 0.8118484 -0.49799114 0.0022934575
0.065864764 0.033206172 -0.0089216549 0.67943138 -0.30846938 -0.66574746 0.0027385734
0.06748724 0.03443566 -0.0076578902 0.75371087 -0.28559843 -0.59190655 0.001904435
0.069108568 0.035707515 -0.0062127323 0.79161525 -0.30632126 -0.52868956 0.0030937733
-0.066328987 0.037882265 -0.0066191461 -0.68372679 -0.35375187 -0.6382612 0.0013096087
-0.064072281 0.037256211 -0.0086810123 -0.57919252 -0.27331865 -0.76800585 0.0008743885
-0.030574672 0.03880107 -0.0086558042 0.36788398 0.76253331 -0.53216946 0.00067068526
-0.028203435 0.038260583 -0.0078541711 0.36551693 0.80292684 -0.47085655 0.0016047776
-0.025535382 0.037292209 -0.0075061792 0.33303526 0.81257123 -0.47834674 0.0016179201
-0.022834085 0.036539666 -0.0069629587 0.32375729 0.82546407 -0.46237469 0.0015060696
-0.020790674 0.036100578 -0.0062775174 0.3163361 0.83708692 -0.44633707 0.0011063059
0.029620171 0.036180224 -0.0064895377 -0.30837363 0.84431738 -0.43821684 0.0014755514
0.031687044 0.036572758 -0.0071037859 -0.32391548 0.82878911 -0.45627552 0.0017371848
0.034522668 0.037511814 -0.0075834333 -0.35709834 0.80780029 -0.468977 0.0023234731
0.037068598 0.038420327 -0.008063795 -0.39830995 0.77027714 -0.49801835 0.002261359
0.068171598 0.037495177 -0.0080237398 0.74247217 -0.16496697 -0.64924651 0.0026595464
0.069386959 0.037764415 -0.0066163223 0.79052508 -0.20658842 -0.57653385 0.0019100222
-0.066868998 0.04109611 -0.0078298114 -0.64550489 -0.21159679 -0.73385978 0.0014495371
-0.065650225 0.040556315 -0.0087539889 -0.60143733 -0.20847465 -0.77124017 0.0025519934
-0.036421869 0.041701671 -0.0086180093 0.38174468 0.74322844 -0.5494383 0.0016633427
-0.034264553 0.041169174 -0.0077850693 0.39256489 0.79037833 -0.47031352 0.0015451371
-0.031594723 0.040113088 -0.0073944931 0.37036785 0.79417884 -0.4817754 0.0016066725
-0.029178122 0.039333906 -0.0067749843 0.37894762 0.81392914 -0.44036123 0.0012694232
0.037926264 0.039535496 -0.0069975066 -0.4216184 0.77837414 -0.46515766 0.0016781776
0.040521678 0.040661279 -0.0075906734 -0.43457526 0.75425732 -0.4921791 0.001873254
0.042872638 0.041489694 -0.008431498 -0.42956197 0.72035235 -0.54458153 0.0023534626
0.068364404 0.040459543 -0.0083892373 0.71081835 -0.07059899 -0.69982356 0.0025365853
0.069688044 0.040659305 -0.0069198259 0.77726209 -0.09932474 -0.62128758 0.0021385464
-0.069336765 0.044506781 -0.0064511648 -0.68787789 -0.1906686 -0.70033526 0.0017377182
-0.067411765 0.043813065 -0.0081288852 -0.59407419 -0.1051293 -0.79751092 0.0029071718
-0.042446077 0.044776697 -0.0086578 0.3767806 0.72196358 -0.58034909 0.0017735643
-0.040275339 0.044218957 -0.0077893236 0.39352402 0.77374381 -0.49644673 0.0022231643
-0.037615936 0.043094296 -0.0074143982 0.38924438 0.7790525 -0.49149364 0.0015868632
-0.035288244 0.042372424 -0.006661918 0.41287592 0.79611814 -0.44241306 0.0011652077
0.041772783 0.042244203 -0.006228569 -0.4698703 0.76352346 -0.44300559 0.0012660266
0.043856665 0.042859334 -0.0072725476 -0.44550318 0.74182016 -0.50122827 0.0019200201
0.046409283 0.043979675 -0.0078693535 -0.42373803 0.72386605 -0.54448515 0.0021646291
0.04865073 0.044689801 -0.0085885981 -0.39056146 0.68915558 -0.61034936 0.0015400443
0.068420075 0.043563992 -0.0084417341 0.6713866 0.033290133 -0.74035931 0.0027272413
0.069823407 0.043524712 -0.0069942423 0.7548613 -0.006620965 -0.65585101 0.0028320279
-0.069585331 0.046624761 -0.0067085777 -0.62990659 -0.068508267 -0.77364355 0.0024521537
-0.06782148 0.047223072 -0.0082128067 -0.45610884 0.097993843 -0.88451219 0.0034612848
-0.048627604 0.047758564 -0.0086712753 0.32854086 0.6941554 -0.64047581 0.0013382295
-0.046213027 0.047202062 -0.0079078106 0.36981985 0.75524551 -0.54114455 0.0024795069
-0.043583289 0.046212818 -0.0073904544 0.37843773 0.77508897 -0.50598615 0.001911729
-0.041190561 0.045434628 -0.0066757626 0.42260179 0.77937412 -0.46258372 0.001620112
0.047290131 0.045413718 -0.0065496508 -0.4503029 0.73868585 -0.50156814 0.0017584543
0.049671724 0.046168033 -0.0074643786 -0.39595053 0.72517914 -0.56332797 0.0015552364
0.05228056 0.047192696 -0.0080289776 -0.37039068 0.6979093 -0.61297083 0.002626451
0.054631006 0.047738086 -0.008775197 -0.30565068 0.65100694 -0.69481486 0.0019821639
0.068067506 0.046625774 -0.0083798124 0.56214547 0.12816378 -0.81704742 0.004031227
0.069795273 0.04643254 -0.0068781041 0.70195258 0.075997472 -0.70815742 0.0036481021
-0.069875419 0.049661376 -0.00671623 -0.55456728 0.046734687 -0.83082551 0.0050040511
-0.067074671 0.049901664 -0.0083516445 -0.31611201 0.2568163 -0.91330093 0.0055383043
-0.065202601 0.050583221 -0.0088398708 -0.17730041 0.36742532 -0.91299683 0.0075524193
-0.06084092 0.050908871 -0.0089790979 -0.0004296659 0.57694697 -0.81678146 0.0033012826
-0.05761404 0.050860688 -0.0088800527 0.10815789 0.65911824 -0.74422115 0.0041222945
-0.055152651 0.050559592 -0.0085719703 0.20549667 0.66514879 -0.71787751 0.0022226153
-0.052323703 0.050082698 -0.0078644911 0.30503333 0.74211091 -0.59684682 0.0026963938
-0.049597126 0.04921791 -0.0074143172 0.33720359 0.75578505 -0.56132215 0.0018644392
-0.047105819 0.048463564 -0.0067427829 0.39406866 0.76747125 -0.50566572 0.0019016719
0.052971493 0.048646376 -0.0068059717 -0.41737035 0.71024972 -0.56687516 0.0017736137
0.055628505 0.049385998 -0.0076080188 -0.32462358 0.67477977 -0.66279089 0.0019181651
0.058414321 0.050032135 -0.008223678 -0.23729984 0.60776675 -0.75783128 0.0026418262
0.061392989 0.050466012 -0.0086564366 -0.10970555 0.54710299 -0.82984519 0.0043926947
0.064766392 0.050336119 -0.008745349 0.1075639 0.42281333 -0.89981043 0.0069735632
0.067605361 0.04953666 -0.0080185989 0.45579532 0.21121141 -0.86466199 0.0063403086
0.069681585 0.049378145 -0.0065890695 0.68918836 0.12531573 -0.71366334 0.0057854219
-0.069604337 0.053077228 -0.0066044815 -0.27759212 0.27381667 -0.92085135 0.0060125743
-0.06730032 0.052594084 -0.007548966 -0.14664888 0.39407063 -0.907305 0.0067526079
-0.064403713 0.052618384 -0.0079435203 -0.027606662 0.49958098 -0.8658272 0.0080637792
-0.061408926 0.052636296 -0.0078025833 0.081465393 0.61137414 -0.78713727 0.0060749925
-0.058529954 0.052446466 -0.007454325 0.17733364 0.72753912 -0.66275144 0.0029693265
-0.05555889 0.051952075 -0.0071320604 0.26097003 0.75233513 -0.60488552 0.0022306235
-0.052971844 0.051453009 -0.0065344064 0.33956912 0.76554805 -0.54646963 0.0017805673
0.056662567 0.051157799 -0.0062546218 -0.39795932 0.70272398 -0.58975208 0.0029472248
0.058879331 0.051680848 -0.0068962183 -0.31459555 0.65192008 -0.68994915 0.0033311676
0.061623853 0.052411679 -0.0073380764 -0.21081465 0.58138365 -0.78584367 0.0044297711
0.064537391 0.052485388 -0.0077476264 0.040151361 0.43024343 -0.90181959 0.0083030956
0.067497231 0.052463878 -0.0072233318 0.35904267 0.28340173 -0.88925356 0.012690981
0.069385678 0.052269008 -0.0063154283 0.60413361 0.17467161 -0.77750397 0.0067387396
-0.069620386 0.054895468 -0.0062407413 -0.20627363 0.36677271 -0.90715438 0.0087897656
-0.067366548 0.055086568 -0.0065180114 -0.040652789 0.47741431 -0.8777374 0.0080164587
-0.064544633 0.054782659 -0.0065555642 0.10315302 0.59184146 -0.79942679 0.0084215654
-0.061803203 0.054351453 -0.0063494295 0.19139948 0.69159144 -0.69646788 0.0047017583
-0.059772745 0.054176494 -0.0060670217 0.25232813 0.7310738 -0.63392556 0.0044382364
0.062589757 0.054300833 -0.006243939 -0.28982344 0.60022324 -0.74547601 0.0059769358
0.064775199 0.054814961 -0.0064859125 -0.11517473 0.47343481 -0.87326646 0.010222424
0.067429282 0.055055797 -0.0063878777 0.21768302 0.31134641 -0.92502844 0.01784887
0.069225572 0.054419681 -0.0060937237 0.49943075 0.22451204 -0.8367576 0.014264316
-0.010410684 0.0024573721 -0.0047656414 -0.15410952 -0.88024795 -0.44879156 0.0025284579
-0.0070232181 0.0020667482 -0.0050821863 -0.11992387 -0.87341434 -0.4719806 0.0009884038
-0.0040086647 0.0017094138 -0.0051981797 -0.083875068 -0.88466126 -0.45862788 0.00069731619
-0.0015449265 0.0013805663 -0.0046672886 -0.052694932 -0.90904772 -0.41334671 0.0012496514
0.0012018705 0.0014562269 -0.0052541015 -0.045255732 -0.87822169 -0.47610775 0.0008981814
0.0046366146 0.0010404116 -0.0043246681 0.0008716071 -0.90392017 -0.42770046 0.0011573073
0.0074995407 0.0010961612 -0.0041388543 0.028326914 -0.91364205 -0.40553147 0.00088581291
0.010453818 0.001489484 -0.0049218461 0.071924075 -0.89130884 -0.44765559 0.0010299688
0.012970926 0.001787089 -0.0051613352 0.091009922 -0.8911804 -0.44442621 0.0010316924
0.016359366 0.0021960069 -0.0050268555 0.11735429 -0.90044022 -0.41885018 0.0011940964
0.020082178 0.0027466838 -0.0049710688 0.17713174 -0.88758355 -0.42522913 0.0012547012
0.022252647 0.0028932004 -0.0040076342 0.18880358 -0.93511188 -0.29986495 0.0018930312
-0.021632023 0.005699126 -0.0052666739 -0.28788996 -0.82716477 -0.48261559 0.00059948006
-0.019162823 0.0050547961 -0.0057120598 -0.2475675 -0.82616156 -0.50612992 0.0012233682
-0.016463872 0.004145192 -0.0053410837 -0.2406961 -0.85044265 -0.46777421 0.00029292205
-0.013777218 0.0035073645 -0.0055453246 -0.19669069 -0.83463514 -0.51448709 0.0006740028
-0.011591669 0.0031156167 -0.0058935951 -0.16533838 -0.88062632 -0.44402769 0.0022943993
0.020636763 0.0032162443 -0.0058777495 0.15253665 -0.85487926 -0.49589732 0.00062629936
0.023017269 0.0034114686 -0.0050962279 0.20764276 -0.90850204 -0.3626411 0.0014545028
0.026170053 0.0041914769 -0.0053510806 0.22853006 -0.88632214 -0.40274951 0.00114082
0.028576611 0.0047767591 -0.0049412167 0.2491965 -0.893682 -0.37314034 0.0013117812
0.031253424 0.0055843298 -0.0050020721 0.28422433 -0.89069241 -0.35480082 0.0018017328
0.033107914 0.005612378 -0.0032335203 0.31285918 -0.93531686 -0.16523181 0.0030907132
-0.029635565 0.0089669172 -0.0055895271 -0.31493732 -0.7847634 -0.53381735 0.00087433663
-0.026247116 0.0075572692 -0.0054881298 -0.30685958 -0.80056328 -0.51471901 0.00081243622
0.03260706 0.0061912965 -0.0056328992 0.29706448 -0.8849467 -0.35863909 0.0016849876
0.034555834 0.0065830634 -0.0045476123 0.3381393 -0.88710082 -0.31418768 0.0013431314
0.03793649 0.0080026733 -0.0049774484 0.35890502 -0.87854636 -0.31518796 0.0019661591
0.039855093 0.008536526 -0.004144737 0.38578641 -0.88672507 -0.25473031 0.0021388403
0.041404676 0.0095655303 -0.0050445772 0.41269127 -0.86687613 -0.27966353 0.001578397
0.043504227 0.010410109 -0.0046090982 0.42535105 -0.85682571 -0.29142112 0.0012156436
0.04592219 0.01140072 -0.0040446436 0.44577816 -0.84096158 -0.30670092 0.0016059644
0.047224864 0.012467979 -0.004951254 0.46460301 -0.82358038 -0.32536051 0.0013394423
0.049252786 0.01357773 -0.0047746487 0.48262888 -0.81465924 -0.32155821 0.0014745907
0.051664423 0.014700216 -0.0038452726 0.5145148 -0.8118763 -0.2759192 0.0020683222
0.050898928 0.015022898 -0.0059483279 0.49165577 -0.77561754 -0.39584345 0.0010841173
0.052682944 0.015754646 -0.004821768 0.52299166 -0.78745675 -0.32617721 0.0014631157
0.05517726 0.0172826 -0.0042423261 0.55439311 -0.76448244 -0.32896027 0.0016926347
0.056327652 0.018460169 -0.0050852858 0.57512385 -0.7570073 -0.31011668 0.0023204396
0.05851857 0.02000236 -0.0045081493 0.61287731 -0.68669814 -0.39093107 0.0011979303
0.060167801 0.020822069 -0.0031818645 0.656174 -0.72384459 -0.21327166 0.0032806024
0.059569214 0.021257097 -0.0050865905 0.62072873 -0.6692273 -0.40844908 0.0012902704
0.061428778 0.022702029 -0.0045425734 0.65767068 -0.65822923 -0.36633807 0.00086412934
0.063157678 0.023809746 -0.003449989 0.70134288 -0.64265162 -0.3084107 0.0019064614
0.062795013 0.024367362 -0.0051288744 0.68252683 -0.61461765 -0.39547738 0.0018300525
0.064379387 0.025894536 -0.0044765393 0.7272079 -0.57258546 -0.3785693 0.0023799585
0.065376721 0.027755773 -0.0053053275 0.74090075 -0.52639639 -0.41710052 0.0020482659
0.066656306 0.028991461 -0.004430796 0.77731317 -0.49887303 -0.38328835 0.0019263147
-0.00933953 0.03295166 -0.0058367443 0.20554094 0.90708083 -0.36736548 0.0022922426
-0.0072127059 0.032753002 -0.0054272166 0.16846128 0.91346478 -0.37040892 0.0022090005
-0.0043996852 0.032559089 -0.0048751663 0.1392857 0.92211038 -0.36098734 0.0021899466
-0.0014933646 0.032331076 -0.0045631002 0.10515377 0.93575585 -0.336606 0.0025880982
0.0014773301 0.032114007 -0.0045460765 0.047789186 0.94576097 -0.32132909 0.0026075616
0.0044529964 0.032034393 -0.00451907 0.01036342 0.93604183 -0.35173619 0.0028900479
0.0074661304 0.03204545 -0.0045553804 -0.036493268 0.94274586 -0.33150926 0.002814075
0.010548536 0.032252867 -0.0045679202 -0.10478693 0.94048208 -0.3232848 0.003195409
0.013398715 0.032500725 -0.0047604889 -0.15161836 0.92442459 -0.3499302 0.0023441995
0.016140329 0.032761659 -0.0053475848 -0.19911994 0.91056132 -0.36225584 0.0024641145
0.018010871 0.032901548 -0.0058146291 -0.24126457 0.88752228 -0.39255032 0.0047475114
0.068037413 0.031558301 -0.0046959287 0.81645375 -0.42755172 -0.3880758 0.0021419625
0.069204085 0.032673914 -0.003400278 0.83294028 -0.41866213 -0.36184597 0.0020159462
-0.018739201 0.035718884 -0.0054273731 0.30708024 0.88708282 -0.34465322 0.0026999796
-0.016405629 0.035349388 -0.0046776133 0.28324184 0.90344602 -0.32180634 0.0023740514
-0.013490949 0.034544844 -0.004545405 0.25483173 0.90674609 -0.33596471 0.0027104362
-0.010538892 0.033770714 -0.0045576761 0.20515394 0.92545861 -0.31849378 0.0024931077
-0.0077116285 0.033398446 -0.0040664314 0.15900458 0.93672734 -0.31186426 0.0027872466
-0.0048489529 0.033173434 -0.0034433668 0.13653766 0.94320428 -0.30285823 0.0028235132
0.014206185 0.033120528 -0.0034676776 -0.14553912 0.95895481 -0.2433597 0.0012481624
0.016573993 0.033346314 -0.004008967 -0.19237281 0.92892033 -0.31638548 0.0023521145
0.019451538 0.033833947 -0.0046072039 -0.23455895 0.91489041 -0.32856897 0.0019789424
0.022511361 0.034710962 -0.0045598904 -0.26790196 0.91067207 -0.3144916 0.0014533983
0.025348963 0.035446826 -0.0047694906 -0.27789044 0.9028427 -0.32810348 0.0018648612
0.027450342 0.035813328 -0.0054523856 -0.30094838 0.89800996 -0.32094893 0.0021301066
0.068643883 0.033725135 -0.0055546137 0.82793605 -0.33853015 -0.44712332 0.0025378065
0.069651127 0.034756713 -0.0043700049 0.85850376 -0.3214781 -0.39952847 0.0030501701
-0.067288406 0.038662709 -0.0059529124 -0.69396716 -0.35041887 -0.62898028 0.001176953
-0.027212594 0.038865812 -0.0056961267 0.37888297 0.85070074 -0.36435696 0.0030710557
-0.025189979 0.038456332 -0.0048460723 0.37022173 0.87372285 -0.31550628 0.0021537864
-0.022498487 0.037458789 -0.0045569767 0.35004425 0.87899148 -0.32379472 0.0025165339
-0.019741291 0.036510386 -0.0042912639 0.30278468 0.90325367 -0.30406284 0.0027840093
-0.017581837 0.036156364 -0.003530103 0.2834473 0.91112959 -0.29916635 0.0024898802
0.026444882 0.036157623 -0.0036541955 -0.28497395 0.91615736 -0.28186083 0.0018433646
0.028608449 0.036590215 -0.0044572186 -0.2964533 0.9001112 -0.31924182 0.001892438
0.031565607 0.037536934 -0.0047424692 -0.35441631 0.8734386 -0.33390737 0.0020231439
0.034032099 0.038517646 -0.0049906182 -0.40066946 0.85782957 -0.32185778 0.0021857065
0.070445061 0.03764442 -0.0047238627 0.86302948 -0.23006536 -0.44972229 0.0026773866
-0.069322914 0.041942213 -0.0053815339 -0.70457095 -0.23217022 -0.67057943 0.00097016443
-0.068707541 0.040441334 -0.005304019 -0.71306217 -0.30862364 -0.62951875 0.00044696342
-0.033259761 0.041800201 -0.0056365086 0.42138746 0.83082521 -0.36354092 0.0032247573
-0.031283092 0.041234341 -0.0046831118 0.42869937 0.85424536 -0.29407778 0.0020150419
-0.028531952 0.040003464 -0.0044736755 0.38219461 0.8741582 -0.29962429 0.0024581479
-0.026216133 0.039289832 -0.0038264182 0.36370325 0.88558823 -0.28888297 0.0020757932
0.035207041 0.039352331 -0.0042091953 -0.40602687 0.85715401 -0.3169058 0.0019590664
0.037387013 0.040328957 -0.0046072174 -0.45972797 0.81861764 -0.34426063 0.0024195225
0.0396327 0.041502915 -0.0050096116 -0.49390817 0.80031615 -0.33992481 0.0021397884
0.071109466 0.04060173 -0.0046644858 0.88031578 -0.13636588 -0.45436603 0.0028638502
0.072085559 0.041862614 -0.0031378784 0.95446032 -0.12882355 -0.26909098 0.0029087348
-0.069854245 0.043863252 -0.0055057527 -0.71462661 -0.18581894 -0.67437387 0.001600164
-0.039253108 0.044858336 -0.0056502451 0.43796501 0.81722128 -0.37461457 0.0032559601
-0.037276424 0.044262577 -0.0046747117 0.4497667 0.84095407 -0.30084249 0.0020853274
-0.034544025 0.042964462 -0.0044471994 0.42429322 0.85412157 -0.30075169 0.0023034588
-0.032470003 0.042230334 -0.0036965122 0.42416805 0.85408336 -0.30103672 0.002211892
0.041048922 0.042600244 -0.0043963837 -0.48120794 0.80566263 -0.3454659 0.0021018833
0.043456469 0.043978225 -0.0047701281 -0.50105643 0.78753817 -0.35878417 0.0015158862
0.045351766 0.044802949 -0.0056357617 -0.4759962 0.78504694 -0.39639485 0.0033694294
0.071319424 0.043566491 -0.0048830505 0.86655259 -0.04992361 -0.49658242 0.003046551
0.072138309 0.043890849 -0.0034020592 0.90759653 -0.069509961 -0.41404942 0.0029943101
-0.072464451 0.047284488 -0.0031400325 -0.75180817 -0.17714502 -0.63514107 0.0012604508
-0.070853129 0.046818335 -0.0053759292 -0.66950405 -0.10993043 -0.73462892 0.0021622314
-0.045217387 0.04790597 -0.0059418054 0.4054217 0.77436739 -0.48578641 0.0016146824
-0.043078844 0.04736371 -0.0047840434 0.44990906 0.82521248 -0.34147656 0.0024757478
-0.040531736 0.046111945 -0.0044432371 0.45290413 0.83242512 -0.31929034 0.0024744559
-0.038465623 0.045279786 -0.0037142781 0.44929913 0.83879966 -0.30748236 0.0020518855
0.044704534 0.045183886 -0.0037134003 -0.51670283 0.79534638 -0.31692645 0.0019144856
0.046620622 0.046049166 -0.004648577 -0.49355718 0.77753413 -0.38966903 0.0023359663
0.049040154 0.047415663 -0.0050228126 -0.48723739 0.76949632 -0.41288635 0.0022420338
0.071326561 0.046522062 -0.0048778318 0.84483904 0.022289522 -0.53455597 0.0033233466
0.072187141 0.046701074 -0.0033711731 0.8916766 -0.0092234258 -0.45257911 0.0038527434
-0.07258226 0.049699046 -0.0039367629 -0.69876814 -0.13435586 -0.7026177 0.0021190038
-0.071340375 0.049730044 -0.0054339152 -0.62317133 -0.041519251 -0.78098249 0.0052975896
-0.051280554 0.050934009 -0.0059655765 0.34861115 0.76080728 -0.54739618 0.0021204175
-0.049054507 0.050464962 -0.0050008092 0.41721722 0.82310247 -0.38526887 0.0028731099
-0.046554178 0.04937939 -0.0044932249 0.44050699 0.82103771 -0.36311257 0.0025402042
-0.04430227 0.048397761 -0.0038986159 0.43456903 0.83055979 -0.3483105 0.0020434374
0.050299961 0.048587419 -0.0042604352 -0.48459291 0.7725473 -0.41029298 0.0020186095
