# .PCD v0.7 - Point Cloud Data file format
VERSION 0.7
FIELDS x y z normal_x normal_y normal_z curvature
SIZE 4 4 4 4 4 4 4
TYPE F F F F F F F
COUNT 1 1 1 1 1 1 1
WIDTH 556
HEIGHT 1
VIEWPOINT 0 0 0 1 0 0 0
POINTS 556
DATA ascii
0.076730512 -0.0075489394 0.00446954 0.94508582 0.32668915 -0.0093219699 0.00017834657
-0.016119165 -0.0042791208 0.0042034299 -0.92389733 0.38257161 -0.007264216 0.00031407594
0.074957177 -0.0031996584 0.0038132065 0.91290438 0.40806705 -0.0093223006 0.00079002639
0.075618744 -0.0045886189 0.0044579101 0.92175782 0.38765648 -0.0092182094 0.00030450517
-0.01545541 -0.0026898282 0.0046406835 -0.89318949 0.44967854 0.0013173032 0.00036006165
-0.014578666 -0.0010121175 0.0046096644 -0.88502461 0.4655427 -0.0012150201 0.00028575715
0.074100554 -0.0013688557 0.0044901124 0.8867119 0.46212792 -0.013404823 0.0003793872
0.075016789 -0.0029193272 0.0043073478 0.9070648 0.42044315 -0.021473948 0.00097830908
-0.013082625 0.001654857 0.0044783857 -0.85522485 0.51821899 -0.0062885424 0.00052032486
0.071840651 0.0026250032 0.0046185181 0.84335011 0.53733397 -0.0057268445 0.00027216421
0.072734825 0.0010849158 0.0044636428 0.86174905 0.50723261 -0.010178933 0.0001724601
-0.011056361 0.0047231088 0.0045553492 -0.8006196 0.59900945 -0.013998794 0.00044205302
0.070599847 0.0044987663 0.0044771428 0.82453096 0.5657891 -0.0056023486 0.00029838711
-0.0093891146 0.0068223118 0.0044129179 -0.7791118 0.62675864 -0.012587317 0.00014781863
-0.0082682734 0.0082544526 0.0045402013 -0.74871999 0.66271424 -0.015111621 0.00035985891
0.068100646 0.0078055672 0.0046443003 0.76932162 0.63881218 -0.0079513807 0.00026713961
0.069226131 0.006374862 0.004225926 0.78865176 0.61482286 -0.0046176505 0.0003865514
-0.0069049625 0.0097883716 0.0045279148 -0.73461157 0.67838806 -0.011641707 0.0003906457
-0.0053330958 0.011332761 0.00453137 -0.70587271 0.70827776 -0.009290522 0.00018661493
0.065088578 0.011071174 0.004521383 0.70159048 0.71256822 -0.0041670944 0.00027930675
0.066584647 0.0095099201 0.004412618 0.73961502 0.67299533 -0.006838772 0.000211476
-0.0037198579 0.012821402 0.0045029153 -0.66319758 0.74836862 -0.010653326 0.0002684276
-0.0021243033 0.014220893 0.0044536069 -0.65782845 0.75287783 -0.020900313 0.00025302931
0.061828792 0.014103002 0.004385659 0.63959157 0.768704 -0.0040753866 0.00039643794
0.063550465 0.012599762 0.0044042612 0.68172461 0.73160845 0.00077207177 0.00038151097
-0.00060438545 0.015444174 0.0045450423 -0.61072373 0.79155874 -0.021244969 0.00069878972
0.0016814875 0.017062195 0.004486931 -0.54670858 0.83710986 -0.018889014 0.00014868143
0.056778297 0.017843805 0.0045040036 0.54495376 0.83841598 -0.0091659129 0.00029943744
0.058798272 0.016456733 0.0043433825 0.58904743 0.80809766 -0.0011093846 0.00033826407
0.060378816 0.015268513 0.0040127062 0.61871177 0.78560334 -0.0048081223 0.00018967195
0.0046914178 0.018960278 0.0045092148 -0.49627879 0.86797583 -0.018040273 0.0004593617
0.007413046 0.020414403 0.0045783562 -0.45367151 0.89094079 -0.020165825 0.00038918242
0.050944313 0.020969193 0.0037439386 0.41970733 0.90762067 -0.0083939005 0.00090661104
0.052575171 0.020288434 0.0044928417 0.45260873 0.89161152 -0.013198948 0.00044716772
0.055174574 0.018841218 0.0045633852 0.51776516 0.8554436 -0.011640415 0.00032890623
0.0088786874 0.021111986 0.0042768894 -0.43823445 0.89871895 -0.015962776 0.00053865678
0.01058988 0.021879328 0.0044888537 -0.3801783 0.92475444 -0.017138194 0.00033238754
0.013475278 0.022991097 0.0044309176 -0.3187508 0.94777852 -0.010666446 0.00040752045
0.016051415 0.023843721 0.0043424433 -0.22434181 0.97288144 -0.056324068 0.00093940785
0.043922596 0.023714736 0.0044834595 0.27751929 0.96053678 -0.018766804 0.00037002587
0.046401843 0.022913132 0.004535839 0.33492348 0.9420892 -0.017152594 0.00046611344
0.04946778 0.021726526 0.0044602272 0.38871154 0.92122418 -0.015793389 0.00020407452
0.051439401 0.021009607 0.0059746192 0.44773537 0.89324266 -0.04062872 0.0012555298
0.016969725 0.024074927 0.0049154283 -0.21122496 0.97428113 -0.078487404 0.00062606472
0.019469595 0.024586957 0.0044695497 -0.20107611 0.97955656 -0.0061088474 0.00031938974
0.022569325 0.025147859 0.0044145356 -0.15796344 0.987445 0.00016910839 0.00043832356
0.024994604 0.025527775 0.0044803172 -0.090715654 0.9958486 -0.0074966373 0.00066513306
0.028550919 0.025778545 0.0047225654 -0.02987374 0.99952555 0.0074985544 0.00053297274
0.031417564 0.025757626 0.0043537384 0.028182151 0.99960268 -0.00049057807 0.00017813935
0.034361023 0.025565876 0.0045400453 0.087613754 0.99614358 -0.0046794335 0.00042791036
0.037326634 0.025216252 0.0044480842 0.17160916 0.9851386 -0.0072308369 0.00035552774
0.040309623 0.024654893 0.0045264252 0.21363431 0.97690427 -0.0043048682 0.00021606268
0.042479642 0.024118198 0.0046217977 0.2635771 0.96456265 -0.012083532 0.00046306977
0.058639038 -0.06485834 0.0074778409 0.57360286 -0.809304 -0.12651815 0.0031404269
0.061003301 -0.063045144 0.0068172105 0.62583905 -0.77414846 -0.09497197 0.0026961176
0.062059175 -0.062206786 0.0077123586 0.64783287 -0.75364965 -0.11101719 0.0030897446
0.06385836 -0.060543992 0.0068285391 0.67961079 -0.732005 -0.047934696 0.00087736332
0.065156102 -0.059290919 0.0067489855 0.7058717 -0.70698076 -0.043857291 0.00065674097
0.066799343 -0.05786946 0.007800614 0.71071804 -0.69786954 -0.088645816 0.0013482127
0.068314433 -0.05596704 0.0072969357 0.75053412 -0.65406102 -0.09435457 0.002250134
0.069363512 -0.054676007 0.0076925275 0.78976846 -0.60652608 -0.091607116 0.0017189349
0.070835739 -0.052385349 0.0068636229 0.81659216 -0.57384092 -0.062320169 0.0014428267
0.071926333 -0.050653275 0.0060028508 0.84550244 -0.53394419 0.0054074768 0.00072391168
0.072824448 -0.049433369 0.0073258895 0.86461741 -0.4847157 -0.13223976 0.0028173374
0.074155971 -0.046828967 0.007009442 0.88990682 -0.45217234 -0.060049713 0.0016958242
0.075093403 -0.045529515 0.0087711429 0.88242161 -0.45144314 -0.13240577 0.002810502
0.074987128 -0.044946734 0.0063474691 0.9055593 -0.4240787 0.010936521 0.00036321284
0.075849891 -0.043261677 0.0071766069 0.92114675 -0.37078515 -0.11835142 0.0038803597
0.076951921 -0.040413313 0.0071660466 0.9410702 -0.32682922 -0.08700294 0.0016877751
0.077628903 -0.038190354 0.0069759078 0.95914209 -0.27012762 -0.084128372 0.0011176798
0.078134783 -0.036670793 0.0075890403 0.96256596 -0.25817564 -0.082535937 0.0015413932
0.078665525 -0.034367435 0.0075438833 0.97332156 -0.21214803 -0.087397754 0.00099088636
0.079158217 -0.031555355 0.007500601 0.98254883 -0.16441824 -0.086974323 0.0012596454
0.0794577 -0.028409794 0.0073511121 0.9933458 -0.067679942 -0.093185715 0.0028020078
0.079612836 -0.025587521 0.0071923328 0.99439716 -0.049052939 -0.093638167 0.0030082236
0.079590924 -0.022558074 0.0072671156 0.99284858 0.012804689 -0.11869181 0.0029924358
0.079401925 -0.019512823 0.0072720884 0.98596632 0.1183641 -0.11773025 0.0029008915
-0.01948726 -0.016166346 0.0063292077 -0.97569764 0.19732586 -0.095271915 0.0015349337
0.079089478 -0.016464017 0.0075057345 0.97860706 0.16541071 -0.12234187 0.0019609348
0.078505754 -0.013765729 0.0071488922 0.96508491 0.23986007 -0.10525321 0.0039064288
-0.018454151 -0.010617493 0.0073025897 -0.94678932 0.303556 -0.10697564 0.0018518608
0.077592708 -0.010159142 0.007181535 0.96044886 0.27091396 -0.064370893 0.0026179876
0.078059003 -0.011670634 0.0070108343 0.95698613 0.26185709 -0.12493377 0.0037560305
-0.018095134 -0.0089012431 0.0083793961 -0.92943859 0.33996752 -0.14340848 0.0023867858
-0.017239697 -0.0070867068 0.0073943213 -0.9367671 0.32371455 -0.13295221 0.0025560674
0.076749243 -0.0074694604 0.0073336307 0.93960118 0.32267523 -0.11415062 0.0020833043
-0.016281893 -0.0045956811 0.0077377884 -0.91606188 0.38670173 -0.10626561 0.0024921722
0.075704105 -0.0046579647 0.0073793218 0.92294592 0.36649954 -0.1176819 0.0025880823
-0.015446072 -0.0026575036 0.0073380247 -0.91457653 0.39097175 -0.10339691 0.0028911186
-0.014572497 -0.00099257985 0.0072950041 -0.8898114 0.44362766 -0.10691212 0.0029312461
0.074229911 -0.0014055398 0.0072304881 0.8775714 0.46272147 -0.12552828 0.0028404945
0.075058885 -0.0029037246 0.0075109969 0.88227773 0.45863083 -0.10603704 0.0030373225
-0.013178984 0.0015494312 0.0073770746 -0.84548223 0.52349102 -0.10543708 0.0017040125
0.071778446 0.0027154486 0.0071602487 0.82944846 0.54620242 -0.11695297 0.0033852465
0.072680369 0.0012496895 0.0072211125 0.85515034 0.50529748 -0.11572518 0.0028206259
-0.012316979 0.0031947631 0.0083049359 -0.81753391 0.5672878 -0.099110708 0.0016340825
-0.011033298 0.0047760764 0.0073860274 -0.80544239 0.58303946 -0.10643109 0.0020717233
0.070600651 0.0045579472 0.0071028066 0.81977063 0.56662869 -0.083115116 0.0023299856
-0.0095368754 0.006743277 0.0074358508 -0.76549047 0.6372357 -0.089190833 0.0015352146
-0.0083372723 0.0082986476 0.0076860627 -0.73034978 0.67797911 -0.08326862 0.0015245561
0.068340875 0.007579159 0.0071777459 0.781551 0.6207428 -0.062100351 0.0015379562
0.069375001 0.0063267979 0.0078580482 0.78430182 0.60995859 -0.11323027 0.0023732316
-0.0067926492 0.009948126 0.0075093647 -0.73672903 0.67224985 -0.072873913 0.0014225979
-0.0052683041 0.011408354 0.0073880334 -0.68197691 0.72675574 -0.082058221 0.0011400743
0.065228991 0.010966588 0.0070991539 0.70642698 0.70357913 -0.077054724 0.0018547527
0.066582389 0.0096171433 0.0071394015 0.73677176 0.6722306 -0.072618105 0.0016001227
-0.0037458586 0.012928527 0.0075747669 -0.66622281 0.74033052 -0.089765608 0.001198823
-0.0021218453 0.014342706 0.0072833723 -0.66858059 0.73682767 -0.10042427 0.0011142773
0.061933078 0.014137918 0.0074791955 0.63994658 0.75985521 -0.11440491 0.0024485111
0.063624673 0.012581274 0.007646305 0.69353908 0.71118695 -0.11496361 0.0025430222
-0.00072060019 0.015600067 0.0075527262 -0.61558396 0.78131467 -0.10297462 0.0015683722
0.0014571979 0.017001566 0.0074677644 -0.56047112 0.81834352 -0.12722419 0.0027537728
0.0030168805 0.017948285 0.0073701544 -0.52160972 0.84319085 -0.13020208 0.0028349604
0.05679946 0.017846476 0.0070257988 0.56889629 0.81528699 -0.10800075 0.0020914609
0.058528256 0.016743833 0.007545684 0.55821735 0.82208598 -0.11210706 0.0020630816
0.060377654 0.015354987 0.0076148277 0.60825694 0.78661466 -0.106117 0.0018996379
0.0045641549 0.018986788 0.0075120106 -0.49459437 0.85847533 -0.1356336 0.0027355435
0.0071698665 0.020387148 0.0074084811 -0.44079387 0.88902456 -0.12383898 0.002858215
0.052716397 0.020328477 0.0075517297 0.45248917 0.88682592 -0.093772843 0.0014234667
0.055270217 0.018864188 0.0075723808 0.50348002 0.85773885 -0.10388383 0.0020028418
0.008562061 0.02118017 0.0078495052 -0.44920334 0.88430482 -0.12736337 0.0028893529
0.01064601 0.021948285 0.0074538589 -0.37513027 0.91943616 -0.11795967 0.0025197396
0.013539164 0.023107802 0.0074814246 -0.29197282 0.94921893 -0.11719755 0.0042268252
0.015938783 0.023775429 0.0074568018 -0.25471985 0.96203083 -0.098053515 0.0035850964
0.044144571 0.023814678 0.0073827654 0.2515054 0.96082741 -0.11642905 0.0024989534
0.046507899 0.022996014 0.0074956361 0.32897404 0.93651098 -0.12133935 0.0023142267
0.04962929 0.021701897 0.0074492171 0.39155921 0.91470778 -0.099955 0.0014989229
0.051548529 0.021041123 0.0074897232 0.46004078 0.88321584 -0.091061965 0.0013256776
0.017004924 0.024089877 0.0070684478 -0.2223037 0.96675324 -0.12636961 0.0022688899
0.020066321 0.024900092 0.0077238632 -0.19871476 0.9707377 -0.13483623 0.002496731
0.022588873 0.025123812 0.0073342598 -0.1641769 0.98059845 -0.10711084 0.002652128
0.02480823 0.02544998 0.0074453931 -0.09226083 0.99162018 -0.090428814 0.0022287781
0.028377883 0.025772333 0.0074121128 -0.038627762 0.99764997 -0.05658963 0.0017840124
0.031433988 0.025778316 0.0075889146 0.020032987 0.99604046 -0.086614862 0.001820514
0.034516081 0.025666902 0.0075222142 0.09021043 0.99165881 -0.092058495 0.0020576529
0.037569009 0.025181621 0.007410611 0.18118215 0.97857934 -0.097752549 0.0018405912
0.04054061 0.024602057 0.0075844252 0.21234426 0.97118926 -0.10817275 0.0018183433
0.042721514 0.024133492 0.0078031737 0.24392848 0.96338344 -0.111316 0.0019820346
0.053133115 -0.069318712 0.011238296 0.5602718 -0.82032484 -0.11472841 0.0048617548
0.053745247 -0.067981832 0.0090815788 0.53077441 -0.83814687 -0.12565169 0.0033836758
0.055366963 -0.067512602 0.010481762 0.53359938 -0.83203304 -0.15163355 0.0032451253
0.057414602 -0.066395737 0.010964773 0.53361565 -0.83201778 -0.15165994 0.0032315762
0.059014425 -0.064967349 0.0098645156 0.55938458 -0.80439633 -0.20008881 0.0013998447
0.061458778 -0.06385392 0.011093691 0.59884989 -0.77192074 0.21334754 0.033238865
0.062326867 -0.062606588 0.010369674 0.63657105 -0.7469607 -0.19190393 0.0013740101
0.06418895 -0.061091207 0.010810679 0.66644692 -0.72131395 -0.18855983 0.00044671717
0.065378025 -0.059622344 0.0095349541 0.6877349 -0.70237702 -0.18354087 0.0010175442
0.067134038 -0.058183324 0.010502999 0.7238124 -0.67059135 -0.16249 0.00069821347
0.068624325 -0.056287888 0.010235008 0.7584523 -0.62724721 -0.17694941 0.0011488016
0.06982898 -0.055025097 0.010761503 0.77551204 -0.60344875 -0.18555525 0.0006083409
0.071143702 -0.053253613 0.010802737 0.78964847 -0.59967554 -0.12978601 0.0079501681
0.072523132 -0.051872693 0.011614226 0.83775955 -0.54593289 0.010783723 0.0066251922
0.073463328 -0.049462914 0.010494393 0.8440063 -0.4939062 -0.20906946 0.0014523568
0.074572921 -0.047407556 0.0099701434 0.87164396 -0.44544929 -0.20447934 0.00093379203
0.075791672 -0.045971781 0.011235072 0.89327073 -0.44834164 0.032513857 0.0060500982
0.076584727 -0.043832846 0.011029964 0.91776741 -0.37496033 -0.13079672 0.0057927365
0.077451617 -0.040600512 0.010281132 0.92458594 -0.31721461 -0.21098767 0.0007828126
0.078156963 -0.039560881 0.011197095 0.93375939 -0.29940349 -0.19608909 0.000805463
0.077863537 -0.038582698 0.0095396973 0.94948584 -0.24645443 -0.19425964 0.0010365583
0.078482956 -0.037043907 0.010067377 0.95527726 -0.25069043 -0.15684254 0.001464023
0.07897836 -0.034635309 0.010314536 0.96310121 -0.20236202 -0.17744198 0.00040900722
0.079628438 -0.031304762 0.010372136 0.97554678 -0.14574283 -0.16452216 0.0020956048
0.080253482 -0.02837169 0.010835134 0.98937994 -0.078281216 -0.12247215 0.0067665391
0.08001966 -0.025753397 0.0098647717 0.98908937 -0.033551097 -0.14344527 0.0023452188
0.080442816 -0.021946795 0.011211352 0.99426019 0.048404984 -0.095412806 0.010029905
0.080265105 -0.019974831 0.011007979 0.9919523 0.077411227 -0.10019039 0.0096662445
0.079582512 -0.016440481 0.010451893 0.97899216 0.13935161 -0.14884709 0.0016638051
-0.020068144 -0.013978229 0.011343599 -0.97859919 0.20521004 -0.015247447 0.017093655
0.079366416 -0.013433605 0.010978597 0.97029579 0.19680274 -0.14069378 0.0042974409
-0.018918827 -0.010696284 0.00968342 -0.95208353 0.26192048 -0.15790725 0.0015107262
0.077871978 -0.0096927956 0.0095834788 0.93552446 0.28745934 -0.20533182 0.0012669833
0.078737862 -0.010463417 0.011153701 0.94926655 0.28514206 -0.13261604 0.0036408629
-0.018547481 -0.0079055903 0.011220686 -0.93623734 0.33042037 -0.1195074 0.0024221442
-0.017881095 -0.0074581956 0.009771849 -0.92105603 0.34689376 -0.17697628 0.0011182124
0.077302195 -0.00728236 0.010706126 0.92430037 0.33280045 -0.18684953 0.000924422
0.078146279 -0.0084151365 0.011643155 0.92842722 0.33385229 -0.16298966 0.001908015
-0.016963044 -0.004542944 0.010609757 -0.90937883 0.38401288 -0.15988851 0.00070324988
0.076316483 -0.0050050379 0.0099887196 0.9240368 0.3447299 -0.16527964 0.00081811566
-0.015641535 -0.0014257169 0.010680298 -0.88752574 0.43621191 -0.14838238 0.00093131931
-0.014584002 -8.6689952e-06 0.0095420768 -0.8561064 0.49244222 -0.15678808 0.00064403034
0.074540585 -0.00083626795 0.010320229 0.87181395 0.45505294 -0.18129322 0.00078097498
0.07569164 -0.0023190707 0.010970649 0.90008771 0.41106316 -0.14446184 0.0027345261
-0.013825642 0.0015655673 0.010505415 -0.83773655 0.52258229 -0.15844631 0.00036683842
0.073174112 0.0019833215 0.010970968 0.85242391 0.50279981 -0.14340809 0.0039208424
-0.012437318 0.0038109145 0.010826953 -0.81827039 0.55618614 -0.14522594 0.00035276855
-0.011354879 0.0051737647 0.010372963 -0.78646255 0.59984899 -0.14716639 0.00024828574
0.071212612 0.0049364581 0.010755732 0.81386906 0.57519943 -0.082236201 0.0046873582
0.072328903 0.0035807409 0.011147625 0.82531822 0.53966033 -0.16618258 0.0017133817
-0.0099356547 0.0071511329 0.010638765 -0.76833743 0.62433136 -0.14095417 0.00044894422
-0.008598011 0.0085332813 0.010284144 -0.74049765 0.65798122 -0.1368356 0.00043323287
0.068394713 0.0083401594 0.01024838 0.75165641 0.63604259 -0.17453493 0.00029177312
0.069608279 0.0071384702 0.011097115 0.79358578 0.60582441 -0.056554303 0.0054608467
-0.0070509161 0.010267305 0.010554354 -0.71415973 0.69095659 -0.11204845 0.00045625222
-0.0055807694 0.011666304 0.010251367 -0.70228565 0.69830918 -0.13841689 0.00012727873
0.065596677 0.011456022 0.010070092 0.70354319 0.69054925 -0.16783543 0.00089616323
0.066997871 0.010110945 0.010678762 0.72936589 0.66322994 -0.16778401 0.00069552974
-0.0042567295 0.01312592 0.01061415 -0.67973673 0.71834558 -0.14811373 0.00026472969
-0.0026136863 0.014566589 0.01033155 -0.66237444 0.73521692 -0.14393161 0.00027399094
0.062381133 0.014426032 0.010302458 0.63535225 0.7528125 -0.17204884 0.00061201962
0.064221576 0.013029834 0.010614637 0.67227328 0.72142291 -0.16612539 0.00085352542
-0.0011522635 0.015816497 0.010628607 -0.60708541 0.78065652 -0.1484009 0.00051468273
0.00078513596 0.017161712 0.010368615 -0.58307594 0.79592609 -0.16286243 0.00076846773
0.058883622 0.017114211 0.010373042 0.56633699 0.80691487 -0.16778208 0.00037465265
0.060963016 0.015715785 0.010715729 0.60177225 0.78086251 -0.1677019 0.00018536481
0.0022817992 0.018507009 0.010714807 -0.54881555 0.81774074 -0.17349824 0.00080160203
0.0043892525 0.019557688 0.010495639 -0.50689113 0.84055781 -0.19111243 0.00057973235
0.0063733463 0.020607328 0.010234566 -0.45498767 0.87256742 -0.17779872 0.00059274741
0.053079043 0.020513069 0.010323101 0.45365098 0.87431645 -0.17254405 0.00039633838
0.055512659 0.019329991 0.010509021 0.50018203 0.84893334 -0.1706755 0.0005551473
0.057429478 0.018304344 0.010784891 0.5458647 0.82109666 -0.16682909 0.00032616005
0.0078220638 0.021630419 0.010626081 -0.42766336 0.8880164 -0.16891088 0.00096855656
0.010472042 0.022636186 0.010531733 -0.36219817 0.91707456 -0.16669385 0.0006762179
0.013448586 0.023524147 0.010108798 -0.31493601 0.92922771 -0.19326481 0.0015937466
0.015608294 0.023775883 0.0092834206 -0.26098451 0.9434607 -0.20437452 0.0013412434
0.044545483 0.023971502 0.0092138071 0.25827569 0.94872373 -0.18225543 0.00091301638
0.046719112 0.023465846 0.010289378 0.34223682 0.92446727 -0.16803066 0.00044336071
0.049554333 0.022416297 0.010510883 0.39995831 0.90069032 -0.16967709 0.00057790178
0.051772133 0.021408807 0.010899736 0.43861544 0.88620186 -0.14920685 0.0012029791
0.014213274 0.024203349 0.011310718 -0.30573517 0.94243932 -0.13540377 0.0042182491
0.016801152 0.024949113 0.010990769 -0.21495998 0.96276695 -0.16392702 0.0012142069
0.019920925 0.025440222 0.010564283 -0.18257365 0.9675135 -0.17488416 0.0013996719
0.0223733 0.025746692 0.010400056 -0.13160113 0.98208958 -0.13483779 0.0027970483
0.025533285 0.026106175 0.010492437 -0.084609076 0.98405921 -0.1564251 0.0019123426
0.028434396 0.026209474 0.0106002 -0.030798214 0.98938823 -0.1419943 0.0035601282
0.031547766 0.026241854 0.01050461 0.021405572 0.99163562 -0.12728152 0.0057564285
0.034574978 0.026138814 0.010637764 0.090272062 0.98749959 -0.12921143 0.0030897043
0.037500925 0.025767034 0.010331016 0.15796153 0.97970206 -0.12341802 0.0030885995
0.040503986 0.025248427 0.010515844 0.20487779 0.96261221 -0.17720856 0.00025830808
0.043461233 0.024601702 0.010672815 0.25174311 0.95240718 -0.17188939 0.00070495554
0.045411933 0.024085363 0.010835933 0.30276027 0.93739396 -0.17213023 0.00077928137
0.025989952 -0.075168051 0.014896009 -0.020548131 -0.26102704 0.96511275 0.025922505
0.037465025 -0.074633285 0.014888684 0.12159599 -0.24771041 0.96117324 0.023834176
0.040655874 -0.074055716 0.014524808 0.13463902 -0.42779654 0.89379108 0.032053199
0.042797849 -0.073458269 0.014743744 0.18328848 -0.60466683 0.77510214 0.033543028
0.046016842 -0.072602898 0.014097636 0.28492326 -0.52036381 0.80500948 0.059095338
0.047864649 -0.071896605 0.014061987 0.32592049 -0.47549552 0.81711686 0.047436338
0.049598977 -0.071199104 0.01333592 0.24731107 -0.54292285 0.80254096 0.068981387
0.052525755 -0.069854923 0.01371491 0.2280522 -0.54837924 0.80453247 0.060673371
0.023592168 -0.066078387 0.014852585 0.10404109 0.36294091 0.92598563 0.008616046
0.025934152 -0.066141345 0.014899854 0.096123174 0.3615469 0.92738569 0.011506082
0.027888862 -0.066215187 0.014844246 0.017742191 0.29298866 0.95595127 0.015749104
0.031624764 -0.066344567 0.014799026 -0.06755206 0.32687446 0.94265044 0.012298816
0.03363264 -0.066205822 0.014826944 -0.031698219 0.29043525 0.95636952 0.012600719
0.037647273 -0.06606558 0.014855167 -0.06034591 0.22275491 0.973005 0.010839537
0.055522047 -0.068289161 0.01374542 0.47246864 -0.76012701 0.44607198 0.02962994
0.057893358 -0.066647127 0.014540294 0.32566747 -0.43180925 0.84111917 0.047915075
0.01393181 -0.063212782 0.014837668 0.11928318 0.32233083 0.93908167 0.0098500708
0.016630504 -0.063425615 0.014569961 0.05503305 0.20085381 0.97807419 0.017224856
0.019574329 -0.064002804 0.014682226 0.05552499 0.32366425 0.94454139 0.0081038829
0.022524973 -0.064646721 0.014726967 0.097045712 0.26570702 0.95915693 0.0080011114
0.025328256 -0.064855814 0.014407809 0.076459475 0.1442664 0.98658055 0.018546302
0.028463719 -0.065003559 0.014233846 -0.010370724 0.13629311 0.99061424 0.019507399
0.031540938 -0.065221131 0.014427575 -0.048320182 0.20846866 0.97683465 0.012457734
0.034628287 -0.064601615 0.014618203 0.0033056221 0.24456927 0.96962619 0.010894481
0.037424594 -0.064542606 0.01450821 -0.039376725 0.23614056 0.97092074 0.011305785
0.040395364 -0.064292602 0.014541399 -0.095689639 0.20180899 0.97473925 0.011020022
0.043390639 -0.063650861 0.014725238 -0.083223127 0.27172625 0.95876944 0.0099897385
0.045876786 -0.063314579 0.014834802 -0.1328111 0.28567895 0.94907784 0.010776089
0.059333362 -0.065732211 0.013576388 0.62764019 -0.68517172 0.3696045 0.039891608
0.061602723 -0.064131729 0.013881842 0.59448838 -0.75737476 0.27012429 0.034666166
0.0084740771 -0.060441807 0.014898333 0.17295352 0.32271349 0.93056059 0.0055119232
0.010851192 -0.061122406 0.014641572 0.13162147 0.23290938 0.96355021 0.014145193
0.013326149 -0.061968051 0.01445817 0.070046835 0.13830912 0.9879089 0.01736832
0.016491363 -0.061416149 0.014585994 -0.017283281 0.036119595 0.99919802 0.013679904
0.020168267 -0.06220898 0.014558917 0.019644527 0.19638546 0.98032999 0.0066910926
0.022504574 -0.062184773 0.014601761 0.013117714 0.038796481 0.99916106 0.0082348865
0.025560837 -0.061809406 0.014701391 0.0075068534 -0.062127411 0.99803996 0.0013960249
0.029138587 -0.061513361 0.01471422 -0.0051461873 -0.075213395 0.99715418 0.0018908302
0.031763665 -0.061648462 0.014782985 0.015960217 -0.041672517 0.99900383 0.0014629662
0.034041099 -0.062078323 0.014517775 0.019122083 -0.011603948 0.99974984 0.0049221204
0.037463114 -0.061722826 0.014524798 -0.03064906 -0.10518942 0.99397981 0.0013141093
0.040494479 -0.061605603 0.014751111 -0.0092787473 -0.076211616 0.99704856 0.0023226789
0.043651529 -0.061547063 0.014523752 -0.02781217 0.13733362 0.9901343 0.012880002
0.046424963 -0.061644949 0.014504392 -0.086468905 0.23119308 0.96905774 0.011694562
0.049169552 -0.060930178 0.014605399 -0.20270091 0.3588298 0.91112757 0.0036591645
0.051729847 -0.060241204 0.014886479 -0.25263879 0.36224678 0.89719057 0.0025351604
0.064748488 -0.061438732 0.013667949 0.61703748 -0.71929705 0.319181 0.030187054
0.0028535973 -0.057289772 0.014920347 0.39253533 0.41246864 0.82206184 0.0022357858
0.0048941057 -0.057747014 0.014517483 0.17662224 0.28107709 0.94329226 0.013657348
0.0073570181 -0.058839634 0.014532018 0.088278979 0.23009619 0.96915561 0.012704792
0.010467688 -0.058690812 0.014769843 0.034359429 0.016553892 0.99927247 0.0069621056
0.013636585 -0.05876356 0.014730033 0.012603511 -0.031750157 0.99941635 0.0021254097
0.016364373 -0.058792841 0.01477609 -0.0093716728 -0.051804557 0.9986133 0.00064661005
0.019347046 -0.05889155 0.014819862 -0.011725444 -0.053788405 0.99848348 0.00031169725
0.022496559 -0.059005853 0.014827125 -0.017436765 -0.051883779 0.99850088 0.00021985653
0.025386583 -0.058072776 0.014759858 -0.012322321 -0.041758373 0.99905181 0.00012846249
0.028314974 -0.058843449 0.014889197 -0.0020958812 -0.039412484 0.99922085 0.00035218894
0.032216098 -0.058784395 0.014852219 0.013400144 -0.045682158 0.99886614 0.00060239958
0.034355432 -0.058808032 0.014818963 0.014252189 -0.052550681 0.99851662 0.00063259469
0.037254833 -0.059064135 0.01485387 -0.0055137123 -0.092466757 0.99570054 0.0005420961
0.040574081 -0.058609806 0.014745615 0.044906743 -0.019287858 0.99880499 0.00048083274
0.042993974 -0.059230655 0.014543163 0.020182887 0.0016089445 0.99979502 0.0044998461
0.046395838 -0.058489818 0.014613602 7.3342213e-05 -0.05979526 0.99821067 0.00056110154
0.050169032 -0.059149858 0.014553802 -0.048425943 0.12563339 0.99089414 0.01198791
0.052411899 -0.058311544 0.014622282 -0.134027 0.15150669 0.97932756 0.011854223
0.054395474 -0.057381362 0.014795946 -0.18173501 0.21419315 0.95973629 0.004484388
0.067824677 -0.058251694 0.014221808 0.64036494 -0.56084818 0.52476853 0.022227095
-0.0003412861 -0.054315343 0.014965846 0.3055357 0.32240066 0.89593852 0.0044420022
0.0017813621 -0.055283867 0.014477151 0.28131709 0.29675093 0.91257852 0.01130875
0.0043927412 -0.056124542 0.014159338 0.1169688 0.17665334 0.97729826 0.016248439
0.0075714039 -0.055662394 0.014556572 -0.032395329 -0.007156244 0.99944949 0.0061724656
0.010481503 -0.055849724 0.014777924 -0.028041052 -0.029762685 0.99916357 0.00057047256
0.013239881 -0.05593808 0.014815851 -0.019454233 -0.03335217 0.99925429 2.5688525e-05
0.016429281 -0.055376045 0.014747104 -0.010266863 -0.023703171 0.99966633 3.2984255e-05
0.019517118 -0.055366714 0.014749031 -0.0097064786 -0.02456074 0.99965125 2.000112e-05
0.02260589 -0.055290401 0.014764769 -0.011472322 -0.022066452 0.99969071 1.7176848e-05
0.02541546 -0.054966472 0.01483157 -0.0089814635 -0.018782536 0.99978328 3.4635297e-05
0.028500525 -0.055022094 0.0148201 0.0061951545 -0.012986777 0.99989647 2.0902404e-05
0.031585898 -0.055128492 0.014798157 0.004974375 -0.013368928 0.99989825 3.1411644e-05
0.034390256 -0.055012383 0.0148221 0.004710353 -0.014713583 0.99988067 2.4884208e-05
0.037482981 -0.055431928 0.014735582 0.016572304 -0.025128802 0.99954689 0.0001652505
0.040468622 -0.056222558 0.014732264 0.022385756 -0.039780624 0.99895763 0.00052453508
0.043292824 -0.056177184 0.014753575 0.0083423015 -0.062845744 0.9979884 0.00035493189
0.046498939 -0.055971362 0.014827391 0.0091561051 -0.060945563 0.99809909 0.00041777061
0.04963246 -0.055912275 0.014760518 0.040640891 -0.012141341 0.99910003 0.00077227986
0.052453749 -0.055257984 0.014562622 -0.010914069 0.053725861 0.99849606 0.0041226181
0.055378806 -0.055190053 0.014588645 -0.11672273 0.14687601 0.98224401 0.007264826
0.058090933 -0.054510452 0.014692701 -0.17109753 0.2035962 0.96398866 0.0052518146
0.070126764 -0.055416912 0.01370986 0.78654224 -0.61086571 0.090522356 0.014097201
-0.0035018746 -0.051438387 0.014998083 0.27059096 0.21301314 0.93883222 0.0068194671
-0.0013885438 -0.052362982 0.014516566 0.26865873 0.28019997 0.92158037 0.0097006755
0.0014221364 -0.05268243 0.014207063 0.038960338 0.10661501 0.99353677 0.018524468
0.0038107801 -0.051880658 0.014649165 -0.043630246 -0.040271096 0.99823576 0.0022705283
0.0074555892 -0.053040758 0.014799478 -0.049963824 -0.075413994 0.9958998 0.0007863174
0.010355656 -0.052836884 0.014707925 -0.025479957 -0.03125149 0.99918675 0.0002243857
0.013436154 -0.052597746 0.014757537 -0.01391189 -0.018372051 0.99973446 1.9333589e-05
0.016509702 -0.05248148 0.014781661 -0.010262992 -0.020110149 0.99974513 2.2452843e-05
0.01957969 -0.052447241 0.014788765 -0.010402489 -0.020192111 0.99974203 2.2871003e-05
0.022651706 -0.052252699 0.014829129 -0.0071336515 -0.021313593 0.9997474 3.0611616e-05
0.025443619 -0.051953666 0.014891172 0.00075596629 -0.012832079 0.99991739 6.7451918e-05
0.028508762 -0.052170273 0.014846231 0.0086351419 -0.0062998189 0.9999429 2.2303842e-05
0.031575978 -0.052257013 0.014828235 0.00085533084 -0.0048066741 0.99998808 5.0694866e-06
0.034364484 -0.052223213 0.014835248 0.0047065075 -0.0089847594 0.99994856 3.3339933e-05
0.037434969 -0.052401517 0.014798254 0.014502436 -0.0205305 0.99968404 0.00020058092
0.040501542 -0.052318849 0.014815403 0.0071884692 -0.026249783 0.99962962 0.00019595679
0.043569636 -0.052308921 0.014817464 0.0028001231 -0.018947119 0.9998166 0.00031738536
0.046657346 -0.052834243 0.014708471 0.028934438 -0.010558248 0.99952561 0.00020961615
0.049829349 -0.052885748 0.014783164 0.049201071 -0.0061744717 0.99876982 6.1663188e-05
0.052407227 -0.052282684 0.014621507 0.040494051 -0.002680012 0.9991762 0.00011398944
0.055478808 -0.052150965 0.014548289 -0.0025027019 0.045223892 0.99897373 0.0023205962
0.058500141 -0.052205399 0.014589477 -0.088174023 0.12653786 0.9880352 0.0067429226
0.061125532 -0.051478777 0.014884839 -0.18794404 0.17979939 0.96558231 0.0043034619
0.071585856 -0.053456217 0.013976479 0.83707589 -0.52444136 0.15577297 0.028083099
0.072627939 -0.051932894 0.013534981 0.82412875 -0.54267794 0.16221134 0.028320268
-0.00405689 -0.049282305 0.014611904 0.2896786 0.21615049 0.9323976 0.0070932233
-0.0017075414 -0.050054736 0.014254645 0.13929933 0.068077922 0.98790741 0.013605082
0.0020562424 -0.048796341 0.014654968 -0.044332296 -0.037983585 0.99829453 0.0013555549
0.0043180045 -0.049824685 0.014824785 -0.051912714 -0.038327187 0.99791586 0.0014931995
0.0072898231 -0.049264044 0.014817087 -0.016420575 0.011961064 0.99979365 0.00017327533
0.010471441 -0.04997902 0.014741136 -0.014203316 0.0083394693 0.99986434 9.3381052e-05
0.013532442 -0.049776684 0.014783371 -0.021634631 0.0010120402 0.99976546 0.00013709361
0.016588207 -0.049653254 0.014809133 -0.022399392 -0.019286841 0.99956304 0.00013557203
0.019369423 -0.049341608 0.014874185 -0.010103997 -0.02785076 0.99956107 3.903656e-05
0.022422927 -0.049060524 0.014932853 0.0002807393 -0.021654706 0.99976552 0.00010595644
0.025469828 -0.049153365 0.014913474 0.0098661697 0.00020700012 0.9999513 0.00013570421
0.028516486 -0.04944839 0.014851893 0.0094896788 0.003951156 0.99994719 3.6173125e-05
0.031566363 -0.049477339 0.014845851 0.0012575943 0.0014706244 0.99999815 1.0720137e-05
0.034339018 -0.049469948 0.014847392 0.001651347 -0.0021700144 0.9999963 1.4584541e-05
0.037388265 -0.049427912 0.01485617 0.0017404218 -0.0011402569 0.99999785 2.4122517e-05
0.040438473 -0.04944656 0.014852275 0.0063665719 0.0018583711 0.99997801 3.8376482e-05
0.043496203 -0.049700856 0.014799196 0.019557331 0.0071371002 0.99978328 4.7514313e-05
0.046561465 -0.050068252 0.014722507 0.033548456 0.010852534 0.9993782 2.5938747e-05
0.049904816 -0.049445488 0.014781325 0.039970011 0.0069325175 0.99917686 7.8724392e-05
0.05239965 -0.049197458 0.014649599 0.032843307 -0.0050445278 0.99944782 0.00021240424
0.055409003 -0.049363535 0.014527159 0.017059235 -0.017455341 0.99970216 0.00024931013
0.058492251 -0.049625993 0.014470411 -0.034588631 0.059747536 0.99761415 0.0036369248
0.061506834 -0.049676858 0.014485158 -0.13809729 0.14538881 0.97968936 0.0048315455
0.06344153 -0.048857532 0.01482901 -0.21846238 0.16903633 0.9610936 0.0026545282
0.074030727 -0.049574252 0.013578377 0.88262385 -0.45292127 0.12584665 0.0095249172
-0.0063139582 -0.045903604 0.014774909 0.28090605 0.15899147 0.94647425 0.0053040637
-0.0047414489 -0.046454765 0.014425553 0.12116495 0.11153387 0.98634642 0.011915175
-0.0015155486 -0.04602918 0.014681546 -0.010067368 -0.011450234 0.99988377 0.0026508514
0.0013842873 -0.046591677 0.014754796 -0.037843503 -0.013461232 0.99919301 0.0011469309
0.0045044469 -0.046726745 0.014729928 -0.0092191603 0.018640548 0.99978375 0.00043922779
0.0076520117 -0.046517652 0.014754805 -0.018181846 0.033241048 0.999282 6.8798254e-05
0.010416724 -0.046082117 0.014806183 -0.032788798 0.023901224 0.9991765 0.00016870681
0.012659144 -0.045805477 0.014860028 -0.035962895 0.0063555199 0.9993329 0.00025000412
0.016401593 -0.046469212 0.014917925 -0.03026456 -0.0036891515 0.99953514 0.00026819034
0.019304136 -0.0460888 0.01499781 -0.0044909613 -0.001391381 0.99998897 0.00038826387
0.022466734 -0.04629102 0.014955342 0.011858028 0.012414635 0.99985266 0.00028113273
0.025492866 -0.046631448 0.014883858 0.013434726 0.017948007 0.99974871 5.2032425e-05
0.028524065 -0.046802808 0.014847874 0.0056667002 0.013465978 0.99989331 3.4477063e-05
0.03155718 -0.046819817 0.014844301 -0.001516328 0.0060800342 0.99998039 1.0720236e-05
0.034590501 -0.046833456 0.01484144 -0.00063456461 0.0039429758 0.99999201 8.6348145e-06
0.03762421 -0.046858754 0.014836125 0.0054227919 0.004375949 0.99997574 5.4037988e-05
0.040383022 -0.046905465 0.01482632 0.015275527 0.011627789 0.9998157 3.9978644e-05
0.044186827 -0.04584644 0.014875675 0.026596101 0.018097458 0.99948245 6.311656e-05
0.04661566 -0.046130978 0.014798541 0.024054466 0.016110698 0.99958086 0.00011197762
0.049301002 -0.046501592 0.01470679 0.024561085 -0.0010510153 0.9996978 0.00027158065
0.05245987 -0.046160862 0.014665585 0.01124862 -0.031820834 0.9994303 0.00032077584
0.055470772 -0.046013877 0.014695421 0.0089230537 -0.049723484 0.99872315 0.00014794389
0.05847542 -0.046165209 0.014621245 0.024022037 -0.043398581 0.99876904 0.00084162294
0.061497763 -0.046862155 0.014391525 -0.046444684 -0.002571976 0.99891758 0.004103689
0.064469829 -0.046497107 0.0147018 -0.21331874 0.11305915 0.97041881 0.0046798382
0.074935548 -0.047873896 0.012228498 0.86750305 -0.42349347 0.26094398 0.0098379245
0.075746983 -0.046489131 0.01363261 0.89145589 -0.3990185 0.21468726 0.026235808
-0.0072671734 -0.043379385 0.014515251 0.21303242 0.12315733 0.96925205 0.0097622201
-0.0045908657 -0.043373063 0.014350513 0.025052331 0.039716851 0.99889684 0.0076887943
-0.0015791864 -0.043301526 0.014665602 -0.027011117 0.015465714 0.99951547 0.0010740052
0.0014258162 -0.043413516 0.014655152 -0.0064898357 0.013025138 0.99989408 0.00030768372
0.0044300919 -0.043579482 0.014621295 -0.0092086932 0.0057646288 0.99994099 0.000364854
0.007444175 -0.043578826 0.014624993 -0.023480603 -0.0074032131 0.99969685 0.00039554317
0.010154674 -0.043300748 0.014726193 -0.039365947 -0.019175244 0.9990409 0.00048487214
0.013375897 -0.044575751 0.014846465 -0.045041986 -0.0054348735 0.99897033 0.00035696005
0.01647467 -0.043890242 0.014906409 -0.021255031 0.0091381157 0.99973238 0.00043013951
0.019484829 -0.044076096 0.014867152 0.0038057927 0.026747601 0.99963498 0.00011040381
0.02250709 -0.043642357 0.014820966 0.015433516 0.028791323 0.9994663 8.7088898e-05
0.025512898 -0.044410579 0.014796491 0.011417119 0.018931083 0.99975562 4.6529625e-05
0.028530888 -0.044414591 0.014795642 -1.4641358e-05 0.010863192 0.99994099 3.0401896e-05
0.031548627 -0.044359934 0.01480719 -0.0048151049 0.0061623426 0.99996942 1.4953421e-05
0.034565177 -0.044240564 0.014832404 0.001062297 0.0051732487 0.99998605 7.1975155e-06
0.037583284 -0.044315137 0.014816649 0.011828212 0.010537374 0.99987453 2.3747574e-05
0.040579919 -0.043357585 0.014743228 0.024494864 0.0077408687 0.99967003 8.6804808e-05
0.043685317 -0.043247983 0.014825529 0.020884629 0.007410612 0.99975449 0.00013185661
0.046508189 -0.043091189 0.014751729 0.0059133177 -0.0090998299 0.99994111 0.00028202863
0.049503013 -0.043017358 0.014789316 -0.0029234062 -0.025876975 0.99966091 0.00026066013
0.051737305 -0.043165311 0.014837436 -0.0059899827 -0.041081145 0.99913788 0.00022926785
0.055510491 -0.044654351 0.01495725 -0.00014743055 -0.063030876 0.99801159 0.00014078934
0.059212945 -0.043306679 0.014851157 0.037740752 -0.025434835 0.99896377 0.0013652883
0.061678834 -0.043235619 0.014768753 0.047722299 0.015220747 0.99874467 0.0034015309
0.064609677 -0.043354359 0.014475204 -0.082713857 0.096143916 0.99192482 0.010005087
0.066638932 -0.043452278 0.014738353 -0.27174383 0.13715141 0.95254648 0.0027368958
0.077000439 -0.043670826 0.013671575 0.88666046 -0.40261868 0.22744554 0.023079103
-0.0095814727 -0.040063452 0.014719008 0.28282344 0.11450357 0.95231289 0.0067032753
-0.0077429879 -0.040622689 0.014297795 0.20140384 0.12711886 0.97122467 0.0089078574
-0.0044716396 -0.040708911 0.014453862 -0.0069156433 0.020940846 0.99975675 0.003417148
-0.0015079182 -0.040458351 0.014675439 -0.027811974 0.010229965 0.99956083 0.00054347119
0.0015085827 -0.040426251 0.014674173 0.00065754808 0.0078759855 0.99996877 0.00024525487
0.0044907434 -0.04068362 0.014606374 -0.030279748 -0.011827985 0.99947155 0.00057300128
0.0073549282 -0.040327109 0.01479177 -0.049876861 -0.028895093 0.99833733 0.00022141973
0.010147024 -0.041170869 0.014891492 -0.040240515 -0.03551086 0.99855882 0.00025520206
0.013804586 -0.040650051 0.014884855 -0.021872664 -0.015618479 0.9996388 0.00028613233
0.01657505 -0.040317491 0.014838048 0.0024032355 -0.005264346 0.99998325 0.00014082275
0.019561306 -0.040556479 0.014787151 0.0046848082 0.0051519568 0.9999758 0.00017426361
0.022559455 -0.040255569 0.014796412 0.0024100097 -0.0077363737 0.99996722 5.8679805e-05
0.025359185 -0.041459765 0.014778017 0.0063756485 0.0019830454 0.99997777 0.00018035485
0.028538095 -0.041887667 0.014778404 -0.0039508031 -0.0076376786 0.99996305 5.9793198e-05
0.031539511 -0.041730292 0.014811844 -0.0067866845 -0.0082131922 0.99994326 3.8709117e-05
0.034539647 -0.041630421 0.014833069 0.0014061173 -0.0083346246 0.9999643 5.7054629e-05
0.037764221 -0.041100807 0.014789018 0.023100622 -0.00093773566 0.99973273 7.4445488e-05
0.041061353 -0.039468594 0.014847333 0.020886825 -0.021345967 0.99955398 0.00021600476
0.043413185 -0.040265381 0.014822608 0.0090999762 -0.020930428 0.99973953 0.00022966185
0.046300329 -0.040370405 0.014866976 -0.0067692949 -0.037129741 0.99928755 0.00011365516
0.048838284 -0.04040692 0.014912858 -0.0020495504 -0.01722963 0.9998495 0.00058713806
0.052706983 -0.041012771 0.014807774 0.038349237 -0.0053284327 0.99925023 0.0012115748
0.056121036 -0.04005713 0.014863905 0.041071903 0.061980877 0.99723196 0.0018699404
0.058538552 -0.040273286 0.014614291 0.04425627 0.060637552 0.9971782 0.0019103691
0.061521344 -0.040647365 0.014351123 0.054263249 0.027825966 0.99813884 0.0028361126
0.064433351 -0.040906254 0.014157524 -0.0410005 0.093387038 0.99478531 0.008664554
0.067368969 -0.040465534 0.01447114 -0.19762376 0.097322255 0.97543496 0.0090560159
0.069163598 -0.039179675 0.014893592 -0.23187764 0.11327334 0.96612728 0.0079304725
0.077825911 -0.041702263 0.013619445 0.92043412 -0.37588474 0.10729227 0.0077840802
0.078335434 -0.040154222 0.013442386 0.93569958 -0.30564746 0.17619875 0.015763879
-0.0099917091 -0.037475292 0.014541589 0.27346969 0.082781434 0.95831186 0.0075431252
-0.0074473117 -0.037270971 0.014362704 0.063079767 0.029377626 0.997576 0.0078631891
-0.0043820189 -0.037338708 0.014550138 -0.034542348 0.014861017 0.99929279 0.0004143361
-0.0014678697 -0.037328511 0.014560658 -0.023387227 0.014058288 0.99962765 0.00036249304
0.001390052 -0.037603669 0.014508199 -0.039387725 -0.012366528 0.99914747 0.00088426581
0.0043415437 -0.037924759 0.014624545 -0.049837414 -0.026670497 0.99840122 0.00063847436
0.007099851 -0.037660219 0.014862281 -0.050691176 -0.030289374 0.99825495 0.00022113022
0.010648232 -0.037296098 0.014867719 -0.025572419 -0.020406809 0.99946469 0.00021507395
0.013196761 -0.037403233 0.014858429 -0.0089305863 -0.0046116663 0.99994951 5.3256164e-05
0.016417947 -0.036337309 0.014868309 0.004241053 -0.0032273757 0.99998581 5.8919555e-05
0.019385492 -0.036299851 0.014876361 0.0010939211 -0.0078729521 0.99996841 5.7637753e-05
0.022622818 -0.036224414 0.014892583 0.0018195768 -0.0045753024 0.9999879 8.7493216e-05
0.025697995 -0.037443072 0.01487425 -0.0015251549 -0.010293601 0.99994588 6.725773e-05
0.028550483 -0.037617553 0.014867082 -0.0099697607 -0.014713499 0.99984205 9.2945353e-05
0.031524763 -0.037482996 0.014895946 -0.012354014 -0.020728577 0.99970883 0.00011536969
0.034285255 -0.037721079 0.014899637 0.0050226739 -0.022310458 0.99973851 2.6750164e-05
0.036951456 -0.03878637 0.014889814 0.0097701214 -0.016805207 0.99981105 0.00011950087
0.043380328 -0.036105223 0.014918211 0.046467878 0.037630457 0.99821079 0.0031233563
0.046355177 -0.036362741 0.014862839 0.047974456 0.10347692 0.99347419 0.0033624214
0.049590826 -0.036342837 0.01486712 0.025858192 0.11055682 0.99353337 0.0029287005
0.052901857 -0.037101101 0.014702125 0.070289575 0.077540003 0.99450839 0.002020942
0.055489875 -0.037401963 0.014452062 0.038775332 0.013701209 0.99915403 0.0041796835
0.058062688 -0.037516639 0.014364081 0.02734587 0.024031719 0.99933714 0.0037317667
0.061385613 -0.037632819 0.014612821 0.0039929482 -0.066426948 0.99778336 0.000992093
0.064310655 -0.038233794 0.014514393 -0.0094246985 -0.040169582 0.99914843 0.0018985787
0.067854069 -0.037238367 0.014486703 -0.14636022 0.036202401 0.98856872 0.0078269206
0.069375649 -0.037776254 0.014845286 -0.27777243 0.053463072 0.95915806 0.0047324044
0.079046398 -0.037537765 0.013645929 0.97735929 -0.20626 0.047177307 0.022688605
-0.012428914 -0.033303659 0.01497893 0.26712352 0.083753936 0.96001577 0.0042540757
-0.010522271 -0.034399126 0.014339067 0.21650094 0.071874388 0.97363311 0.0070715873
-0.0075714299 -0.034478504 0.014242718 0.023191782 0.020052493 0.99952996 0.0046949564
-0.0044795657 -0.034211602 0.014471907 -0.049357403 -0.012116172 0.99870771 0.00064467476
-0.00149489 -0.034324773 0.014423626 -0.034813389 -0.028532173 0.99898648 0.00073991186
0.0014904188 -0.034500293 0.014610022 -0.051193684 -0.044087298 0.99771518 0.00060188567
0.0039021422 -0.034833975 0.01485941 -0.053085852 -0.043329038 0.99764949 0.00041589598
0.0076244194 -0.034089074 0.01480906 -0.03061223 -0.021481276 0.99930054 0.00032105268
0.010588912 -0.033823993 0.014866391 -0.010618131 0.0028632113 0.9999395 7.3892828e-05
0.013542126 -0.03375889 0.014880476 -0.00030949092 0.012732873 0.99991888 9.7447999e-05
0.016493592 -0.03372135 0.014888589 -0.0024386132 0.018295582 0.99982965 0.00016298894
0.019443598 -0.033721421 0.014888573 -0.0011215504 0.020617286 0.99978679 9.3183233e-05
0.022393653 -0.033720918 0.014888683 0.0035063047 0.013124982 0.99990773 3.7712314e-05
0.025341498 -0.033938047 0.014841721 -0.015848596 -0.011542577 0.99980778 0.00037090961
0.028292159 -0.034013569 0.014825391 -0.025164237 -0.021550126 0.99945104 0.00025764675
0.034965463 -0.034166791 0.014947965 0.017228341 -0.021066749 0.99962962 6.425663e-05
0.037428405 -0.034766041 0.014935127 0.015476876 -0.0081060473 0.99984741 7.2141869e-05
0.040384661 -0.03475529 0.014937456 0.03370858 0.00032606209 0.99943167 0.0010413232
0.043913472 -0.033591554 0.014713353 0.09496063 0.087019801 0.99167031 0.0015418719
0.047050983 -0.033426169 0.014602145 0.028475598 0.11377417 0.99309844 0.004366491
0.049554095 -0.033962939 0.014601466 0.0067722285 0.11487052 0.99335742 0.0045106993
0.052334744 -0.034740638 0.014352769 -0.0019930014 0.024755923 0.99969155 0.0063512139
0.055321421 -0.034557153 0.014626387 -0.0045304094 -0.071031451 0.99746382 0.0043206518
0.058550786 -0.035333373 0.014609125 0.0087777534 -0.066210642 0.99776703 0.0012741418
0.061458126 -0.034902617 0.014749417 0.024508432 -0.03087209 0.99922282 0.0010609857
0.064401254 -0.034384232 0.014666508 0.02979088 0.0040942486 0.99954778 0.0011774604
0.067314073 -0.034416065 0.01452975 -0.080291085 0.055128522 0.99524581 0.007854946
0.069901332 -0.034071572 0.014708573 -0.26817253 0.075200848 0.96043134 0.0041248365
0.079742268 -0.034395032 0.01366205 0.97908348 -0.1400618 0.14757463 0.045488819
-0.012207881 -0.031715062 0.014933582 0.31426895 0.033509672 0.94874239 0.0037387637
-0.0099776695 -0.030998059 0.014215026 0.17761134 0.0070728497 0.98407531 0.0063812705
-0.0072263698 -0.032007217 0.014250246 0.01129829 -0.039280996 0.99916434 0.0035949559
-0.0044756755 -0.031169999 0.014578752 -0.052965891 -0.043407366 0.99765247 0.00036856544
-0.0018158812 -0.030818123 0.014734494 -0.044256035 -0.034935661 0.99840921 0.00043466658
0.0011923234 -0.032053079 0.014812924 -0.055530488 -0.039654918 0.99766922 0.00040913321
0.004533065 -0.03171194 0.014783041 -0.029729279 -0.017434724 0.99940598 0.00026642508
0.0074829222 -0.031477463 0.014834051 -0.0081260651 -0.0020625915 0.99996489 8.5244479e-05
0.010423186 -0.031385083 0.014854148 -0.0014206356 0.015432866 0.9998799 0.00011436697
0.013623792 -0.031428047 0.014844805 0.0097139906 0.026187744 0.99960983 9.2521179e-05
0.016555723 -0.031538948 0.014820675 0.0013332277 0.029706383 0.99955779 0.00011920687
0.019493142 -0.031494532 0.014830336 -0.0048462525 0.029131401 0.99956387 0.0001029299
0.022427732 -0.031578202 0.014812136 -0.010630118 0.011001181 0.999883 0.00032645519
0.025364975 -0.031472329 0.014835168 -0.024969123 -0.022106847 0.99944377 0.00045632725
0.035499115 -0.030824941 0.014976007 0.029808383 -0.015675945 0.99943274 3.3025935e-05
0.03763349 -0.030956643 0.014947355 0.034707665 -0.006128666 0.99937874 9.2970557e-05
0.041271064 -0.030763034 0.014822025 0.086598322 0.031691827 0.9957391 0.0029725796
0.043535471 -0.031574335 0.014388102 0.11209958 0.052778076 0.99229443 0.0031452049
0.047105879 -0.032097176 0.014173366 0.0024387275 0.027609738 0.99961579 0.0088535985
0.048895195 -0.032004908 0.01426119 -0.0094076041 0.00044587816 0.99995565 0.0082399957
0.053053014 -0.031969659 0.014715079 -0.033235759 -0.060812894 0.99759573 0.004094467
0.05496664 -0.032106631 0.014848305 -0.016943194 -0.045042831 0.99884135 0.0031572361
0.059167773 -0.031065658 0.014840446 0.047975294 0.015864035 0.99872255 0.00030053861
0.06151107 -0.031622838 0.014660071 0.051589336 0.017415801 0.9985165 0.00028352084
0.064548209 -0.031477414 0.014490059 0.050157137 0.020729888 0.99852622 0.00033097572
0.067585342 -0.031809397 0.014243094 -0.039173793 0.036084533 0.99858063 0.0038171329
0.070033714 -0.031495307 0.014527638 -0.22579192 0.056929268 0.97251076 0.0049098916
0.080325603 -0.031434529 0.013807667 0.98245621 -0.17238694 0.071151562 0.035210039
-0.012585567 -0.028208569 0.014716145 0.29437494 0.046447288 0.95456064 0.003470303
-0.010539631 -0.028369863 0.014423107 0.13218711 0.016966082 0.99107957 0.0076370407
-0.0074088927 -0.028738605 0.01449744 -0.0062030996 -0.0069859372 0.99995637 0.0029368231
-0.0044817785 -0.028385188 0.014647944 -0.058583423 -0.0073705805 0.99825537 0.00039838321
-0.0014789908 -0.028453011 0.01474649 -0.04304526 0.0035512983 0.99906683 8.8748006e-05
0.0008349971 -0.02858109 0.014829377 -0.041187316 -0.0072885365 0.99912488 0.00016000154
0.0044028801 -0.029238775 0.014783561 -0.018506357 0.00070281525 0.99982852 6.9317495e-05
0.0073386286 -0.028978778 0.014840455 0.0064721811 0.01286713 0.99989629 0.0001864308
0.010676683 -0.028187536 0.014770263 0.01919407 0.039853122 0.99902123 0.00016796681
0.013828984 -0.027877953 0.014838217 0.017702835 0.048661955 0.99865842 7.3035451e-05
0.016493518 -0.028218646 0.014808794 -0.0074517326 0.042390935 0.99907333 0.00019607597
0.018941162 -0.028268125 0.01482963 -0.026162501 0.026081614 0.99931741 0.00028073345
0.022463689 -0.029298991 0.014770389 -0.031371232 -0.0019819592 0.99950588 0.00032782601
0.02433476 -0.028463822 0.01495314 -0.035773199 -0.012491373 0.99928188 0.00029118251
0.028842539 -0.028367538 0.014974202 0.0059337644 0.036236536 0.99932563 7.8328871e-05
0.030963117 -0.028447891 0.014956619 -0.0056546871 0.033297744 0.99942952 0.00015246125
0.037859842 -0.028610015 0.014921146 0.040620074 -0.0043624537 0.99916518 8.2513157e-05
0.041137349 -0.028444711 0.014828796 0.088976257 -0.01371281 0.99593937 0.0028025252
