# .PCD v0.7 - Point Cloud Data file format
VERSION 0.7
FIELDS x y z normal_x normal_y normal_z curvature
SIZE 4 4 4 4 4 4 4
TYPE F F F F F F F
COUNT 1 1 1 1 1 1 1
WIDTH 571
HEIGHT 1
VIEWPOINT 0 0 0 1 0 0 0
POINTS 571
DATA ascii
0.009957023 0.029880058 0.0088399788 -0.063464388 0.77953905 0.62313008 0.00059621065
0.012209605 0.029934438 0.008905476 -0.10414368 0.77898681 0.61833137 0.0005661191
0.06168773 0.027005611 0.0087406533 0.51543218 -0.39621189 0.7598328 0.00082598394
0.063373022 0.029081656 0.0085763838 0.52464855 -0.36047801 0.77123249 0.0015112851
-0.063748129 0.032026529 0.0069655268 -0.72288686 -0.48462766 0.49251461 0.0020711068
-0.062318478 0.031170912 0.008098267 -0.70453298 -0.47810197 0.52445382 0.0025113567
-0.015336874 0.032848619 0.0088552684 0.25366408 0.77412164 0.57999164 0.0014955325
-0.013088848 0.032557715 0.0084118741 0.23594534 0.81404006 0.53072459 0.0019872293
-0.010412241 0.03223367 0.0078201769 0.20033599 0.85755134 0.47378388 0.0010463294
-0.0074290284 0.031708077 0.0076369625 0.1590948 0.86359686 0.47842371 0.0016272344
-0.0044192993 0.031258114 0.0075885518 0.11914559 0.85509819 0.50459027 0.0021907284
-0.0014441027 0.030940821 0.0075051668 0.083156705 0.86411947 0.49636927 0.0025496215
0.0015652484 0.030699082 0.0075240941 0.048319869 0.85648751 0.51390117 0.002378209
0.0045190933 0.030675473 0.0074358485 0.018810105 0.85939491 0.51096624 0.002308531
0.0076268911 0.030705662 0.0074324869 -0.037556794 0.85733777 0.51338226 0.0025236488
0.010541539 0.030831648 0.0075407415 -0.070299625 0.8512646 0.52000636 0.0024727953
0.013591456 0.031111518 0.0076100808 -0.12538092 0.8339352 0.5374307 0.0026121477
0.016555792 0.031672943 0.0075655077 -0.18735786 0.83916765 0.51058263 0.0023973137
0.019254757 0.032131597 0.0078523103 -0.21251149 0.81526506 0.53868526 0.0022065265
0.022062026 0.032481465 0.008423035 -0.22576433 0.7808255 0.58253062 0.0012694633
0.024514601 0.032909151 0.0087911393 -0.2503888 0.7355426 0.62950969 0.0014622728
-0.066259146 0.035510514 0.0064281342 -0.7633183 -0.42009425 0.49078101 0.0046975664
-0.0647166 0.034498822 0.0077131228 -0.72729212 -0.39699191 0.55986023 0.002620856
-0.062935874 0.033274017 0.0089269318 -0.67402881 -0.39449501 0.62454695 0.0010712913
-0.022147875 0.035507556 0.0083683245 0.31527001 0.80751818 0.49851707 0.0021367911
-0.019126507 0.03461678 0.0079719191 0.28065076 0.8081252 0.5178501 0.001499873
-0.016223231 0.033691481 0.0079435268 0.24905115 0.81924087 0.51654416 0.0011938427
-0.013555449 0.033453006 0.0069315755 0.23476675 0.84097099 0.48749611 0.0014942758
-0.010793682 0.033101786 0.0061753439 0.19736589 0.87704825 0.4379876 0.00043156944
0.020082956 0.033164185 0.0065674125 -0.22419444 0.84460837 0.48618251 0.0016666005
0.02273483 0.03357479 0.007116403 -0.23570892 0.83349514 0.49972713 0.001986461
0.025538042 0.03416099 0.0075100786 -0.25796559 0.81464279 0.51943332 0.0025155267
0.028376734 0.035022907 0.0076010847 -0.29355776 0.82177848 0.48836857 0.0014912547
0.031123197 0.03546543 0.0084076654 -0.3009291 0.7480917 0.59143925 0.0013564798
0.033053089 0.035855647 0.0087927142 -0.33519223 0.71572125 0.61269021 0.0015805814
-0.066857748 0.037773203 0.0071155201 -0.74183977 -0.34774849 0.57336265 0.0025652251
-0.065505512 0.037204009 0.0084392168 -0.69889337 -0.29614779 0.65103352 0.0023938355
-0.030681483 0.038823899 0.008788472 0.36273488 0.76805127 0.52775067 0.00073507486
-0.028137639 0.038218752 0.0078656627 0.37367517 0.80826503 0.45505446 0.0015547187
-0.025253735 0.037051599 0.0077212378 0.33810169 0.82026094 0.46136668 0.001351362
-0.022379305 0.0363115 0.0068683065 0.32035542 0.83301306 0.45106721 0.001037754
0.02944839 0.036166642 0.006372571 -0.30728173 0.83109486 0.46352923 0.0014131222
0.031734742 0.036608282 0.0070148171 -0.32197079 0.81058639 0.48916727 0.0024046039
0.034520295 0.037479978 0.0075459345 -0.36387905 0.79891789 0.47887596 0.0023484093
0.037153725 0.038351785 0.0081227804 -0.38615438 0.75798905 0.52567804 0.0029518108
0.039347682 0.038929999 0.0089581823 -0.38434169 0.66652012 0.63877422 0.0018100092
-0.069122359 0.041777063 0.006228684 -0.74728894 -0.28035551 0.6024617 0.0051438329
-0.067555316 0.040523373 0.0075566247 -0.73149115 -0.22443604 0.64385492 0.0025271187
-0.065757476 0.039291516 0.0089653563 -0.66432083 -0.22435383 0.71298188 0.0038636848
-0.036338009 0.041732226 0.008568272 0.3982338 0.76696056 0.50317132 0.0010883474
-0.034208547 0.040971294 0.008107638 0.39467466 0.78645676 0.4750976 0.0016898162
-0.031667851 0.039910778 0.0077213999 0.36611274 0.79746175 0.4796001 0.0015480244
-0.029634425 0.039226167 0.0072243502 0.39209148 0.80369711 0.44758815 0.0010287445
0.035984203 0.039142776 0.0061291689 -0.46264401 0.79134035 0.39967617 0.002965475
0.037947487 0.0396013 0.0069402177 -0.41930512 0.76741749 0.48502952 0.0022193927
0.040446471 0.0406317 0.0075578899 -0.44109386 0.75605547 0.48354563 0.0016456753
0.042868435 0.041483086 0.0083828745 -0.40780434 0.67668295 0.61302191 0.0026038629
0.067768179 0.040070783 0.008737416 0.54020208 -0.029087182 0.84103251 0.0014970186
-0.069442898 0.043714475 0.0064999503 -0.73729736 -0.190504 0.64815193 0.0033242747
-0.067891069 0.043490317 0.0080278339 -0.64970869 -0.10827708 0.75243258 0.0023955731
-0.042378694 0.044698454 0.0085371695 0.38717455 0.72735912 0.56660795 0.0014811181
-0.040186837 0.044000156 0.0079849474 0.38695669 0.75627774 0.52754951 0.0006495408
-0.037537508 0.042743381 0.0079010269 0.38077095 0.79101932 0.47885484 0.001609545
-0.035437219 0.042344015 0.0066692699 0.41353422 0.79809165 0.43822274 0.0010767764
0.041705471 0.042187821 0.0063758292 -0.45187944 0.74783319 0.48636451 0.0015965296
0.043770265 0.042881977 0.0072119366 -0.44408679 0.72777909 0.52261323 0.0025971499
0.046310794 0.04400979 0.0077640931 -0.41400656 0.7161957 0.56183827 0.0024853861
0.048542056 0.044610407 0.00859283 -0.39797354 0.66243207 0.63466591 0.0016681826
-0.069804236 0.046546627 0.0067219138 -0.69802558 -0.097290434 0.70943278 0.0061388877
-0.067950852 0.046573181 0.0082387505 -0.57810438 -0.021602573 0.81567687 0.0029649569
-0.048645511 0.047628012 0.0088116378 0.3130641 0.70517743 0.63617271 0.0015072549
-0.046365783 0.047028594 0.0081050079 0.3523472 0.7294203 0.58634251 0.0016218291
-0.043745529 0.046059467 0.007644752 0.37122738 0.73884445 0.56240475 0.00076730235
-0.041407995 0.045272123 0.0070713926 0.37879339 0.75830919 0.53054935 0.00063457998
0.04728866 0.04545854 0.0066428385 -0.45793733 0.72359592 0.51643229 0.0024134533
0.049549788 0.046254072 0.0073654368 -0.4034645 0.71642423 0.56916851 0.0021969422
0.052165028 0.047115665 0.0081000607 -0.37113595 0.66828865 0.64470804 0.0024061243
0.054355349 0.047629505 0.0087895552 -0.30248976 0.619326 0.72452408 0.0035470035
0.068027012 0.047410559 0.0084980642 0.38654843 0.21467513 0.89693642 0.0017011921
-0.070070155 0.04955079 0.0067628711 -0.59664279 -0.017480986 0.80231649 0.0091269994
-0.06763269 0.049598482 0.0082424106 -0.4569329 0.11756749 0.8816973 0.0074359006
-0.06535542 0.050710488 0.0088304887 -0.16869882 0.31123483 0.93523985 0.010489021
-0.057598662 0.050896283 0.0088886442 0.12581724 0.68535691 0.71725583 0.003082525
-0.055426866 0.050617456 0.008561017 0.21062742 0.70163345 0.68069565 0.0023566035
-0.052266166 0.049787898 0.0081706569 0.27006391 0.70787746 0.65266758 0.0014966108
-0.049681291 0.049120247 0.0074923625 0.3346523 0.73155636 0.5939976 0.0010736481
-0.047228567 0.048348814 0.0069299648 0.36931691 0.75186062 0.54617828 0.0011169434
0.050898846 0.048078749 0.0062697623 -0.41507292 0.72084767 0.55506146 0.0012809946
0.052955002 0.048698541 0.006863995 -0.42493135 0.69174844 0.58388126 0.0019931511
0.055505633 0.049501117 0.0075466591 -0.33678764 0.65743381 0.67405856 0.0019129924
0.058314163 0.050169002 0.008229062 -0.26434106 0.62617326 0.73350579 0.0029343169
0.061294869 0.050626099 0.008748319 -0.13511227 0.53309351 0.8351981 0.0049521844
0.064909332 0.050638419 0.0088718431 0.050482489 0.39533713 0.91714776 0.0076301619
0.06710723 0.049892314 0.0084774652 0.30630943 0.31166965 0.89946455 0.0026485715
-0.070190869 0.052509978 0.0066347518 -0.45699078 0.10053135 0.8837719 0.0094978781
-0.067547709 0.052497715 0.0076235286 -0.25071198 0.28251258 0.92592126 0.014630477
-0.064566746 0.052461058 0.0080802245 -0.06375891 0.44619218 0.892663 0.010308375
-0.06159018 0.052520741 0.0079446631 0.08115986 0.61647344 0.78318167 0.0052194833
-0.058657724 0.052311182 0.007627917 0.14967771 0.72093618 0.67664427 0.0021946572
-0.055765066 0.051858474 0.0072999112 0.23544237 0.73828238 0.63206482 0.0018293575
-0.053201117 0.051385973 0.0066389767 0.32074434 0.75480759 0.57217878 0.0013432691
0.056540448 0.051272672 0.0062456108 -0.40952381 0.70301706 0.58142686 0.0028488997
0.058673799 0.051855087 0.0068350919 -0.33822402 0.66913879 0.66170824 0.0033554274
0.061441761 0.052522827 0.0074122925 -0.26783425 0.60022068 0.7536577 0.0050058095
0.064358212 0.052636981 0.0079297954 -0.04803773 0.46951908 0.88161451 0.0047862097
0.066937596 0.052893285 0.0075291577 0.10714261 0.40830389 0.90653646 0.0041943286
0.069384195 0.052622695 0.0065430896 0.23769882 0.33960468 0.91003734 0.0064845593
-0.070026092 0.055047508 0.0063168406 -0.27939686 0.29761067 0.91288841 0.012213784
-0.067614391 0.055178385 0.0066090156 -0.055597365 0.43084788 0.90071034 0.010444443
-0.06463217 0.05477874 0.0066014589 0.094211258 0.55293792 0.82787913 0.0080804611
-0.062022537 0.054366723 0.0064033312 0.19105071 0.67285311 0.71468061 0.0047680759
-0.059962895 0.054033302 0.0060126833 0.25424683 0.75372642 0.60601574 0.0023150328
0.062378194 0.05429149 0.0063576973 -0.32012019 0.61623079 0.71957117 0.0060859746
0.064547651 0.054959923 0.0065997373 -0.18641549 0.53208196 0.82591653 0.0084718531
0.067177929 0.055354182 0.0065295869 0.0027083857 0.41259113 0.91091228 0.013129187
0.06914977 0.055405032 0.0060348553 0.22343382 0.28869972 0.93098325 0.0066541294
-0.018612662 0.0059738476 0.009178712 -0.22000399 -0.79066885 0.57135022 0.00072247587
-0.016142603 0.0057427501 0.009567678 -0.16965842 -0.78583848 0.59470487 0.0006382385
-0.013395553 0.0054206732 0.0098449029 -0.13945411 -0.7774291 0.61331606 0.0010956561
-0.010576196 0.0052547203 0.010190573 -0.10124768 -0.76687503 0.6337598 0.0011655705
-0.0076798536 0.0050613722 0.010316056 -0.064777762 -0.75951773 0.64725322 0.00078564475
-0.0042773569 0.0047675269 0.010226607 -0.033439618 -0.73816139 0.67379487 0.0028345261
-0.0015171579 0.0049316664 0.010481768 -0.0057853279 -0.75342131 0.65751272 0.0013798199
0.0015072902 0.0049065468 0.010451773 0.0039816895 -0.74573058 0.6662358 0.0015719755
0.0043341657 0.0047815633 0.010226084 0.042366952 -0.74949241 0.66065592 0.0018321071
0.0073793796 0.0048543909 0.010040464 0.064645886 -0.73934388 0.67021751 0.0011144913
0.010519013 0.0051814849 0.010157869 0.081873626 -0.74400353 0.66314065 0.0015167391
0.013344884 0.0053641433 0.0099325404 0.11795574 -0.74362361 0.65811127 0.0014260244
0.016158024 0.0055795102 0.0096288081 0.14632463 -0.75369966 0.64072293 0.001049475
-0.027312946 0.008710593 0.009350501 -0.27609572 -0.77982312 0.56182474 0.00087170885
-0.025194444 0.0083337696 0.0097943675 -0.24619509 -0.7826677 0.57168108 0.00084938051
-0.022510037 0.0080739371 0.010498486 -0.21553916 -0.76782894 0.60330886 0.0010999795
-0.01963412 0.0073015904 0.010543054 -0.19284178 -0.77343822 0.60382563 0.00063105614
-0.016507037 0.0069553843 0.011067245 -0.15527773 -0.74496812 0.64877677 0.0012396688
-0.013379136 0.0066793617 0.011395198 -0.12038429 -0.70222932 0.70169908 0.0014025337
-0.01080982 0.0064289505 0.01153871 -0.085058026 -0.73687249 0.67065948 0.0011027578
-0.0075843222 0.0063039232 0.011702335 -0.050938614 -0.70063722 0.7116971 0.0011610987
-0.0042592208 0.0060533909 0.011662596 -0.0021092454 -0.68430787 0.72919017 0.0031735252
0.0015750022 0.0062790224 0.011883271 0.015112429 -0.59824347 0.8011719 0.0017642035
0.0045401603 0.0062174569 0.011764477 0.041184437 -0.70170909 0.7112723 0.00093338889
0.0077517247 0.0063062981 0.011566794 0.059910528 -0.71554101 0.69599694 0.0016650818
0.010441453 0.0065598511 0.011566597 0.078877598 -0.70352274 0.70628184 0.0011597155
0.013563943 0.0067652715 0.011334451 0.10722926 -0.71109176 0.69487441 0.0015716297
0.016491013 0.00701671 0.011098932 0.13422978 -0.68753535 0.71363682 0.0040704468
0.019420212 0.0073525058 0.010798633 0.16017585 -0.67938048 0.71609068 0.0012550977
0.022272777 0.0076551992 0.010405348 0.17513739 -0.69813204 0.69421798 0.0010604236
0.025358589 0.0080572655 0.0099648628 0.18727088 -0.70302391 0.68606633 0.00025368307
0.028451664 0.0084800925 0.009593348 0.19054005 -0.69907624 0.68919301 0.0005277262
0.030897306 0.0087058395 0.009202308 0.21386378 -0.67349637 0.70757687 0.00080170663
-0.036332153 0.011992176 0.0091369739 -0.36601946 -0.76386243 0.53154874 0.00071065919
-0.034155224 0.011532461 0.0098483823 -0.33120525 -0.76725996 0.54919505 0.00071889407
-0.031478703 0.011000047 0.010531703 -0.27427343 -0.7679494 0.57881582 0.0010685176
-0.028623927 0.010021752 0.010560577 -0.27367717 -0.77741116 0.5663327 0.0007502166
-0.025714409 0.0095926002 0.011307096 -0.22542638 -0.74399501 0.62901062 0.0012831704
-0.023441624 0.0094612092 0.011907833 -0.2135707 -0.69940662 0.68206888 0.0016934073
0.022559099 0.0091566388 0.011830667 0.16844404 -0.65486944 0.73673105 0.0011188141
0.025666589 0.0097781997 0.011569538 0.18540841 -0.66005164 0.72798043 0.00058316486
0.028617449 0.010107965 0.011018527 0.19450438 -0.65307617 0.7318877 0.00040878041
0.031479429 0.010457106 0.010549116 0.20639154 -0.63806009 0.74180984 0.00071978883
0.034312028 0.010840786 0.010152377 0.21386677 -0.64700401 0.73187894 0.001585738
0.037032306 0.011217003 0.0097054606 0.25783342 -0.67817354 0.6881879 0.0018356483
0.039950658 0.011969604 0.0092576491 0.28164172 -0.64943534 0.7063368 0.00075991388
-0.042146821 0.014893147 0.0090454342 -0.42937988 -0.72086966 0.54404026 0.0007883489
-0.040535141 0.014407185 0.0096581774 -0.40765762 -0.72103405 0.56029022 0.00076313148
-0.037643228 0.01388074 0.010858263 -0.34836206 -0.73593307 0.58055699 0.00083724875
-0.034620337 0.012897513 0.011373297 -0.30441511 -0.70509863 0.64044315 0.00098829658
-0.032603886 0.012472175 0.011925852 -0.28227869 -0.70020926 0.65576345 0.0014714284
0.032177005 0.012225811 0.011791492 0.19367053 -0.59948152 0.776604 0.0004811697
0.034773141 0.012703018 0.011490116 0.20593791 -0.60860193 0.76628536 0.00047368251
0.037762683 0.013239132 0.011071241 0.22228904 -0.59458584 0.77269351 0.0009360619
0.040256586 0.013551219 0.010563036 0.27938235 -0.614788 0.73755085 0.0019137823
0.043115973 0.014157686 0.0099696359 0.29762486 -0.60645342 0.73731518 0.00052370684
0.045412686 0.014887613 0.0095134638 0.33094582 -0.61267871 0.71770447 0.0012418834
-0.045680076 0.017457966 0.0095774047 -0.46405846 -0.69742066 0.5461266 0.00077346619
-0.043158308 0.016945163 0.010891381 -0.4188205 -0.689161 0.59130913 0.0011193802
-0.040826701 0.015949221 0.011434463 -0.3883082 -0.69158959 0.60903251 0.00098186592
-0.038753349 0.015261904 0.011932224 -0.35897344 -0.67081875 0.6489532 0.0017230054
0.040926319 0.015360882 0.011705581 0.24358507 -0.57787257 0.77892852 0.00095031981
0.043908749 0.016320731 0.011346111 0.27918369 -0.53740507 0.79577148 0.00084564323
0.046534766 0.016919743 0.01072845 0.33484489 -0.58662593 0.73739332 0.0018476808
0.049492233 0.017253924 0.0094921645 0.37399542 -0.5879935 0.71721065 0.0010642387
-0.049120296 0.02013891 0.0099462522 -0.4868468 -0.66963941 0.56085944 0.00086762296
-0.046733636 0.019234611 0.010947707 -0.45518917 -0.67360038 0.58229315 0.0012139226
-0.044278938 0.018273583 0.011691995 -0.42057905 -0.66282225 0.6194998 0.0013698777
0.047314599 0.018613487 0.011655687 0.31151232 -0.51532543 0.79837322 0.0027345729
0.049545616 0.019677276 0.011347127 0.35741672 -0.51318485 0.78031701 0.00070812844
0.052408263 0.019759377 0.0098633422 0.3846907 -0.51468015 0.76623595 0.00065072899
-0.05449529 0.023793899 0.0093648303 -0.54007953 -0.61375159 0.57586724 0.00075330876
-0.052330673 0.022771539 0.010207927 -0.50502044 -0.63784009 0.58147603 0.0013864487
-0.049871773 0.021874076 0.011314918 -0.47000468 -0.62746024 0.62079734 0.0013438024
0.052629821 0.022302417 0.011587695 0.39389914 -0.46932235 0.79030377 0.00099054538
0.055392191 0.022729026 0.010282095 0.43003532 -0.48346421 0.76245129 0.00041630276
0.057835888 0.023925224 0.0095474841 0.44184157 -0.46598336 0.76657391 0.00054079568
-0.057301447 0.02637358 0.0092870584 -0.57992738 -0.57396781 0.57813936 0.00090556545
-0.05537625 0.025624663 0.010405959 -0.53708202 -0.57020289 0.62162 0.0014403305
-0.05324712 0.024662802 0.011402424 -0.52686882 -0.58902776 0.61274421 0.00086790061
0.0019313884 0.02693177 0.011939448 0.04481712 0.68634284 0.72589594 0.0012931551
0.0049745329 0.02687538 0.011909805 0.012618592 0.68446916 0.72893268 0.0011761194
0.0073906742 0.026916381 0.011854813 -0.015317933 0.68729055 0.72622108 0.0013548145
0.009956697 0.026984837 0.011907908 -0.05647682 0.67902166 0.73194259 0.001492086
0.055974957 0.025150165 0.011430523 0.41500425 -0.42958856 0.80201322 0.0012780257
0.058316402 0.025887024 0.010505097 0.47561082 -0.43027213 0.76724201 0.00077442208
-0.060165729 0.029649252 0.0092648556 -0.62996411 -0.48946103 0.60297018 0.0022637465
-0.058290761 0.028699555 0.010358914 -0.59360212 -0.47700652 0.64815223 0.0015839549
-0.056253996 0.02774681 0.011506931 -0.5459488 -0.4998419 0.67238235 0.0017373067
-0.012435202 0.029721608 0.011714518 0.18474019 0.69089544 0.69895244 0.0023237641
-0.010301205 0.029444108 0.011450443 0.17215133 0.72343999 0.6685794 0.0012946557
-0.0071611949 0.029068127 0.011096803 0.14505516 0.72198164 0.67653638 0.0016257274
-0.0044413274 0.028827915 0.010851082 0.11968832 0.72148234 0.68201017 0.0020958139
-0.0015127147 0.028676659 0.010574284 0.09584523 0.72783571 0.67902046 0.002702212
0.0015845546 0.028386196 0.010578052 0.053451527 0.73353046 0.67755139 0.0023931034
0.0045458074 0.028354434 0.0105093 0.0011794036 0.72371316 0.69009995 0.0020760878
0.0076282336 0.02838706 0.010478412 -0.023327943 0.73642957 0.67611194 0.0020578436
0.010582049 0.028453283 0.010604079 -0.068821818 0.72514045 0.68515319 0.0022074159
0.013471941 0.028637916 0.010708067 -0.11180794 0.71233183 0.6928798 0.0033469989
0.01635167 0.028939093 0.010971437 -0.14259954 0.66595352 0.73223722 0.0019769829
0.019387795 0.029213941 0.01132113 -0.16174755 0.68242979 0.71283048 0.0018023973
0.022255458 0.02951871 0.011676508 -0.18396378 0.65330869 0.73440117 0.00079683797
0.024790395 0.029916123 0.011929623 -0.20369275 0.63704699 0.74342477 0.00098035834
0.056763593 0.027030008 0.011971707 0.46672487 -0.37798896 0.79955757 0.002434057
0.058881145 0.028199162 0.011380988 0.46933308 -0.35207969 0.80979407 0.0018358394
0.061123613 0.028735831 0.010213016 0.5124774 -0.35419065 0.78225058 0.00093333353
-0.06096347 0.031797733 0.010021102 -0.62759697 -0.42653385 0.65129936 0.0014955375
-0.059097271 0.031185025 0.011342645 -0.56516021 -0.38367763 0.73033237 0.0015683736
-0.021664476 0.032810044 0.011628621 0.27402547 0.69979513 0.65969449 0.001658213
-0.019354118 0.032327183 0.011241516 0.25379631 0.73030198 0.634229 0.0010173147
-0.016712405 0.031919539 0.010671153 0.24066588 0.74968207 0.61648738 0.0010038893
-0.013645898 0.031089472 0.010570437 0.20914489 0.75478417 0.62173885 0.0023229632
-0.010489288 0.030822659 0.0099341488 0.1818438 0.77539599 0.6047262 0.0016052789
-0.0074420176 0.030360028 0.009686158 0.14927217 0.76807815 0.62271482 0.0016242241
-0.0048945616 0.030239994 0.0092928633 0.11914201 0.78512597 0.60776842 0.0022299499
-0.0024704537 0.030042581 0.0090743247 0.11078388 0.78513467 0.60933614 0.002948296
0.014342222 0.030077277 0.0092093656 -0.11574084 0.75596029 0.64430434 0.0010770092
0.016724521 0.030335421 0.0094484454 -0.15774179 0.74716407 0.64564955 0.0012221336
0.019580556 0.030659288 0.0099028545 -0.18462695 0.72707891 0.66126335 0.0016440242
0.022574445 0.031144425 0.010264724 -0.19731289 0.71448964 0.67124677 0.002463555
0.025420099 0.031585027 0.010686494 -0.21627101 0.6840747 0.69661224 0.0012387087
0.028363185 0.03197341 0.011212355 -0.22472921 0.63768375 0.73678774 0.0012203293
0.031106532 0.032514401 0.011629399 -0.2350127 0.64724505 0.72515029 0.0017745694
0.033445813 0.032982074 0.011900435 -0.27211645 0.63635224 0.72180915 0.0022155736
0.059741642 0.031141665 0.011977609 0.43217608 -0.25197545 0.86587083 0.001704307
0.061332874 0.031407401 0.011191827 0.50635684 -0.29770765 0.809304 0.0016289173
0.063535698 0.031678732 0.0098393224 0.52062082 -0.31734064 0.79262155 0.0016611763
-0.063477598 0.035187051 0.0095165232 -0.65426636 -0.35894799 0.66565144 0.0022588561
-0.061646413 0.034439053 0.010838703 -0.59942782 -0.3012116 0.74159139 0.0019532489
-0.059830833 0.033251066 0.011869433 -0.59553373 -0.31436327 0.73926675 0.0024097876
-0.028148815 0.035565287 0.011500539 0.30377209 0.6914441 0.65545982 0.0014618835
-0.025274985 0.03499642 0.010746397 0.30116016 0.74135202 0.5997498 0.001228174
-0.022324158 0.033974566 0.010573101 0.27106947 0.74623942 0.60798687 0.0020068462
-0.0199541 0.033779047 0.0097380998 0.27233642 0.74034542 0.61459053 0.0013843296
-0.017441694 0.033219133 0.0092972191 0.25422511 0.77074838 0.58422309 0.001417632
0.026224345 0.033159215 0.0092594037 -0.24439856 0.72788525 0.64066565 0.0014158945
0.028653843 0.033582047 0.0097370343 -0.24956788 0.72351766 0.64361334 0.0013976739
0.031609885 0.034131002 0.010256131 -0.26172271 0.7071358 0.65685636 0.0027475581
0.03441165 0.03468911 0.01081881 -0.28148124 0.6319809 0.72205848 0.0021404119
0.037196994 0.035353258 0.011419382 -0.29013032 0.63188887 0.71870774 0.0032679585
0.039552141 0.035770711 0.011932416 -0.27672482 0.57879525 0.76708508 0.0034322164
0.062191971 0.034788389 0.01167226 0.39990649 -0.12450948 0.9080596 0.0014601019
0.064146124 0.034587223 0.010399882 0.50123763 -0.18346395 0.84563696 0.0011524939
-0.064101644 0.037725925 0.01001729 -0.64065439 -0.2468985 0.72705096 0.0028576124
-0.062166542 0.037359554 0.011455598 -0.55668008 -0.18753678 0.80928189 0.0018870621
-0.034187809 0.038500737 0.011326363 0.32256153 0.69422585 0.64343184 0.0010332008
-0.031502329 0.037669718 0.010827683 0.32831335 0.72694302 0.60312873 0.0019313255
-0.028804433 0.036990717 0.010163661 0.3290565 0.74426806 0.5811944 0.001931521
-0.026326455 0.036342196 0.0095924623 0.31515789 0.75998467 0.56841773 0.0009525285
0.035074148 0.036394138 0.0094426023 -0.32166347 0.71133149 0.62493205 0.0014242064
0.037708327 0.036981538 0.010091547 -0.35145265 0.66719818 0.65675533 0.0026279439
0.040361319 0.037673656 0.010793406 -0.33086115 0.60274994 0.72610152 0.0020897584
0.043179791 0.038307298 0.011536364 -0.30419263 0.56611627 0.76614565 0.0019625297
0.045145251 0.038843244 0.011840193 -0.29197291 0.56353319 0.77277565 0.00099914125
0.062672183 0.038113408 0.01188506 0.37817934 -0.024001768 0.92542112 0.0048194975
0.063761346 0.03760463 0.011257812 0.42870691 -0.054571308 0.90179396 0.0020363387
0.06622497 0.036905926 0.0094584916 0.54279023 -0.14787714 0.82674736 0.0015258552
-0.066232912 0.041500263 0.0092050498 -0.66436023 -0.17914718 0.72562504 0.0025629434
-0.064532466 0.040544733 0.01033581 -0.59836924 -0.1471093 0.78759956 0.0024921244
-0.062551647 0.04056894 0.011671214 -0.52102095 -0.05405705 0.85183036 0.0028355389
-0.042394176 0.041828983 0.011844041 0.30651602 0.66115922 0.6847747 0.0025484997
-0.040399954 0.041247714 0.011534211 0.29137623 0.65109056 0.7008431 0.0010641186
-0.037703484 0.040333562 0.011118763 0.30568448 0.6781233 0.66836053 0.0007582765
-0.034854602 0.039902695 0.010069796 0.35185778 0.71922469 0.59909254 0.0011585804
-0.032393873 0.039210964 0.00943489 0.36813197 0.75670093 0.54026157 0.0022127428
0.041060045 0.039432183 0.0094935875 -0.38778287 0.66349536 0.63984245 0.0023641
0.043654244 0.040220033 0.010156129 -0.36937457 0.6264922 0.68634528 0.0020979077
0.046323653 0.040756617 0.010957683 -0.29527447 0.55463368 0.77794242 0.0012938
0.049168777 0.041382004 0.011582307 -0.25238046 0.51321954 0.82031083 0.0019870608
0.051284749 0.041832894 0.011845456 -0.18174902 0.50286949 0.84503818 0.0025767838
0.062702134 0.040496644 0.011907301 0.33575657 0.059722673 0.94005358 0.0023127706
0.064282052 0.040443219 0.011203304 0.41042534 0.049298648 0.91056061 0.003174233
0.066450544 0.041396201 0.009914875 0.4530485 0.028923951 0.89101654 0.0013692991
-0.066354655 0.043627203 0.0093585756 -0.61583626 -0.052157916 0.78614581 0.0039012895
-0.06451308 0.04356407 0.010581516 -0.50633955 0.019485561 0.86211395 0.0022909811
-0.062255006 0.043748602 0.011712443 -0.41168314 0.087087415 0.90715635 0.0036422024
-0.049127489 0.044705484 0.011842277 0.20827781 0.61590153 0.75979322 0.0016887855
-0.046279296 0.04421803 0.011273454 0.25330138 0.63793129 0.72724277 0.0015602303
-0.043497249 0.043231875 0.010950034 0.29633611 0.66447705 0.68604314 0.00090706471
-0.040771358 0.042854302 0.0098497681 0.3505581 0.72206295 0.59643453 0.00058978435
-0.038646117 0.042223863 0.0093777059 0.3575879 0.72569394 0.58779186 0.00067716633
0.046894684 0.042631071 0.0096512549 -0.36482733 0.63911861 0.67707348 0.0022665283
0.049595442 0.043440744 0.010198772 -0.32803807 0.59700894 0.73210067 0.0022781098
0.052386601 0.043710213 0.011004172 -0.22314078 0.53196019 0.81683934 0.0013961247
0.055299696 0.04416154 0.011474271 -0.16484857 0.46278977 0.87100548 0.0025425248
0.058283512 0.04427655 0.011786722 -0.042713989 0.38955167 0.92001361 0.0034575518
0.061525512 0.043904323 0.011708617 0.1481543 0.25218049 0.95627153 0.0027958434
0.064376585 0.043566272 0.010953512 0.34131622 0.15559027 0.92698157 0.0035511511
0.066480391 0.0434209 0.0099282544 0.46868399 0.059252556 0.8813765 0.0035375732
-0.066376984 0.046473771 0.0092602568 -0.53067279 0.070743658 0.84461927 0.0046970272
-0.064551838 0.046532843 0.010219459 -0.38994262 0.19594719 0.8997497 0.0069314539
-0.061612014 0.046573769 0.011324693 -0.28035966 0.29008287 0.91501385 0.005666459
-0.058640599 0.046971545 0.011603594 -0.029422546 0.46175218 0.88652086 0.0028710812
-0.055497866 0.047110107 0.011414282 0.093305588 0.53704494 0.83837748 0.0027306813
-0.052450825 0.046772525 0.011083044 0.18318962 0.6021136 0.77711058 0.0015209288
-0.049624141 0.046426978 0.010477307 0.23505718 0.63246596 0.73806155 0.00055854954
-0.047148257 0.045585766 0.010294517 0.30026972 0.66038293 0.68828231 0.00095939869
-0.044741545 0.045152802 0.0094835814 0.3553291 0.70028895 0.61914188 0.0011656971
0.050732464 0.045287177 0.009209374 -0.36289468 0.63328487 0.68356252 0.0025846602
0.052734453 0.045832496 0.0095874956 -0.31085578 0.6113745 0.72772926 0.0026704401
0.055520132 0.046493184 0.010095703 -0.24742441 0.54097688 0.80381918 0.003450874
0.058401782 0.046501309 0.010730732 -0.10658757 0.45861951 0.88221723 0.0025438117
0.061379109 0.046579968 0.010821267 0.041089386 0.37034553 0.92798477 0.0040332624
0.064211033 0.04681481 0.010318851 0.14840364 0.3297959 0.93231487 0.0029238425
0.066582255 0.046562359 0.0094978288 0.31401652 0.18547508 0.93112439 0.0049795341
-0.066242255 0.04857244 0.0090994984 -0.37060091 0.21201955 0.9042691 0.0074439407
-0.064436696 0.049333271 0.009510057 -0.24782199 0.32931119 0.91111928 0.007197246
-0.061486136 0.049426038 0.0100404 -0.11549478 0.45225942 0.88437676 0.0061708507
-0.058546003 0.049425006 0.010152134 0.038155511 0.5714215 0.8197692 0.0033122087
-0.055594426 0.049084615 0.009982829 0.15507421 0.62162954 0.76780772 0.0030827764
-0.052668806 0.048576731 0.0095549338 0.22992772 0.66466355 0.71088362 0.0014822129
-0.050541058 0.048138663 0.0092454897 0.27535823 0.68083453 0.67870635 0.0010924003
0.056156009 0.048183683 0.009107626 -0.29016826 0.60869247 0.73844159 0.0027228377
0.058652516 0.048709314 0.0094469525 -0.19108047 0.55581385 0.80904835 0.004055073
0.061514568 0.049183119 0.0096208947 -0.056057394 0.47545686 0.87795115 0.0041524731
0.064111948 0.049345631 0.0095101194 0.076618679 0.39096594 0.91721058 0.0041131135
0.066662967 0.048265703 0.0091268411 0.24557324 0.27732852 0.92886096 0.0035711317
-0.063649982 0.051040817 0.0090525001 -0.15764971 0.45121256 0.87838137 0.0086607905
-0.061732579 0.051108349 0.0090619382 -0.020425219 0.56216049 0.82677591 0.0045874119
-0.0599766 0.05117375 0.0090254601 0.086776905 0.67461586 0.7330507 0.0041866964
-0.021012457 0.0089257769 0.012096833 -0.18025981 -0.71147072 0.67920232 0.0028908169
-0.019363301 0.0087029766 0.012257965 -0.1695202 -0.71447009 0.67881906 0.0015268377
-0.016144827 0.0083624385 0.012555245 -0.12199647 -0.64827937 0.75156558 0.0010150996
-0.013309788 0.0084063942 0.012994592 -0.092386022 -0.61947793 0.77955884 0.0016281788
-0.010672748 0.0083381059 0.013245445 -0.06363634 -0.60731983 0.79190469 0.00090642
-0.007457498 0.007707803 0.01291982 -0.033348203 -0.59073693 0.80617476 0.0012118234
-0.0045610773 0.0077649574 0.013073162 -0.00095008436 -0.57973713 0.81480306 0.0016318719
-0.0016403808 0.0078309709 0.013145524 0.013852244 -0.56310153 0.82627165 0.0021759744
0.0015659224 0.0079598725 0.013177165 0.027999992 -0.52208489 0.8524338 0.0013293192
0.0044386373 0.0080591766 0.013136816 0.033590496 -0.51678145 0.85545814 0.0012965796
0.0074761049 0.0080843335 0.012971687 0.05434439 -0.49405092 0.86773294 0.0011420586
0.010473844 0.0082460744 0.012864852 0.071423255 -0.52115256 0.85046971 0.00099860213
0.013674457 0.0084542427 0.012681316 0.084760688 -0.50786716 0.85725528 0.0012645873
0.016504211 0.0085368389 0.01242193 0.109404 -0.61024827 0.78461957 0.0020365361
0.018938258 0.0086617721 0.012107806 0.14491798 -0.64387625 0.75128031 0.0023267355
-0.030456292 0.01193045 0.012214749 -0.26236343 -0.7008335 0.6633234 0.0012109232
-0.028561302 0.011662205 0.012532839 -0.22941433 -0.66941762 0.70657569 0.0012658163
-0.025573775 0.011164997 0.012982548 -0.20204061 -0.64546919 0.7365793 0.001496932
-0.022372698 0.010788615 0.013421168 -0.16015479 -0.62321335 0.7654773 0.0014187116
-0.019538661 0.010502763 0.013770643 -0.12512454 -0.58631921 0.80035847 0.00081276143
-0.016668046 0.010487157 0.014215317 -0.098682776 -0.57004684 0.81566429 0.001475323
-0.013614579 0.010208551 0.014328039 -0.077966653 -0.54222548 0.83660787 0.0015688078
-0.010764378 0.010168999 0.014528007 -0.043083742 -0.50978076 0.85922486 0.0017593278
-0.0076807593 0.0097927535 0.014393125 -0.015621756 -0.51533264 0.85684782 0.0013799979
-0.0043937429 0.0098501677 0.014466546 -0.0027217129 -0.47961849 0.87747288 0.0020043429
-0.0014982228 0.01000652 0.014509871 0.015651258 -0.45804694 0.88879025 0.0020160235
0.0016223633 0.01008023 0.014452964 0.039684832 -0.43364319 0.90021038 0.0016268546
0.0047024414 0.010410356 0.014468989 0.050659277 -0.4353691 0.89882553 0.0013906197
0.007417765 0.010569632 0.014393424 0.055129353 -0.42550549 0.90327501 0.001183759
0.010216151 0.010702205 0.014261355 0.067088604 -0.4227652 0.90375257 0.00096003455
0.013373445 0.010596481 0.013916162 0.074719772 -0.40735286 0.91020912 0.00077044341
0.016398417 0.010761566 0.01370788 0.09025868 -0.39990908 0.9120999 0.0015722546
0.02006886 0.011007603 0.013403189 0.098468177 -0.40015063 0.91114408 0.00098352612
0.022020698 0.011258313 0.013267744 0.11117918 -0.4362224 0.8929441 0.0015924661
0.025410937 0.011321844 0.012796847 0.15855512 -0.55793774 0.81459546 0.0027516314
0.0281756 0.011516367 0.012356465 0.17991842 -0.58315533 0.79218638 0.0015548754
-0.036616478 0.0148221 0.012503189 -0.30248579 -0.66190195 0.68584847 0.0012099199
-0.034327716 0.014174026 0.012867528 -0.2930508 -0.66539061 0.68656868 0.00097790139
-0.031494763 0.013702117 0.013502215 -0.24100658 -0.63522041 0.73376483 0.0017026108
-0.028625367 0.013387185 0.014058677 -0.20036437 -0.59716624 0.77668947 0.00091323053
-0.025728488 0.012914884 0.014435238 -0.17484082 -0.58655542 0.7908119 0.0015737781
-0.022818372 0.012580372 0.014760238 -0.14052373 -0.57565272 0.80552912 0.0016146163
-0.020179376 0.012215468 0.014921975 -0.099186935 -0.52738219 0.84381872 0.002331051
0.0085639805 0.012049775 0.014943541 0.051923167 -0.40263578 0.91388643 0.0016359231
0.010839081 0.012377963 0.014941378 0.063374162 -0.31697378 0.94631457 0.0019533995
0.013670783 0.012661087 0.014832417 0.078022987 -0.30402035 0.94946516 0.0021023795
0.016812766 0.012862176 0.014645937 0.087383136 -0.32834646 0.94050664 0.0018830585
0.019668028 0.013694141 0.014662859 0.091809176 -0.33251324 0.93861926 0.0014001265
0.02262483 0.013504188 0.014271364 0.081786744 -0.31091446 0.94691241 0.0017758971
0.025311597 0.013874801 0.014124669 0.095683306 -0.34327215 0.93434948 0.0013629876
0.028196853 0.014140749 0.013842482 0.12255294 -0.34195411 0.93169099 0.001116935
0.031321019 0.013670708 0.01305777 0.17492126 -0.50947368 0.84251952 0.0020170573
0.03410469 0.014089903 0.012657504 0.18847705 -0.53018939 0.82666534 0.0012562242
0.036494348 0.014461122 0.012248057 0.20977601 -0.54783642 0.80985755 0.00044361036
-0.042551436 0.01776661 0.012257922 -0.40411723 -0.66692424 0.62602025 0.0013715274
-0.040091578 0.017153831 0.013055257 -0.36420083 -0.63485461 0.68140841 0.0010810434
-0.037540719 0.016600186 0.013738535 -0.29428774 -0.59813243 0.74540746 0.0010540658
-0.034668971 0.015987409 0.014302763 -0.25793663 -0.56991184 0.78017253 0.0018111663
-0.031957302 0.015429446 0.014785969 -0.22140637 -0.58215094 0.78235507 0.0020994963
0.022707893 0.015375279 0.01493431 0.065590441 -0.24087155 0.96833819 0.0021387443
0.025522359 0.015899474 0.014808265 0.076379456 -0.23085123 0.96998656 0.0016039805
0.028528096 0.016353792 0.01464234 0.081353664 -0.24495156 0.96611601 0.00099157193
0.03117984 0.016946336 0.01454307 0.084910646 -0.25237679 0.96389633 0.0014263539
0.033900265 0.017088225 0.01423917 0.10709652 -0.28094566 0.95372945 0.0009254152
0.036969937 0.016604044 0.013444534 0.16219927 -0.39117435 0.90591061 0.00059745449
0.040137835 0.016681802 0.012711489 0.21788301 -0.4876245 0.84542853 0.00069124828
0.04339844 0.017577145 0.012285452 0.23405024 -0.4408741 0.86651629 0.0014466131
-0.045925856 0.02034474 0.012647028 -0.43808395 -0.58620095 0.6815064 0.0019797368
-0.043361768 0.019697862 0.013502795 -0.37021241 -0.5810492 0.72479278 0.0019151265
-0.040759802 0.019020626 0.014227606 -0.34327143 -0.53662509 0.77084255 0.0017170763
-0.038468834 0.018396139 0.014809817 -0.277522 -0.56230062 0.7789734 0.0021059811
0.032122482 0.018424986 0.014884266 0.071733586 -0.17861515 0.98130065 0.0015264456
0.034831595 0.018808054 0.014726142 0.10354047 -0.23167968 0.9672662 0.0020837861
0.037121478 0.019572837 0.014666774 0.11008068 -0.25672978 0.96019375 0.0015694238
0.040177379 0.019847969 0.0142388 0.14281787 -0.28354618 0.948264 0.0018212585
0.043324206 0.020032287 0.013575653 0.21495937 -0.38818049 0.89616311 0.00126633
0.046164609 0.019932091 0.012762856 0.2446852 -0.39880794 0.88378805 0.00097208866
0.048631463 0.020718524 0.012370694 0.33421481 -0.49369508 0.80284852 0.0019139337
-0.051358055 0.023843316 0.012122256 -0.47375453 -0.55484283 0.68389034 0.0021522085
-0.049202915 0.023054233 0.012834422 -0.44211328 -0.56829381 0.69395816 0.0020870985
-0.046601426 0.02240991 0.013816699 -0.40623805 -0.51555806 0.75443393 0.0016579271
-0.044227928 0.021624096 0.014554908 -0.33644572 -0.49512035 0.80103695 0.0018737124
-0.0067718904 0.023900665 0.014963218 0.11919369 0.45984977 0.87996078 0.0019401466
-0.004333993 0.023618951 0.014806482 0.098674349 0.44598898 0.88958251 0.0022399498
-0.001435167 0.023340911 0.014662601 0.077246368 0.43139359 0.89885068 0.0024188717
0.0014995621 0.023092665 0.014574197 0.048174635 0.43810976 0.89762962 0.0022630801
0.0044193831 0.022979409 0.014516157 0.022696398 0.43734029 0.89900959 0.0022184148
0.0075454353 0.022926422 0.014491394 -0.0027552429 0.42972815 0.9029541 0.0022184697
0.010528239 0.022985468 0.014524348 -0.025690619 0.41505837 0.90943199 0.0022887611
0.013577518 0.02305611 0.014596865 -0.051111955 0.38739866 0.92049432 0.0025694654
0.016481139 0.023306241 0.01469325 -0.069038063 0.34525007 0.93596798 0.0028920642
0.019347178 0.023444958 0.014825985 -0.07527981 0.29793242 0.95161402 0.0030628231
0.021741917 0.023718625 0.014939298 -0.076081671 0.23129244 0.96990484 0.0030108262
0.038927235 0.021549255 0.014978786 0.12339704 -0.14600179 0.98155826 0.004189969
0.040812451 0.02195243 0.014832026 0.11670922 -0.19251747 0.9743284 0.0017513119
0.043156441 0.022744728 0.014664338 0.13018142 -0.20632826 0.9697842 0.0017308114
0.046251215 0.02256323 0.013892453 0.21764497 -0.31059813 0.92528886 0.0014240659
0.049209684 0.022702083 0.013061741 0.25539237 -0.33763087 0.9059692 0.00090173521
0.051540092 0.02358852 0.012688217 0.30627504 -0.35000739 0.88526291 0.0011089955
-0.054301333 0.026731512 0.012218135 -0.51248419 -0.50729936 0.69282556 0.002199105
-0.052242771 0.025846556 0.012947712 -0.47438714 -0.49646595 0.72696525 0.0016725287
-0.04972535 0.02537962 0.014148149 -0.41171136 -0.44046625 0.79779893 0.0014671106
-0.047581986 0.024479339 0.014713074 -0.36677027 -0.42808238 0.82596916 0.0017833292
-0.0158094 0.026669817 0.014895356 0.17875774 0.50641018 0.84356058 0.0015950463
-0.013182956 0.026260154 0.014604628 0.16492593 0.51398069 0.84179765 0.0016603657
-0.010327805 0.025868103 0.014328249 0.15029487 0.51401371 0.84451246 0.0015273005
-0.0074204928 0.025597915 0.01400425 0.12897122 0.53208572 0.83681017 0.0012754964
-0.004437326 0.025557725 0.013620696 0.10170963 0.53575182 0.83822733 0.0012216059
-0.0014425077 0.025546411 0.01329988 0.079000928 0.57273775 0.81592292 0.0024576136
0.0015320614 0.02552907 0.013087045 0.05442645 0.57724649 0.81475419 0.0019614825
0.0044831834 0.02540479 0.013071566 0.019411322 0.57678509 0.81666529 0.0019901951
0.0075070611 0.025490163 0.012990524 -0.018156786 0.57389724 0.818726 0.0023198542
0.010509805 0.025527468 0.013089061 -0.045003217 0.54238009 0.83892703 0.0025586621
0.013495986 0.025540447 0.013265617 -0.073407814 0.53702629 0.84036547 0.0028660556
0.016437329 0.025556782 0.013569358 -0.091661505 0.48459888 0.86992079 0.0016476415
0.019467862 0.025511315 0.013936657 -0.1038985 0.43911991 0.89240062 0.0017454891
0.022502378 0.025574572 0.01429462 -0.10043076 0.40390229 0.90927261 0.0028153595
0.025413455 0.025790028 0.014553082 -0.11718884 0.3692064 0.92192918 0.0026044336
0.028350487 0.026160615 0.014747399 -0.10558763 0.30870903 0.94527775 0.0032364323
0.031159043 0.026521852 0.014866519 -0.080476075 0.22814748 0.97029495 0.0032493582
0.033689909 0.026737791 0.014954297 -0.062794425 0.16207986 0.98477763 0.0024729497
0.0443151 0.024637382 0.014933294 0.11666732 -0.14958103 0.98184228 0.0032017443
0.046346724 0.025275836 0.014719509 0.15788999 -0.16967645 0.97276956 0.001892232
0.049341522 0.025545821 0.014094215 0.24457705 -0.26031598 0.93403304 0.00095187454
0.0524977 0.025559889 0.013116717 0.28512195 -0.28026888 0.91659963 0.00097929011
0.054820005 0.026014667 0.01240895 0.37528044 -0.37608382 0.84718686 0.0019710071
-0.057221875 0.029946677 0.012220575 -0.55664259 -0.43371183 0.70854998 0.0023491888
-0.055249196 0.028847655 0.01289506 -0.50917798 -0.42395592 0.74899876 0.0017695053
-0.052654851 0.028415805 0.014161323 -0.42882839 -0.36983669 0.82421303 0.0013647061
-0.050616402 0.027617844 0.014813601 -0.37670639 -0.32565403 0.86720341 0.0033857198
-0.024489637 0.029949717 0.014913964 0.227974 0.538831 0.81098026 0.0010898819
-0.022221768 0.029532082 0.014612924 0.21720432 0.57036334 0.79215401 0.0011968346
-0.01937566 0.028946294 0.014248812 0.20384543 0.54434592 0.81371653 0.0012281077
-0.016527936 0.028416479 0.013890381 0.19087946 0.55702972 0.80825919 0.00094767241
-0.013629186 0.028397137 0.013192776 0.18856676 0.60974759 0.76983792 0.0018520872
-0.010615685 0.028011011 0.01283225 0.16155455 0.62720937 0.76191109 0.0011921902
-0.0075814002 0.027633635 0.012528993 0.13806549 0.65239072 0.74520075 0.0014060806
-0.0049200305 0.027417673 0.012291607 0.10262073 0.6699627 0.73526794 0.0013774765
-0.0019280179 0.027186381 0.012082485 0.080429368 0.64839453 0.75704402 0.0019112668
0.011417648 0.0271578 0.012025139 -0.046573211 0.62574494 0.7786361 0.0029761002
0.014103309 0.027217284 0.012175041 -0.090932861 0.6637668 0.74239135 0.0021059834
0.016581364 0.027433513 0.012358225 -0.11565094 0.63203251 0.76626348 0.0023111599
0.019607982 0.027753593 0.01259226 -0.12904066 0.59571803 0.79276013 0.0020782806
0.022613658 0.028130909 0.01287194 -0.14800675 0.56083864 0.81458825 0.0022473542
0.025555773 0.028503021 0.013204791 -0.16690928 0.51195794 0.84263891 0.0030947793
0.028520955 0.028509706 0.01375265 -0.15716827 0.43885699 0.88470483 0.0024729662
0.031495322 0.028490117 0.014218091 -0.11918814 0.38864157 0.91364753 0.0024640022
0.034457151 0.028557556 0.01453277 -0.11479644 0.33752188 0.9342916 0.0030314762
0.037332829 0.029012496 0.014730472 -0.11874057 0.26908126 0.95576984 0.0027122851
0.040148199 0.029400477 0.014905277 -0.073922992 0.17755944 0.98132974 0.0029167507
0.042577624 0.02978022 0.014928566 -0.027132906 0.10396108 0.9942112 0.0026201643
0.047503009 0.027486354 0.014923846 0.12795924 -0.081941314 0.9883886 0.0026197699
0.049215365 0.0284942 0.014763639 0.13266002 -0.072303161 0.98852092 0.0025885263
0.05241283 0.028487109 0.014013744 0.24001555 -0.20001444 0.94994038 0.001960177
0.055366423 0.028354529 0.013033387 0.31388131 -0.24565753 0.9171319 0.0010217323
0.057491835 0.029102463 0.012437327 0.35353932 -0.24023528 0.90404481 0.0013542115
-0.057882335 0.031904358 0.01257582 -0.52299201 -0.34103915 0.78113484 0.0028053394
-0.055516105 0.031545129 0.013855084 -0.45714703 -0.26989865 0.8474499 0.0022343802
-0.053513568 0.03086544 0.014747702 -0.3927865 -0.23989584 0.88778865 0.0028184848
-0.030764429 0.032794066 0.014823567 0.2286378 0.53241974 0.81501776 0.0010442646
-0.028407827 0.032134626 0.014580457 0.23703215 0.52655047 0.81643146 0.0015603984
-0.02538343 0.031626694 0.014003833 0.23950329 0.5672549 0.78794676 0.0011160645
-0.022475725 0.031466041 0.013195005 0.24709488 0.63118321 0.73522234 0.0014326386
-0.019691981 0.030834412 0.012856311 0.23262104 0.65708429 0.71702695 0.0011915438
-0.016993038 0.030419758 0.012404494 0.22124982 0.66685963 0.71158046 0.0017652862
-0.014413333 0.030007139 0.012083652 0.19052544 0.68262833 0.70549178 0.00064219389
0.026375288 0.030220116 0.012175505 -0.18755288 0.63370818 0.75049174 0.0014935503
0.028696997 0.030588806 0.012501229 -0.18574229 0.58109796 0.79235411 0.0020836268
0.031588461 0.03113766 0.012802369 -0.1964815 0.544981 0.81510168 0.0029680869
0.034539465 0.031459149 0.013245951 -0.18881597 0.47857797 0.85750318 0.0033442413
0.037461046 0.031505514 0.013872433 -0.16293205 0.37382624 0.91307563 0.0018153023
0.040485609 0.031517711 0.014340677 -0.14126505 0.32154492 0.93629754 0.0027158635
0.043432612 0.031574171 0.014682165 -0.081572667 0.22877511 0.97005558 0.0028042393
0.046381876 0.031861562 0.014824852 -0.020935895 0.14321743 0.98946977 0.0027826645
0.049281448 0.031549301 0.014819575 0.062751643 0.057128355 0.99639273 0.0032962728
0.052286427 0.031564627 0.014499794 0.13352504 0.0050536469 0.99103254 0.0042278129
0.05537302 0.031514525 0.01379019 0.2615476 -0.12821232 0.95663702 0.0023975971
0.058498695 0.031573959 0.012625699 0.3496204 -0.18006949 0.91942406 0.00077594852
0.060307909 0.03268848 0.012149212 0.45703197 -0.25029978 0.85350567 0.0021172841
-0.060332924 0.03546888 0.012183294 -0.55591816 -0.25918376 0.78979665 0.002946134
-0.058518946 0.034607425 0.013127595 -0.47306731 -0.21283604 0.85493165 0.0035897347
-0.055766072 0.034524221 0.014516864 -0.41141254 -0.15145229 0.89877802 0.0020057012
-0.03671341 0.035669852 0.014671266 0.21912977 0.53696126 0.81465006 0.0014627374
-0.034269083 0.035048593 0.014375086 0.24638483 0.53502017 0.80811375 0.0013536218
-0.031488836 0.034521375 0.013813934 0.24827996 0.5631339 0.78818607 0.00098159886
-0.028695874 0.034172032 0.013089382 0.25773349 0.60977036 0.74950218 0.0014195023
-0.026067691 0.033521712 0.01268104 0.26821935 0.64034116 0.71973723 0.0011121947
-0.023571918 0.033101089 0.012048959 0.26569787 0.65224397 0.70991731 0.0014831641
0.035033491 0.033263985 0.012312763 -0.2347329 0.58571571 0.77578193 0.0022002673
0.037628453 0.033937085 0.012582914 -0.22742009 0.53946418 0.81071484 0.0039440342
0.04049778 0.034457538 0.013083071 -0.22179051 0.46100694 0.8592332 0.0030018452
0.043486621 0.034485862 0.013751629 -0.16092364 0.36821368 0.9157086 0.0025249692
0.046493772 0.034557592 0.014174829 -0.10404862 0.28886759 0.95169812 0.0037188635
0.049480319 0.034537069 0.014418721 -0.030779595 0.20955363 0.97731256 0.0038533199
0.052310243 0.034557223 0.01441943 0.02396209 0.15011933 0.98837751 0.0038966089
0.055214826 0.034524485 0.014046047 0.2215237 -0.0079401955 0.97512263 0.0054119332
0.05828245 0.034572266 0.013251705 0.311768 -0.092744201 0.94562101 0.0013006143
0.060612112 0.03463418 0.012403958 0.3618297 -0.10331409 0.92650175 0.0018583178
-0.060715418 0.037748981 0.012456718 -0.51121527 -0.13212831 0.84923559 0.0030424946
-0.05855703 0.037549738 0.013554025 -0.39919445 -0.039381638 0.91602015 0.0037756471
-0.055915162 0.037622906 0.014613883 -0.30983993 0.028799277 0.95035243 0.0060260533
-0.053937502 0.038830154 0.014930371 -0.12371513 0.15402572 0.98029113 0.0026001993
-0.045754459 0.038732156 0.014928684 0.11650742 0.42232528 0.89892566 0.0025312491
-0.043331772 0.038413834 0.014652955 0.18408982 0.49036306 0.85185391 0.0024499688
-0.040316578 0.037828166 0.014261591 0.22313048 0.53324455 0.81600434 0.0017002787
-0.03755692 0.037388828 0.013723058 0.25737146 0.578412 0.7740798 0.0013930131
-0.034790795 0.037244812 0.012824774 0.27159083 0.61672962 0.73883897 0.0010981541
-0.032127324 0.03647561 0.012446396 0.28593981 0.64308876 0.71040499 0.00076478143
0.0414326 0.036405623 0.0122264 -0.29081777 0.54998285 0.78290737 0.0026432909
0.043698341 0.036960628 0.012607645 -0.23468311 0.4925299 0.83805621 0.003544573
0.046514247 0.037519444 0.013019242 -0.20635046 0.4345482 0.8766911 0.0020258795
0.049459223 0.037571102 0.013533519 -0.10970782 0.34449938 0.93235427 0.0024657489
0.052440766 0.037470859 0.013827103 -0.053230375 0.29073673 0.95532119 0.0029222916
0.05524886 0.037662465 0.013755969 0.04998903 0.21386504 0.97558331 0.0041013518
0.058177501 0.037470486 0.013406712 0.15282492 0.12680522 0.98008418 0.0030004892
0.060866673 0.037691869 0.012598487 0.317386 -0.013120902 0.94820565 0.002718403
-0.0610759 0.040579695 0.012513548 -0.43981078 0.016443942 0.89793992 0.0038364686
-0.05856216 0.040515624 0.013553467 -0.31465244 0.1150979 0.94220293 0.0051088012
-0.055491876 0.040433388 0.014298358 -0.19554156 0.25065127 0.9481231 0.0066443384
-0.052612346 0.040654674 0.014529153 -0.0273006 0.34341735 0.93878603 0.0050690905
-0.04948486 0.04068391 0.014419037 0.091686964 0.43028092 0.89802659 0.0026451338
-0.046488162 0.040507961 0.014042492 0.16436724 0.51104647 0.84369123 0.0017269385
-0.043694813 0.04039285 0.013445179 0.22987576 0.56383598 0.79325038 0.0018285356
-0.040957138 0.039827254 0.013004693 0.26120016 0.60830039 0.74949664 0.001636068
-0.037833296 0.039344117 0.0122155 0.28565776 0.62797171 0.72391379 0.0011706742
0.047253359 0.039431229 0.012228862 -0.25526011 0.52295876 0.8132382 0.0026772905
0.049676325 0.04001167 0.012491946 -0.18727636 0.44259071 0.87694985 0.0030460041
0.052470431 0.040522855 0.012759148 -0.13450694 0.38569626 0.91276848 0.0020550443
0.055422913 0.040535327 0.013036561 -0.0077412799 0.29094297 0.95670909 0.0028856664
0.058423072 0.040814247 0.012858343 0.080897503 0.22288862 0.9714815 0.003497387
0.060922287 0.040597469 0.012444319 0.24990305 0.11005244 0.96199632 0.0028781055
-0.060859755 0.043328408 0.0123217 -0.34547055 0.16094546 0.92452508 0.0037309974
-0.058515746 0.043453187 0.012971576 -0.19356769 0.24775475 0.94928873 0.0051418818
-0.055553272 0.04345803 0.013356883 -0.065146096 0.36633366 0.92820024 0.0041232146
-0.052514721 0.043456275 0.013261475 0.061159141 0.45399669 0.88890189 0.0038349591
