# .PCD v0.7 - Point Cloud Data file format
VERSION 0.7
FIELDS x y z normal_x normal_y normal_z curvature
SIZE 4 4 4 4 4 4 4
TYPE F F F F F F F
COUNT 1 1 1 1 1 1 1
WIDTH 556
HEIGHT 1
VIEWPOINT 0 0 0 1 0 0 0
POINTS 556
DATA ascii
0.071821645 0.0027414276 0.0076459595 0.81825423 0.56215179 -0.12018897 0.0032000383
0.072882257 0.0013555243 0.0076335496 0.85072613 0.51220793 -0.11793275 0.0022193335
-0.012181185 0.0032192033 0.0082487613 -0.81503302 0.57085222 -0.099241756 0.0017630808
-0.010835477 0.0045903362 0.0075461431 -0.81402838 0.57400572 -0.088742428 0.0022239459
0.070845313 0.0045655756 0.0074293702 0.8158468 0.56728071 -0.11218948 0.0027920734
-0.0094648413 0.0063948804 0.0075846687 -0.78305131 0.61636961 -0.083181366 0.0014759786
-0.0082436269 0.007961168 0.0075363126 -0.77121401 0.63157523 -0.079634696 0.0014317802
0.068247475 0.0080447905 0.0075298995 0.75817829 0.64432102 -0.10008026 0.0021935159
0.069457427 0.0064997911 0.0076917317 0.77884191 0.61958909 -0.097542889 0.0019781648
-0.006810606 0.0096290866 0.0076613701 -0.73270857 0.67657089 -0.07341636 0.0013381403
-0.0051530716 0.011224795 0.0075061717 -0.69108558 0.71916765 -0.072101727 0.0010615827
0.065229058 0.011218667 0.0074468525 0.70199943 0.70419085 -0.1063581 0.0023789736
0.066743314 0.0097254058 0.0075886371 0.71694523 0.6901511 -0.098392166 0.0020528787
-0.0037532358 0.012610651 0.0075133294 -0.68075812 0.72819811 -0.079346456 0.0011237091
-0.0020758309 0.014119338 0.0074903034 -0.67001706 0.73615849 -0.095644176 0.0011884213
0.062172957 0.014183723 0.0075915731 0.64602095 0.75372177 -0.12066647 0.0021547014
0.06375315 0.012680434 0.0075402381 0.67548013 0.73004341 -0.10374581 0.0025126347
-0.0005601545 0.015501372 0.0077088722 -0.60386676 0.79093897 -0.098794818 0.0016042673
0.0015294767 0.016874667 0.0074836025 -0.55902976 0.82129878 -0.11381647 0.002361211
0.003161727 0.017878849 0.007524705 -0.54828399 0.82855695 -0.11348117 0.0023943337
0.056817766 0.01788865 0.0070969681 0.5625875 0.81970602 -0.10759847 0.00221096
0.058507998 0.016951598 0.0076112822 0.56378078 0.81775594 -0.115872 0.0021277787
0.060581855 0.015414561 0.007716029 0.6167267 0.77898842 -0.11324897 0.0017114592
0.0028669517 0.018100351 0.0088194581 -0.53460354 0.82943153 -0.16199526 0.0017652652
0.0046740621 0.018931979 0.0075108469 -0.49932331 0.85831857 -0.11817563 0.002463941
0.0072469176 0.020330166 0.0074045868 -0.44809538 0.88630807 -0.11691207 0.0026007374
0.052914083 0.020359699 0.0074157706 0.44405374 0.89230198 -0.081322901 0.0014926477
0.055407576 0.018945199 0.0076180906 0.49586299 0.86321568 -0.094755821 0.0017512537
0.05717108 0.018085504 0.0086354269 0.54583478 0.83157623 -0.10269069 0.0023615619
0.0085671935 0.02116091 0.0082755629 -0.44308835 0.88674545 -0.13173927 0.0027411231
0.010504122 0.021833668 0.0075531965 -0.38442203 0.91508347 -0.12182745 0.0023436765
0.013351056 0.022990851 0.0075459578 -0.31232619 0.94368684 -0.10912099 0.0033448567
0.015952295 0.023779988 0.007524549 -0.26044682 0.96128792 -0.089961879 0.0028124319
0.044232417 0.023815243 0.0071912832 0.25298196 0.96061313 -0.11498976 0.0022768728
0.046425022 0.023142975 0.0075058439 0.32233828 0.93801814 -0.12735751 0.0023455999
0.049471896 0.021878546 0.0075362599 0.38988084 0.9147073 -0.10631838 0.0015734589
0.051413395 0.021134891 0.007428715 0.45235854 0.88718152 -0.090998873 0.0016684158
0.017370597 0.024125498 0.0075099496 -0.26985615 0.95747268 -0.10209603 0.0027471869
0.019704707 0.024752649 0.007500764 -0.2066 0.97178489 -0.11380079 0.0024213307
0.022592798 0.025167219 0.0075106812 -0.16775636 0.98102278 -0.097221427 0.0023852836
0.025394509 0.025494015 0.007468123 -0.096773639 0.99158639 -0.085972227 0.0020055664
0.028542701 0.025782431 0.0074261525 -0.028152147 0.99691999 -0.07319805 0.0016687654
0.031543322 0.025785556 0.0075241299 0.025441552 0.99548692 -0.091425315 0.0018662971
0.034500029 0.025688285 0.0074993549 0.072548449 0.99325317 -0.090469778 0.0017497077
0.037475768 0.025271896 0.007603853 0.16317652 0.98202711 -0.094848521 0.0019297001
0.040529869 0.024650514 0.007483148 0.20649949 0.97321129 -0.10108352 0.0017658367
0.042891189 0.024144176 0.007841005 0.25291446 0.96173584 -0.10534892 0.0020912339
0.014098472 -0.072208293 0.010329085 -0.33643469 -0.92682993 -0.16672738 0.0018033639
0.016625457 -0.072773084 0.01011767 -0.29836747 -0.93501794 -0.19162029 0.0024113809
0.020155156 -0.073723637 0.011013758 -0.25206932 -0.94802022 -0.19421318 0.0014992782
0.023597712 -0.074518755 0.011547797 -0.25206932 -0.94802022 -0.19421318 0.0014992782
0.040561114 -0.073440291 0.010526865 0.24494664 -0.93984759 -0.23809172 0.0014879352
0.04364492 -0.072696544 0.010365543 0.28546074 -0.92190814 -0.26191139 0.0012827137
0.046091873 -0.07227315 0.011206647 0.28547606 -0.92191911 -0.26185611 0.0012886592
0.0084431786 -0.069942862 0.010718519 -0.48947755 -0.86378545 -0.11952594 0.0043914462
0.010609722 -0.07080657 0.010528604 -0.39675122 -0.90063375 -0.17733417 0.0010223732
0.012695952 -0.071507558 0.0099563273 -0.34713393 -0.9193548 -0.18516171 0.0012907424
0.047251038 -0.071353845 0.010021591 0.32148334 -0.93073648 -0.17429328 0.0030683698
0.049539633 -0.070788518 0.01045073 0.38823375 -0.90878791 -0.15290226 0.0024880674
0.052602597 -0.069504373 0.010748552 0.48597819 -0.86064124 -0.15205853 0.0034398015
0.0022721607 -0.066522203 0.011019845 -0.54934609 -0.81953651 -0.16303004 0.00051644945
0.0039194068 -0.067451246 0.010194998 -0.52584428 -0.83261758 -0.17388415 0.00065930997
0.0065470617 -0.068911754 0.010914029 -0.42947567 -0.87742317 -0.21372679 0.00086142699
0.053478684 -0.068407483 0.0095154289 0.48878369 -0.85652047 -0.16572031 0.0028817104
0.055443652 -0.067599013 0.010497196 0.52094424 -0.83489448 -0.1776749 0.0020651256
0.05762187 -0.066333644 0.010751908 0.53845072 -0.82309783 -0.18050148 0.0018380859
-0.0011272195 -0.063922569 0.010459656 -0.60988724 -0.78189927 -0.12911662 0.00035085747
0.00071751943 -0.06520693 0.0098650027 -0.57606965 -0.80517828 -0.14082506 0.00042923982
0.059042707 -0.065179691 0.010059549 0.55590862 -0.80297178 -0.21494636 0.0011128938
0.061264716 -0.063845277 0.010420373 0.60535944 -0.77207959 -0.19347614 0.0016500289
-0.0045430604 -0.061002705 0.01030606 -0.71823746 -0.68453258 -0.12470005 0.0017432716
-0.0028117425 -0.062631294 0.010542633 -0.65802801 -0.74133009 -0.13201848 0.0011421584
0.062529519 -0.062503584 0.010168348 0.64363092 -0.74029177 -0.19418351 0.00088506518
0.064166427 -0.061188884 0.010580608 0.66064179 -0.72502548 -0.19465479 0.00055878883
-0.0069195456 -0.058438007 0.010580664 -0.74708694 -0.63687783 -0.19038798 0.00049903756
-0.0056334701 -0.059676841 0.0098238625 -0.72270203 -0.6719566 -0.16179039 0.00060556497
0.065570697 -0.059761256 0.0099743921 0.6795494 -0.70957285 -0.18633021 0.00078950671
0.067271195 -0.058202993 0.010441407 0.72827029 -0.66059744 -0.18230036 0.0010126056
-0.0098848445 -0.05493034 0.01043878 -0.77781874 -0.59555566 -0.20077707 0.0006807099
-0.0085023595 -0.056413893 0.010224136 -0.75891942 -0.62155682 -0.19418649 0.00069920201
0.068790145 -0.056437422 0.01053252 0.76316786 -0.62012535 -0.18171203 0.00078453851
0.069855101 -0.055086434 0.010516878 0.77374345 -0.60323173 -0.19347478 0.0006025866
-0.012410861 -0.051381469 0.011105571 -0.82876319 -0.52771485 -0.18619506 0.00024329528
-0.011279664 -0.052781105 0.010405765 -0.80983323 -0.54984111 -0.2045601 0.00094829715
0.071310185 -0.052849144 0.010062906 0.80225432 -0.55865628 -0.21045469 0.0010122858
0.072570324 -0.051696122 0.010901421 0.81551474 -0.54190683 -0.20315714 0.001761804
-0.013394699 -0.049438003 0.010538214 -0.84146321 -0.50286162 -0.19766098 0.00078551454
0.073626943 -0.049472004 0.010478186 0.84093964 -0.49955302 -0.20800801 0.0013288356
0.075109757 -0.048165806 0.011786316 0.85279185 -0.48161295 -0.20197776 0.00066296436
-0.01591775 -0.045896269 0.010968005 -0.86722553 -0.45695359 -0.19777092 0.0046731229
-0.014544406 -0.047073513 0.010021322 -0.86065793 -0.46566895 -0.20596193 0.0011854483
0.074659303 -0.047519922 0.0099025853 0.86204046 -0.46254212 -0.2072223 0.00089377101
0.075716078 -0.046132151 0.010742301 0.88227147 -0.43985018 -0.16771682 0.0074181492
-0.01810083 -0.042188581 0.011822358 -0.95936185 -0.27487403 0.063789494 0.017385047
-0.016926503 -0.04345011 0.010679189 -0.91915381 -0.36021993 -0.15936746 0.0056194514
0.076566935 -0.043632634 0.01050634 0.90542769 -0.37000129 -0.20808585 0.00087246636
-0.018277396 -0.04026036 0.011479459 -0.94189352 -0.27558011 -0.19207351 0.0034031812
-0.017507186 -0.040560771 0.010023408 -0.92575508 -0.29623255 -0.23499736 0.0028376733
0.07748799 -0.040734716 0.010212012 0.92508364 -0.3165831 -0.20975076 0.0007133602
0.078269832 -0.039830938 0.011213001 0.93566537 -0.30159798 -0.18321799 0.0014683362
-0.018660616 -0.037448104 0.010742402 -0.94817019 -0.24418406 -0.20334087 0.0014765279
-0.017778743 -0.03840531 0.0094939014 -0.94184065 -0.25243807 -0.22183596 0.0016021054
0.077808186 -0.038530611 0.0095555969 0.9471342 -0.260775 -0.1869044 0.00088750594
0.078669205 -0.037435628 0.010674376 0.95106798 -0.24452135 -0.18888874 0.00077283813
-0.019347368 -0.034535188 0.010513303 -0.95765752 -0.22289009 -0.18224189 0.001029881
0.079212882 -0.034475435 0.010511843 0.96415949 -0.20089561 -0.17331336 0.00066490902
-0.019921308 -0.031518992 0.010428282 -0.97689831 -0.14922543 -0.15297557 0.0018313662
0.079760797 -0.031565078 0.010527718 0.97614759 -0.15670736 -0.15026189 0.0025711611
-0.02028897 -0.028556073 0.010475027 -0.98384237 -0.086391412 -0.15681435 0.0004930211
0.080226146 -0.028460918 0.010485915 0.98377359 -0.087955818 -0.1563759 0.0033957106
-0.020389879 -0.025554232 0.01045315 -0.98750299 -0.013702573 -0.15700375 0.0005683708
0.080478139 -0.025116978 0.010442023 0.99040312 0.027759364 -0.13539241 0.0032494529
0.081036247 -0.024254689 0.011979902 0.99638647 -0.011299969 -0.084180266 0.0081429938
-0.020395966 -0.022529894 0.010473249 -0.98745835 0.022112137 -0.15632364 0.00040208412
0.080380179 -0.02233246 0.010288703 0.98761636 0.072434954 -0.13916585 0.0030803967
0.081087336 -0.023079269 0.011344862 0.99264061 0.080277249 -0.090665214 0.0041429005
-0.020209638 -0.019467924 0.010453372 -0.9813658 0.12610349 -0.14497933 0.0013277062
0.080325894 -0.019515524 0.010645819 0.97268367 0.10765989 -0.20565957 0.001625928
-0.019717494 -0.01663034 0.010169284 -0.97670323 0.16493979 -0.13727961 0.0025150776
0.079771817 -0.016586347 0.010308201 0.97077405 0.14018704 -0.19479558 0.0012143356
-0.019392934 -0.013518527 0.010716155 -0.97011548 0.20325559 -0.13252567 0.0049072122
0.079297021 -0.013325729 0.010241273 0.95578027 0.21133913 -0.20449926 0.0013724363
-0.018582705 -0.010506277 0.010228689 -0.95184517 0.25419334 -0.1713955 0.00099326158
-0.017897494 -0.0094248503 0.0093212724 -0.94676542 0.25900841 -0.19118038 0.0013583361
0.077888012 -0.0094836103 0.0094195688 0.9355275 0.28057382 -0.21463141 0.0014978024
0.078808881 -0.010483148 0.010700624 0.93959379 0.28065076 -0.19595577 0.0018654906
-0.01825054 -0.0082692094 0.011159731 -0.94011348 0.31116277 -0.13915563 0.0021074854
-0.017487172 -0.0071917204 0.010241882 -0.92050266 0.34843588 -0.17682573 0.0008364126
0.077476367 -0.0073472536 0.010436759 0.92063046 0.33529812 -0.20003684 0.0011931249
0.078331791 -0.0085160816 0.011485502 0.92380297 0.33325157 -0.18849783 0.0016823768
-0.016450658 -0.0044533382 0.010433272 -0.90824676 0.3797777 -0.17566109 0.00063620455
0.076431617 -0.0044440874 0.010449773 0.91194987 0.3690156 -0.17937395 0.00065029273
-0.01551952 -0.001872936 0.010832044 -0.88499731 0.43898308 -0.155157 0.0015011055
-0.01459345 -0.00063392567 0.010058209 -0.87036622 0.46412081 -0.16448289 0.0011253227
0.074682146 -0.0007300154 0.010276574 0.86878663 0.45703593 -0.19059902 0.00077758648
0.07567063 -0.0020287596 0.010881569 0.89051116 0.42653036 -0.15830909 0.0015185318
-0.013444437 0.0015256875 0.010483182 -0.84521431 0.51055312 -0.15795039 0.00048315208
0.073500477 0.0015280404 0.010414539 0.84334826 0.50349253 -0.18777384 0.00052882027
0.075072013 2.1423479e-05 0.011944906 0.85899657 0.47327366 -0.19528683 0.00041887854
-0.012467244 0.0033665814 0.011252899 -0.8235572 0.55407268 -0.12147827 0.0028814888
-0.011245906 0.004768427 0.010367561 -0.80108464 0.57762611 -0.15688047 0.00036044518
0.071228363 0.0048961281 0.010267472 0.80397892 0.56394851 -0.18862669 0.00059144455
0.072466485 0.0035814862 0.010919982 0.819583 0.54397166 -0.17994048 0.001020837
-0.009774345 0.0069001894 0.010636326 -0.76509106 0.62611556 -0.15038279 0.00046611598
-0.0084301149 0.0083128586 0.010344396 -0.73589897 0.66229028 -0.1407989 0.0004484042
0.068490058 0.0084728831 0.010249522 0.75039089 0.63655651 -0.17807126 0.00048864377
0.069785737 0.0070118816 0.010674748 0.77476227 0.60622019 -0.17955633 0.00023732292
-0.0069819321 0.0099976547 0.010707835 -0.72411376 0.67614269 -0.13597894 0.00036288434
-0.0054685082 0.011429937 0.010371931 -0.69996095 0.69924921 -0.14527634 0.00033469786
0.065565318 0.011537442 0.0097812917 0.6999473 0.69092721 -0.18081304 0.00061644422
0.066921555 0.010433069 0.010521993 0.71383882 0.67712504 -0.17870602 0.00036230564
-0.0040325439 0.012994705 0.010618572 -0.6771549 0.72070765 -0.14846465 0.00030698479
-0.0024115576 0.014440056 0.010351313 -0.66166461 0.73519695 -0.14725955 0.00034943293
0.062378388 0.014591055 0.010198175 0.62576872 0.76022738 -0.17455058 0.00040913289
0.064361818 0.013091499 0.010542806 0.66232365 0.72793561 -0.17730528 0.0005720405
-0.00091400434 0.015760086 0.010660941 -0.6160931 0.77251166 -0.15380228 0.00064016361
0.0010092715 0.017058989 0.010429636 -0.57346219 0.80095589 -0.17207763 0.00081073272
0.059036061 0.017190546 0.010406081 0.56106383 0.8084408 -0.17785114 0.00049433182
0.061094269 0.015790587 0.010707832 0.59977186 0.78090531 -0.17452942 0.00016917642
0.0023843301 0.018366998 0.010811516 -0.55035192 0.81593621 -0.17709002 0.0013542051
0.0044929697 0.019440057 0.010525684 -0.50619078 0.84183985 -0.18728736 0.00071954093
0.0066457312 0.020575944 0.010329119 -0.4596476 0.86854494 -0.18534777 0.0007945922
0.053215131 0.020562874 0.010323137 0.44858721 0.87736213 -0.17030925 0.00057838933
0.055591833 0.019419385 0.010534557 0.4996759 0.85285693 -0.15152262 0.0052717789
0.057533365 0.018400958 0.010796065 0.540088 0.82408679 -0.17083918 0.00046215361
0.0080807116 0.021654412 0.010666769 -0.43210196 0.88417238 -0.1775585 0.0012998267
0.010522102 0.022498768 0.010421501 -0.36932015 0.91155434 -0.18075186 0.00079873763
0.01339368 0.023465572 0.010275014 -0.32404441 0.92647624 -0.19140802 0.0017208274
0.01555433 0.023776514 0.0095508024 -0.26422024 0.94328982 -0.20097761 0.001389439
0.044630118 0.023992479 0.0093908431 0.25392684 0.95011055 -0.18113825 0.00055646285
0.04680068 0.023515005 0.010295661 0.32419154 0.93014401 -0.17242931 0.0005711494
0.049471743 0.022573669 0.010548746 0.39690223 0.90304095 -0.16427332 0.0016343382
0.051815871 0.021468259 0.010817086 0.43693662 0.88444763 -0.16382533 0.00082576275
0.014066532 0.024157606 0.011470512 -0.31275272 0.93623692 -0.16014418 0.0035560622
0.016691668 0.024752801 0.010768638 -0.2501334 0.94920075 -0.19092214 0.0014740526
0.019547008 0.025301874 0.010467031 -0.20857447 0.9597072 -0.18830518 0.001541508
0.022437166 0.025778381 0.01057132 -0.14370592 0.97768003 -0.1532656 0.0020498445
0.025464196 0.026082197 0.010477049 -0.086656086 0.98238218 -0.16557793 0.00098032039
0.028496822 0.02615856 0.010466574 -0.038029686 0.985605 -0.16473193 0.0014547749
0.031484179 0.026268041 0.01057426 0.018194675 0.98953766 -0.14312272 0.0034835886
0.034459531 0.026114279 0.010483079 0.084293962 0.98542798 -0.14773682 0.0014828775
0.037520982 0.025843376 0.010530313 0.15404674 0.98006493 -0.12546833 0.0031102875
0.040534887 0.025276972 0.010412073 0.20039785 0.96650285 -0.16035259 0.0012087041
0.0433538 0.024670327 0.010532534 0.24456921 0.95536804 -0.16570425 0.00073208119
0.045584522 0.024140265 0.011021676 0.29671022 0.94280946 -0.15189905 0.0020077182
0.015999939 -0.073075339 0.012337376 -0.29834831 -0.9350515 -0.19148625 0.0023154092
0.018963 -0.073811546 0.012434404 -0.25207967 -0.94802094 -0.19419627 0.0014958876
0.036834959 -0.074600898 0.012677964 0.2449525 -0.93984777 -0.23808476 0.0014871003
0.041533422 -0.073776253 0.012310783 0.24494664 -0.93984759 -0.23809172 0.0014879352
0.044422209 -0.073161662 0.013532846 0.28547683 -0.92191213 -0.26187989 0.0012835137
0.0058085127 -0.069048032 0.012837911 -0.48854291 -0.85224986 -0.18707235 0.00093597209
0.0077155316 -0.069911689 0.012139782 -0.483235 -0.86594033 -0.12896252 0.0046699774
0.001832485 -0.066465482 0.012634659 -0.56210852 -0.82333243 -0.078470543 0.0059223147
0.0040965946 -0.068097159 0.013060002 -0.52474648 -0.84644318 -0.090415433 0.0044589345
0.023592168 -0.066078387 0.014852585 0.10404109 0.36294091 0.92598563 0.008616046
0.025802037 -0.066152893 0.014868334 0.099112771 0.32315353 0.94114214 0.012515749
0.028793031 -0.066238552 0.014798389 0.020645294 0.31283614 0.9495827 0.015863972
0.031169847 -0.066213049 0.014846611 -0.051432356 0.33686393 0.94014758 0.011774641
0.033656463 -0.066191375 0.014836491 -0.034207433 0.28518412 0.95786214 0.011897394
0.037527826 -0.066049218 0.014878042 -0.061148044 0.26699194 0.96175683 0.0093967384
0.055697225 -0.068264276 0.013087825 0.52552408 -0.83656794 -0.15485029 0.0028958449
0.058150459 -0.06675306 0.012858153 0.54082525 -0.81288522 -0.21616121 0.00022245619
-0.0014743533 -0.064034492 0.013486454 -0.62283432 -0.78202033 -0.022838928 0.0036146545
0.00063717621 -0.065670967 0.013346005 -0.59467089 -0.80331808 -0.032350894 0.005046038
0.013720479 -0.06323532 0.014857239 0.13115557 0.33335522 0.93363398 0.0085160853
0.016495479 -0.063567415 0.014623077 0.059455898 0.29305249 0.95424587 0.010474663
0.019504437 -0.064027764 0.014626681 0.045492176 0.30242378 0.95208734 0.0084808068
0.022576937 -0.064630613 0.014657199 0.064343363 0.25365728 0.96515179 0.010462273
0.025552318 -0.06499552 0.014343929 0.067455798 0.20721821 0.97596633 0.017134514
0.028464103 -0.06512592 0.014171161 0.016077824 0.22389096 0.97448152 0.023566671
0.031478245 -0.0653264 0.014319512 -0.059701525 0.26415557 0.96263057 0.016261607
0.034620021 -0.064668171 0.014566503 -0.027855828 0.25939548 0.96536946 0.01268188
0.037442315 -0.064612485 0.014462675 -0.036950801 0.30610234 0.95128131 0.0088820672
0.040345926 -0.06438788 0.014491756 -0.095711648 0.23634273 0.9669444 0.012278769
0.043327283 -0.063738585 0.014680539 -0.079139493 0.2629292 0.96156389 0.010180867
0.045876786 -0.063258961 0.014783738 -0.12428558 0.28437656 0.95062244 0.0097696204
0.059493572 -0.06575913 0.01283945 0.56519002 -0.81440103 -0.13157219 0.002856733
0.061641727 -0.06423606 0.013340632 0.61393946 -0.77602327 -0.14445136 0.0027287281
0.063086152 -0.063343503 0.014641446 0.62815595 -0.75272071 -0.19705772 0.00067734759
-0.0045086546 -0.061508857 0.013387565 -0.68084705 -0.73139572 -0.038828075 0.0055639376
0.0083094658 -0.060317438 0.01482923 0.1672599 0.30284262 0.93824863 0.00666305
0.010669439 -0.061069082 0.014607545 0.13894023 0.27880934 0.95024258 0.010981675
0.013359274 -0.062017333 0.014399269 0.11645878 0.21349472 0.96997797 0.01681648
0.016463272 -0.061805401 0.01434501 0.038207974 0.10950007 0.99325222 0.018241104
0.019924009 -0.062064547 0.014489126 0.008536607 0.14477737 0.98942745 0.0064744526
0.022457035 -0.061831642 0.014561904 0.012524629 0.02582678 0.99958801 0.0068906676
0.025330504 -0.061679605 0.014655978 0.015322792 -0.043047506 0.99895555 0.0026370746
0.028918752 -0.061373383 0.014654465 -0.00030208752 -0.061571393 0.99810261 0.0021773602
0.031707387 -0.061590206 0.014718131 0.0066007664 -0.043629095 0.99902606 0.0021733779
0.034120273 -0.061996695 0.014417451 0.028311055 0.0030933921 0.99959433 0.005164376
0.037408046 -0.061815899 0.014325593 -0.014939045 -0.015822992 0.99976319 0.0044031651
0.04073032 -0.06129171 0.014602293 -0.0015760614 -0.0048356019 0.99998707 0.0053679701
0.043749403 -0.061561782 0.014448315 -0.039250303 0.1688094 0.98486692 0.012066267
0.046570141 -0.06166568 0.014445432 -0.10408588 0.23256588 0.96699494 0.0098728435
0.049300183 -0.060974155 0.014576945 -0.18159781 0.32432726 0.92835015 0.0046685752
0.05178301 -0.06026838 0.014894895 -0.21340396 0.32295489 0.92204064 0.0034150272
0.064551048 -0.06164138 0.012840703 0.70415515 -0.69384307 -0.15082204 0.0023321172
0.066241488 -0.060246136 0.013600105 0.71922088 -0.67043549 -0.18231167 0.0009702575
-0.0075175441 -0.058608342 0.013964445 -0.69675809 -0.60832018 0.38009828 0.009211502
0.0027616026 -0.05715505 0.014941067 0.32273635 0.36029759 0.8752296 0.0054613966
0.0048886822 -0.057865825 0.014533919 0.18092555 0.28716931 0.94063789 0.012691133
0.0073248935 -0.058840398 0.014457584 0.10458346 0.22604325 0.96848685 0.012559163
0.010435605 -0.058503523 0.014591143 0.0012941223 0.10750677 0.99420357 0.010214539
0.013650033 -0.058563162 0.014669295 0.0056458162 -0.024892921 0.9996742 0.0020449918
0.016415179 -0.058770984 0.014708112 -0.010206306 -0.049255691 0.99873406 0.00081719994
0.019430131 -0.058745053 0.014755967 -0.01494226 -0.050626129 0.99860585 0.00048721666
0.022555267 -0.058729332 0.014767573 -0.018867193 -0.047736932 0.99868178 0.00017524762
0.025455615 -0.058285192 0.014740265 -0.01087228 -0.043313697 0.9990024 0.00012053181
0.028502993 -0.058137875 0.014764726 0.0011873177 -0.029086957 0.99957621 9.5467163e-05
0.031535633 -0.058361031 0.014719577 0.010347697 -0.046901375 0.99884593 0.00030946828
0.034459926 -0.058686893 0.014766539 0.021236483 -0.059126187 0.99802464 0.00081745465
0.037566543 -0.058377229 0.014716821 0.020714719 -0.055997096 0.99821609 0.00045212818
0.040581364 -0.058565687 0.014670885 0.037283905 -0.029415252 0.99887168 0.00049229257
0.043203413 -0.058930364 0.014465575 0.014491376 -0.00863213 0.99985778 0.0035207942
0.046483502 -0.058571596 0.014412081 -0.0014941065 -0.035689402 0.99936181 0.0013763022
0.049963076 -0.058935773 0.014468804 -0.055273753 0.10104793 0.99334496 0.010911912
0.052520026 -0.058429416 0.014575846 -0.15560532 0.1666373 0.97366267 0.0086866878
0.054597035 -0.057526186 0.014723135 -0.18624347 0.19758333 0.96243137 0.0037501007
0.068056509 -0.058135755 0.01387614 0.75846076 -0.62948066 0.16879404 0.0063485019
0.069431148 -0.057006009 0.014561383 0.75347888 -0.63125587 -0.1838088 0.00067597494
-0.010331426 -0.055195324 0.013336491 -0.78760755 -0.5983144 0.14728969 0.0077000489
-0.008750326 -0.056932658 0.013026595 -0.76263642 -0.61837971 -0.18971616 0.00060570717
-0.0003412861 -0.054315343 0.014965846 0.3055357 0.32240066 0.89593852 0.0044420022
0.0017304281 -0.055299848 0.014452391 0.2603437 0.26696497 0.92787439 0.01504729
0.0042577991 -0.056194767 0.014070839 0.16268575 0.19481316 0.96725452 0.016878784
0.0075135524 -0.055792179 0.014460259 -0.034838464 0.0028925154 0.99938875 0.0059173717
0.010425751 -0.055698555 0.014709183 -0.025037486 -0.024208847 0.9993934 0.00071239047
0.013406721 -0.055850703 0.014753543 -0.023934562 -0.03396501 0.99913633 7.3280113e-05
0.016455017 -0.055450477 0.014725966 -0.010972083 -0.026054539 0.99960029 3.0522566e-05
0.019537726 -0.055383585 0.014733016 -0.0092648147 -0.024505857 0.9996568 1.826601e-05
0.022510529 -0.055364139 0.014746169 -0.012490659 -0.022160728 0.99967641 1.4683744e-05
0.025375262 -0.055309609 0.014803426 -0.0096863247 -0.021986267 0.99971139 5.0244831e-05
0.028507192 -0.05523628 0.014802713 0.0061279628 -0.020133354 0.99977857 8.573685e-05
0.031569727 -0.055233181 0.014774306 0.0056959423 -0.013771897 0.99988896 3.3147484e-05
0.034359746 -0.055309176 0.01479903 0.0048772711 -0.01551139 0.9998678 2.7993783e-05
0.037460677 -0.055460118 0.014729446 0.015236327 -0.02433762 0.99958771 0.00014112066
0.040454969 -0.055992067 0.014685477 0.022254983 -0.040861513 0.99891686 0.00048905064
0.043372959 -0.055834025 0.014722704 0.0094167516 -0.063730456 0.99792272 0.00035411419
0.046514347 -0.055784438 0.014767054 0.012983021 -0.063342005 0.9979074 0.00040610778
0.049642164 -0.055761516 0.01469209 0.026848208 -0.0084104566 0.99960417 0.0014353233
0.052476019 -0.055317868 0.014487655 -0.022683565 0.052694257 0.998353 0.0042572469
0.055501569 -0.05530538 0.014549046 -0.12405467 0.12791215 0.98399633 0.0067223497
0.058196709 -0.054636557 0.014702437 -0.17309715 0.19659378 0.96508449 0.0046512014
0.070429415 -0.0551873 0.013629336 0.79967046 -0.58902079 0.11654028 0.011139578
-0.01258353 -0.051988818 0.01349889 -0.86025351 -0.50037986 0.097897105 0.0090132691
-0.01146169 -0.053484917 0.013468916 -0.81250179 -0.56808639 0.13083826 0.0097248079
-0.0035018746 -0.051438387 0.014998083 0.27059096 0.21301314 0.93883222 0.0068194671
-0.0013597519 -0.052357737 0.014458734 0.24605981 0.24689539 0.93728185 0.012857807
0.0012971335 -0.052811354 0.014117959 0.077228278 0.12172773 0.98955452 0.021194199
0.0040274546 -0.05204412 0.014589719 -0.038515806 -0.026712254 0.99890083 0.0036110943
0.0075530694 -0.052768607 0.01473981 -0.038707096 -0.054302517 0.99777406 0.00061558816
0.010484461 -0.05269371 0.014692477 -0.027009673 -0.031196246 0.99914831 0.00023057614
0.013457945 -0.052519444 0.014741529 -0.014976572 -0.018059311 0.99972475 1.7148923e-05
0.016408281 -0.052571915 0.014764898 -0.010545214 -0.01899543 0.99976397 1.6780425e-05
0.019483037 -0.052497283 0.014772084 -0.0095162997 -0.023653872 0.99967492 5.3718588e-05
0.022599952 -0.052364781 0.014807416 -0.0086165722 -0.024040435 0.99967384 4.0452513e-05
0.025535392 -0.052216984 0.014868532 0.00056804478 -0.014331953 0.99989718 5.8240053e-05
0.028491292 -0.052374948 0.014828719 0.0087057678 -0.008968086 0.99992192 1.8482111e-05
0.031526156 -0.05237744 0.01480802 0.0025383071 -0.0060440865 0.99997854 1.0723485e-05
0.034435134 -0.052332267 0.014817696 0.003639135 -0.0085975239 0.99995643 2.7308959e-05
0.037395276 -0.05248012 0.014780236 0.011719964 -0.020043481 0.99973047 0.00014698091
0.040506057 -0.052359514 0.014792692 0.0069208071 -0.02202066 0.99973357 0.00016181098
0.043551072 -0.052396178 0.014796043 0.0057709701 -0.028726432 0.99957067 0.00034189544
0.046608463 -0.052664407 0.01469456 0.026101017 -0.0076134074 0.99963033 0.00015086075
0.049669068 -0.052731853 0.014717813 0.046780299 -0.007447192 0.99887741 6.0154245e-05
0.052450579 -0.052421778 0.014545464 0.036092211 0.0053980076 0.99933392 0.00031391002
0.055422384 -0.052168161 0.014473353 -0.0064601176 0.051011369 0.99867719 0.0023904501
0.058469996 -0.052274764 0.014517404 -0.093981393 0.14071333 0.98557955 0.0064878985
0.060844436 -0.051659185 0.014851051 -0.19124211 0.18276808 0.96437663 0.0035433806
0.071599863 -0.053605702 0.013569665 0.81512886 -0.5405587 0.20823355 0.022984415
0.072739415 -0.051987216 0.013131354 0.85781562 -0.51250255 0.038647089 0.008001389
-0.015170954 -0.048286237 0.01326035 -0.83908963 -0.40019271 0.36847594 0.013045266
-0.014043376 -0.049724735 0.013558054 -0.85354739 -0.51280338 0.092139117 0.013336607
-0.0039361175 -0.04944326 0.01454799 0.25911394 0.18986723 0.94700068 0.0093058953
-0.0016042404 -0.049946982 0.014173061 0.14731266 0.053246621 0.9876557 0.015190688
0.0020159578 -0.048965964 0.014583373 -0.031335138 -0.013178676 0.99942195 0.0042800051
0.0045027356 -0.049529642 0.014758646 -0.035944737 -0.014335032 0.99925089 0.00093709776
0.0074254405 -0.049350213 0.014755137 -0.018218886 0.011176405 0.9997716 0.00019229511
0.010526143 -0.049738083 0.014722477 -0.018789893 0.010350534 0.99976993 8.6533662e-05
0.013571523 -0.049624965 0.014769688 -0.020916346 -0.00093749003 0.99978077 0.00010490129
0.01661576 -0.049582183 0.01479638 -0.023396092 -0.019481409 0.99953645 0.00014095829
0.01944859 -0.049392059 0.014856715 -0.013075248 -0.030293496 0.99945557 9.2386217e-05
0.022473918 -0.049285129 0.014901888 0.0011774256 -0.023597239 0.99972087 0.00016722613
0.02547079 -0.049377102 0.014899016 0.011626544 -0.0052667358 0.99991858 0.00013145461
0.028570026 -0.049474955 0.014835374 0.0083655454 0.0017267453 0.99996352 3.1614516e-05
0.031516977 -0.049567167 0.014828367 0.0011107157 -0.0011350053 0.99999875 1.3250641e-05
0.034401607 -0.04949132 0.014829666 0.0017623717 -0.0025943716 0.99999511 1.2756656e-05
0.037486553 -0.049386963 0.014836999 0.002194718 -0.0008608147 0.99999726 2.358629e-05
0.040460352 -0.049489461 0.014833754 0.0064171297 -0.0047570462 0.99996811 0.00010739353
0.043459557 -0.049512189 0.014782522 0.018926715 0.0065252678 0.99979961 4.478397e-05
0.046522304 -0.049838439 0.014707559 0.033459593 0.011456002 0.99937439 2.8445291e-05
0.049723491 -0.049427141 0.014719396 0.04010088 0.0060078553 0.99917752 7.099739e-05
0.052356008 -0.049278919 0.014579452 0.033948191 -0.0045628366 0.99941319 0.00019574798
0.05546464 -0.049397454 0.014452296 0.017463665 -0.019162022 0.99966383 0.00029031609
0.058544669 -0.049586017 0.014388703 -0.046517257 0.057186406 0.99727917 0.0043710629
0.061558425 -0.049741969 0.014427756 -0.17730787 0.16548936 0.97014183 0.0030887586
0.063761421 -0.048749369 0.014826448 -0.22477919 0.17082827 0.95931846 0.0021728054
0.074106149 -0.049652655 0.012976199 0.87146437 -0.48927143 0.034107819 0.012138834
0.075155228 -0.048289724 0.014101995 0.86845988 -0.48185837 -0.11657605 0.001821845
-0.015763288 -0.046641614 0.01382227 -0.88665229 -0.46017313 0.045699272 0.008245864
-0.0065346709 -0.045625448 0.014803025 0.28172997 0.16425274 0.9453302 0.004224496
-0.0047647762 -0.046521295 0.014376059 0.15622187 0.12099535 0.98028308 0.012003638
-0.0014521686 -0.046063568 0.014620718 -8.7251938e-05 0.0066424995 0.99997789 0.0049193888
0.0013895606 -0.046487138 0.014687383 -0.036118612 -0.016120814 0.99921751 0.0011884504
0.0044679628 -0.046637397 0.014659693 -0.0086446907 0.018816572 0.99978566 0.00032619134
0.0076135774 -0.046477038 0.014684719 -0.017152296 0.029339436 0.99942237 7.9562698e-05
0.010429882 -0.046243668 0.014746606 -0.032618448 0.017738931 0.99931043 0.0002072904
0.012937789 -0.04603444 0.014810786 -0.03646839 0.0092309024 0.99929219 0.00020304223
0.016384814 -0.046465255 0.014886731 -0.030030072 -0.0035999052 0.99954253 0.00024637871
0.019301765 -0.046172433 0.014975411 -0.0078285951 0.0018870642 0.99996758 0.00048220472
0.022549789 -0.046340533 0.014941888 0.01473053 0.011636239 0.99982381 0.00036801197
0.025487423 -0.04659586 0.014868349 0.015952922 0.017721089 0.99971569 0.00010274153
0.028464004 -0.046666235 0.014826195 0.0086328546 0.013705905 0.99986881 5.1752155e-05
0.031568769 -0.046618991 0.014821621 -0.0015985138 0.0065860101 0.99997705 1.014221e-05
0.034518786 -0.046733763 0.014823372 -0.00071306695 0.0038209956 0.99999243 8.4883141e-06
0.037545066 -0.04667417 0.014817318 0.0048109335 0.0067779315 0.99996549 3.614345e-05
0.040391739 -0.046670821 0.014804434 0.015447386 0.013735774 0.99978638 3.3512861e-05
0.044008952 -0.046016384 0.014816578 0.027237017 0.019120639 0.99944615 5.747682e-05
0.046632078 -0.046317101 0.014736402 0.025599727 0.017246945 0.99952358 9.7262673e-05
0.049403008 -0.046484124 0.014632416 0.024251744 -0.00042862108 0.99970579 0.0002821151
0.052513305 -0.046305496 0.014585998 0.012937555 -0.029582767 0.99947858 0.00033642267
0.055515517 -0.046175018 0.014609219 0.010464331 -0.050011933 0.99869388 0.00016581277
0.058477532 -0.046254903 0.014534097 0.017033182 -0.050278448 0.99858999 0.00070063694
0.061611161 -0.046833795 0.0143269 -0.062441189 0.012020007 0.9979763 0.0056491238
0.064535625 -0.046552937 0.014640703 -0.21842439 0.12900889 0.96728879 0.0040802038
0.066256396 -0.046045754 0.014859671 -0.21302538 0.13684914 0.96741539 0.0042859018
0.074996717 -0.047716703 0.012586751 0.88834786 -0.41849044 0.18895473 0.013137523
0.075893879 -0.046497647 0.013452155 0.90562153 -0.4238928 0.012827399 0.016590167
-0.017200612 -0.043594919 0.013216046 -0.9236812 -0.38180488 -0.032219134 0.0047991015
-0.0073221736 -0.043403853 0.014478433 0.21649137 0.12727755 0.96795249 0.0094920686
-0.0047041643 -0.043497015 0.014266805 0.046674453 0.063975781 0.99685937 0.0091209495
-0.0015548468 -0.043455828 0.01460002 -0.020383205 0.017382339 0.99964118 0.0015596302
0.0014123535 -0.043475065 0.01459056 -0.0029858972 0.011162657 0.99993324 0.00026235497
0.0044076084 -0.043509785 0.014554749 -0.0049069468 0.010123179 0.99993676 0.00024830541
0.0073879645 -0.043600846 0.014565505 -0.028205385 -0.002637489 0.99959868 0.00039781907
0.010160866 -0.04339521 0.014655341 -0.036977947 -0.012891181 0.99923289 0.00042839165
0.013417224 -0.044164021 0.014806694 -0.038726494 -0.006096411 0.99923122 0.00031461866
0.01638528 -0.043723337 0.014892472 -0.019904206 0.010588325 0.99974585 0.00040839228
0.019391198 -0.043807678 0.014849726 0.0024922735 0.029512664 0.99956131 0.00013960176
0.022522043 -0.043548539 0.014802595 0.013745157 0.030924745 0.9994272 0.0001106016
0.025553331 -0.043929629 0.014769535 0.011648746 0.019726021 0.99973756 0.0001116239
0.028460875 -0.043997135 0.014771997 -0.00015114664 0.0081391241 0.99996692 4.278278e-05
0.03148203 -0.043922488 0.014787488 -0.0050468161 0.0033565345 0.99998164 1.7796938e-05
0.034569412 -0.043868706 0.014814485 0.0035595747 0.0036652365 0.99998695 2.0614614e-05
0.037522551 -0.043981843 0.014795405 0.012644353 0.0095221829 0.99987477 2.6051086e-05
0.040581904 -0.043418322 0.014727611 0.024165394 0.01083158 0.99964935 6.0409569e-05
0.043631401 -0.043335274 0.014754781 0.020255895 0.0074940459 0.99976677 0.00012551057
0.046533406 -0.043240115 0.014676726 0.0099733295 -0.010012029 0.9999001 0.00032538697
0.049466934 -0.043181852 0.014704168 -0.00077675108 -0.030932376 0.99952114 0.00027815695
0.051892791 -0.043174401 0.014765598 -0.0071982541 -0.037766822 0.9992606 0.00021854042
0.055340562 -0.044093058 0.014801951 0.0098311836 -0.052485451 0.9985733 0.00030336232
0.058865622 -0.043279175 0.014793047 0.038970552 -0.014693853 0.99913234 0.001677483
0.061612267 -0.043209326 0.014713347 0.046149012 0.020276921 0.99872875 0.0032450892
0.064699769 -0.043422196 0.014404503 -0.10263617 0.10570995 0.98908603 0.010107066
0.066764377 -0.043110956 0.014648707 -0.27808011 0.1411943 0.95012408 0.0028874578
0.07721705 -0.043551967 0.013456109 0.92519104 -0.37895748 -0.020315588 0.0054182988
0.078107923 -0.042043652 0.012228257 0.93909478 -0.31477895 -0.1378959 0.0037215208
-0.018306414 -0.04050047 0.013084603 -0.95424944 -0.28509507 -0.090160109 0.010844287
-0.01789468 -0.041451678 0.014159262 -0.96515501 -0.25937429 0.034652621 0.014698595
-0.0095808217 -0.040256422 0.014702064 0.28526962 0.11526696 0.95149082 0.0068645976
-0.0076241046 -0.040623866 0.014223694 0.18669248 0.10686971 0.97658831 0.010105471
-0.0044640205 -0.040728558 0.01438493 0.00077009673 0.02838753 0.99959666 0.0042361766
-0.0014519369 -0.040481869 0.014606066 -0.030705234 0.0077759847 0.99949831 0.0005541562
0.001553415 -0.040555011 0.014605145 -0.0019477843 0.010908859 0.99993855 0.00029919713
0.0044842935 -0.040594451 0.014539979 -0.030060528 -0.01300725 0.99946338 0.0005706278
0.0074324883 -0.040333722 0.014728899 -0.049765643 -0.027857982 0.99837226 0.00027299381
0.010596177 -0.040484216 0.01478821 -0.038193107 -0.028384043 0.99886715 0.00022495889
0.013699168 -0.040522888 0.014871213 -0.021650471 -0.015982065 0.9996379 0.00031113828
0.016651779 -0.040446542 0.014821442 0.0036648274 -0.003277513 0.99998796 0.00015152074
0.019563414 -0.040577531 0.014764881 0.006265562 0.007541528 0.99995196 0.00016944123
0.022435714 -0.04034825 0.014769887 0.0022340168 -0.0073336405 0.99997061 6.9116082e-05
0.025415216 -0.040985063 0.014772715 0.0010973735 -0.0061261635 0.99998063 0.00010812476
0.028561275 -0.041150477 0.014784849 -0.0036878537 -0.01231249 0.99991745 3.2964523e-05
0.031505875 -0.041121893 0.014806133 -0.005643833 -0.0093644373 0.99994028 3.6169946e-05
0.034459494 -0.041112833 0.014819535 8.213512e-05 -0.011970052 0.99992836 4.558342e-05
0.037624862 -0.040804185 0.014775013 0.019856976 -0.0082725734 0.99976861 7.6645636e-05
0.040790308 -0.039872136 0.014787573 0.019721467 -0.020758001 0.99958998 0.00017612404
0.043378744 -0.040281788 0.014752183 0.0088943867 -0.023590032 0.99968219 0.00018762278
0.04628709 -0.040419783 0.014790426 -0.0043631145 -0.033942584 0.99941427 0.00014640301
0.049435433 -0.039775752 0.014772129 -0.0024868899 -0.0175342 0.99984318 0.00058742811
0.052659646 -0.040689118 0.014799694 0.028877838 0.011904481 0.99951202 0.0016998436
0.055960938 -0.040220823 0.014817131 0.044725802 0.057688091 0.99733227 0.0016975002
0.058619887 -0.040330697 0.014560956 0.03571694 0.064261109 0.99729371 0.0019169374
0.061479326 -0.040770579 0.014323526 0.057342097 0.047377311 0.99722975 0.0025873256
0.064330615 -0.04087266 0.014066921 -0.039795257 0.076778814 0.99625367 0.0077909012
0.067401327 -0.040515762 0.014415297 -0.22407714 0.11343533 0.9679473 0.0067882542
0.069262758 -0.039287709 0.01474975 -0.26640666 0.11704252 0.95672804 0.0049788859
0.077820703 -0.041628432 0.013794595 0.92997032 -0.36688524 0.023461478 0.012574034
0.078455895 -0.040237077 0.013356443 0.9513188 -0.2965256 -0.084053911 0.0078060566
-0.019168386 -0.037459973 0.013273712 -0.96953672 -0.24414583 -0.019780736 0.014488057
-0.0098886928 -0.037416365 0.014447954 0.27962935 0.087216854 0.95613843 0.0071413894
-0.0074667581 -0.037355136 0.014292803 0.073114075 0.034758527 0.99671775 0.0091534518
-0.0043921433 -0.037326578 0.014480807 -0.032637659 0.014154566 0.999367 0.00047008332
-0.0013490309 -0.037436053 0.014497559 -0.020538507 0.01512413 0.99967462 0.00032565455
0.001496303 -0.037568521 0.014442367 -0.029078605 -0.0054740738 0.99956208 0.00094305124
0.0042907535 -0.037940051 0.014550943 -0.044928901 -0.027777372 0.99860394 0.00055869698
0.0072020814 -0.037612833 0.014804759 -0.051466879 -0.030338157 0.99821371 0.00021857784
0.010481676 -0.037365273 0.014846287 -0.031294871 -0.017377717 0.99935919 0.00022112043
0.013291718 -0.037463572 0.014841279 -0.009681684 -0.0052923877 0.99993914 6.9027279e-05
0.016461167 -0.036933061 0.014844693 0.0057533565 -0.0023339083 0.99998075 6.7572444e-05
0.019503776 -0.036927268 0.014840182 0.00029551488 -0.011511498 0.99993372 4.4631441e-05
0.022628412 -0.036786366 0.014863364 -0.001036261 -0.010098894 0.9999485 5.9102938e-05
0.025594974 -0.03748326 0.014859149 -0.00089889544 -0.0097608631 0.99995196 6.4452528e-05
0.028442793 -0.037602879 0.014859779 -0.0075689736 -0.012345836 0.99989516 8.0048223e-05
0.031485673 -0.0374422 0.014881638 -0.010244008 -0.018564735 0.99977517 0.00014496112
0.034455635 -0.03752593 0.01488569 0.0041432399 -0.021827558 0.99975318 5.716442e-05
0.037209071 -0.038208179 0.014887389 0.010700075 -0.018305931 0.99977517 0.00010514112
0.040616803 -0.037459407 0.014788161 0.015214871 -0.02616054 0.999542 0.00013990498
0.0434855 -0.036798459 0.014846061 0.031405266 0.0068778936 0.99948305 0.0017060427
0.046463322 -0.036961142 0.014825311 0.029280001 0.045453094 0.99853724 0.0020711152
0.04957873 -0.03683126 0.014850012 0.029694524 0.077148475 0.99657732 0.0022260856
0.052796885 -0.03737231 0.014714956 0.062946595 0.079905719 0.99481291 0.0016403246
0.055463742 -0.037491094 0.014413056 0.046167903 0.043039512 0.99800611 0.0026929525
0.05818975 -0.037666008 0.014270795 0.03001466 0.032032296 0.99903601 0.0027575514
0.061469279 -0.03735619 0.014476122 0.010420598 -0.051914826 0.99859715 0.0012753182
0.064345777 -0.037932467 0.014471929 -0.010225335 -0.041017789 0.99910605 0.0019280306
0.067643411 -0.037342478 0.014393923 -0.14912975 0.010659178 0.98876017 0.0071661496
0.069515042 -0.03764084 0.014799654 -0.2419624 0.04777484 0.96910876 0.0057714209
0.079205379 -0.037474755 0.013487481 0.97156638 -0.23135063 -0.050354302 0.011796569
-0.019856239 -0.034536086 0.013386922 -0.97610092 -0.21677199 -0.015394357 0.019342301
-0.012428914 -0.033303659 0.01497893 0.26712352 0.083753936 0.96001577 0.0042540757
-0.010467253 -0.034379218 0.014261729 0.22910713 0.073099554 0.97065252 0.0074748113
-0.0075711296 -0.034533914 0.014172226 0.025662789 0.014828647 0.99956065 0.0052844496
-0.0044096182 -0.034255799 0.014401603 -0.042375673 -0.0095867598 0.99905574 0.00065638329
-0.0014183394 -0.034445819 0.014359427 -0.034941811 -0.029416589 0.99895626 0.00074218906
0.0013572132 -0.034540962 0.014517155 -0.05073186 -0.043829549 0.9977501 0.00054402649
0.003994592 -0.034682561 0.014807859 -0.055421431 -0.04309791 0.99753243 0.00037077806
0.0075454526 -0.03431198 0.014792772 -0.036036287 -0.022161771 0.99910474 0.00034854945
0.01057304 -0.034134328 0.014849395 -0.010691027 -0.001678682 0.99994147 6.6922265e-05
0.013507655 -0.034181014 0.014861614 0.00037801755 0.0078152325 0.99996942 5.6422105e-05
0.01641931 -0.034131698 0.014869916 -0.00032418239 0.010033178 0.99994963 9.5055104e-05
0.019384149 -0.034141988 0.014871644 0.00019363382 0.012914501 0.99991661 6.951981e-05
0.022417858 -0.034089126 0.014873464 0.0015051927 0.0061633554 0.99997991 6.1640632e-05
0.025482325 -0.034216858 0.014832227 -0.015114197 -0.0096241329 0.99983948 0.00037154421
0.028475285 -0.034227781 0.014806972 -0.026879661 -0.02462329 0.99933535 0.00030134109
0.031573631 -0.034583595 0.014869606 -0.011233835 -0.025462857 0.99961269 0.00026459785
0.034764204 -0.034392208 0.014917935 0.011874712 -0.018885754 0.99975115 0.00010378473
0.037538029 -0.034662802 0.014911814 0.013806119 -0.010330537 0.99985135 6.8893976e-05
0.04045108 -0.034652244 0.014916836 0.031605225 0.0097664716 0.99945277 0.0011273333
0.044003475 -0.033732876 0.01477516 0.075634971 0.088984691 0.99315715 0.0038870561
0.046471115 -0.033654761 0.014527579 0.048485365 0.1492864 0.98760456 0.0031428186
0.049565971 -0.034122422 0.014575459 0.0056796633 0.11477762 0.993375 0.0039283773
0.052351404 -0.034723993 0.014290753 -0.0017177722 0.027042001 0.99963284 0.0053784004
0.05541043 -0.034742631 0.01442415 -0.018020878 -0.031255022 0.99934894 0.003459441
0.058564335 -0.035202589 0.014553682 0.0050551095 -0.055586383 0.99844104 0.001309764
0.061480593 -0.034671206 0.014683367 0.02002213 -0.027350578 0.99942535 0.0010620686
0.06446936 -0.034402907 0.01459182 0.024938043 0.0058933585 0.99967164 0.0012632272
0.06735108 -0.034403998 0.014448345 -0.084555194 0.050661243 0.99513006 0.0075393543
0.069885187 -0.034279708 0.014655507 -0.26886067 0.076506957 0.9601357 0.0038780794
0.079846226 -0.034511637 0.013345707 0.97672379 -0.21125095 -0.037198674 0.016098719
-0.020357464 -0.031517014 0.013546476 -0.98680311 -0.15751104 -0.037548836 0.0047805393
-0.012335732 -0.032058526 0.01495399 0.31222391 0.030413603 0.9495216 0.0035528515
-0.0099284565 -0.031344023 0.014099876 0.20899522 0.011536648 0.97784865 0.0074127032
-0.007381151 -0.031805992 0.014179953 0.024682384 -0.04123871 0.99884444 0.0045896196
-0.0045603644 -0.031275023 0.014499311 -0.055904724 -0.043380417 0.99749327 0.00036829594
-0.0017089896 -0.030965826 0.014666722 -0.041058447 -0.033546526 0.99859339 0.00044249371
0.0013209148 -0.031780422 0.014767896 -0.053938255 -0.039115056 0.99777788 0.00042076202
0.0046318378 -0.031631351 0.014771206 -0.030682139 -0.017988589 0.9993673 0.00029700255
0.0075558806 -0.031515338 0.014818372 -0.009485024 -0.0040833196 0.99994671 7.5656782e-05
0.010487696 -0.031441335 0.014840326 -0.001372869 0.012575695 0.99992001 0.0001024058
0.013656422 -0.031494912 0.014833618 0.0071253679 0.024955643 0.99966317 9.3127892e-05
0.016670613 -0.031514034 0.014807422 0.0013372538 0.030369725 0.99953783 8.7080603e-05
0.019488152 -0.031481542 0.014815649 -0.0033107954 0.028739231 0.99958146 0.00010237213
0.022324735 -0.031494878 0.014791647 -0.016277606 0.0076460023 0.99983829 0.00038089661
0.025421521 -0.03146866 0.014815562 -0.030235048 -0.016395694 0.99940836 0.00042010349
0.028153736 -0.032035079 0.014912116 -0.032790642 -0.028975869 0.99904215 0.00044923674
0.035162561 -0.031207709 0.014962776 0.028657779 -0.014974097 0.99947709 4.4924978e-05
0.037552435 -0.031289451 0.014922947 0.027408091 -0.0031449697 0.99961942 0.00012145221
0.041004952 -0.03106129 0.014822996 0.077595018 0.015761096 0.99686033 0.002516781
0.0434581 -0.031813089 0.014365184 0.11147702 0.057172157 0.99212104 0.0028341718
0.046907116 -0.031840693 0.014096855 0.0092788767 0.022976205 0.99969298 0.0080523519
0.048943251 -0.032076608 0.01417397 -0.0062507936 -0.0040653027 0.99997216 0.0077145635
0.052993685 -0.03192981 0.014644993 -0.040320951 -0.067924581 0.99687541 0.0034121349
0.05545862 -0.031548955 0.014763145 -0.012302276 -0.052007549 0.99857092 0.0011236402
0.058811739 -0.031138482 0.014798 0.039469346 0.0043110927 0.99921149 0.00064531754
0.061623711 -0.03161158 0.014584114 0.044644877 0.010739695 0.99894518 0.00039737913
0.064636841 -0.031566408 0.014419817 0.049031414 0.018696237 0.99862224 0.00031425778
0.067640699 -0.031751797 0.014177441 -0.044726454 0.034634542 0.99839866 0.0036750834
0.070186138 -0.031466823 0.014499355 -0.24671599 0.065022357 0.96690392 0.0042973384
0.080432452 -0.031488329 0.013412653 0.98756874 -0.15360712 -0.033361133 0.017155077
-0.021053556 -0.027620248 0.014367234 -0.99409086 -0.074123733 0.079303443 0.013377307
-0.020746129 -0.028533483 0.013388068 -0.99531013 -0.087663472 -0.040900677 0.0066002393
-0.012631242 -0.028224075 0.014701215 0.26967111 0.047891602 0.96176094 0.0028649184
-0.010655876 -0.028439282 0.014396086 0.15948509 0.014112662 0.98709941 0.0069352393
-0.0074842032 -0.028555689 0.014421518 -0.0042457781 -0.012735137 0.99990988 0.0030124625
-0.0045748763 -0.028434718 0.014578737 -0.057651229 -0.0039633238 0.99832892 0.00037317511
-0.0014790684 -0.028444851 0.01467897 -0.043208875 0.0038103538 0.99905878 8.0536069e-05
0.0012113616 -0.028513374 0.014774811 -0.039228793 -0.0041700127 0.99922156 0.00012497464
0.0044626361 -0.028909871 0.014768614 -0.019354584 0.00027773692 0.99981266 5.835302e-05
0.0074273981 -0.028762955 0.014825437 0.0016853017 0.013760397 0.99990392 0.00019368817
0.010619134 -0.028333705 0.014770029 0.019047752 0.03828327 0.99908537 0.00016355928
0.013587236 -0.028093072 0.014790267 0.0164764 0.047984768 0.99871212 7.0537506e-05
0.016595559 -0.028304858 0.014745016 -0.0087363375 0.041038092 0.99911946 0.00020535926
0.019251006 -0.028372085 0.014772045 -0.028056409 0.023567127 0.99932849 0.00028241731
0.022512158 -0.028884429 0.014769056 -0.033286154 -0.001208065 0.99944514 0.00031210959
0.024848139 -0.028477985 0.014942346 -0.038317326 -0.0097776987 0.99921781 0.00028307471
0.028625239 -0.028186416 0.01495605 0.0011448455 0.025828289 0.99966574 0.00023069815
0.031012032 -0.028307348 0.014938485 -0.0032432131 0.033293553 0.99944037 0.00014224925
0.034801815 -0.028397782 0.014980838 0.0035470361 -0.0037334745 0.99998677 0.00026421942
0.037615374 -0.028536338 0.014920438 0.035819959 -0.0058395471 0.99934119 9.7094744e-05
0.040858369 -0.028598087 0.014807821 0.089557886 -0.011770015 0.99591202 0.0021000013
0.043580156 -0.028353259 0.01455195 0.055665772 -0.043830089 0.99748695 0.0033373635
0.046022516 -0.028807903 0.014392316 0.0021899864 -0.073265553 0.9973101 0.0039520119
0.049643986 -0.0286531 0.014787218 -0.05919265 -0.083560348 0.99474317 0.0013953971
0.052506566 -0.028627545 0.014832892 -0.028584175 -0.041543141 0.9987278 0.0020105485
0.05568273 -0.028547186 0.01478143 0.033372287 0.004474171 0.99943298 0.00056545413
0.058516826 -0.0284667 0.014708285 0.051767319 0.023157347 0.99839067 7.585498e-05
0.061511591 -0.028397536 0.014540757 0.048611093 0.016231723 0.9986859 9.5182506e-05
0.064470328 -0.028573209 0.0144402 0.041543331 -0.0037990764 0.99912953 0.00017362092
0.06735871 -0.028547628 0.014349648 -0.032208335 -0.0063731284 0.99946094 0.0030407261
0.070324786 -0.028491637 0.01441291 -0.22973251 0.0097006429 0.97320545 0.0049138591
0.080740839 -0.028519578 0.013420803 0.99489683 -0.099983737 0.013545852 0.030223601
0.08107315 -0.028257854 0.013835452 0.99189669 -0.088705413 -0.090952449 0.0027276156
-0.021088257 -0.025370199 0.014206044 -0.9975962 0.014960413 0.06766139 0.013385227
-0.020809295 -0.025586968 0.013191443 -0.99912953 -0.01072433 -0.040313944 0.0059232572
-0.012821976 -0.025152128 0.014740178 0.24624826 0.018308943 0.96903384 0.00261272
