# .PCD v0.7 - Point Cloud Data file format
VERSION 0.7
FIELDS x y z normal_x normal_y normal_z curvature
SIZE 4 4 4 4 4 4 4
TYPE F F F F F F F
COUNT 1 1 1 1 1 1 1
WIDTH 539
HEIGHT 1
VIEWPOINT 0 0 0 1 0 0 0
POINTS 539
DATA ascii
-0.0067663621 0.0096648959 -0.013418756 -0.73427922 0.6787073 -0.013800072 0.00022359962
-0.0052520093 0.011215315 -0.013550455 -0.7120586 0.70202464 -0.01157897 0.00016213953
0.065121032 0.011149384 -0.013518503 0.72217101 0.69137818 -0.021570507 0.00030736212
0.066584006 0.0095638558 -0.013365865 0.74601227 0.66559845 -0.021078508 0.00021606524
-0.0036855326 0.012717165 -0.013493335 -0.66468227 0.7470153 -0.012871881 0.00020705166
-0.0019481827 0.014210132 -0.013510544 -0.64053172 0.76781285 -0.013507836 0.00015384832
0.061904795 0.014151569 -0.013562062 0.63425052 0.77285314 -0.020598045 0.00039723038
0.063587487 0.012721498 -0.013459285 0.68267298 0.73031813 -0.024350744 0.00037038705
-0.00046149746 0.015388567 -0.013403588 -0.61465704 0.78868401 -0.013199515 0.000148252
0.0018324835 0.017087808 -0.013664913 -0.5470202 0.83702403 -0.012636348 0.0002363402
0.0030993358 0.017915344 -0.013042269 -0.55035204 0.83469576 -0.019889705 0.00024485719
0.056827214 0.017683035 -0.013353855 0.55445349 0.83187366 -0.023825318 0.00024267196
0.058211148 0.017039388 -0.013616827 0.55841231 0.82896912 -0.031396151 0.00030282419
0.060474303 0.015293041 -0.013574921 0.60767055 0.79386604 -0.022655588 0.00025071
0.0048096492 0.018982014 -0.013427439 -0.50191349 0.86463225 -0.02222299 0.0002836241
0.007445293 0.020387838 -0.013612751 -0.44954404 0.89296961 -0.02270145 0.00024265244
0.052705348 0.020310858 -0.013334724 0.45778164 0.88882232 -0.020758677 0.00029576922
0.055277366 0.018901682 -0.013600763 0.50324428 0.86364734 -0.029297167 0.00033044486
0.0089683197 0.021065678 -0.012985969 -0.42512032 0.90475941 -0.026137277 0.00017657265
0.010574322 0.021821005 -0.013416457 -0.38295716 0.92346501 -0.023583239 0.00022436165
0.013623226 0.022956835 -0.013396192 -0.33000743 0.94379997 -0.01834942 0.00019474894
0.016019473 0.023743913 -0.013296074 -0.28613657 0.95807409 -0.014830811 0.00013286456
0.0443055 0.023781784 -0.013603563 0.29191777 0.95609963 -0.02564143 0.00041827562
0.046572268 0.022999691 -0.013693166 0.33927807 0.94030344 -0.026828963 0.00036673815
0.04959631 0.021771282 -0.013563823 0.39375228 0.91898674 -0.020555466 0.00036753924
0.051406257 0.021095403 -0.013861299 0.43707615 0.89905572 -0.02575358 0.00037458731
0.017391153 0.024121663 -0.013488539 -0.26264215 0.9647547 -0.016354987 0.00023762517
0.019491879 0.024649272 -0.013578604 -0.20547298 0.97841829 -0.02187435 0.0002972777
0.022517152 0.025210151 -0.013524105 -0.16360164 0.98605746 -0.030417608 0.00040323348
0.025398485 0.025589839 -0.013574298 -0.10305464 0.99440306 -0.023288926 0.00040053748
0.028431663 0.025781102 -0.013412334 -0.037548363 0.99898225 -0.024991667 0.0004093071
0.031523634 0.025812954 -0.013479249 0.030923089 0.99932897 -0.019629437 0.00037879637
0.034540355 0.025655687 -0.01347598 0.083380029 0.9963032 -0.020679999 0.00042653442
0.037455827 0.02527581 -0.013520163 0.15846774 0.98703021 -0.025677867 0.0003701174
0.040512715 0.024733184 -0.013523661 0.20159741 0.97921693 -0.022195155 0.00025287876
0.042828634 0.024187692 -0.013541625 0.25947076 0.9654687 -0.023348225 0.00036810976
0.071587175 -0.051728971 -0.0092811557 0.8573764 -0.51452005 0.013225217 0.00025290041
-0.012747113 -0.049317565 -0.0093983859 -0.85844696 -0.51285881 0.006691257 0.00015163091
0.073112011 -0.049236666 -0.0096466783 0.87484163 -0.48426744 0.011713203 0.00024292027
-0.014482221 -0.046163529 -0.010796996 -0.8932128 -0.4496237 -0.0030656408 0.00034398338
0.074364573 -0.046971407 -0.010115969 0.8926633 -0.45069522 0.0051082508 0.00021666911
0.075115405 -0.045474548 -0.011234444 0.90064788 -0.43452743 0.0044001145 0.00027096437
-0.015662258 -0.043504428 -0.010563892 -0.92370731 -0.38307667 -0.004129515 0.00017023589
0.075944982 -0.043510955 -0.010451972 0.92390889 -0.38252679 0.0081017502 0.00014879393
-0.016889133 -0.040321015 -0.010475094 -0.944282 -0.32912144 0.0032693748 0.00021762656
0.077135526 -0.040357154 -0.010414037 0.94558853 -0.32533848 -0.004155281 0.00024453361
-0.018071664 -0.036404669 -0.0095516527 -0.96450692 -0.26403514 0.0034438886 0.00016138179
-0.017735386 -0.037682671 -0.010497543 -0.95943815 -0.2819103 0.0022542414 0.0001527705
0.077794395 -0.038259227 -0.010102248 0.96221268 -0.27221733 -0.0066689635 0.00015551096
0.078202464 -0.03678146 -0.010628328 0.9664613 -0.25671196 -0.0071784598 8.2666447e-06
-0.018511228 -0.034592066 -0.010641389 -0.97655851 -0.21523941 -0.0023476905 0.00016444488
0.07872989 -0.03456594 -0.010571428 0.97862512 -0.20564033 -0.0022197575 0.00012508182
-0.019106073 -0.031409096 -0.010460996 -0.98653984 -0.16341351 0.0059373793 0.00032653732
0.079258271 -0.031554546 -0.010557017 0.98774874 -0.15602598 -0.0028935934 0.00034533511
-0.019469501 -0.028387761 -0.010374994 -0.99616468 -0.087462611 -0.0025003378 0.00015642185
0.079600997 -0.028510971 -0.010515895 0.9968037 -0.079718068 -0.0052444325 0.00012069254
-0.019639542 -0.025533434 -0.010446093 -0.99885124 -0.047918916 0.00030200862 0.00043708135
0.07974916 -0.025472466 -0.010568757 0.99964243 -0.024956731 -0.0096048526 6.0911363e-05
-0.019639498 -0.022323597 -0.010449472 -0.99867743 0.051414568 -0.00013003912 0.00059844617
0.079754993 -0.022638887 -0.010488681 0.99987739 0.01408774 -0.0068395166 0.00044626099
-0.019645184 -0.018808585 -0.010027084 -0.98940116 0.14519766 -0.0017013872 0.00012337373
0.079561271 -0.019497855 -0.010457648 0.99557209 0.093691319 -0.007627456 0.00013837329
-0.019054933 -0.016540894 -0.010489061 -0.98588282 0.16742896 0.0016579104 0.00015262119
0.07918819 -0.016495466 -0.010329103 0.98614681 0.1658133 -0.0045272587 0.00035589191
-0.018614899 -0.012821026 -0.010910835 -0.97190368 0.23530881 -0.0057455795 0.00018948667
0.077970274 -0.012245229 -0.0097928979 0.96604198 0.2583819 0.0013251548 0.00045630176
0.078361541 -0.013172043 -0.010910808 0.97555739 0.21963432 -0.0069733253 0.00021271349
-0.018358383 -0.011714205 -0.010332262 -0.96684539 0.25506333 0.012358476 0.00040108815
-0.017801091 -0.0096280072 -0.010996939 -0.95913482 0.28294817 0.00089051353 0.00023008537
0.07743071 -0.0096644033 -0.010388479 0.95693618 0.29019681 -0.0076798708 0.00043605524
0.078151919 -0.011501029 -0.010561732 0.96415174 0.26532936 -0.0034274228 0.00029428452
-0.017121946 -0.0076499963 -0.010423152 -0.94476587 0.32770118 0.0054221498 0.00025040534
0.076639786 -0.007212013 -0.010490093 0.9390921 0.34366149 -0.0016981992 0.00024318538
-0.015843956 -0.004312125 -0.010518756 -0.92424202 0.3817153 -0.0083716279 0.00019407256
0.074989729 -0.0036973965 -0.0091895061 0.91910255 0.39401719 0.00097079173 0.0002293335
0.075583205 -0.0045832959 -0.010633931 0.9218955 0.38741589 -0.004194228 0.00010608009
-0.015064882 -0.0019089449 -0.010789539 -0.89821184 0.43953758 -0.0047210031 0.0004618814
-0.014416359 -0.0011332443 -0.010324776 -0.88823634 0.45938644 0.00061915733 0.00041796995
0.074198365 -0.001545069 -0.0104867 0.89203399 0.45193297 -0.0056519806 0.0002082719
0.075048059 -0.0028914735 -0.010372696 0.91620928 0.40069577 -0.001870008 0.00022985405
-0.013028859 0.0013019602 -0.010489671 -0.85834545 0.51307189 0.00056527299 0.00025030182
-0.011904079 0.0027843248 -0.010761937 -0.82896996 0.559282 0.0035318979 0.00023835439
0.071929008 0.0025374342 -0.010622086 0.84258789 0.53854358 -0.0040534199 0.000314668
0.072815523 0.0010504343 -0.010498475 0.86608732 0.49986526 -0.0052469522 0.00035870768
-0.012026794 0.0033442983 -0.011325623 -0.8207038 0.57134378 0.0033999819 0.00036324523
-0.010853608 0.0046268487 -0.010395123 -0.81280202 0.58249092 0.0075618625 0.00033116969
0.070614487 0.0044923713 -0.010522705 0.82252371 0.56870425 -0.0055030053 0.00017464807
-0.0093687605 0.0065719825 -0.010631392 -0.77920938 0.62672275 0.0071703084 0.00011716365
-0.0081769479 0.008021364 -0.010548418 -0.77091283 0.63690901 0.0063532596 0.00012252583
0.068093523 0.0078141037 -0.010465868 0.7797541 0.6260857 -0.00049535942 0.00018906442
0.069199383 0.0064335214 -0.010985278 0.7880891 0.61551762 -0.0073310174 0.00020468805
-0.0067458693 0.0096799713 -0.010539526 -0.73355699 0.67960668 0.0053788112 0.00023686071
-0.0051868306 0.011255303 -0.01050603 -0.69335979 0.72057867 0.0043073199 0.00012996589
0.065040611 0.011253729 -0.010471018 0.70434999 0.70984793 0.0026442376 0.00027593187
0.066557333 0.0096138287 -0.010578669 0.74414968 0.66800892 -0.002334567 0.00017909732
-0.0036437525 0.012740904 -0.010524765 -0.6735816 0.73910397 0.0036296567 0.00016387478
-0.0020040937 0.014168516 -0.010432858 -0.64168012 0.7669704 0.0017620478 0.00019033457
0.061951645 0.01408471 -0.010501601 0.65513074 0.75548333 0.0069716275 0.00018117756
0.063583523 0.012616785 -0.010530554 0.67929381 0.73385 0.00491447 0.000232583
-0.00048612815 0.015373528 -0.010553645 -0.61646342 0.78738326 0.00076706836 0.00016162454
0.0015592501 0.01689467 -0.010558453 -0.55662096 0.83076632 -0.00065693777 0.00021775845
0.0031545823 0.017939981 -0.010774847 -0.54609489 0.83770686 0.0052451175 0.00040593577
0.056828517 0.017855622 -0.010232066 0.54670125 0.83732212 -0.0030747552 0.00040545658
0.058399588 0.016896024 -0.010533798 0.55345148 0.83286977 -0.0043976004 0.00021118294
0.060439475 0.015293507 -0.010535242 0.61896688 0.78541243 0.0027099436 0.00030043119
0.0047471053 0.018938266 -0.010478914 -0.50576681 0.86266613 0.0026472667 0.00028876937
0.0074314387 0.020378573 -0.010595611 -0.44852149 0.89375657 0.0052596666 0.00019569935
0.052533936 0.020390432 -0.010453626 0.45589861 0.89002943 0.0019931688 0.0002165383
0.055121984 0.01900073 -0.010563224 0.50478119 0.86324674 0.00094396761 0.00027045215
0.008756768 0.021025244 -0.01028282 -0.44097167 0.89752066 -0.00080427516 0.00022062066
0.010537475 0.021808999 -0.010454522 -0.38249931 0.92394388 -0.0046996563 0.00022004871
0.013497717 0.022938343 -0.010407832 -0.32622623 0.9452917 -0.00023285706 0.00022542609
0.016130609 0.023781328 -0.010580084 -0.28064197 0.95981246 0.00015963307 0.00014896384
0.044165958 0.023772532 -0.010213713 0.28453243 0.95863491 0.0077689528 0.00025347236
0.046468545 0.023006732 -0.010521386 0.33800375 0.94111818 0.0070715449 0.00023623164
0.049484123 0.021807207 -0.010430235 0.39492804 0.91870749 0.0028767544 0.00014727979
0.051155079 0.021110848 -0.01046713 0.44352213 0.89626133 0.001948147 0.00018795727
0.017610213 0.02417884 -0.010619748 -0.26495698 0.96425509 0.0031341754 0.00015969008
0.019513695 0.024640484 -0.010467134 -0.21492758 0.97661787 0.0048644915 0.00015240815
0.022486441 0.025215948 -0.010508883 -0.1697855 0.98547846 0.0022549308 0.00025965332
0.025493963 0.025608061 -0.010548979 -0.10271577 0.99469537 -0.0055376156 0.00036164967
0.028469011 0.025783926 -0.010362186 -0.038564377 0.99925464 -0.0017191961 0.00026397625
0.031527448 0.025788866 -0.010438676 0.025523527 0.99967241 0.0018794682 0.00035783256
0.034519371 0.025635771 -0.010428107 0.089057252 0.99602646 -0.00033256662 0.00023292184
0.037484847 0.025258446 -0.010458153 0.16413786 0.98641747 0.0062793475 0.00028243859
0.040420324 0.024736419 -0.010553737 0.20745513 0.9782297 0.0053830026 0.00022153789
0.042743381 0.024192831 -0.01040232 0.26533514 0.96412438 0.0078355223 0.00027108096
-0.010566164 -0.052668195 -0.0081255827 -0.83917099 -0.54384291 -0.0051994086 0.00041516146
0.071764447 -0.051422209 -0.0063386816 0.85594922 -0.51705015 0.0031963361 0.0003559794
-0.012867918 -0.049081586 -0.0063860025 -0.85901332 -0.51194537 0.0028384023 0.00022446034
0.073259845 -0.048967805 -0.0066756536 0.87470877 -0.48464277 0.0024395075 0.00026990427
-0.014338935 -0.046392318 -0.0078729019 -0.89597076 -0.44395313 0.011916928 0.00020504562
0.074622571 -0.046420246 -0.0077846074 0.89655662 -0.44292927 -8.7595705e-05 0.00045462672
0.075251468 -0.045096844 -0.0078327935 0.90169293 -0.43233025 0.0063673789 0.00035605542
-0.015707558 -0.04336163 -0.0074752965 -0.92787516 -0.37286213 0.0046449723 0.00039448173
0.075986058 -0.04339416 -0.0073394766 0.92732197 -0.37426245 0.0012992697 0.00018990427
-0.016840857 -0.040441632 -0.0073392689 -0.94469702 -0.32793537 0.0024384323 0.00026725332
0.077175915 -0.040247008 -0.0074846544 0.94391239 -0.33019575 -0.00048278287 8.3639337e-05
-0.018115344 -0.036201984 -0.0072343443 -0.96476841 -0.26307908 0.0033742585 0.00019176643
-0.017697992 -0.037776936 -0.007548626 -0.960316 -0.27889875 0.0029390063 0.00019385804
0.077810518 -0.038267788 -0.0074207429 0.9612419 -0.27570531 -0.00084306806 0.00034070842
0.078161106 -0.037016865 -0.0073101507 0.96736419 -0.25338602 -0.0014450016 0.00026420777
-0.018542351 -0.034379497 -0.007623123 -0.97809041 -0.20816153 0.0028119106 0.00012713156
0.078712448 -0.034634955 -0.0077023311 0.97735691 -0.21147248 -0.0072724936 0.00024830105
-0.019084258 -0.031515453 -0.0074954135 -0.98664498 -0.16286644 0.0024884394 0.00029384618
0.079260275 -0.031555239 -0.0074728751 0.98742926 -0.1580615 -0.00025674782 0.00042119311
-0.019457316 -0.028466038 -0.0074544684 -0.99599332 -0.089425437 -0.00070508814 0.00015225813
0.079593852 -0.028624915 -0.0074826623 0.9965781 -0.082418725 -0.0062684556 0.00020362331
-0.019626945 -0.025353115 -0.0075189271 -0.99954051 -0.029972423 0.004518054 0.0001060896
0.07975965 -0.025639888 -0.0074996976 0.99901992 -0.044227701 -0.0017848834 0.00035554211
-0.019638082 -0.022498036 -0.0074157845 -0.99950421 0.031451952 -0.0014820247 0.00015565658
0.079765961 -0.022471391 -0.0075272834 0.99951136 0.031256508 -0.00024641992 9.4332667e-05
-0.019434188 -0.019379834 -0.0073549449 -0.99475288 0.10228825 -0.0019573637 0.00023025289
0.079408497 -0.019675992 -0.0080552045 0.99073237 0.13580683 -0.0024204736 0.00018695742
-0.019280117 -0.016347574 -0.0074370792 -0.98320013 0.18251462 0.0024418305 0.00013637859
0.078966737 -0.016215516 -0.0070941439 0.98468435 0.17427352 -0.0050558173 0.00027681002
-0.018475989 -0.013528775 -0.0075033167 -0.97965282 0.20067199 0.0033353642 9.4729221e-05
0.078600898 -0.013379848 -0.0074296892 0.97766715 0.21011393 -0.0043695141 0.00018678456
-0.01826974 -0.011404114 -0.0075728591 -0.96580851 0.2590996 0.0090165101 0.00033249508
-0.017686171 -0.010141478 -0.0074760118 -0.9612264 0.27575821 0.0011303282 0.00030845919
0.07770294 -0.010539521 -0.0076887328 0.96226895 0.27209547 0.0016198913 0.00028646193
0.078143068 -0.011382782 -0.0075100479 0.96480829 0.26290712 -0.0049802121 0.00030584063
-0.017036762 -0.007382351 -0.0074606948 -0.94290018 0.33307478 0.00065245078 0.0002529067
0.076767556 -0.0075802468 -0.0074398564 0.94161022 0.33669665 -0.0023524526 0.00032172728
-0.015866822 -0.0043497155 -0.007635342 -0.9247998 0.38037232 -0.0078895791 0.00018143945
0.07490208 -0.003467419 -0.0075295148 0.9171074 0.39862558 -0.0034293085 0.00014507302
0.075657979 -0.0047329161 -0.0074740238 0.92192018 0.38736787 -0.0030474807 7.6569457e-05
-0.015275545 -0.0028962651 -0.0075994553 -0.92061949 0.39045241 -0.0025788755 0.00022397403
-0.014425952 -0.0011302059 -0.0074622054 -0.88702124 0.46170837 -0.0043287799 0.00048024618
0.074114621 -0.0013623056 -0.0075246375 0.89325333 0.44955054 -0.0016822533 0.00021163582
0.075038403 -0.0028836133 -0.0069038561 0.8983947 0.43917608 -0.0033672815 0.00014315345
-0.012888043 0.0015211529 -0.0074846996 -0.85212547 0.523332 0.002432361 0.00021315724
-0.011871185 0.0027880927 -0.0077233897 -0.82770032 0.56116915 0.0012021235 0.00025815755
0.071842782 0.002682325 -0.0078381961 0.84302181 0.53787816 -0.001206153 0.00027825037
0.072740927 0.0011870171 -0.0074425386 0.86511111 0.50157797 -0.0015286129 0.00027894886
-0.010836245 0.0046272539 -0.007498079 -0.81195277 0.58369792 0.0054199495 0.00026780323
0.07059665 0.0045226347 -0.007482768 0.82282972 0.56827158 -0.004328026 0.00022630193
-0.0093390606 0.0065890886 -0.00771192 -0.77894408 0.62709039 0.0019369716 0.00011309402
-0.0081759822 0.0079943929 -0.0074956669 -0.77166688 0.63602263 0.0023464917 0.00011142264
0.068121552 0.007803557 -0.0075415657 0.7731213 0.63425136 -0.0029611406 0.00031113153
0.069433875 0.006440762 -0.0075665778 0.78863174 0.61485225 -0.0040918933 0.00025781704
-0.0066745365 0.0097436728 -0.0075293975 -0.73410273 0.67903751 0.0011105739 0.00026382203
-0.0051557906 0.011255071 -0.0075145843 -0.70319945 0.71099234 0.00067397789 0.00021836141
0.065146655 0.011128081 -0.0074944552 0.70135325 0.71281302 0.0010709618 0.00020426878
0.066520646 0.0096509671 -0.007549705 0.73601651 0.67696345 -0.00048959773 0.00022002353
-0.0036216131 0.012735873 -0.0074684937 -0.67394227 0.73878127 0.0020307805 0.00015840377
-0.0019634273 0.014181999 -0.0074910917 -0.63142532 0.77543306 0.0023944476 0.00019412304
0.061951607 0.014088207 -0.0075141527 0.64753652 0.76203352 0.001208898 0.00023900971
0.063739873 0.012474474 -0.0074835718 0.68904549 0.72471607 0.0017314021 0.00015498282
-0.00056720164 0.015306697 -0.0074656233 -0.61726367 0.78675383 0.0020044122 0.00020303967
0.0012434892 0.016667722 -0.0074576936 -0.55166703 0.83406436 -2.3733626e-05 0.00020337624
0.0031541151 0.017825965 -0.0075254915 -0.56009799 0.82842392 0.0020131755 0.00016503221
0.056827631 0.017870147 -0.0076049496 0.54610574 0.83771604 0.00057990564 0.00040029577
0.058458757 0.016878979 -0.0075733825 0.55099744 0.8345052 -0.0016713872 0.0002216701
0.060368743 0.015353663 -0.0075240787 0.59799129 0.80150241 -0.00051576301 9.3659721e-05
0.0045401636 0.018796239 -0.007551176 -0.50696021 0.86194551 0.0064236675 0.0002904087
0.0073676892 0.020320101 -0.0074547944 -0.45360529 0.89119405 0.0039193779 0.00018443329
0.052624103 0.020334719 -0.0075589083 0.45469943 0.89064425 -0.0011055552 0.00021402958
0.055400521 0.018828815 -0.007598625 0.49616611 0.86822742 -0.00058529916 0.00034024499
0.0087687708 0.021016303 -0.0083225695 -0.43610027 0.89989471 0.0024512371 0.00015429489
0.010358574 0.021727597 -0.0076194094 -0.38875616 0.9213407 -0.00024309949 0.00029354091
0.013529257 0.022953337 -0.0076185241 -0.32509345 0.94568193 -0.00011227832 0.00024403066
0.01601956 0.023730991 -0.0075835437 -0.27755824 0.96070772 0.0014114477 0.00015030954
0.044164222 0.023750847 -0.0075060669 0.28406799 0.95879626 0.0038884014 0.00022918214
0.046488989 0.022990236 -0.0073428787 0.33257815 0.94306421 0.0046488112 0.00024083311
0.049349438 0.021865299 -0.0073688808 0.38732082 0.92194492 0.00015555823 0.00023438135
0.051146559 0.021187555 -0.0075462367 0.43148443 0.90211272 -0.003715568 0.00045088562
0.017587706 0.024167843 -0.0074370634 -0.26201469 0.96505958 0.0028759877 0.00015559101
0.019545944 0.024630256 -0.0074827224 -0.21288952 0.97706985 0.0035593233 0.00015848731
0.022481611 0.02518847 -0.007443083 -0.170673 0.98532104 0.003638569 0.00025248466
0.025489666 0.02560211 -0.0075090542 -0.090709999 0.99587417 0.0025129234 0.00060440676
0.028469428 0.025785504 -0.007344184 -0.03075573 0.99952108 -0.003417237 0.0001407704
0.03145865 0.025777029 -0.0073882374 0.028831866 0.99958426 -0.00010941918 0.00036167944
0.034530636 0.025613561 -0.007428003 0.096200831 0.99536186 0.000381616 0.00030112304
0.037565384 0.025235942 -0.0074465233 0.16330358 0.98656279 0.0050778412 0.00028971376
0.040563699 0.024681034 -0.0075495522 0.21155654 0.97736257 0.0025004619 0.00025161708
0.042563189 0.024215169 -0.0075268778 0.26604384 0.9639498 0.0046276846 0.00025775176
0.069908455 -0.054111369 -0.0046251114 0.85190129 -0.52368397 0.0044016405 0.00021165784
-0.010820942 -0.052257895 -0.0052823573 -0.83951175 -0.5432781 0.0083074113 0.00037836187
0.071443915 -0.051893037 -0.0031176298 0.85181355 -0.52384496 0.00032485044 0.00024531226
-0.012788109 -0.049230989 -0.0035127522 -0.86097735 -0.50861162 0.0056759478 0.0002499494
0.073093019 -0.049234107 -0.003679934 0.87273401 -0.48819581 0.00051488535 0.0003022431
-0.014202992 -0.046642557 -0.0046111834 -0.89489514 -0.44626662 0.0029689937 0.00016204442
0.074521273 -0.046604291 -0.0044362159 0.89575034 -0.4445329 -0.0046724305 0.00036381706
0.075199217 -0.045207381 -0.0050179316 0.90229934 -0.43110469 -0.0021712207 0.00015845212
-0.015665259 -0.043439019 -0.0044180006 -0.92039859 -0.39097279 -0.0026002205 0.00015341806
0.075953171 -0.043476582 -0.0045534214 0.92402583 -0.38229635 -0.0050744368 0.00020455975
-0.016839044 -0.040425453 -0.0042887162 -0.94489688 -0.32735309 0.003148387 0.00026625805
0.077043377 -0.040582594 -0.0043183342 0.94483668 -0.32753932 0.0013222157 0.00011603325
-0.01807509 -0.036324747 -0.0036955816 -0.96506071 -0.26199776 0.0038855881 0.00017709106
-0.017670115 -0.037839331 -0.0047879159 -0.9619801 -0.27311563 0.0014373161 0.00021064015
0.077812068 -0.038295384 -0.004699687 0.96166635 -0.27420977 0.0026320769 0.00012903332
0.078249156 -0.036649156 -0.0042722127 0.96609551 -0.25818491 0.00011979363 0.00029153819
-0.01853141 -0.034383573 -0.0045497017 -0.97791827 -0.20894441 0.0042468989 0.00013014695
0.078759357 -0.034379799 -0.0045369542 0.9791826 -0.20297313 -0.001847961 0.00015961545
-0.019075511 -0.031500109 -0.0044743847 -0.98652136 -0.16354662 0.0053048544 0.0003048662
0.07925988 -0.031558637 -0.004360911 0.98762715 -0.15680581 -0.0021595068 0.00027570274
-0.01943925 -0.02855248 -0.0045025195 -0.99602926 -0.088838153 0.0057895579 0.00015070938
0.079621755 -0.028450074 -0.0045514619 0.99655449 -0.082898363 0.0026652117 0.00010795298
-0.019624384 -0.025431603 -0.0045119864 -0.99953157 -0.029761985 0.0071332944 0.00011715964
0.079759471 -0.025511295 -0.0044760765 0.99962878 -0.026301134 -0.0071102865 6.7376248e-05
-0.019630801 -0.022495663 -0.004494309 -0.99952608 0.030129053 0.0063154297 0.00014550409
0.079769418 -0.022402752 -0.0045453464 0.99951017 0.031293921 0.00037218211 0.00015004617
-0.01944321 -0.019460006 -0.0046901866 -0.99475801 0.10204679 0.0065566278 0.00023926763
0.079572506 -0.019450175 -0.0046131671 0.99545872 0.095191307 -0.00078062154 0.00013551695
-0.019171532 -0.015813574 -0.0048897048 -0.98239392 0.18681604 -0.0013881965 0.00013119208
0.078915074 -0.015860025 -0.0049301442 0.98398799 0.17818607 -0.0041784192 0.00039422861
-0.018829674 -0.013969695 -0.0042204829 -0.97715986 0.21249309 -0.0023100639 0.00011100323
0.078572944 -0.014055602 -0.0040791444 0.97631758 0.21626069 -0.0059475442 0.00016711644
-0.018173808 -0.011037973 -0.0044137891 -0.96702319 0.25464705 -0.0045941439 0.00034083339
-0.017697867 -0.010238597 -0.0045903441 -0.96116608 0.27597007 -0.00060293311 0.00024772499
0.077669188 -0.010328515 -0.0045570014 0.96232092 0.271896 -0.0033198444 0.00028235241
0.078170829 -0.011453478 -0.004329328 0.96430212 0.26476908 -0.0043412102 0.00025274319
-0.017075257 -0.0074460935 -0.0046402384 -0.94477296 0.32769164 -0.0047188792 0.00019330787
0.076688491 -0.0073210765 -0.0045812773 0.9400962 0.34080726 -0.0083364369 0.00026593491
-0.01601875 -0.0047002658 -0.0044239815 -0.92664373 0.37593132 -0.0026638093 0.00019637373
0.074770615 -0.0031190983 -0.0050488943 0.9142763 0.40508574 -0.0021188518 6.5639601e-05
0.075581059 -0.0044973604 -0.0044279732 0.9214406 0.38849941 -0.003931229 0.00018549021
-0.015218835 -0.0027074884 -0.0044789892 -0.89752764 0.44095549 -0.0015233367 0.0006269007
-0.014383979 -0.0010554488 -0.0045134928 -0.88662547 0.46247405 -0.0036129174 0.00053409877
0.074137434 -0.0013848125 -0.0044253054 0.88834637 0.45916343 -0.0031122761 0.00027269652
0.075060837 -0.0028900052 -0.0047536227 0.89733207 0.4413074 -0.0065555186 0.00020682074
-0.012868956 0.0015657182 -0.0044670464 -0.85248959 0.52273184 -0.0035894967 0.00022533977
-0.011888985 0.0027898687 -0.0047231573 -0.82671613 0.56261557 -0.0020639938 0.00025022114
0.071789548 0.0027882513 -0.0047442336 0.83527738 0.54981959 -0.0031997568 0.00019464828
0.072688095 0.0012690423 -0.0044694282 0.86457187 0.5025056 -0.0018990609 0.00024019057
-0.010839542 0.004630344 -0.0045822007 -0.81202042 0.58359784 -0.0060297912 0.00025875826
0.070606098 0.0045309146 -0.0045134574 0.82303202 0.56796896 -0.0054301028 0.00024206174
-0.009428042 0.0064788982 -0.0043918807 -0.77911985 0.62687433 -0.00094270182 0.00011114834
-0.0082242284 0.0079471096 -0.0045816726 -0.77085191 0.63701427 -0.00043797476 0.00010556949
0.068058699 0.0079011992 -0.0045369416 0.76261526 0.64683527 -0.004701993 0.00023922409
0.069328554 0.0063259848 -0.0044297138 0.79134083 0.61133075 -0.0073761027 0.00034611596
-0.0066618919 0.0097565483 -0.0045629032 -0.73633844 0.67660683 -0.0029825736 0.00021745407
-0.0052243513 0.011219847 -0.0045426916 -0.69149631 0.72237056 -0.0037052913 0.0001529177
0.065140113 0.011117101 -0.0043992419 0.71141881 0.70276827 0.00018638083 0.00015449105
0.066510648 0.009662414 -0.0047472399 0.73233104 0.68094349 -0.0026802346 0.00019133948
-0.003788312 0.012591481 -0.004504458 -0.67283183 0.73978776 -0.0033858621 0.00016460984
-0.0020115809 0.014137155 -0.0045164535 -0.64254016 0.76625031 -0.0016097196 0.00018934158
0.061900944 0.014131755 -0.0044707013 0.64741218 0.76213968 0.00075664982 0.00023093555
0.063656501 0.012543932 -0.0045381412 0.68894738 0.72481012 0.0013365957 0.00020668625
-0.00048487147 0.015374869 -0.0043483539 -0.61774969 0.78637475 -0.00026920953 0.00024695619
0.0014912877 0.016809098 -0.0045262505 -0.56717849 0.82359451 0.00079176924 0.00023697942
0.0033233901 0.017929493 -0.0043737791 -0.55801368 0.82982755 0.002649684 0.00013619101
0.056605145 0.017858284 -0.0046441862 0.55739015 0.83025074 2.7043223e-05 0.00024233692
0.058457412 0.016751967 -0.0044838591 0.57538497 0.8178826 0.00041852205 0.00024017305
0.060361683 0.015336232 -0.0045186402 0.60881269 0.79331398 0.00035245024 0.00018117313
0.0045838081 0.018812628 -0.0044498588 -0.50304192 0.86425108 -0.0043298765 0.00029034796
0.007203788 0.020243332 -0.0046047587 -0.45568302 0.89012939 -0.0047428044 0.00017644634
0.052683085 0.020318195 -0.004368112 0.45528075 0.89034593 -0.0018799632 0.00023981875
0.055422891 0.018821752 -0.0045245122 0.49882078 0.86667472 -0.0072632483 0.00024136248
0.008814564 0.021107011 -0.0044665607 -0.4437722 0.89612722 -0.0047144806 0.0002479812
0.010552107 0.021825647 -0.0045407102 -0.38714671 0.92199874 -0.0059710271 0.00027614317
0.013489884 0.022938227 -0.0045590564 -0.32366619 0.9461664 -0.0030409277 0.00023944704
0.015996041 0.023725184 -0.0044205417 -0.2753711 0.96133792 -0.00040081854 0.00014589446
0.044107717 0.023770446 -0.0046337754 0.28268105 0.9592092 0.003008299 0.00018227931
0.046491619 0.022990465 -0.0044812858 0.33389783 0.94260895 0.00080677721 0.00023499156
0.049497228 0.021810533 -0.0045590992 0.38458833 0.92308778 -0.00091772329 0.00028126239
0.051208898 0.021170121 -0.0047891666 0.42117894 0.90697241 -0.0030419298 0.00022246438
0.017576713 0.024159065 -0.0042849323 -0.26074454 0.96540779 0.00023557697 0.00016692468
0.01957663 0.024627564 -0.0046014837 -0.21219182 0.97722614 0.0019180095 0.00013590181
0.022480281 0.025185322 -0.0044921939 -0.17085056 0.98529363 0.0025422305 0.00024914884
0.0254637 0.025590643 -0.0044308812 -0.099223278 0.99506515 -0.00015989254 0.00042988974
0.028473318 0.025787612 -0.0044308496 -0.039970096 0.99920064 0.00058208115 0.00030120488
0.031493168 0.025790101 -0.0044253734 0.023491574 0.99972057 -0.0026397139 0.00026989548
0.034517691 0.025603727 -0.0044633257 0.091372758 0.99581659 0.00054960913 0.00015586575
0.037550975 0.025231401 -0.0044872724 0.16408056 0.98644012 0.0036769591 0.00032243098
0.040610589 0.024660299 -0.0045015127 0.21168746 0.9773348 0.0022505827 0.00018394239
0.042652044 0.024177989 -0.0045407969 0.26447371 0.9643845 0.0040187323 0.00020280153
-0.011225975 -0.051649135 -0.0026319546 -0.82980704 -0.55802953 0.0048354636 8.0408507e-05
-0.012661085 -0.049442634 -0.00055047922 -0.86229408 -0.50632167 0.0093427636 0.00025737967
0.072940938 -0.049481329 -0.00068157888 0.87028664 -0.49254566 -0.00011714928 0.000209281
-0.014260429 -0.046462901 -0.0013948123 -0.8951028 -0.44585669 -0.0016794653 0.00018131941
0.074491143 -0.046695765 -0.00116242 0.89139026 -0.45323494 0.0012184883 0.00023763039
0.075155504 -0.045307066 -0.0021949313 0.90061593 -0.43461248 -0.0017311346 0.00021323349
-0.015731949 -0.043285765 -0.0012969992 -0.92024124 -0.39135 -0.0011490545 0.00015605973
0.076033615 -0.043270737 -0.001484297 0.92612982 -0.37719423 0.0028315119 0.00014437168
-0.016819632 -0.040482711 -0.0015097354 -0.94608521 -0.32390827 0.0025038859 0.00029870099
0.077110916 -0.040375326 -0.0012278556 0.94720501 -0.32053024 0.0079437289 0.00020899319
-0.01807192 -0.036229305 -0.00050765782 -0.96481639 -0.2629247 -5.4172606e-06 0.00017987899
-0.017635701 -0.037882306 -0.0016582368 -0.96084523 -0.27708355 0.0010791409 0.0001554451
0.077839039 -0.038168166 -0.0015559546 0.9606666 -0.27770439 0.00028584094 0.00031710204
0.07825654 -0.036624361 -0.0013968409 0.96610355 -0.25815278 -0.0010717355 0.00022864858
-0.018523492 -0.034388028 -0.0016589055 -0.97653258 -0.21536936 -0.00040133842 0.00020037833
0.078755349 -0.034491211 -0.001482846 0.97906458 -0.20352882 -0.0029348356 0.00020626718
-0.019097392 -0.031309731 -0.0014458352 -0.98635179 -0.16462544 0.0029431945 0.0003272832
0.079261169 -0.031581592 -0.0015051711 0.98767847 -0.15644436 -0.0040615667 0.00033523419
-0.019440079 -0.028409101 -0.0015102836 -0.99606127 -0.088488564 0.0056379302 0.00015992625
0.079623953 -0.028570086 -0.0014932362 0.99646533 -0.083640315 -0.0078221047 0.00012589054
-0.019614425 -0.025520412 -0.0014701962 -0.99888831 -0.04712081 0.0013398082 0.0004561875
0.079773016 -0.025382003 -0.0015506789 0.99995875 -0.0077771251 -0.004691368 0.00031969103
-0.019604966 -0.022368094 -0.0015279211 -0.9986369 0.052144896 0.0023036876 0.00062567455
0.079786293 -0.022495687 -0.001481474 0.99878109 0.048921037 -0.0065694563 0.00047801048
-0.019449359 -0.019539062 -0.0015532894 -0.99490118 0.1006458 0.0064852554 0.0002386089
0.079589516 -0.019490557 -0.0014769434 0.99726659 0.073489413 -0.0076603694 0.00047346036
-0.019029204 -0.016613422 -0.0014432232 -0.98618501 0.16564755 -0.00029710244 0.00011286628
0.079236008 -0.016546223 -0.0015269866 0.98606777 0.16622432 -0.0063147563 0.00035807246
-0.018738754 -0.013445346 -0.0017244348 -0.97359079 0.22797376 -0.012207029 0.00021449347
0.07844612 -0.013353209 -0.0013321601 0.97253382 0.23237874 -0.013344564 0.00018600166
-0.018074919 -0.010670321 -0.0014812485 -0.96353865 0.26756135 -0.0020208235 0.00025937374
-0.01782405 -0.0097408667 -0.00084266154 -0.96101147 0.27650511 -0.0013487856 0.00023026267
0.077562988 -0.0099078156 -0.0014631391 0.96062422 0.27769482 -0.009312842 0.0002256078
0.078172222 -0.011445943 -0.0014639425 0.96524787 0.26126808 -0.0059601772 0.00025521585
-0.017055117 -0.0073994091 -0.0015172201 -0.94394261 0.33010235 -0.0022003774 0.00014963782
0.076820575 -0.0076123425 -0.0015141149 0.94494301 0.3271955 -0.0050928895 0.00033371162
-0.015967328 -0.0045409524 -0.0015078005 -0.9268046 0.37554365 -0.00050649245 0.00022767091
0.075716339 -0.0047574565 -0.0015221536 0.92102033 0.3894186 -0.0086505953 9.4298353e-05
-0.015158394 -0.0025704808 -0.0015474861 -0.89873469 0.43848714 -0.0022400327 0.00051078614
-0.014419342 -0.001144229 -0.0016419075 -0.88575661 0.464149 -0.0010212313 0.00044586798
0.074106328 -0.0012900737 -0.0014899703 0.890342 0.45525959 -0.0054703811 0.00019280237
0.075078897 -0.0028682447 -0.0017097633 0.89576375 0.44445139 -0.0083807521 0.00025925162
-0.013069052 0.0012537597 -0.0014515277 -0.85865676 0.5125466 -0.0021398305 0.00031241874
-0.011914373 0.0027776875 -0.0021449821 -0.82685429 0.56240749 -0.0031324557 0.00031007107
0.071719371 0.0029183403 -0.0015384832 0.83646405 0.54801679 -0.002353556 0.00016417942
0.072605371 0.0014155579 -0.0015118275 0.86443478 0.50272965 -0.00393131 0.00021529838
-0.012190108 0.0031103846 -0.0014717948 -0.83444422 0.55103481 -0.0079728765 0.0006275737
-0.010863629 0.0045986753 -0.0015125623 -0.81452537 0.58009648 -0.0060373978 0.00028564449
0.070606388 0.0045644226 -0.0015377841 0.82210791 0.56932509 -0.0027616939 0.00031767634
-0.0094427671 0.0064649526 -0.0015426865 -0.78437549 0.62028211 -0.0022856973 8.0904094e-05
-0.0081424369 0.0080549959 -0.0015921941 -0.76275367 0.64668828 -0.0010415892 0.00014191463
0.06800659 0.0079841642 -0.0016097235 0.76673752 0.64194936 -0.0038160442 0.00022450884
0.069325075 0.0063436814 -0.0014364618 0.79618299 0.60504466 -0.0036896244 0.00015808517
-0.006594568 0.0098310392 -0.0015502248 -0.73617363 0.67679054 -0.0017228123 0.00018817527
-0.0051988587 0.011260217 -0.0014640074 -0.70344877 0.71074593 -9.3290226e-05 0.00020741428
0.065181583 0.011077905 -0.0014567613 0.71901304 0.69499522 -0.0013548357 0.00010967202
0.066578045 0.0096160742 -0.0015496457 0.72948301 0.68399644 -0.0018441748 0.00014468987
-0.0037671935 0.012629073 -0.0015061852 -0.68002242 0.73318952 -0.00161593 0.00015155086
-0.0019973498 0.014163811 -0.0015177196 -0.64208424 0.76663238 -0.0016236128 0.00017314966
0.061843321 0.014170153 -0.0015343109 0.633793 0.77350116 -0.0015146146 0.00023886401
0.063618794 0.012583032 -0.0015313509 0.68831313 0.72541368 -0.00024158283 0.0001506519
-0.00049705064 0.015376668 -0.0014329876 -0.6151582 0.78840178 -0.0017247238 0.00025600151
0.0019749235 0.017145686 -0.0016677672 -0.5491159 0.83574468 -0.0015680002 0.0001841428
0.0032223742 0.017854091 -0.0015070351 -0.55719686 0.83038008 0.00080427487 0.00012416654
0.056725428 0.017945195 -0.0015613663 0.54700267 0.83712816 -0.0020977417 0.0004398796
0.058404282 0.016795035 -0.001488667 0.5750584 0.81811213 -0.00056495517 0.00025375391
0.060312841 0.015380714 -0.0014552803 0.60939002 0.79287058 0.00017236025 0.00017225429
0.0047378954 0.018904641 -0.0015585757 -0.50042826 0.86577755 0.00090629747 0.00025087342
0.0072646327 0.020287519 -0.0015505548 -0.45862845 0.88862228 -0.0032384044 0.00018623489
0.052565116 0.020411199 -0.0013322099 0.4509072 0.89256889 0.0018549748 0.0002720576
0.055317953 0.018893091 -0.001473222 0.49334377 0.86983311 -0.001497019 0.00024183157
0.0088522527 0.021093322 -0.0017897916 -0.43638363 0.89975506 -0.0031841698 0.00041662517
0.010575579 0.021847745 -0.0013663505 -0.387043 0.92206049 -0.0014809807 0.00029741132
0.013444922 0.022929927 -0.0013985736 -0.32165468 0.94684774 -0.0042027184 0.00024739173
0.015951298 0.023724824 -0.0013315518 -0.27451739 0.9615739 -0.0039862278 0.00017221121
0.044145573 0.023743859 -0.0014890566 0.28015974 0.9599461 0.0037475012 0.00017704755
0.046500232 0.022981508 -0.0015949652 0.33180368 0.94334698 0.0016858148 0.00022797401
0.04942897 0.021839313 -0.0015266888 0.38575527 0.92260051 -0.0011045798 0.0001432401
0.051241323 0.021161158 -0.001449008 0.43985927 0.89806241 -0.0027862152 0.00026317872
0.01754049 0.024140174 -0.0014636336 -0.25971636 0.96568006 -0.0030796274 0.00018554146
0.019495061 0.024604941 -0.0015617827 -0.21202397 0.9772644 -0.00030932078 0.00011502847
0.022485727 0.02518899 -0.0015119147 -0.17166679 0.98515499 0.00045926456 0.00026847527
0.02543252 0.025571985 -0.0014057518 -0.10582353 0.99438262 -0.0021285026 0.00027741599
0.028431701 0.025780348 -0.0014545085 -0.034324422 0.9994092 0.0017380749 0.00015536563
0.031493481 0.025791449 -0.0014793021 0.030341998 0.999538 0.0017443588 0.00015816737
0.034471583 0.025596417 -0.001445062 0.093086675 0.99565798 -0.00018453022 0.00012048394
0.037514348 0.025225105 -0.0015304015 0.16505682 0.9862805 0.0026520144 0.00034607892
0.040511791 0.024667121 -0.0014879456 0.21216483 0.97723293 0.0013903206 0.00019796217
0.042670142 0.024151107 -0.0013662028 0.26412836 0.96448058 0.0036639667 0.0001797054
-0.0093141031 -0.054455325 0.0019870095 -0.82442456 -0.56590408 -0.0087564038 0.00012446968
-0.008362147 -0.055658247 0.0005212964 -0.82642555 -0.5630461 9.9695579e-05 7.0804796e-05
-0.01090737 -0.052114084 0.00061558309 -0.82721597 -0.56188345 -0.00088261388 8.2361883e-05
0.071495041 -0.051776342 0.0014524007 0.85862243 -0.51259482 0.0037472751 0.00028930945
-0.012842157 -0.04912724 0.0024379687 -0.86109644 -0.50818938 -0.016017284 0.00042247627
0.073160246 -0.049117304 0.0022524442 0.86681497 -0.49861258 0.0041669467 0.00056346017
-0.014392212 -0.046202932 0.0012296168 -0.89480174 -0.44645742 -0.0023851516 0.0001321109
0.074377589 -0.046889469 0.0017939728 0.89208335 -0.45187083 0.00011818866 0.00026917722
0.07507804 -0.045451246 0.00069781428 0.90180147 -0.43212441 0.0047716955 0.00019993397
-0.015723642 -0.043333977 0.0014947746 -0.92098629 -0.38959134 0.0016655875 0.00017652429
0.075959146 -0.043428805 0.0016055582 0.92483383 -0.38036501 0.0022070799 0.00023529923
-0.016857987 -0.04037451 0.0016537083 -0.9459945 -0.32418287 5.9685415e-05 0.00026565962
0.077112384 -0.04040765 0.0015426589 0.94458324 -0.32827124 0.0007414344 0.00023902809
-0.018097773 -0.036219075 0.0022184029 -0.96477705 -0.26302293 -0.004924187 0.0001489907
-0.01773927 -0.037537955 0.0012943201 -0.96282268 -0.26993644 -0.010338257 0.00014103121
0.077782273 -0.038350828 0.0015814581 0.96045703 -0.2784262 0.0010569268 0.00027687239
0.07824406 -0.036666431 0.0013819698 0.96527344 -0.26124179 0.00018199933 0.00011682647
-0.018517975 -0.034438759 0.0014107256 -0.97821128 -0.20757698 -0.003805527 0.000150155
0.078779191 -0.034468632 0.0013988715 0.97807825 -0.20822825 -0.001986054 0.00020734851
-0.019080371 -0.031417225 0.001608379 -0.98670077 -0.16253759 -0.0017882251 0.00029241736
0.079283215 -0.031525858 0.0014902446 0.98771811 -0.15617041 -0.0048782825 0.00038051917
-0.019452428 -0.028457208 0.0014416991 -0.99751967 -0.070369817 0.0016403653 0.00045658485
0.079636432 -0.02850128 0.0014817555 0.99648345 -0.083176598 -0.010117908 0.000272417
-0.019612849 -0.025324119 0.0015066168 -0.99995202 -0.0097701196 0.00075735274 0.00043774641
0.079798199 -0.025554646 0.0015571376 0.9989453 -0.045690536 -0.0045410879 0.00046929251
-0.019617071 -0.02254143 0.001586466 -0.9999271 0.012043288 0.00091230182 0.00040778882
0.079800338 -0.022391485 0.0014693568 0.99881619 0.048175424 -0.0067366222 0.00047250054
-0.019432647 -0.01952626 0.0015598128 -0.99690062 0.078623839 0.002736266 0.00063310581
0.07962922 -0.019532198 0.001567632 0.99574411 0.091716535 -0.0090428134 7.5266107e-05
-0.01901806 -0.016519237 0.0017051272 -0.98649174 0.16380686 -0.0011610857 0.00013682654
0.079259731 -0.016532376 0.0015888505 0.98586708 0.16730195 -0.0087313456 0.00023761108
-0.018636629 -0.012943669 0.0011649027 -0.97276378 0.23155703 -0.010582433 0.00020061262
0.077970393 -0.012006318 0.0023354038 0.96497053 0.2623381 -0.003270814 0.00049260235
0.078367561 -0.012946242 0.0012709693 0.97179598 0.23570186 -0.0075664166 0.00022133384
-0.018358756 -0.011695938 0.0019807308 -0.96287614 0.26983613 -0.0076160408 0.00028739305
-0.017794803 -0.0096589569 0.0012076201 -0.96040446 0.2785944 -0.0029054091 0.00023090349
0.077544667 -0.0098017454 0.0015487713 0.95640117 0.29196236 -0.0074041574 0.00031074483
0.078158058 -0.011305327 0.0015506689 0.96431947 0.26466766 -0.0062475195 0.00037347621
-0.017076556 -0.0074765799 0.0016344679 -0.94544381 0.32577339 0.0027927444 0.00022607966
0.076697946 -0.0072080744 0.0015334392 0.94061863 0.33942461 -0.0052484996 0.00013489631
-0.015895065 -0.0043152217 0.0015036555 -0.92516857 0.37955621 0.00051051343 0.0003024124
0.074995436 -0.0034143142 0.0029968354 0.91987717 0.39217544 -0.0049495841 0.00031161794
0.075618446 -0.0044456455 0.0014558434 0.91966343 0.39245495 -0.014084878 0.00019241456
-0.015088626 -0.0024408745 0.0015242139 -0.89684659 0.44234166 -0.00016573383 0.0004557473
-0.014380183 -0.0010713581 0.0014560621 -0.88454765 0.46644706 0.0016236906 0.00027965321
0.074172586 -0.0013784502 0.0014426191 0.88467818 0.46614841 -0.0070846747 0.00019604708
0.07507439 -0.0027557269 0.0013743876 0.89445823 0.44705909 -0.0090962714 0.00034898473
-0.013049244 0.0012789406 0.0015190984 -0.86001348 0.51027107 0.0005514237 0.00029775742
-0.011907046 0.0028307368 0.0013654808 -0.82743853 0.56152457 -0.0059802518 0.0003597374
0.071951322 0.0025653825 0.0018237361 0.84497917 0.53478384 -0.004054782 0.00024469764
0.072757021 0.0011655621 0.0015209325 0.86419469 0.5031352 -0.0047604693 0.00017380793
-0.012064091 0.0033062492 0.0014221556 -0.83318514 0.55299389 0.00063789228 0.00070985552
-0.010819225 0.0047020577 0.0015135932 -0.80957067 0.58701444 -0.0030596415 0.00043334777
0.07068523 0.0044672582 0.0014789539 0.82727659 0.56179035 -0.0022465189 0.00020825911
-0.0093994886 0.0065218043 0.0014004726 -0.77801466 0.62822443 -0.005215236 0.0001035835
-0.0081522986 0.0080535207 0.0013584108 -0.76333594 0.64597654 -0.0057074088 0.0001591695
0.068091244 0.0079067834 0.0014259196 0.76534253 0.6436227 -0.00075355137 0.00022361061
0.069241285 0.0064609661 0.0014559682 0.78758854 0.61619461 -0.0029111367 0.00029281073
-0.0067327255 0.0096791238 0.0015787368 -0.73428369 0.67882127 -0.0054008272 0.00027494525
-0.0052388813 0.011224044 0.0015461098 -0.70116878 0.71299452 -0.0010983729 0.00020177934
0.065092549 0.01115711 0.0015916466 0.70053786 0.71361405 0.001331798 0.00018079726
0.066638857 0.0095444173 0.0014264286 0.73614633 0.67682135 0.001232986 0.00016785716
-0.0036904798 0.012682425 0.0015004895 -0.6723153 0.74026412 0.0010893331 0.00014760658
-0.0019582685 0.014204417 0.0014879385 -0.63068646 0.77603722 0.00093641324 0.00029592344
0.061927523 0.014086362 0.0015120909 0.64515287 0.76405334 0.00050904515 0.00020493078
0.063566051 0.012660269 0.0014205026 0.67943519 0.73373514 0.00079858047 0.00018286944
-0.00042627356 0.015438597 0.0014704368 -0.61510134 0.78844804 -0.00017067505 0.00028371939
0.0018817751 0.017086577 0.0013526684 -0.54380423 0.83921117 0.0012549624 0.0001748175
0.0031986786 0.017832857 0.0016856957 -0.55566251 0.83140606 -0.0017651368 0.00010498077
0.056841992 0.017855674 0.0011790213 0.54905671 0.83577782 0.0034977617 0.00040034781
0.058149576 0.017083708 0.0019290936 0.55584091 0.83128279 -0.0031288902 0.00028134295
0.060440481 0.015286576 0.0013804478 0.61922681 0.78521013 0.0018027428 0.00015641653
0.0047131632 0.018897049 0.00137296 -0.50262582 0.86450398 -0.00020061938 0.00025246735
0.0073739826 0.020350514 0.0015748161 -0.45764872 0.88913012 0.0023060597 0.00014957749
0.050983742 0.020950373 0.001758625 0.42195305 0.90659618 -0.0062434892 0.00073991931
0.052871328 0.020255888 0.0014749909 0.45742354 0.88924414 -0.0029330493 0.00027212096
0.055601358 0.018728554 0.001394617 0.50471681 0.86328286 0.0018841537 0.00023231172
0.0088200411 0.021071278 0.00091535697 -0.4443973 0.89582485 0.0029902791 0.0001953388
0.010561816 0.021852152 0.001524243 -0.38576195 0.92259747 0.0013160936 0.00024286444
0.013473776 0.022957563 0.0014611018 -0.32498038 0.94571161 -0.0041363151 0.00028116917
0.015928067 0.023736125 0.0014380574 -0.27383974 0.96175367 -0.0064556827 0.00017448723
0.044112433 0.023742942 0.0015898797 0.28034136 0.95989907 0.0016084897 0.00016151277
0.046513271 0.022969866 0.0015927503 0.32891509 0.94435817 0.0015980819 0.00023823099
0.04945007 0.021837683 0.0016248467 0.3857286 0.92260778 -0.002884645 0.00021778012
0.051304929 0.021143932 0.0013509998 0.41978011 0.90762466 -0.0014173802 0.00030054961
0.017383814 0.024117842 0.0014790219 -0.2572192 0.96634001 -0.0050131353 0.00018084672
0.019359199 0.024583308 0.0015079621 -0.21459515 0.9766984 -0.0030235404 0.00011192312
0.022430724 0.025182493 0.0014766278 -0.17040753 0.98537362 -0.00027975513 0.00028838063
0.025434991 0.025583943 0.0015217438 -0.099372782 0.99504453 0.0033883457 0.00013093106
0.028419718 0.025779365 0.0015696376 -0.034903347 0.99938971 -0.0013711839 0.00018545131
0.031539779 0.025791684 0.0015132362 0.03658589 0.99933046 0.00029653532 0.00026853103
0.034485485 0.025595142 0.0014961087 0.098720081 0.99511307 -0.0020708411 0.00027856763
0.037392348 0.025241503 0.0014824992 0.15344371 0.98815739 0.00017753882 0.00040079933
0.040530283 0.024662852 0.0015054992 0.21341707 0.97695625 -0.0030995854 0.0002035604
0.042569637 0.024171496 0.0015861522 0.26527834 0.96417177 0.00033090723 0.00017915056
-0.010714877 -0.052413892 0.0037088539 -0.83137304 -0.55553108 -0.014290331 0.00018399516
0.071015313 -0.052457362 0.0049687568 0.82671553 -0.55920094 -0.061934162 0.0017314507
-0.013006249 -0.048833109 0.0054732314 -0.87221438 -0.48659068 -0.049715664 0.0020005135
-0.011934139 -0.050611474 0.0056799818 -0.86589134 -0.49693197 -0.057365768 0.0013326418
0.073178679 -0.049140625 0.0050460212 0.86112255 -0.50837409 -0.0048846588 0.00042650025
-0.014566083 -0.045883242 0.003525462 -0.89742327 -0.44113761 0.0053939917 0.00011687096
0.074281819 -0.047060147 0.0047467845 0.89355409 -0.44890532 -0.0067156884 0.00018143415
0.075012565 -0.04558007 0.0035944667 0.89648384 -0.44293901 -0.011032266 0.00014684972
-0.015684361 -0.043422792 0.0043521971 -0.91898853 -0.39428365 0.00074744265 0.00017880756
0.075922251 -0.043516871 0.0044612223 0.92110318 -0.38905853 -0.01422821 0.0003067253
-0.016858883 -0.040376622 0.0047060177 -0.94431782 -0.32898229 -0.0058761206 0.00035639296
0.077072755 -0.040514261 0.0045971414 0.94492298 -0.32701308 -0.013530616 0.00040401946
-0.018056642 -0.036418498 0.004617651 -0.96267825 -0.27029434 -0.013844069 0.00017764579
-0.017683558 -0.037782762 0.0042866683 -0.96056348 -0.27787402 -0.010186841 0.000155466
0.07777869 -0.038313344 0.0047809407 0.96099287 -0.27609232 -0.016302286 0.00023485169
0.078187503 -0.036844816 0.0045379736 0.96336347 -0.26777422 -0.015092409 0.0004345706
-0.018547166 -0.034399994 0.0045999144 -0.97685188 -0.21315959 -0.017984433 0.00029874739
0.078821778 -0.034338083 0.0043378486 0.97730702 -0.21122718 -0.015940128 0.00035903841
-0.019074598 -0.031511649 0.0046704235 -0.98648632 -0.16282992 -0.018200453 0.00048849598
0.079310626 -0.031512972 0.004627835 0.98735487 -0.15796059 -0.013372906 0.00059052138
-0.019433392 -0.028545493 0.0044638896 -0.99366999 -0.11067452 -0.019263662 0.00060510589
0.079647101 -0.028408272 0.0043676933 0.99656183 -0.082591355 -0.0065728431 0.00014425714
-0.01961354 -0.025382744 0.0045772297 -0.99862552 -0.025240364 -0.045934599 0.0014612641
0.079807684 -0.025430357 0.0045333696 0.99991208 -0.0088611795 -0.0098685836 0.00041555087
-0.019593529 -0.022480452 0.0046059578 -0.99821502 0.036839418 -0.047007367 0.0012852702
0.079818368 -0.022478048 0.0046039722 0.99987936 0.013551908 -0.0075900243 0.00053189654
-0.019650348 -0.019004934 0.0038132318 -0.99002951 0.14083393 0.0027367056 0.00016835233
0.079646818 -0.019479414 0.0046547903 0.9952668 0.088334233 -0.040510256 0.0014404829
-0.019316919 -0.016637035 0.0046318825 -0.98446143 0.17223963 -0.034194019 0.0012012289
0.079037294 -0.016116127 0.0046442868 0.98184407 0.18908525 -0.015132124 0.00060654641
-0.018471988 -0.013400041 0.0045381458 -0.9816891 0.18962301 -0.018159226 0.00039092195
0.078704968 -0.013510411 0.0044241478 0.97626299 0.21642259 -0.008482636 0.00012804872
-0.018291427 -0.011376813 0.0046821805 -0.95734984 0.28687158 -0.034437846 0.00079688552
-0.017696751 -0.010216312 0.0043947892 -0.95940065 0.28110403 -0.023040868 0.0005232133
0.077759825 -0.010490046 0.0045580724 0.96223879 0.27215537 -0.005286457 0.00029304277
0.078169309 -0.011255393 0.0044555077 0.96394759 0.26604024 -0.0052573201 9.6783981e-05
-0.017086353 -0.0074920766 0.0045369165 -0.94330937 0.33163536 -0.013617674 0.00038643548
0.07681191 -0.0075198058 0.0045450684 0.94353038 0.33113372 -0.010044845 0.00025707105
-0.015913548 -0.0043996228 0.0043463111 -0.92557269 0.37852627 -0.0057496177 0.00028023045
0.074921481 -0.0032104324 0.0043496713 0.90758908 0.41963324 -0.013786048 0.0011481475
0.075718075 -0.0046114251 0.0045138076 0.92349577 0.3834894 -0.0095647508 0.00038679683
-0.015237303 -0.0027440428 0.0047334526 -0.89521199 0.44563988 0.00077551283 0.00042167288
-0.014416678 -0.0011603377 0.0045496877 -0.88626873 0.46316889 -0.0015249548 0.0003111104
0.074169889 -0.0013355849 0.0045199245 0.88390964 0.46736687 -0.01649211 0.0004113309
0.075136162 -0.0028006763 0.0044190832 0.89358461 0.44861019 -0.015983641 0.0005424922
-0.012911176 0.0015354644 0.0045004324 -0.859694 0.5107891 -0.0045482209 0.00039405344
-0.011903035 0.0028880415 0.0049011181 -0.82710463 0.56201637 -0.0059672156 0.00047094258
