# .PCD v0.7 - Point Cloud Data file format
VERSION 0.7
FIELDS x y z normal_x normal_y normal_z curvature
SIZE 4 4 4 4 4 4 4
TYPE F F F F F F F
COUNT 1 1 1 1 1 1 1
WIDTH 568
HEIGHT 1
VIEWPOINT 0 0 0 1 0 0 0
POINTS 568
DATA ascii
-0.019458825 0.0044743665 0.028122062 0.31863669 0.018062646 0.94770485 0.0031952905
-0.01682069 0.0045448225 0.027351305 0.32850689 -0.0011201731 0.94450086 0.0071208291
-0.042908479 0.007462326 0.027518734 -0.51448917 0.00087742537 0.85749638 0.0037115638
-0.040466834 0.00748363 0.028547438 -0.29911116 0.00072088698 0.95421803 0.0049040779
-0.037486289 0.0075078383 0.028982783 -0.12833968 -0.0014448998 0.9917292 0.0044230823
-0.034393903 0.0074931104 0.029002136 -0.0083060209 -0.0003323718 0.99996543 0.00029616247
-0.031424697 0.0074649942 0.029006854 -0.00021277547 -0.0007261365 0.9999997 3.304752e-05
-0.028491562 0.0075031263 0.028978467 0.001958126 -0.00083420309 0.99999768 5.6635592e-05
-0.025437556 0.007504696 0.028994573 0.01692033 -0.00081223302 0.99985653 0.0010656845
-0.022508606 0.0075103189 0.02899321 0.14941452 -0.0013802245 0.98877364 0.0031872503
-0.019461574 0.0075301849 0.028134221 0.30406967 -0.011568219 0.95257956 0.003113908
-0.016696433 0.007720876 0.027322834 0.29480836 -0.046117857 0.95444286 0.0060533248
-0.042878386 0.010526705 0.027533352 -0.50518441 0.00022064532 0.86301136 0.0037022203
-0.040429622 0.010541846 0.028558016 -0.30192116 -0.00037662627 0.95333278 0.0051267222
-0.03744157 0.01053403 0.028984204 -0.12703107 0.0011257525 0.99189818 0.0044411737
-0.034523685 0.010520697 0.028963918 -0.0160641 0.0016108732 0.99986964 0.0004814984
-0.031530458 0.010549724 0.028969502 -0.00031882123 0.0029137584 0.99999571 2.6740745e-05
-0.028540716 0.010452248 0.028984031 0.00083160959 0.000782986 0.99999934 4.1982246e-05
-0.025435438 0.010463986 0.02896308 0.017303718 -0.0014489924 0.99984926 0.001002855
-0.022407688 0.010528557 0.028979035 0.14029823 -0.0041643702 0.9901005 0.003473849
-0.019456601 0.010506667 0.028126238 0.28647941 -0.018330114 0.95791095 0.0016244007
-0.016583452 0.010506692 0.027296478 0.2665014 -0.034811322 0.96320564 0.0033816805
-0.0092675937 0.011813349 0.028590741 -0.28661194 -0.61778557 0.73225302 0.021691201
-0.0073212995 0.011326776 0.028932115 -0.27777568 -0.62023383 0.73358756 0.023232937
-0.0045159082 0.011039545 0.029220572 -0.17260464 -0.53330243 0.8281281 0.016320726
-0.0015621188 0.010755304 0.029255116 -0.0049876887 -0.52252764 0.85260779 0.013970191
0.0013536171 0.010932387 0.0292027 0.13378717 -0.54346621 0.82870114 0.013660309
0.0041916911 0.011400737 0.029020537 0.20214163 -0.51404327 0.83360559 0.0185556
0.0064224312 0.011999652 0.028273668 0.43146428 -0.65765768 0.61751521 0.031467929
-0.04287675 0.013516653 0.027535461 -0.51442713 -0.001492778 0.85753274 0.004478978
-0.040502291 0.013555099 0.028536037 -0.30168191 -0.0020526678 0.95340645 0.0051971604
-0.037484955 0.013530252 0.028995769 -0.12739153 -0.002190433 0.99185014 0.0044861711
-0.034494728 0.013484965 0.028958797 -0.0074073114 -0.0041676816 0.99996382 0.00021582797
-0.03148314 0.013494246 0.028975232 -0.0032977469 -0.0013590266 0.99999362 3.4640361e-05
-0.028474005 0.013442837 0.028999241 0.0021397711 -0.0014191091 0.99999666 3.1029293e-05
-0.025543004 0.013449568 0.028977754 0.00084838283 0.00017376206 0.99999958 3.3745466e-05
-0.022505188 0.01345588 0.028984042 0.12916629 0.011393785 0.99155748 0.0033349402
-0.019435534 0.013506907 0.028111221 0.27031669 -0.0016622521 0.9627701 0.00010289071
-0.01656767 0.01354527 0.027297636 0.17429379 -0.037699264 0.98397171 0.021046789
-0.012498756 0.014578074 0.02875814 -0.42964041 -0.42129323 0.79869962 0.024446845
-0.01035785 0.013757556 0.029227437 -0.34860018 -0.42239955 0.83669382 0.010558902
-0.007669596 0.012990259 0.029612973 -0.17161569 -0.27819723 0.94506848 0.0076434971
-0.005203065 0.012415868 0.029766858 -0.10057705 -0.28015742 0.95467061 0.007697938
-0.0013212382 0.012165483 0.029917616 0.0029165845 -0.31566355 0.94886667 0.005542784
0.0017617273 0.012422645 0.029834317 0.087659299 -0.31702918 0.94435608 0.005998156
0.0046742815 0.013049176 0.029626653 0.19086634 -0.41937488 0.88752168 0.010679306
0.0072121085 0.013817294 0.029309412 0.31980267 -0.3515175 0.87986463 0.016430236
0.0092189629 0.014590624 0.02903497 0.59029603 -0.57284039 0.56868666 0.033020578
-0.04284757 0.016466107 0.027553936 -0.51605803 -0.002136155 0.85655099 0.0042529446
-0.040517863 0.016461141 0.028533988 -0.29985231 -0.00044730728 0.95398551 0.0049827755
-0.03747664 0.016539851 0.028996892 -0.12543105 0.0011088673 0.99210173 0.0043626074
-0.034484968 0.016477391 0.028994644 -0.0062932661 -0.00030974319 0.99998015 0.00024352704
-0.031522844 0.016486656 0.029004479 -0.0014673086 0.0011663281 0.99999827 4.935269e-05
-0.028439999 0.016487723 0.028988071 0.0022589574 0.0017192549 0.99999595 4.4482993e-05
-0.025465995 0.016511856 0.028977446 0.019720817 0.0024388095 0.99980253 0.0011011714
-0.022499716 0.016550267 0.02899009 0.14918783 -0.012737329 0.98872685 0.0033794527
-0.019459972 0.016528795 0.028133867 0.24700658 -0.036833405 0.96831352 0.0019100272
-0.016591473 0.016537895 0.027319729 0.0040463824 -0.15919419 0.98723894 0.042323768
-0.013332813 0.016711066 0.029128134 -0.45181516 -0.31066683 0.83627099 0.01308464
-0.01112165 0.016093342 0.029765109 -0.21290514 -0.20001733 0.95638096 0.010015254
-0.0074265385 0.017262217 0.02989197 -0.056148749 -0.065024242 0.99630272 0.01921119
-0.0040104692 0.015674062 0.029855954 -0.019510817 -0.10563947 0.9942131 0.01740198
-0.0015124287 0.015521561 0.029961491 -0.011005353 -0.025750101 0.99960786 0.011472328
0.00057729881 0.015550031 0.029891212 -0.027163966 -0.092231274 0.99536705 0.0087714391
0.0079974737 0.015988952 0.02973056 0.31172371 -0.25314155 0.91583163 0.028535064
0.010121903 0.016747076 0.029141886 0.4869774 -0.31279328 0.81548345 0.013724027
-0.042878091 0.019431831 0.027542027 -0.51531249 -0.00019214615 0.85700232 0.0040148832
-0.040583622 0.019530268 0.028515279 -0.30108926 0.0012020599 0.95359522 0.0049799839
-0.037493106 0.019504206 0.028993214 -0.12665264 0.00163201 0.99194574 0.0043815947
-0.034447063 0.019568741 0.028949132 0.0023842384 0.01486537 0.99988669 0.00020380061
-0.031493738 0.019484254 0.028977275 -0.0001772542 0.0040826257 0.99999166 4.7387555e-05
-0.028530739 0.019503018 0.02898656 -0.0010080393 0.0064869286 0.99997848 0.00015288066
-0.0255195 0.019491026 0.028936936 1.2897589e-05 0.0026056366 0.9999966 0.00014044986
-0.022481566 0.019525994 0.028979292 0.13675389 0.00080312957 0.99060476 0.0026871783
-0.019415919 0.019486394 0.028108185 0.094999351 -0.076878123 0.9925043 0.01850366
-0.016396407 0.019493999 0.027923288 -0.21800977 -0.22056971 0.95069486 0.03191689
-0.013807201 0.019360991 0.029578561 -0.35644397 -0.14129084 0.92357165 0.011304951
-0.0098597361 0.019767964 0.029854113 -0.027339991 -0.079725757 0.99644184 0.016849834
-0.0083113629 0.018119495 0.02979793 -0.079361551 -0.045557983 0.99580431 0.016202431
0.0055756676 0.018518539 0.029956724 0.11656594 -0.025455318 0.99285668 0.0091291275
0.0066249077 0.020201709 0.029887998 0.068896547 -0.03275406 0.99708599 0.014140234
0.011020754 0.01960995 0.029423883 0.31556046 -0.096703574 0.94396508 0.0062466119
0.012477665 0.020151032 0.0286816 0.50967604 -0.12914501 0.85061854 0.0097560668
-0.042929143 0.022567226 0.027506744 -0.51614588 0.050269522 0.85502428 0.0043685162
-0.040578276 0.02253475 0.028515285 -0.29094574 0.039869677 0.95590848 0.0050515761
-0.037501786 0.022469176 0.0289967 -0.10565656 0.045517061 0.9933604 0.0030284589
-0.034489702 0.022521833 0.028965054 -0.00045771021 0.052273542 0.99863273 0.00041671249
-0.03153418 0.022458227 0.028954117 -0.0018775596 0.035474237 0.99936879 0.00031066063
-0.028494865 0.022461131 0.028995685 -0.001109961 0.038691282 0.99925053 0.0003435215
-0.025502386 0.02249001 0.029000135 0.0080434401 0.045875087 0.99891478 0.00056686223
-0.022531277 0.022475235 0.029015167 0.12054572 0.037594143 0.99199563 0.0024735087
-0.019398263 0.022575511 0.028185494 -0.01935944 -0.02395286 0.99952561 0.019702781
-0.016376184 0.022526542 0.028530082 -0.30597544 -0.066334344 0.94972563 0.0095747961
-0.014260273 0.022350339 0.029762262 -0.3723686 -0.075191155 0.92503399 0.0094330935
-0.010633579 0.022509307 0.029880701 -0.14422801 -0.013765576 0.98944873 0.017788809
0.0074977367 0.022617897 0.029887648 0.061325561 -0.027706904 0.99773318 0.013779144
0.011275255 0.022486309 0.029647276 0.3617126 -0.055924799 0.93061084 0.0029078871
0.012736113 0.022728078 0.028972851 0.45100293 -0.044459715 0.8914144 0.0085907364
-0.04285112 0.025083294 0.027402518 -0.53006905 0.089513265 0.8432166 0.0037469373
-0.040538147 0.02541762 0.028255889 -0.30223 0.097181693 0.94826823 0.0064246212
-0.037489448 0.025456199 0.028686779 -0.12417885 0.09227591 0.98795986 0.0033853259
-0.034435842 0.025477367 0.028731136 -0.0017136737 0.083159804 0.99653476 0.00018575157
-0.031500425 0.025538394 0.028707691 -0.0027768556 0.073372424 0.99730068 0.0003601372
-0.028504698 0.025500407 0.028758287 -0.0010742709 0.085976906 0.99629653 0.00017824724
-0.025496548 0.025537401 0.028713303 0.017501684 0.090845481 0.99571115 0.00046322038
-0.022476314 0.025421998 0.028634354 0.081137151 0.052612349 0.99531341 0.0020716598
-0.019482793 0.025535112 0.028164873 -0.036979303 0.023834603 0.99903172 0.0095719434
-0.016373366 0.025504181 0.028688848 -0.29854268 -0.0062427656 0.95437586 0.0057492261
-0.014356274 0.025446393 0.029807964 -0.36439812 0.015157655 0.93111992 0.0079100998
-0.010818725 0.025842443 0.029900711 -0.16524786 -0.0022566044 0.98624951 0.018409543
0.0076655634 0.025189703 0.029953837 0.053725764 0.0053656208 0.99854136 0.012883804
0.011461313 0.025577629 0.029642379 0.31366974 0.021326721 0.94929266 0.0052236891
0.012819503 0.025460152 0.028949281 0.50553226 0.029221985 0.86231273 0.0084298206
-0.042391311 0.028482921 0.027137646 -0.59077758 -0.015665736 0.80668235 0.010938305
-0.040586974 0.02843111 0.027890071 -0.31405199 -0.062203176 0.94736588 0.014325577
-0.037527692 0.028453529 0.028445145 -0.13529763 -0.040313683 0.98998451 0.0083100824
-0.034480695 0.028451331 0.028438151 0.026776571 0.010251675 0.99958885 0.0024570406
-0.031455111 0.028442765 0.0284253 0.026487298 0.023959309 0.99936199 0.0015481411
-0.028518215 0.028563097 0.028424865 -0.0021763861 0.043597709 0.99904686 0.00044828781
-0.025511578 0.028462037 0.028422529 0.013301863 0.047112919 0.99880105 0.0004279534
-0.022484576 0.028486276 0.028401285 0.032323666 -0.016405422 0.99934286 0.0054973164
-0.019513577 0.028463786 0.028323255 -0.06245508 0.012969058 0.99796349 0.0054841973
-0.016351366 0.028521487 0.028622994 -0.25672308 0.03730822 0.96576458 0.0064601782
-0.014036529 0.028615547 0.029708458 -0.29019031 0.11133077 0.95047092 0.0085752169
-0.010063298 0.028742036 0.029885612 -0.14406882 0.080629185 0.9862774 0.016457902
0.0068519935 0.028652295 0.029840026 0.088237107 0.076892294 0.99312729 0.013874069
0.011060956 0.028661052 0.029577723 0.37391561 0.12745519 0.91866332 0.0073884279
0.01259626 0.028319025 0.028862646 0.51275277 0.2018424 0.83447242 0.016621755
-0.042320024 0.031706493 0.028030077 -0.54038596 -0.024429087 0.84106255 0.010640846
-0.040546406 0.031557743 0.028547717 -0.3127397 -0.043247826 0.94885373 0.014323883
-0.037581295 0.031517729 0.028910628 -0.081128791 -0.046024781 0.99564052 0.0040014223
-0.034585398 0.03151159 0.028898215 0.03065525 -0.019426342 0.99934125 0.001699654
-0.031487975 0.031447571 0.028441744 0.037286408 -0.0033191384 0.99929911 0.0010545277
-0.028545411 0.031496655 0.028425217 -0.084471539 -0.088634014 0.99247593 0.012244981
-0.025495747 0.031496953 0.028424896 -0.07150732 -0.15352143 0.98555458 0.016638888
-0.022450104 0.031350132 0.028421855 0.017369941 -0.17263724 0.98483229 0.01823668
-0.019457201 0.031452429 0.028413318 0.06140805 -0.14700665 0.9872275 0.020555157
-0.016444197 0.031502768 0.028421288 -0.17730336 0.067153513 0.98186249 0.012283217
-0.013597052 0.031553056 0.029367039 -0.3021349 0.1469107 0.94187677 0.0030861136
-0.011448689 0.032283295 0.029855028 -0.15778753 0.13963242 0.97755098 0.012055523
-0.0077472241 0.031677168 0.029929256 -0.10060056 0.10433528 0.98944116 0.013750941
-0.0058384454 0.032872342 0.029893288 -0.092019744 0.22443685 0.97013432 0.02259263
0.0026018601 0.032830425 0.029935123 0.099740155 0.1237255 0.98729122 0.010198732
0.0047149812 0.03161699 0.029831443 0.085895926 0.067334063 0.99402618 0.016114287
0.0082608769 0.032087371 0.029887073 0.21109122 0.17219412 0.96217966 0.013590548
0.010449242 0.031508338 0.029295959 0.44896886 0.2551246 0.85635185 0.013883882
0.01236285 0.030698974 0.027585866 0.74082923 0.33212334 0.58383739 0.028897915
-0.042263385 0.034506321 0.027323721 -0.54494095 0.082863823 0.83436978 0.010258491
-0.040422689 0.034517188 0.028256088 -0.30987549 0.1191319 0.94328403 0.0094351908
-0.037542086 0.034455881 0.02869229 -0.12047675 0.091351733 0.98850399 0.0045373845
-0.034537815 0.034526438 0.028647466 0.029256377 0.04180051 0.99869758 0.001339348
-0.031437788 0.034512181 0.028425569 -0.011312635 0.0011537821 0.99993533 0.0065521398
-0.028522475 0.034491923 0.028436333 -0.16086209 -0.12664162 0.9788183 0.018577503
-0.026013723 0.033981103 0.028706847 -0.18608388 -0.23254676 0.95461768 0.019310687
-0.022389781 0.033486217 0.029045992 -0.019527759 -0.30754578 0.95133293 0.021683294
-0.019199973 0.03409804 0.028710827 0.18284382 -0.22712415 0.95654732 0.020637535
-0.016448976 0.034464624 0.028424658 0.1051333 -0.07216306 0.99183637 0.032186162
-0.013493075 0.034494337 0.028674563 -0.17464276 0.16159494 0.97128111 0.0060806149
-0.010698959 0.034720358 0.029494027 -0.18917497 0.21707633 0.95764846 0.0076430603
-0.0081719952 0.035599414 0.029839352 -0.14412047 0.19813024 0.96952236 0.0094843945
-0.0043264083 0.033640504 0.029930873 -0.074784532 0.12826057 0.98891681 0.011692387
-0.0010246306 0.033925358 0.029962696 -0.01293805 0.1542553 0.98794627 0.013539813
0.0015621664 0.033560839 0.029898509 0.078267358 0.094148017 0.99247688 0.015227133
0.0050875605 0.035518121 0.029819703 0.16739078 0.2288519 0.95896155 0.012267382
0.0076283291 0.0347047 0.029399091 0.27170929 0.29435593 0.91625798 0.0066960491
0.0098018954 0.033936005 0.028718121 0.49990276 0.35305867 0.79085201 0.015622608
-0.042296465 0.037438281 0.0272267 -0.54394644 0.048756331 0.83770227 0.0024342947
-0.040458966 0.037580561 0.027903015 -0.33018377 0.051903799 0.94248849 0.0058053969
-0.037513725 0.037520617 0.028406523 -0.12369923 0.039718736 0.99152452 0.0041196551
-0.034502685 0.037528213 0.02842625 0.012993387 0.018418405 0.99974591 0.00046892054
-0.031449724 0.037465066 0.028426131 -0.088199712 0.0040300344 0.99609464 0.014369491
-0.028633706 0.037508279 0.028509641 -0.25241491 -0.0053910273 0.96760404 0.032110929
-0.026787838 0.037765238 0.029986611 -0.3284291 -0.046233464 0.94339639 0.012126002
-0.018167241 0.037394866 0.02995792 0.33674794 -0.0030750071 0.94158983 0.011525424
-0.016292375 0.037469696 0.028430061 0.21447738 -0.036988329 0.97602838 0.021695048
-0.013624097 0.037489135 0.028424971 -0.0053929938 0.080699898 0.99672389 0.015986098
-0.010546441 0.037505329 0.028609181 -0.12060375 0.19364603 0.97363025 0.0070529268
-0.0074780025 0.037566062 0.02920071 -0.08586397 0.39694172 0.91381872 0.019029593
-0.0045828163 0.037821222 0.029537447 -0.1048823 0.44028527 0.89171106 0.01669565
-0.0014443509 0.03801582 0.029588997 -0.00551887 0.47758955 0.87856567 0.013644502
0.00157865 0.037819814 0.029512675 0.10616633 0.39728582 0.91153312 0.0078609735
0.0044337208 0.037400182 0.029151915 0.26852539 0.54040521 0.79740602 0.015558413
0.0068923044 0.036859449 0.028585302 0.37072402 0.54071683 0.75510854 0.017961362
-0.042163417 0.0404872 0.027109986 -0.54776502 0.019761698 0.83639884 0.0021701255
-0.040443625 0.040573861 0.027902437 -0.35354865 -0.0011067097 0.93541551 0.0078148087
-0.037533212 0.040522084 0.02842286 -0.11641826 -0.025837708 0.99286413 0.0039094868
-0.034455199 0.040518973 0.028426545 0.0050820201 -0.068818405 0.99761623 0.0085450346
-0.031447053 0.040466849 0.028426467 -0.085347891 0.015773954 0.99622631 0.011218253
-0.028489664 0.040532846 0.028496429 -0.20738059 0.13712183 0.96860254 0.032661147
-0.026551167 0.041437376 0.028533451 -0.30434743 0.22426409 0.92578524 0.029728316
-0.018682647 0.04106167 0.029032791 0.3203671 0.14602599 0.93597078 0.013209254
-0.016420277 0.040504053 0.028441375 0.21519254 0.1023318 0.9711954 0.018032692
-0.013635452 0.040467534 0.028425334 0.034460489 -0.0049498482 0.99939382 0.010282908
-0.010570559 0.040551778 0.028424747 0.028178468 0.0054809358 0.99958783 0.01976084
-0.0075928872 0.040521 0.028339237 0.12339283 0.15178849 0.98068064 0.05993861
-0.0045356457 0.039508469 0.028327944 0.089786641 0.67013681 0.73678696 0.059694055
-0.0015730275 0.039584104 0.028634496 0.033752639 0.73033363 0.68225622 0.024083087
0.0013262738 0.039391462 0.028455606 0.14955731 0.7919817 0.59194404 0.031573135
0.0033035339 0.039102938 0.027863227 0.26806962 0.76585257 0.58447278 0.02627917
-0.042115796 0.043444641 0.027119163 -0.5208059 -0.0054848134 0.85365754 0.0028137867
-0.040446628 0.043468293 0.028053427 -0.37222883 -0.045541447 0.92702305 0.0086373333
-0.037510511 0.043455612 0.028427109 -0.17625974 -0.19155073 0.9655261 0.01580674
-0.034405526 0.043272641 0.028496221 0.0077684312 -0.1907185 0.98161405 0.02294193
-0.031345088 0.043386683 0.028410049 0.1178439 -0.17736465 0.97706425 0.022298688
-0.028514713 0.043513104 0.02842669 -0.099308856 0.039544668 0.99427056 0.028158883
-0.025461687 0.043481216 0.028495289 -0.20778348 0.235368 0.94943553 0.03216641
-0.02238062 0.043862339 0.028582564 0.0015753019 0.3262752 0.94527352 0.019941809
-0.019466929 0.043581802 0.028532879 0.17722806 0.21509771 0.96037656 0.022459403
-0.016565135 0.043525413 0.028425714 0.065266997 -0.028321628 0.99746585 0.03175867
-0.013644509 0.043469146 0.028440928 -0.13081416 -0.20097192 0.97082329 0.024912441
-0.010511902 0.043307427 0.028386861 0.062693894 -0.24643607 0.96712911 0.026061548
-0.0074237827 0.043405164 0.028411234 0.21125285 -0.23032783 0.94990599 0.017856335
-0.0055539631 0.043910172 0.028323779 0.53993189 -0.12817676 0.83189195 0.042039394
-0.04205342 0.046771303 0.027162923 -0.54203051 -0.032443438 0.83973241 0.010079911
-0.040435269 0.046400353 0.028242892 -0.48531389 -0.14298905 0.86256856 0.013542932
-0.038089916 0.046024758 0.028639397 -0.31747881 -0.23022315 0.91989374 0.013077058
-0.034553941 0.045352295 0.029973514 -0.081905141 -0.32532904 0.94204706 0.013323516
-0.03108903 0.045746714 0.028699545 0.17846139 -0.26005325 0.94895941 0.022263596
-0.028423719 0.046427462 0.028445387 0.19863038 -0.1578932 0.96727228 0.026627043
-0.025518209 0.046463441 0.028426567 -0.018645091 0.091196373 0.9956584 0.015251304
-0.022421906 0.046527345 0.028426521 -0.0048014526 0.10598631 0.99435604 0.014323632
-0.019491067 0.046521317 0.028426223 -0.054043017 0.0068420684 0.99851519 0.014039628
-0.016601948 0.046457354 0.028457852 -0.21840753 -0.12694278 0.96756583 0.022318071
-0.014035629 0.045850098 0.029187914 -0.21002491 -0.28772599 0.93440002 0.01995221
-0.010435405 0.045335751 0.029970344 0.010694969 -0.33463892 0.94228572 0.010637164
-0.0071461326 0.046184022 0.028790796 0.38119483 -0.20572414 0.90131462 0.020411566
-0.005142631 0.046550293 0.028358677 0.56882429 -0.17186008 0.80430275 0.017393531
-0.042055223 0.049668942 0.02711506 -0.63173813 0.029877173 0.77460599 0.00054484967
-0.040590655 0.049567003 0.02826318 -0.56635398 0.038153451 0.82327855 0.015077814
-0.038583342 0.049146555 0.029965188 -0.38031641 -0.018241445 0.92467654 0.016449813
-0.028247537 0.049587894 0.028622044 0.30079255 -0.0067932308 0.95366538 0.015915811
-0.025531108 0.049539108 0.028426977 0.071162887 -0.0010457117 0.99746424 0.010186234
-0.022497574 0.04949167 0.028426632 0.0001376052 -0.015482524 0.99988014 0.00049024535
-0.019564398 0.049471974 0.028426521 -0.080871806 -0.0015079516 0.99672335 0.010577952
-0.016855158 0.049475621 0.028620489 -0.30970603 -0.0040456159 0.95082372 0.017367104
-0.0063117575 0.049649447 0.029358266 0.47298905 0.0016581326 0.88106668 0.022719175
-0.0047890283 0.049443319 0.028322419 0.61110121 0.018919826 0.79132628 0.022039086
-0.042030383 0.051789649 0.027036119 -0.56138283 0.072791003 0.82434875 0.0089286612
-0.040524963 0.05252248 0.028148847 -0.52753025 0.179966 0.83025551 0.011763652
-0.038313445 0.0528786 0.02858329 -0.4378207 0.19217165 0.87828416 0.01202331
-0.035465851 0.053790897 0.029989824 -0.041544456 0.28292829 0.95824093 0.015532384
-0.030744761 0.053377286 0.029118661 0.23323615 0.25500461 0.93838876 0.013163333
-0.028393887 0.052543152 0.028456688 0.20560999 0.14120473 0.96839333 0.021310387
-0.025449315 0.052488416 0.028427174 0.026347524 -0.039120905 0.99888706 0.011408176
-0.022466145 0.052446201 0.028427079 0.0031797227 -0.07274089 0.99734581 0.010866153
-0.019574812 0.052506268 0.028426901 -0.088803664 0.018275851 0.99588144 0.012043707
-0.016578829 0.052573636 0.028518146 -0.19462892 0.15937172 0.96784306 0.034969177
-0.01453089 0.053546816 0.028221453 -0.23670657 0.23118785 0.94367486 0.037440959
-0.0099691022 0.053794935 0.029992005 0.055228595 0.30698401 0.95011085 0.014338172
-0.0069580334 0.053111952 0.028651448 0.34374854 0.20140502 0.91720933 0.013406735
-0.0050668526 0.052324723 0.028356606 0.6437006 0.1689216 0.74640137 0.027430862
-0.040158387 0.055375528 0.028082862 -0.48718941 0.1812122 0.8542884 0.013553634
-0.037455522 0.055479068 0.028431559 -0.24270369 0.23009861 0.94241685 0.024221776
-0.03457598 0.055638686 0.028537245 -0.014603391 0.32334271 0.94616926 0.018973326
-0.031404573 0.055475067 0.028519109 0.1351233 0.20222147 0.96997321 0.022542005
-0.028504407 0.055437684 0.028427692 0.10361586 0.11095515 0.98840916 0.018427292
-0.025608048 0.055393618 0.028468765 -0.13434851 -0.20321554 0.96987319 0.022557298
-0.022472424 0.055210818 0.028585469 0.0048635937 -0.3105638 0.95054007 0.018480334
-0.019450588 0.055355802 0.028363442 0.17441201 -0.21802045 0.96023303 0.025250107
-0.016515242 0.055499438 0.028427159 -0.064061515 0.090462759 0.9938373 0.036302328
-0.013457819 0.055493217 0.02846325 -0.14846875 0.22449912 0.96309769 0.034959603
-0.010487414 0.055629447 0.028603939 0.080156125 0.25969017 0.96235961 0.02209414
-0.0074406615 0.05552128 0.028456168 0.2435371 0.23180203 0.9417842 0.015713528
-0.0054056621 0.05514738 0.028319819 0.67526311 0.26892683 0.68680286 0.029266378
-0.03963609 0.05807155 0.027709486 -0.55360985 0.31322914 0.77162403 0.017120471
-0.037634883 0.058526713 0.028379185 -0.32025227 0.23558563 0.91757166 0.028277239
-0.034481406 0.058449283 0.028428799 -0.054621026 0.10531119 0.9929381 0.012368509
-0.031385902 0.058459967 0.028428534 -0.036535602 0.029095586 0.99890876 0.010790366
-0.028501557 0.058531035 0.028409513 -0.20625228 -0.10365769 0.97299284 0.021073377
-0.0264972 0.057677191 0.028881324 -0.23252048 -0.26571915 0.93558937 0.015415065
-0.018833796 0.057725325 0.028912729 0.21665317 -0.28767234 0.93290198 0.01859683
-0.016440609 0.05843145 0.028438076 0.17499828 -0.14057282 0.97448182 0.025033684
-0.013536952 0.058523092 0.028427079 -0.016230557 0.087906003 0.99599659 0.01113467
-0.010471929 0.058516409 0.028426835 0.068809308 0.10328177 0.99226916 0.02104523
-0.0075998027 0.058435619 0.028380355 0.3525798 0.26926655 0.89620477 0.047815889
-0.0058314572 0.057342287 0.027923368 0.61548907 0.26063344 0.74380338 0.048495591
-0.037128251 0.061164062 0.028001649 -0.45405787 0.41051781 0.79076326 0.033865619
-0.034465235 0.061493102 0.028427251 -0.22406033 0.23051661 0.94692081 0.037769977
-0.031445257 0.061537635 0.028428832 -0.11645018 0.027200077 0.99282396 0.014499169
-0.028648799 0.06159376 0.028528646 -0.26851848 0.072953649 0.96050799 0.023946226
-0.026944926 0.061376262 0.029983301 -0.33937034 0.0060042958 0.94063371 0.015733548
-0.018112222 0.061265074 0.029970925 0.32781601 0.071775183 0.94201118 0.01315989
-0.01632579 0.061561543 0.028484941 0.23699851 0.05216888 0.97010827 0.021337515
-0.013594265 0.061529387 0.028427564 0.12015029 0.06356214 0.99071884 0.024469435
-0.010522242 0.061524838 0.028407479 0.26882282 0.30807787 0.91259104 0.044340435
-0.0083582923 0.060861532 0.028311461 0.39123005 0.36518371 0.84473658 0.03318831
-0.036161259 0.063110076 0.027369156 -0.57071483 0.54408568 0.61502475 0.015922925
-0.034162287 0.063985787 0.028073655 -0.39124015 0.54508156 0.74149662 0.040230509
-0.031505842 0.064564757 0.0283473 -0.3089644 0.39453208 0.86538172 0.057403792
-0.028542737 0.064464539 0.028438866 -0.21062902 0.22008367 0.95246983 0.01916231
-0.026151806 0.065143861 0.028589593 -0.23874851 0.47692505 0.84589696 0.020893356
-0.022361156 0.065601207 0.029976027 0.010632184 0.38715822 0.92195201 0.016573869
-0.018939566 0.065188758 0.028740793 0.20286109 0.30836305 0.92938673 0.015192048
-0.016579827 0.064558782 0.028414562 0.22802918 0.31312481 0.92193037 0.040958464
-0.013648264 0.064484619 0.028375844 0.28814459 0.30658713 0.90718085 0.058525268
-0.011207384 0.063679636 0.028293351 0.36524346 0.45708364 0.81096965 0.029529363
-0.030779501 0.066381723 0.027906744 -0.25823489 0.6509276 0.71386832 0.050014827
-0.028426126 0.066837393 0.028252413 -0.18843386 0.75167042 0.63204765 0.034081865
-0.025401207 0.067163743 0.028239081 -0.17876467 0.6379891 0.74900812 0.023674645
-0.022451364 0.067236014 0.028349241 -0.0014731776 0.68996704 0.72383922 0.026579214
-0.019482784 0.067191504 0.028302163 0.15762539 0.64801407 0.74513894 0.024851548
-0.016740574 0.066764317 0.028288933 0.19370206 0.61287576 0.76606965 0.031987149
-0.014457104 0.066185236 0.028110674 0.26567 0.54145914 0.79764742 0.032765042
-0.027085099 -0.06022105 0.030358806 -0.46915522 -0.11747348 0.87526757 0.057930902
-0.025301859 -0.060863178 0.030799203 -0.34135839 -0.22521679 0.91255236 0.049154829
-0.022486588 -0.061013669 0.030802378 -0.0043414785 -0.34903142 0.93710095 0.02958638
-0.019731192 -0.060882133 0.030796925 0.30787525 -0.25350603 0.91703194 0.032806564
-0.027018543 -0.059014447 0.030480245 -0.57318223 0.038398799 0.8185277 0.050304212
-0.025430366 -0.058457132 0.03059984 -0.28322104 0.16601957 0.94457573 0.032009181
-0.02240853 -0.058491599 0.030590532 0.047133345 0.10813981 0.99301773 0.010630277
-0.019615399 -0.058564235 0.030603433 0.37733746 0.071381703 0.92332071 0.028046198
-0.025254361 -0.055613708 0.030337805 -0.27032527 0.22467762 0.93618596 0.023148855
-0.022418747 -0.055614304 0.030266786 0.0060920026 0.24663459 0.96908939 0.016871989
-0.019910779 -0.055595618 0.030342458 0.27371693 0.20280811 0.94018507 0.022694575
-0.034087945 -0.052189648 0.030765751 -0.29625446 -0.25181341 0.92131603 0.038358849
-0.031530555 -0.052165177 0.030589975 0.021970475 -0.35997728 0.9327023 0.033113249
-0.028839415 -0.052010287 0.030326871 0.17828904 -0.21250561 0.9607572 0.027807055
-0.025094807 -0.053854547 0.030029343 -0.11590511 0.073818892 0.99051344 0.067030773
-0.020105811 -0.053959407 0.030116396 0.13229653 0.15570261 0.97890466 0.071264252
-0.016321138 -0.0519481 0.030336743 -0.23268065 -0.20509739 0.95068127 0.020531161
-0.013539269 -0.052206378 0.030612303 -0.048332535 -0.3695384 0.92795765 0.025897771
-0.011162075 -0.052082431 0.030796289 0.32143348 -0.24430175 0.91487551 0.039198026
-0.034359675 -0.049416218 0.030760318 -0.39772987 0.017496219 0.91733569 0.040163208
-0.031411204 -0.049563944 0.030549554 0.10408604 0.0053345333 0.99455398 0.00068708794
-0.028946042 -0.049603373 0.030268928 0.29678959 0.010403892 0.9548862 0.018848876
-0.016213836 -0.049497116 0.030286148 -0.25589511 0.083172075 0.96312004 0.011059056
-0.013551272 -0.049530711 0.030578798 -0.10628071 0.0028236876 0.99433213 0.00055536343
-0.010865022 -0.049458664 0.030759638 0.44556433 -0.012935619 0.8951565 0.039609265
-0.034240108 -0.046487432 0.030730465 -0.25969145 0.2838802 0.92302352 0.066791527
-0.031389516 -0.046459001 0.030555533 0.18470506 0.29923162 0.93613273 0.041072048
-0.028816761 -0.046561688 0.030290158 0.22111678 0.26111227 0.93964237 0.022055877
-0.016286584 -0.046529159 0.030311041 -0.22906844 0.27823353 0.93279886 0.019707603
-0.013567788 -0.046478961 0.030596906 -0.22129405 0.29384214 0.92988479 0.028442055
-0.011050761 -0.046517242 0.03078872 0.30588567 0.28474906 0.90848887 0.053512264
-0.033830836 -0.044919942 0.030536443 -0.16834126 0.42078811 0.8914026 0.060570944
-0.032327063 -0.044942282 0.030415727 0.096318312 0.62257701 0.77660841 0.039302558
-0.025325501 -0.043069229 0.030320628 -0.23398536 -0.22595273 0.94561946 0.019779429
-0.022485452 -0.043001372 0.030262351 -0.002978842 -0.27762061 0.96068621 0.017082755
-0.019858064 -0.043094456 0.030322544 0.2180052 -0.19730291 0.95579565 0.020154035
-0.012853133 -0.044873256 0.030264532 -0.017190093 0.53508359 0.84462422 0.043142501
-0.011392002 -0.044778958 0.030292429 0.19278492 0.44731361 0.87335247 0.056452382
-0.027001936 -0.039454799 0.030438237 -0.39050707 0.08607655 0.91656703 0.085644245
-0.025611574 -0.040483594 0.030556614 -0.37052152 -0.11143054 0.92211556 0.032282263
-0.022624603 -0.040509239 0.030547908 -0.0012728543 -0.097574212 0.99522746 0.00085471221
-0.019792415 -0.040354908 0.030588284 0.35354689 -0.051964633 0.93397224 0.026879964
-0.027052293 -0.038380068 0.030580131 -0.43750781 0.12523687 0.89045089 0.071111538
-0.025408139 -0.037641186 0.030715549 -0.28765103 0.28758982 0.91353649 0.056991782
-0.022583136 -0.037425268 0.030747615 -0.0018773765 0.4189854 0.90799099 0.047030106
-0.019809602 -0.037617907 0.030717412 0.22564581 0.35375065 0.90771389 0.052034441
-0.0015682045 -0.036325097 0.030094435 -0.022751335 -0.37831143 0.92539877 0.015966164
0.00078276853 -0.036069613 0.030102715 0.044795278 -0.24084179 0.96953011 0.0065129357
-0.0096313311 -0.033278774 0.030116681 -0.055907056 -0.12962112 0.9899863 0.010241171
-0.0075744023 -0.034035791 0.030273193 -0.11200615 -0.15726912 0.98118347 0.010407676
-0.0045975796 -0.034662481 0.030487893 -0.032987334 -0.11419336 0.99291074 0.01051979
-0.0016859206 -0.034708422 0.030488241 -0.062753297 -0.16851975 0.98369873 0.0077967248
0.0016234248 -0.035097081 0.030398272 0.069265418 -0.27052039 0.96021926 0.0039837044
0.0043611722 -0.03411416 0.030330336 0.16222298 -0.24605487 0.95558399 0.0057350318
0.0063123489 -0.033346534 0.030129131 0.24674511 -0.22943722 0.9415282 0.0072909785
-0.012044886 -0.030580141 0.030074876 -0.18218637 -0.086136796 0.97948384 0.0093742749
-0.010767893 -0.031174446 0.03030031 -0.17279859 -0.14047138 0.97488898 0.0081268232
-0.0080671255 -0.031665325 0.030511001 -0.071477942 -0.08034759 0.99420077 0.011503253
-0.0050069913 -0.032085087 0.030479064 -0.024717912 -0.03587459 0.99905056 0.011758368
0.0052796099 -0.031653836 0.030733882 0.13175285 -0.086383037 0.98751158 0.014761074
0.0070872991 -0.031938851 0.030291282 0.21217313 -0.18084191 0.96035349 0.0094438773
0.0092431838 -0.030085046 0.030053377 0.13516492 -0.15393136 0.97879297 0.018662693
-0.012683634 -0.028252395 0.030207798 -0.22282931 -0.097638369 0.96995568 0.0083580669
-0.010709297 -0.028448436 0.030520892 -0.15767786 -0.040450774 0.98666179 0.014669754
-0.0085543608 -0.028248813 0.03075394 -0.1499937 -0.080012031 0.98544401 0.018574491
0.0075912741 -0.028546974 0.030611634 0.073627837 -0.038538732 0.9965409 0.01431566
0.0096897166 -0.028061677 0.030198228 0.12515488 -0.083008334 0.98865867 0.012695603
-0.01302648 -0.025329197 0.030333826 -0.24678126 0.007695117 0.96904057 0.014659126
-0.010795094 -0.024973216 0.03073884 -0.18297331 0.0066729067 0.98309517 0.016986722
-0.0086390227 -0.025789492 0.031257126 -0.21827725 -0.023169598 0.97561175 0.019047722
0.0081732925 -0.024877761 0.030630168 0.14735518 0.0062807528 0.98906368 0.011773095
0.0098079108 -0.025256457 0.03028506 0.24859551 -0.012674635 0.96852446 0.011236288
-0.012941579 -0.022535687 0.03033579 -0.19110282 0.043473404 0.98060685 0.011616011
-0.010697924 -0.022457018 0.030686179 -0.18766229 0.038374282 0.9814837 0.018361339
-0.0082758171 -0.021989789 0.031329494 -0.22483757 0.10890739 0.96829093 0.013445657
0.0054629412 -0.021189198 0.030983508 0.13559401 0.08258076 0.98731691 0.020976964
0.0076604253 -0.022394013 0.03056341 0.13137133 0.041715823 0.99045509 0.015855055
0.009724956 -0.022532329 0.030282952 0.25167236 0.050330888 0.9665029 0.011649454
-0.012589249 -0.019897392 0.030198893 -0.14528705 0.10386959 0.98392218 0.013915303
-0.010711133 -0.019491546 0.030513912 -0.13120691 0.060391031 0.98951381 0.015817443
-0.007789657 -0.019108409 0.030790521 -0.1321243 0.095638543 0.98660856 0.017015424
-0.0047896043 -0.019144366 0.03172452 -0.2027263 0.3061167 0.93015838 0.0087271137
-0.0018665001 -0.018509332 0.031846464 0.0016495017 0.34006685 0.94039983 0.014810137
0.0020416633 -0.018479969 0.031452496 0.20339128 0.2857289 0.93647796 0.011460111
0.0046809539 -0.019318623 0.030761171 0.1808024 0.1583804 0.97068334 0.019187782
0.0079303514 -0.01912686 0.030429585 0.20425171 0.10576782 0.9731878 0.012910306
0.0094097136 -0.019656921 0.03011184 0.25060347 0.13921724 0.95802736 0.011610038
-0.012048908 -0.01794569 0.030085111 -0.15402019 0.21827304 0.9636569 0.021250252
-0.01019742 -0.016783372 0.030355243 -0.13165624 0.10776059 0.98542082 0.015661562
-0.0075297472 -0.016510649 0.030572345 -0.050836507 0.072791763 0.99605078 0.01408298
-0.0046005589 -0.016516628 0.030660093 -0.055986956 0.1240228 0.9906987 0.013584347
-0.0016559412 -0.016055478 0.030661127 0.00097726611 0.125047 0.99215031 0.012798409
0.0014757492 -0.016286612 0.030607797 0.050867427 0.17712387 0.9828732 0.015209302
0.0046036053 -0.016199917 0.030578932 0.103577 0.16591984 0.9806847 0.016895631
0.0070840758 -0.016797058 0.030306414 0.20697284 0.15875882 0.9653796 0.010041729
-0.0091177989 -0.01473442 0.030148817 -0.16241299 0.25496468 0.95321298 0.022370189
-0.0072517656 -0.014204712 0.030304844 -0.11168855 0.13420942 0.98463875 0.01346192
-0.0045417235 -0.013561587 0.03046412 -0.047823355 0.19240017 0.98015052 0.012813188
-0.0015324295 -0.013264481 0.030504404 0.020782493 0.15689127 0.98739725 0.01277655
0.0014618626 -0.013617437 0.030449739 0.068236031 0.18547314 0.9802773 0.012496171
0.0041217078 -0.014184475 0.030262304 0.10718142 0.19997257 0.97392154 0.014600798
0.0061135325 -0.0149469 0.030103654 0.24192652 0.28389373 0.92783397 0.00080596737
-0.0030129431 -0.01178352 0.030001262 -0.0030918419 0.3171612 0.94836664 0.028102195
-0.0024606977 -0.011746564 0.030003566 0.010273715 0.48973998 0.87180805 0.0045190402
-0.0071350005 0.014318573 0.030187242 -0.12796204 -0.21332842 0.96856427 0.0094135823
-0.0044545387 0.013503857 0.030314393 -0.054892283 -0.20660396 0.97688365 0.0053280029
-0.0014459348 0.013486093 0.030407557 0.0015023981 -0.23607957 0.97173256 0.0095162643
0.0013807473 0.013813393 0.030410867 0.064150691 -0.25944826 0.963624 0.0080937697
0.0039678775 0.014346601 0.030220214 0.1594993 -0.3037318 0.93931198 0.0073003871
-0.010166482 0.016883178 0.030260546 -0.17211151 -0.15290913 0.97313738 0.012787844
-0.0083028935 0.015968746 0.030384069 -0.15952571 -0.16734953 0.97290581 0.0094308499
-0.004879321 0.016542271 0.030497266 0.022657176 -0.11299425 0.99333727 0.014605598
-0.0018976828 0.01613378 0.03041517 0.051448308 -0.074626878 0.99588352 0.013484999
0.0024377923 0.01542766 0.030717757 0.080434814 -0.15862861 0.98405647 0.0099150278
0.0046614762 0.016115904 0.030593434 0.14477973 -0.16517133 0.97558045 0.0083773527
0.0069216355 0.016864847 0.030287936 0.25242054 -0.16590697 0.95328832 0.0070061102
-0.012435488 0.01997081 0.030183224 -0.24587959 -0.13727973 0.95952988 0.0086600473
-0.010911822 0.019115025 0.030425126 -0.15887007 -0.10811531 0.98136204 0.011739225
-0.0081640314 0.019580567 0.030534592 -0.11749968 -0.11841962 0.98598713 0.021001067
-0.0054901461 0.018131645 0.031087413 -0.056497823 -0.091406859 0.99420965 0.021077935
0.0056527136 0.018652555 0.030426648 0.075673431 -0.016831236 0.99699062 0.013147207
0.0078587756 0.018995281 0.0303903 0.20215718 -0.11709489 0.97232777 0.0074570193
0.0094288569 0.019934382 0.030118084 0.268042 -0.13471909 0.9539414 0.012595004
-0.012798641 0.022596374 0.0303561 -0.25950417 -0.037572723 0.96501088 0.0076203174
-0.010360522 0.022531029 0.030594494 -0.12226973 -0.021143945 0.99227166 0.017958719
-0.0087090246 0.022428069 0.031107886 -0.17774326 -0.088324465 0.9801051 0.017667916
0.0078782616 0.022428669 0.030606728 0.06134253 -0.027698027 0.9977324 0.013762476
0.0097254291 0.023186494 0.030292619 0.27197832 -0.026778746 0.96193075 0.0086884461
-0.012895691 0.025484093 0.030391896 -0.20779723 0.012916961 0.97808659 0.012386237
-0.010626276 0.025722779 0.030747289 -0.17755954 0.044741791 0.98309243 0.015772557
-0.0086281281 0.026316678 0.031265251 -0.22113486 0.0086272592 0.97520506 0.017735662
0.0079956874 0.025956843 0.030576991 0.14458948 0.025901606 0.98915267 0.01196483
0.0099074841 0.025471661 0.030258283 0.30071643 0.025408154 0.95337504 0.0064029964
-0.012622185 0.028295306 0.030284049 -0.15929492 0.084968716 0.98356771 0.011292014
-0.010620005 0.028564727 0.030539503 -0.19534563 0.059941001 0.97890097 0.014196321
-0.0083217816 0.029105639 0.030804187 -0.14377682 0.099313959 0.98461413 0.013659645
-0.005103101 0.029506518 0.031801615 -0.25982803 0.31988668 0.91113222 0.0073223156
0.0050396957 0.029077919 0.030819755 0.096433751 0.067871273 0.99302268 0.01520732
0.0077239755 0.028518599 0.030517783 0.17714743 0.057599593 0.98249739 0.01004071
0.0095883561 0.028087635 0.030201059 0.24383166 0.10949112 0.96361709 0.01154482
-0.012191215 0.030549919 0.030097505 -0.19531472 0.10724281 0.97485954 0.011109591
-0.010433211 0.031437654 0.030466305 -0.11616338 0.080671087 0.98994863 0.013289464
-0.0075421515 0.031567421 0.030525386 -0.08709754 0.09956979 0.99121135 0.015707942
-0.0048433645 0.032173619 0.030738676 -0.056754138 0.15075214 0.9869411 0.014829163
-0.0014480619 0.032143377 0.031138504 0.023045508 0.19712241 0.98010802 0.013377916
0.0016473848 0.031910356 0.030853719 0.085054725 0.13124229 0.98769486 0.014157273
0.0044514313 0.031419121 0.030548993 0.083257906 0.053028755 0.99511606 0.015957229
0.0072693001 0.031757116 0.030351689 0.18764135 0.16625981 0.96806431 0.010889792
0.0092348699 0.030447649 0.030077288 0.32320949 0.17507462 0.92999166 0.022024009
-0.024990058 0.035103966 0.030122682 -0.20085396 -0.28276893 0.93792295 0.01783965
-0.022475963 0.034810625 0.030156394 -0.0038881511 -0.31266281 0.94985622 0.019678695
-0.020113051 0.035154652 0.030118115 0.19492996 -0.25380778 0.94740903 0.019293994
-0.0096168071 0.033486262 0.030177109 -0.084974982 0.11221031 0.99004447 0.0091523519
-0.0073751118 0.034294013 0.030420071 -0.07637535 0.15047057 0.98565984 0.01235021
-0.004526529 0.034695476 0.030510336 -0.059852354 0.13831401 0.9885782 0.010282389
-0.0015490722 0.034610245 0.030530566 -0.01831785 0.16887385 0.98546749 0.011831413
0.0015188958 0.034749128 0.030530779 0.053889938 0.21688934 0.9747076 0.0079314895
0.0043384181 0.034401331 0.030352965 0.13736476 0.21692991 0.96647424 0.0096350964
0.0064959577 0.033488557 0.030127561 0.21784256 0.22910711 0.94871205 0.013654944
-0.027347222 0.037757453 0.030110976 -0.36183438 -0.055469535 0.93059069 0.027571768
-0.025452254 0.037512738 0.030188859 -0.19747314 -0.10115927 0.97507489 0.019072954
-0.0225159 0.037475556 0.030264413 0.0025029622 -0.0090665882 0.99995571 0.00021841055
-0.019577069 0.037542164 0.030172341 0.26086688 -0.064159878 0.96324033 0.018118642
-0.017785372 0.038322505 0.030058349 0.28678837 -0.028077712 0.95758247 0.011868844
-0.0041109854 0.036324706 0.030168004 -0.10021021 0.2715795 0.95718461 0.01472134
-0.0016588503 0.036437508 0.030222066 0.0087216217 0.26601413 0.96392965 0.0058873557
0.0011626594 0.036355477 0.030123411 0.093958639 0.24355184 0.96532601 0.010030631
-0.027330223 0.039501496 0.030099468 -0.32781601 0.16029675 0.93104327 0.040989846
-0.025268381 0.04033041 0.03016185 -0.28783262 0.26769817 0.9195053 0.023905477
-0.022483999 0.040495973 0.030221028 0.013546309 0.14667828 0.98909152 0.015855575
-0.01978741 0.040356662 0.030146418 0.24756244 0.16732906 0.95431334 0.014838516
-0.035298992 0.044993497 0.030129073 -0.070284851 -0.28551453 0.95579368 0.020992102
-0.0244778 0.042298574 0.030077172 -0.16047782 0.3205598 0.9335354 0.029829482
-0.022270568 0.042460185 0.030095788 0.0028333862 0.36936513 0.92928004 0.020777352
-0.020293429 0.042439435 0.030083392 0.18098319 0.26740679 0.94643468 0.022156853
-0.01207138 0.044887643 0.030051891 -0.089449726 -0.32723162 0.94070095 0.021046299
-0.010965994 0.044936962 0.030095465 0.070558839 -0.34571323 0.93568361 0.031640369
-0.036992226 0.047003973 0.030115617 -0.24314247 -0.24746647 0.93789238 0.01580788
-0.034379069 0.046588302 0.030172141 -0.016879672 -0.2765041 0.96086448 0.023510769
-0.031647932 0.046936076 0.030135723 0.21540245 -0.25003996 0.94397134 0.020013049
-0.02981521 0.047618322 0.030116323 0.30229351 -0.21173337 0.92940176 0.033625837
-0.015474346 0.047616653 0.030093331 -0.33041024 -0.16394876 0.92948902 0.016655369
-0.013197348 0.04677676 0.030141136 -0.22414844 -0.22953238 0.94713902 0.015950626
-0.010422668 0.046625454 0.030169403 0.090191096 -0.24529012 0.96524525 0.026220439
-0.0081880959 0.047026236 0.03011509 0.27592003 -0.18360423 0.94348162 0.01490721
-0.03906966 0.049441248 0.030063529 -0.46282411 0.0041366722 0.88644052 0.028684162
-0.037358861 0.049581412 0.030171871 -0.28774664 -0.0063231303 0.95768571 0.027781993
-0.034519464 0.049548436 0.030272404 -0.0098326551 -0.0057817027 0.99993491 0.00025126169
-0.031511065 0.049495976 0.03020486 0.18930095 -0.033784654 0.98133773 0.017569838
-0.029612351 0.049475469 0.03011499 0.40876576 -0.046149485 0.91147172 0.029914767
-0.015624331 0.04954569 0.030128136 -0.35556957 -0.0049432223 0.93463671 0.023030555
-0.013447619 0.04945825 0.030216923 -0.18056384 -0.039212894 0.98278129 0.016140774
-0.010451145 0.049522053 0.030270651 0.013848904 -0.0048714159 0.99989223 0.00029158493
-0.0077661984 0.0495033 0.030152999 0.3275868 -0.010479307 0.94476295 0.021579958
-0.037059914 0.0522228 0.030125385 -0.28148887 0.22706728 0.93231136 0.019537995
-0.03447758 0.052473903 0.030199697 -0.013216007 0.16546614 0.98612696 0.016404135
-0.031731065 0.052225769 0.030154625 0.23016305 0.22997636 0.94558752 0.015384716
-0.029713374 0.051536962 0.030093472 0.35368878 0.16382477 0.92090482 0.018684294
-0.015462287 0.051616468 0.030110348 -0.43292257 0.19894871 0.87920272 0.037655152
-0.013329699 0.052318562 0.030157154 -0.28294042 0.30018178 0.91095316 0.026595533
-0.010463423 0.052494783 0.030192167 0.097094566 0.18936494 0.97709441 0.019222083
-0.0080809994 0.052115928 0.030122189 0.29780325 0.18524608 0.93648124 0.014609103
-0.03641507 0.054051608 0.030094605 -0.2365656 0.3176367 0.91822851 0.024207648
-0.034381993 0.054342225 0.03011205 0.019601624 0.42754677 0.90378064 0.022808194
-0.032437094 0.054212119 0.030101288 0.17024115 0.39974263 0.90067959 0.017114243
-0.024305668 0.056661174 0.030086089 -0.15148856 -0.34336865 0.92690301 0.019325648
-0.022414517 0.056665465 0.030115239 0.03080143 -0.47309428 0.88047314 0.029785443
-0.020599255 0.056804858 0.030057821 0.20876001 -0.33657956 0.91822302 0.026371216
-0.012648904 0.054265797 0.030097822 -0.20983772 0.36784816 0.9059006 0.045792159
-0.01050082 0.05437386 0.030104242 0.11525792 0.33341876 0.93570697 0.027223516
-0.027413782 0.059784055 0.030012116 -0.29789084 -0.13446619 0.94508195 0.020728562
-0.025255503 0.058767993 0.030145785 -0.25723991 -0.23810978 0.93655294 0.014799603
-0.022482418 0.058519423 0.030200345 -0.041608814 -0.17846115 0.98306674 0.017024046
-0.019821091 0.058871668 0.030142473 0.25021455 -0.243155 0.93715972 0.017150452
-0.017848503 0.059942842 0.030062277 0.32620406 -0.14338839 0.9343611 0.025487088
-0.027424484 0.06142322 0.030103086 -0.37451971 0.044107493 0.92616928 0.036230754
-0.02551038 0.061544199 0.030191332 -0.2191155 0.05171971 0.97432715 0.025138393
-0.022514194 0.061542675 0.030271575 0.0038131315 0.006963592 0.99996847 0.00022917789
-0.019631263 0.061467636 0.030184885 0.21586372 0.027910439 0.97602451 0.018413888
-0.01780124 0.061292652 0.030076932 0.38268012 -0.028427549 0.92344344 0.03035387
-0.025083309 0.064094104 0.030137427 -0.19964798 0.30273804 0.93192828 0.017586384
-0.022463106 0.06437701 0.030178016 0.04970229 0.2670697 0.9623946 0.018780595
-0.019971369 0.064007856 0.030130735 0.21386893 0.27986374 0.93591475 0.014019686
-0.024155598 0.066010371 0.030075235 -0.16481318 0.36294439 0.91711938 0.033464748
-0.022547692 0.066066645 0.030125901 -0.0056135599 0.56562424 0.82464403 0.044861503
-0.0073988251 -0.030972438 0.037847977 -0.29158676 -0.23260337 0.92783231 0.039051928
-0.0043298379 -0.031332515 0.038545728 -0.089239746 -0.029672129 0.99556804 0.01743705
-0.0013055808 -0.030541059 0.038960308 0.010233582 0.047917712 0.99879891 0.0042675068
0.00080615201 -0.03014829 0.038958333 -0.045621436 0.090689614 0.99483371 0.0062400037
-0.0098988228 -0.027563162 0.037208781 -0.41301671 -0.11271945 0.90372097 0.051819488
-0.0076035322 -0.028759569 0.038418945 -0.15484597 -0.098783687 0.98298752 0.028826086
-0.0051555093 -0.029328918 0.038966987 0.032937597 -0.011045255 0.99939638 0.0053905388
0.0019976858 -0.029226502 0.038950928 -0.039292943 0.0045223185 0.99921751 0.0073309112
0.0036629532 -0.027575985 0.038965892 -0.0720722 0.018094389 0.9972353 0.0070796995
0.0064198445 -0.027702974 0.038089879 0.2563591 -0.018178543 0.9664107 0.035203259
-0.010373377 -0.025300045 0.037752181 -0.5088852 -0.038463939 0.85997468 0.058997996
-0.0075911311 -0.025341775 0.038968664 -0.12876461 0.027798237 0.99128556 0.024361782
0.0043811472 -0.02580539 0.038955145 -0.05398985 0.0152728 0.99842471 0.0053027431
0.0070729507 -0.025444355 0.03785155 0.46712938 -0.042267021 0.88317811 0.033056583
-0.010293021 -0.022352263 0.037688006 -0.40143138 0.13414086 0.90601271 0.043020416
-0.0075593274 -0.022693267 0.03896283 -0.1746871 0.14813474 0.97341692 0.044422753
0.0042870981 -0.022739407 0.03895206 -0.013659768 0.059272341 0.99814844 0.014952632
0.0069579789 -0.022366945 0.037852932 0.52824104 0.13743891 0.83789736 0.044897005
-0.009503074 -0.020179765 0.037811007 -0.50998122 0.2782459 0.81394011 0.047734499
-0.0083084283 -0.018699402 0.037942152 -0.31040472 0.23270185 0.92168254 0.047744188
-0.0046427874 -0.018923691 0.038968168 -0.08952222 0.29604182 0.95097059 0.05081711
-0.0015926176 -0.018240036 0.038953312 -0.0012252828 0.12282497 0.99242759 0.026169583
0.0015126447 -0.019016868 0.038953148 0.054334473 0.29811412 0.9529826 0.042671014
0.0049745124 -0.019143594 0.038004123 0.22769088 0.23615648 0.94466239 0.038149573
0.0063129496 -0.020389425 0.037719131 0.67662168 0.2819688 0.68020344 0.036628909
-0.0069743493 -0.017170727 0.037600514 -0.30876452 0.38536006 0.8695758 0.044965569
-0.004591336 -0.015944293 0.037797686 -0.16177586 0.32042709 0.93335688 0.042323008
-0.0019642056 -0.015531011 0.038104873 -0.035256401 0.31344929 0.94895023 0.034726661
0.0012981516 -0.015955282 0.037870526 0.096332304 0.30397829 0.94779599 0.036724214
0.0038105459 -0.017296653 0.037710659 0.28394991 0.33971399 0.89664197 0.041400824
-0.0068288227 0.017584816 0.037856329 -0.31160283 -0.32491335 0.89293623 0.044837963
-0.0048256228 0.016525596 0.037725672 -0.13559245 -0.49872112 0.85609108 0.04960325
-0.0019215695 0.015814297 0.037160087 -0.10316067 -0.50859648 0.85480267 0.037507359
0.00065278314 0.016332207 0.038597174 -0.023783395 -0.39966822 0.91635132 0.032579832
0.0032911168 0.017489368 0.038406145 0.20781788 -0.10902654 0.97207254 0.023152867
-0.0093311099 0.020394899 0.037820589 -0.29701778 -0.1444414 0.94388407 0.041632175
-0.0079163285 0.019527875 0.038409807 -0.26906669 -0.20470953 0.94111484 0.03966289
-0.0045357784 0.019327611 0.038979258 0.0075959126 0.052134894 0.99861121 0.0044440078
-0.0011490902 0.018561723 0.03898048 -0.001358056 0.018689359 0.99982446 0.006356515
0.0013922252 0.019312503 0.038965572 -0.0094428472 0.058079693 0.99826729 0.0051617785
