# .PCD v0.7 - Point Cloud Data file format
VERSION 0.7
FIELDS x y z normal_x normal_y normal_z curvature
SIZE 4 4 4 4 4 4 4
TYPE F F F F F F F
COUNT 1 1 1 1 1 1 1
WIDTH 543
HEIGHT 1
VIEWPOINT 0 0 0 1 0 0 0
POINTS 543
DATA ascii
0.0019670813 0.072802469 -0.0039884583 -0.51330793 0.69536698 -0.50297081 0.0011369477
0.0042939158 0.07391528 -0.0047485041 -0.48026463 0.73851019 -0.47323203 0.0014293656
0.0064245076 0.074775599 -0.005579059 -0.46010378 0.7591778 -0.46038416 0.0011395088
0.041525781 0.074152894 -0.0036870008 0.68093514 0.4223491 0.59828806 0.0031826603
0.042874619 0.073358372 -0.0048976284 0.72737473 0.42336601 0.54008079 0.0036950121
0.0054359091 0.075313166 -0.0036036384 -0.43216699 0.79939049 -0.41738045 0.0028805393
0.0075866082 0.075975895 -0.0044649006 -0.40356883 0.84233725 -0.35721159 0.0031147287
0.010420927 0.077204064 -0.0045340233 -0.36053547 0.89122951 -0.27518016 0.0021573086
0.012470665 0.077803932 -0.0052778558 -0.33857369 0.91380197 -0.22435194 0.0027371014
0.038523462 0.077531658 -0.0036723614 0.481978 0.78902531 0.38096753 0.0033433307
0.040377319 0.076899916 -0.0050864974 0.58567494 0.73551142 0.34059915 0.0031926807
0.042190112 0.075091749 -0.0053907013 0.68176687 0.55011636 0.4822509 0.0030535427
0.011712445 0.078053907 -0.0031485925 -0.26599744 0.95722246 -0.11388855 0.0015901396
0.013759921 0.078419052 -0.004382967 -0.27958119 0.94768095 -0.15406242 0.0024561938
0.016490201 0.079150379 -0.0045900545 -0.24537152 0.96597964 -0.0817075 0.0023116686
0.019406833 0.079821385 -0.004635137 -0.22944118 0.97303706 -0.023573797 0.003683097
0.022496101 0.080387905 -0.0046774196 -0.18225247 0.98093039 0.067524806 0.0033034193
0.025356183 0.080705255 -0.0044017164 -0.095894575 0.97515953 0.19967024 0.003081105
0.028447226 0.080726713 -0.0037530672 -0.0077480539 0.9587276 0.28422043 0.0028660286
0.031567842 0.080695741 -0.0041791596 0.13443893 0.93997937 0.31363195 0.0033533613
0.034455266 0.08024583 -0.0049138898 0.26401097 0.93532485 0.23551133 0.0025757917
0.037323873 0.078982182 -0.0049129943 0.43159175 0.84405237 0.31828317 0.0031013971
0.039242201 0.078266732 -0.0057728351 0.51216441 0.80742019 0.29284847 0.0039652749
0.026168577 0.081059895 -0.0056439405 -0.1316967 0.97825593 0.16022271 0.0025846648
0.028501354 0.081206337 -0.0052766185 -0.042780533 0.97301936 0.22672273 0.0030313758
0.030940736 0.081172012 -0.0053089433 0.12173211 0.96442395 0.23466493 0.003343645
-0.00073054218 -0.072737902 -0.00076591229 -0.50878799 -0.66738594 -0.54381138 0.00047388126
0.0014343871 -0.073252797 -0.0022200928 -0.52112556 -0.66744304 -0.53192848 0.00047947897
0.0039792689 -0.074690551 -0.002362513 -0.48614088 -0.71780378 -0.49842229 0.00022236582
-0.006267963 -0.069057547 -0.00021998561 -0.42942461 -0.63078284 -0.64630306 0.00040558353
-0.0040924526 -0.069698028 -0.0012773408 -0.49583799 -0.62691379 -0.60093576 0.00044699199
-0.0019566214 -0.070546791 -0.0022885986 -0.52570873 -0.63146067 -0.56998932 0.00034429197
-0.0097796293 -0.066570602 -0.00050655421 -0.36613941 -0.64883816 -0.66704649 0.00040263633
-0.0075774738 -0.067310631 -0.0010813326 -0.41325259 -0.6355474 -0.65215164 0.00047185778
-0.0055205021 -0.068148792 -0.0017131349 -0.47182795 -0.62026668 -0.62661606 0.00055299723
-0.018085387 -0.063444473 -0.00021008716 -0.20885274 -0.72130466 -0.66037881 0.00051980803
-0.016409082 -0.063613042 -0.00057997741 -0.21003573 -0.70506316 -0.67732632 0.00058014435
-0.013027805 -0.064432628 -0.00098060898 -0.29109722 -0.6705007 -0.68241584 0.00048920041
-0.010619855 -0.064630203 -0.0018929337 -0.34778228 -0.64241415 -0.68289942 0.00060236891
-0.0080093704 -0.065521091 -0.002528494 -0.42728624 -0.61722445 -0.66065156 0.00085038587
-0.03122995 -0.060778722 -0.00083630718 -0.10881405 -0.84902865 -0.51702011 0.00057600968
-0.028796356 -0.060933605 -0.0010966311 -0.13280022 -0.83603942 -0.53235531 0.00026911363
-0.025477458 -0.06115184 -0.0014079015 -0.10400813 -0.80317616 -0.58659208 0.00078973139
-0.022409773 -0.061557613 -0.0014730002 -0.13857219 -0.7574147 -0.63806015 0.00075473497
-0.019491583 -0.06180121 -0.0017451234 -0.14633442 -0.73655212 -0.66036153 0.00056746008
-0.01661263 -0.062025778 -0.0021158648 -0.18515557 -0.69970763 -0.69001925 0.00074630335
-0.013695743 -0.062519066 -0.0025654898 -0.28065693 -0.64244324 -0.71309072 0.00090904435
-0.011654092 -0.062948689 -0.0028350372 -0.32630986 -0.61650187 -0.71655244 0.00090734748
-0.045321368 -0.057941653 -0.00066644605 -0.27359059 -0.857862 -0.43499541 0.0063198269
-0.044109244 -0.057693355 -0.002051027 -0.1902191 -0.86716288 -0.4602665 0.0056027523
-0.027514841 -0.059902955 -0.0028445537 -0.078459308 -0.82398093 -0.56115913 0.00058387284
-0.051292159 -0.054995924 -0.0015011987 -0.9813298 -0.15261903 -0.11704399 0.0019540135
-0.05098813 -0.056083586 -0.0026806686 -0.98489308 -0.17171302 -0.022367509 0.0023892391
0.041328147 -0.054228514 -0.00065639429 0.67233104 0.44483176 0.59168881 0.0028775472
0.043039199 -0.055533439 -0.0019600217 0.77345556 0.39263099 0.49760166 0.0018425989
-0.051697284 -0.052285742 -0.001489608 -0.99611157 -0.04233994 -0.077259339 0.0025175486
0.038825523 -0.051424138 -0.0003554454 0.56352019 0.57518864 0.59296125 0.0024003682
0.041031998 -0.051849037 -0.0020558608 0.66360563 0.6185022 0.42081195 0.0032299149
0.042272627 -0.052881621 -0.0025861021 0.71659982 0.52802235 0.45571595 0.0043421043
-0.051844567 -0.049527377 -0.0014637181 -0.99597412 0.021668525 -0.08698193 0.0019887232
0.03570392 -0.048621174 -0.00031708341 0.50634569 0.73093319 0.45754862 0.0013107952
0.037471615 -0.049082723 -0.0015778495 0.51153713 0.73504305 0.44501856 0.0012794759
0.039414186 -0.050150182 -0.0021142259 0.58459282 0.68416756 0.43608019 0.0030384583
-0.051659144 -0.046111725 -0.0017465113 -0.8876918 0.42916605 -0.16679303 0.035352834
0.02977317 -0.045044549 -0.00017016797 0.47355694 0.83437663 0.28206286 0.0047448254
0.031722382 -0.045653597 -0.0014719145 0.43146002 0.86941373 0.24075301 0.0017652137
0.034338765 -0.046910662 -0.0018745036 0.44045562 0.84093046 0.31438011 0.0028860969
0.036282144 -0.047631104 -0.002655461 0.47438097 0.7909143 0.3865453 0.0029351905
-0.051213626 -0.043614712 -0.0012413155 -0.56993139 0.77197474 -0.28148386 0.035719175
-0.04944234 -0.043306723 -0.0014803926 -0.19858316 0.92113346 -0.33478022 0.023414619
-0.046464931 -0.043295637 -0.0014740743 -0.26905474 0.82743502 -0.49291047 0.022673409
-0.044089302 -0.043113675 -0.0022314398 -0.31066319 0.77320504 -0.55284923 0.01470668
-0.040737666 -0.04212131 -0.0028923801 -0.21316575 0.70116699 -0.68038601 0.016714906
-0.038959268 -0.042078424 -0.0029970007 -0.040135633 0.80316508 -0.59440309 0.012143834
-0.030511439 -0.042145547 -0.0029490222 0.072843477 0.69660825 -0.71374416 0.0069658482
-0.028416941 -0.042178597 -0.0028516408 0.093197368 0.59749091 -0.79644138 0.011266165
-0.025400324 -0.042280063 -0.0028038688 0.081692442 0.6002965 -0.79559433 0.0052805464
-0.022259753 -0.042558029 -0.0027198365 0.088155277 0.56897551 -0.81761581 0.0036393844
-0.019426228 -0.042755958 -0.0025417206 0.083191052 0.54076809 -0.83704787 0.0028859703
-0.016420949 -0.042997181 -0.0024201567 0.064464502 0.52860773 -0.84641486 0.0025876921
-0.013448754 -0.043108873 -0.0022846046 0.034385212 0.53005815 -0.84726381 0.0023298785
-0.010483465 -0.043083813 -0.0022434259 -0.0018586167 0.55068046 -0.83471411 0.0023848729
-0.0075142356 -0.04292253 -0.0022334291 -0.032453779 0.59137315 -0.80574465 0.0026123798
-0.0045210365 -0.042773321 -0.002309866 -0.054547347 0.64602041 -0.76136863 0.0029058678
-0.0015392747 -0.042635262 -0.0024643065 -0.081710123 0.70084035 -0.70862275 0.0032736859
0.0011121152 -0.042344246 -0.0025744024 -0.1531426 0.74131036 -0.65345711 0.0025134755
0.0032391343 -0.042092491 -0.0029866549 -0.1636969 0.7643609 -0.62366325 0.0018297964
0.023414128 -0.042170946 -0.0016242702 0.31881997 0.94781518 0.00040179386 0.0025799172
0.025396651 -0.042852063 -0.0015628837 0.33755404 0.94026446 0.044272043 0.0033986168
0.028392 -0.044028733 -0.0016575212 0.38525358 0.91019338 0.15207791 0.0018393154
0.030467117 -0.044804603 -0.0023333547 0.40498906 0.89288545 0.1968234 0.002864314
-0.045394421 -0.041254193 -0.00044374281 -0.34059268 0.75468862 -0.56075102 0.016644517
-0.043343816 -0.040989686 -0.0012980928 -0.36403456 0.69881219 -0.61574376 0.010247803
-0.040630277 -0.040517312 -0.0017970509 -0.34545565 0.5804379 -0.73739564 0.028424241
-0.037554882 -0.040586106 -0.0023870715 -0.1130783 0.41483319 -0.90284371 0.022861646
-0.034541443 -0.040516093 -0.0024549793 0.0039212429 0.3359164 -0.94188368 0.017813044
-0.031481359 -0.040640507 -0.0024152943 0.080261476 0.37223816 -0.92466038 0.017231289
-0.028515073 -0.040677223 -0.0022761412 0.081957757 0.37998119 -0.9213562 0.010252396
-0.025350546 -0.040684119 -0.0020854769 0.071703717 0.37522468 -0.92415631 0.0069389385
-0.022411581 -0.04070412 -0.0018648854 0.078285366 0.36418748 -0.92802954 0.0052951057
-0.019405497 -0.04063274 -0.001569339 0.076674923 0.34558383 -0.9352501 0.004550219
-0.016441045 -0.040618252 -0.001319171 0.07047946 0.34557769 -0.9357397 0.0043753725
-0.013503402 -0.040518913 -0.0010786663 0.053644173 0.3575204 -0.93236345 0.0042096926
-0.010499846 -0.040518817 -0.00093674549 0.037632655 0.36058673 -0.93196619 0.0040670182
-0.007453348 -0.040554434 -0.00085544301 0.027527332 0.39493269 -0.91829753 0.0047801486
-0.0044541415 -0.040603429 -0.00082712597 0.010614307 0.46266094 -0.88647175 0.0044979933
-0.0014890321 -0.040766925 -0.00091517525 0.00016541439 0.54192245 -0.84042853 0.005956511
0.00155024 -0.040873386 -0.0011145464 -0.056931235 0.66778427 -0.74217451 0.0080935126
0.0044862474 -0.040672719 -0.0014958389 -0.11531214 0.79535002 -0.59508097 0.0025258299
0.0074787335 -0.040247738 -0.0015897918 -0.083399013 0.85052699 -0.5192768 0.0013917041
0.010452992 -0.039957821 -0.0015367963 -0.0068404325 0.90471816 -0.4259558 0.0039745984
0.013419187 -0.040024765 -0.0014987434 0.083781481 0.93773353 -0.33710015 0.0043469933
0.016391505 -0.040401328 -0.0015191172 0.1619869 0.95408314 -0.25196368 0.0043706042
0.019421076 -0.041037586 -0.0015779805 0.20873205 0.96732277 -0.14393622 0.003475789
0.021944636 -0.041702405 -0.0015290559 0.27198794 0.96000695 -0.066401221 0.0029743358
-0.040120564 -0.03777162 -0.00085873547 -0.61125308 0.22759305 -0.75800472 0.046600696
-0.037558731 -0.037537672 -0.0020648448 -0.22738811 0.094506606 -0.96920753 0.018064288
-0.034507547 -0.037388291 -0.0022519785 -0.0034099214 0.070128828 -0.99753213 0.0061238841
-0.031597339 -0.037507668 -0.0020695142 0.065998361 0.080717124 -0.99454963 0.0036822122
-0.028532568 -0.037678786 -0.0016839933 0.082300656 0.098056428 -0.99177194 0.003894544
-0.02555031 -0.037509188 -0.0014245628 0.076144561 0.11607642 -0.99031723 0.0051958924
-0.022507934 -0.037591331 -0.001178832 0.08171574 0.12805215 -0.98839521 0.0060129585
-0.019412531 -0.037566502 -0.00092594355 0.084965728 0.1332304 -0.98743629 0.0059521468
-0.016354019 -0.037628558 -0.00069841044 0.087845959 0.13544413 -0.98688298 0.0057038385
-0.013403646 -0.037612639 -0.00045790107 0.08123637 0.11138185 -0.99045181 0.0037194989
-0.0105351 -0.037670583 -0.00024878897 0.082470439 0.12021746 -0.98931617 0.0036006807
-0.0078855706 -0.038300324 -0.00013572373 0.073226884 0.15436125 -0.98529714 0.0040898537
-0.0050404435 -0.038586017 -9.6896256e-05 0.070698708 0.21928808 -0.9730953 0.0067257634
-0.0020686351 -0.0387921 -3.7320249e-05 0.062986784 0.38782525 -0.91957831 0.0079309195
-0.039835893 -0.034394301 -0.0010307519 -0.7088356 0.052357763 -0.70342791 0.045575954
-0.037546057 -0.034532025 -0.002270652 -0.27185261 -0.10363185 -0.95674264 0.013501552
-0.034444503 -0.034400657 -0.0023279728 0.024339266 -0.083841875 -0.99618179 0.0021588479
-0.031498443 -0.034504071 -0.0020968576 0.08892294 -0.060132805 -0.99422169 0.00030729169
-0.028538808 -0.034561794 -0.0018275324 0.087212779 -0.047891654 -0.99503791 0.00047089608
-0.025501898 -0.034397889 -0.0015801815 0.081223749 -0.067145251 -0.99443167 7.7235505e-05
-0.022501554 -0.034550264 -0.001323482 0.083269209 -0.047351263 -0.99540144 0.0012293527
-0.019511636 -0.034467667 -0.0010704251 0.086550653 -0.061366264 -0.99435568 0.00038313153
-0.016419629 -0.034478921 -0.00078712247 0.091569476 -0.055491477 -0.99425137 0.00034980098
-0.013435464 -0.034452658 -0.00053990143 0.094684422 -0.043297462 -0.99456537 0.00032805433
-0.010512661 -0.034397602 -0.00026802826 0.097368114 -0.034717202 -0.99464267 0.00018668282
-0.0081463242 -0.034014177 -0.00010193439 0.10087283 -0.02805222 -0.99450374 0.00019281723
-0.0056600026 -0.034353778 -5.8521779e-05 0.10288254 -0.0024201372 -0.9946906 0.00041804119
-0.03981705 -0.031465467 -0.0012252314 -0.53846705 -0.11302381 -0.83503222 0.020969089
-0.037561428 -0.031619959 -0.0025788618 -0.3125506 -0.12665945 -0.94141889 0.013325316
-0.034368116 -0.031533979 -0.0026106481 0.063463211 -0.13484067 -0.98883283 0.0015626864
-0.031437714 -0.031497341 -0.0022808712 0.10630237 -0.10076588 -0.98921484 0.0003378251
-0.028542319 -0.03148967 -0.0020445082 0.086407244 -0.089784607 -0.99220586 0.00010459891
-0.025574097 -0.031556141 -0.0018366976 0.077138253 -0.08459989 -0.99342465 1.7297836e-05
-0.022486459 -0.031488851 -0.0016090062 0.083261728 -0.083565444 -0.99301779 2.6156113e-05
-0.019497408 -0.031512253 -0.0013393995 0.092440173 -0.080082126 -0.99249262 3.4127042e-05
-0.016411014 -0.031440552 -0.0010470805 0.099507652 -0.075950488 -0.99213392 2.7340484e-05
-0.013521415 -0.031443328 -0.00074066862 0.10483403 -0.065649554 -0.99232054 4.7269867e-05
-0.01042487 -0.03143733 -0.00043275033 0.10744195 -0.053754814 -0.99275708 5.0957162e-05
-0.0079252198 -0.031383999 -0.00016093637 0.1086859 -0.042179774 -0.99318087 3.9572089e-05
-0.0053762584 -0.03132657 -5.417427e-05 0.11027648 -0.030521659 -0.99343222 3.5067191e-05
-0.039778639 -0.028516948 -0.0015640582 -0.58115441 -0.10868315 -0.80650324 0.01945208
-0.038299046 -0.028850449 -0.0027200659 -0.35962504 -0.14299862 -0.92207444 0.013427729
-0.033859346 -0.029065613 -0.0028579163 0.1042238 -0.15940821 -0.98169571 0.0014283481
-0.031455819 -0.028672079 -0.0025971567 0.11997125 -0.13034634 -0.98418325 0.00024677697
-0.028455067 -0.028441265 -0.0023241108 0.093713298 -0.11489961 -0.98894691 0.00024799997
-0.02551708 -0.028615747 -0.0020787292 0.083993897 -0.097746819 -0.99166054 0.00010794138
-0.022585213 -0.028494988 -0.0018588681 0.086439483 -0.084364742 -0.99267864 4.1424071e-05
-0.019539431 -0.028449109 -0.0015806382 0.097154923 -0.076572075 -0.99231935 2.9898283e-05
-0.016503857 -0.028528288 -0.001263504 0.10872429 -0.068660088 -0.99169797 2.9503915e-05
-0.013385948 -0.028584052 -0.00093059236 0.11630298 -0.057943556 -0.99152213 3.0628289e-05
-0.010437062 -0.028446736 -0.00058543496 0.12077147 -0.0471505 -0.99155986 3.9787545e-05
-0.0076600011 -0.028375758 -0.00024639603 0.12496097 -0.034882434 -0.9915483 3.4697307e-05
-0.0053801001 -0.028408831 -0.00010046774 0.12577491 -0.026283246 -0.99171054 2.9756804e-05
-0.039648339 -0.02559098 -0.001953529 -0.62295884 -0.090357557 -0.77701843 0.018545119
-0.038825456 -0.026079215 -0.0028386244 -0.34386262 -0.12311693 -0.93091387 0.016100062
-0.030865418 -0.026359709 -0.0028357601 0.1457589 -0.16463153 -0.97552598 0.00026971183
-0.028298587 -0.02552481 -0.0026789706 0.1090885 -0.1352203 -0.98479193 0.00022883664
-0.025470007 -0.025551727 -0.002394977 0.10456576 -0.12063486 -0.98717439 0.00021938863
-0.022540126 -0.025491342 -0.0021187214 0.10343315 -0.097404592 -0.98985547 0.00012592346
-0.019432694 -0.025453934 -0.0017955722 0.10883979 -0.081134237 -0.99074274 5.7292666e-05
-0.016419617 -0.025530497 -0.0014549925 0.11934202 -0.067655876 -0.99054533 4.384205e-05
-0.013379023 -0.025475932 -0.0011046999 0.12781531 -0.055226043 -0.99025917 3.7398026e-05
-0.010455618 -0.025564795 -0.0007176912 0.13214381 -0.043242767 -0.99028689 4.1664651e-05
-0.0075345277 -0.025426103 -0.00032791772 0.13781928 -0.03107452 -0.98996979 3.0267904e-05
-0.0052313018 -0.025197057 -7.3971802e-05 0.13937859 -0.024005042 -0.98994821 2.580989e-05
-0.039648078 -0.022520065 -0.0022156383 -0.68339854 -0.087117203 -0.72482896 0.01589792
-0.038728017 -0.0223074 -0.0017869488 -0.93732274 -0.049760461 -0.34489131 0.025785197
-0.027786927 -0.023285247 -0.0029090734 0.13907158 -0.16169755 -0.97699183 0.00026541718
-0.025271837 -0.022638878 -0.0027325763 0.12178913 -0.13353404 -0.98353249 0.00021038158
-0.022553001 -0.022476092 -0.0024270308 0.1244535 -0.11563587 -0.98546416 0.00017233411
-0.019511849 -0.02249708 -0.0020526228 0.1276239 -0.092667639 -0.98748416 0.00013862012
-0.016497392 -0.022544933 -0.0016681545 0.13206312 -0.071554251 -0.98865533 7.7379722e-05
-0.013493072 -0.022456566 -0.0012877746 0.14052515 -0.055294525 -0.98853177 5.1353461e-05
-0.010517828 -0.022627084 -0.00085458619 0.14463207 -0.042780533 -0.98856026 4.5082557e-05
-0.0074520539 -0.022433564 -0.00041030414 0.1483289 -0.029651731 -0.98849344 3.7277874e-05
-0.0053420858 -0.022409275 -0.00011308071 0.15051383 -0.021556897 -0.98837286 2.2995857e-05
-0.039562322 -0.019931231 -0.0021694715 -0.88029188 -0.021493558 -0.4739452 0.019536234
-0.038807809 -0.018913347 -0.0017964827 -0.97163284 0.0069772336 -0.2363915 0.019985659
-0.024706284 -0.020368699 -0.0029120035 0.14917301 -0.15418176 -0.9767167 0.00022060993
-0.022279656 -0.019648369 -0.0027277488 0.14400215 -0.12247509 -0.981969 0.0001434588
-0.019607227 -0.019537598 -0.0023464395 0.14776561 -0.10322513 -0.98362082 0.00017282418
-0.016504342 -0.019510731 -0.0018989986 0.15318777 -0.080820724 -0.98488659 0.00013985256
-0.013313293 -0.019500498 -0.0014311533 0.15504225 -0.058399953 -0.98618019 7.3053649e-05
-0.010390105 -0.019588295 -0.00096641702 0.15769607 -0.044639185 -0.98647821 5.5423778e-05
-0.0074708224 -0.019523583 -0.00050003565 0.16031805 -0.031595595 -0.98655957 4.8276528e-05
-0.0051650805 -0.019414065 -0.00014712953 0.16324519 -0.022321716 -0.98633295 2.5477371e-05
-0.039349701 -0.01682625 -0.0012737857 -0.94023991 0.0054371087 -0.34046933 0.0074045528
-0.038775202 -0.016422495 -0.0018910193 -0.99021238 0.029174319 -0.1364855 0.020790983
-0.021516057 -0.017182479 -0.0029022356 0.17551768 -0.13110259 -0.97570783 0.00015991453
-0.019422084 -0.016597932 -0.002640926 0.16853523 -0.11101325 -0.97942424 0.00012232427
-0.016530922 -0.016471324 -0.0021471982 0.16993389 -0.087646239 -0.98155016 0.00012775019
-0.013415696 -0.016498607 -0.0016087681 0.17122339 -0.067616381 -0.98290926 8.8055051e-05
-0.010431131 -0.016624609 -0.0011098866 0.17269579 -0.050892223 -0.98365957 6.9833608e-05
-0.0074161724 -0.016482189 -0.00059027836 0.17442231 -0.035993598 -0.9840129 5.7560053e-05
-0.0050752596 -0.016436961 -0.00017494515 0.17669944 -0.024397485 -0.98396242 3.8560818e-05
-0.0028956356 -0.015874581 -6.2778236e-05 0.1776979 -0.012058326 -0.98401123 2.5826766e-05
-0.039245673 -0.013351781 -0.0006506528 -0.97435826 0.027895847 -0.2232663 0.0080208881
-0.038687412 -0.013316554 -0.0020959096 -0.9917112 0.041906711 -0.12146139 0.013159771
-0.018832069 -0.013916731 -0.0028368372 0.19566648 -0.11029907 -0.97444791 0.0001203748
-0.016540099 -0.013476376 -0.0024312572 0.19492228 -0.095209353 -0.97618669 0.0001021936
-0.013490067 -0.013588094 -0.0018619952 0.18964058 -0.073170088 -0.97912341 0.00011079691
-0.010413793 -0.013643032 -0.0012751033 0.18676391 -0.055265848 -0.98084909 7.1210685e-05
-0.0075415624 -0.013480496 -0.00072967639 0.18948859 -0.040254734 -0.98105735 6.6978959e-05
-0.0048981537 -0.013452581 -0.00022430727 0.18944103 -0.026813095 -0.9815259 4.1205963e-05
-0.0026185042 -0.012868973 -1.8119923e-05 0.19920948 -0.015060768 -0.97984117 5.3920663e-05
-0.039244808 -0.010735761 -0.00065574056 -0.96861756 0.03018479 -0.2467162 0.0098651424
-0.03870618 -0.010452959 -0.0020506051 -0.98513865 0.013709665 -0.17121282 0.0099685406
-0.018285353 -0.011586468 -0.0029190539 0.22100368 -0.11100936 -0.96893466 8.0445003e-05
-0.016310502 -0.010567496 -0.0026640682 0.21061948 -0.094497398 -0.9729901 8.3226769e-05
-0.013470672 -0.010493977 -0.0020642481 0.20639393 -0.078128166 -0.97534478 0.00010535419
-0.01050126 -0.010540937 -0.0014725835 0.20319474 -0.059107091 -0.97735268 7.6271906e-05
-0.007646672 -0.010441937 -0.00088116393 0.20481908 -0.043786872 -0.97781998 6.8725407e-05
-0.0048030713 -0.010506886 -0.00028754983 0.20371893 -0.02978264 -0.97857624 5.157138e-05
-0.0028358586 -0.010205537 -4.8729307e-05 0.21487616 -0.018680826 -0.97646266 6.8212677e-05
-0.039268252 -0.0077498234 -0.00061828463 -0.95525384 -0.083139814 -0.28386262 0.0044809547
-0.038796116 -0.0075817374 -0.0018487849 -0.97507578 -0.095623024 -0.20020823 0.0057636355
-0.015828414 -0.0077693677 -0.0028340134 0.22847962 -0.09365762 -0.96903318 5.504315e-05
-0.013543746 -0.0074972576 -0.0023277537 0.2256126 -0.084588856 -0.97053784 7.1327951e-05
-0.010490909 -0.0075187334 -0.0016363492 0.22072797 -0.064306036 -0.97321314 8.4714949e-05
-0.0074906233 -0.0076478873 -0.00097731699 0.21819875 -0.045472134 -0.97484446 8.1901417e-05
-0.0047248448 -0.0075662788 -0.00036318245 0.21881582 -0.03241555 -0.97522759 6.5317072e-05
-0.0026355248 -0.007654462 -9.2633309e-05 0.22404987 -0.018596662 -0.97440028 7.1205177e-05
-0.040135901 -0.0046146065 -0.00074986654 -0.94858778 -0.055570669 -0.31159791 0.005666316
-0.015392973 -0.005007104 -0.0029377025 0.2447872 -0.088620417 -0.96551836 4.1186398e-05
-0.013496491 -0.0046108337 -0.002568386 0.24040425 -0.080986686 -0.96728837 5.3321775e-05
-0.01054233 -0.0045142015 -0.0018509624 0.23680322 -0.064136527 -0.96943831 7.3324401e-05
-0.007496132 -0.0045056604 -0.0011351024 0.23545171 -0.047365472 -0.97073114 7.6340591e-05
-0.0045778886 -0.0045264098 -0.00043166717 0.23414943 -0.030577881 -0.97171962 7.2152674e-05
-0.0025609073 -0.0044987998 -7.6446842e-05 0.24240923 -0.022312311 -0.96991748 7.7860939e-05
-0.039601851 -0.0013595069 -0.0015129349 -0.95793414 0.040668488 -0.28409201 0.012812025
-0.015089182 -0.0023256149 -0.0029698126 0.24839818 -0.057837315 -0.96692979 0.00019756136
-0.013177318 -0.0016028287 -0.0027240214 0.25295758 -0.053760014 -0.96598256 0.00013668695
-0.010599066 -0.0015811846 -0.0020850981 0.25123021 -0.043481365 -0.96695024 9.582354e-05
-0.0075168982 -0.0015208952 -0.0012613472 0.24731821 -0.033663463 -0.96834934 7.3319119e-05
-0.0044964626 -0.0014872968 -0.00051084108 0.24815124 -0.022258451 -0.96846557 5.4641077e-05
-0.0026444553 -0.0014692753 -0.00012464069 0.25361434 -0.016265705 -0.96716857 3.9995251e-05
-0.039604772 0.001627358 -0.0018061526 -0.94905317 0.0046717119 -0.31508121 0.010246906
-0.012905927 0.0015079147 -0.0027625025 0.25795946 -0.0034843446 -0.96614945 0.00018432229
-0.010472008 0.0015075854 -0.0021469113 0.25504833 -0.0018459441 -0.96692657 0.00013299816
-0.0074609672 0.0014747874 -0.0013479592 0.25443354 -0.0032266059 -0.96708483 7.096152e-05
-0.0044098874 0.0015173581 -0.00053208874 0.25432855 -0.0029359662 -0.96711344 4.5005418e-05
-0.0025660014 0.0016023178 -0.00014646552 0.26001137 -0.00069302646 -0.96560532 4.1215095e-05
-0.039761424 0.0051916125 -0.0014034922 -0.95924723 0.075914107 -0.27217963 0.0041307923
-0.038771737 0.0058252267 -0.002017556 -0.97481328 0.11056124 -0.19368871 0.0089862058
-0.013103703 0.0045449045 -0.0027334325 0.24974056 0.038019285 -0.96756613 5.6375731e-05
-0.010495103 0.0044939239 -0.002081509 0.25133821 0.031939365 -0.96737218 2.9871269e-05
-0.0075152605 0.0045167515 -0.0013039201 0.25246134 0.02535888 -0.96727461 2.019629e-05
-0.0044904654 0.0045346101 -0.00051451067 0.25136119 0.020663856 -0.96767271 2.2376755e-05
-0.0025886644 0.0044989646 -0.00012654031 0.25806808 0.015522894 -0.96600205 6.1082239e-05
-0.03923161 0.0075305379 -0.00072698755 -0.96846247 0.069638848 -0.23922977 0.0090078311
-0.038767871 0.0073649748 -0.0019359136 -0.98632455 0.065678939 -0.15116233 0.0093143331
-0.015211191 0.0084391916 -0.0029378079 0.2424091 0.066903315 -0.96786457 5.801515e-05
-0.013321996 0.0075216475 -0.0026596854 0.23952635 0.059324954 -0.96907574 6.2638617e-05
-0.010528814 0.0075323116 -0.0019697375 0.24226846 0.04878322 -0.96898204 4.0646959e-05
-0.0074778516 0.0074964571 -0.0011897248 0.24465744 0.03761426 -0.9688797 3.3770706e-05
-0.0045912969 0.0074577201 -0.00044686228 0.24307111 0.027596541 -0.96961582 3.7782036e-05
-0.002590976 0.0074317991 -5.4167729e-05 0.24883474 0.019414086 -0.96835142 7.8749297e-05
-0.039220061 0.010493004 -0.00076027354 -0.97529399 -0.032407697 -0.21852103 0.0076541728
-0.038659398 0.010247826 -0.0022000147 -0.96786064 -0.019074129 -0.25076276 0.011456464
-0.015566515 0.010904928 -0.0028718328 0.22964884 0.086454131 -0.96942616 6.3292035e-05
-0.013467415 0.01058337 -0.0024828927 0.2258794 0.077648237 -0.97105581 8.2020641e-05
-0.010541977 0.01048191 -0.0017994381 0.22987023 0.062281515 -0.97122639 7.7219571e-05
-0.0075253588 0.010522 -0.0010685584 0.23222838 0.046759203 -0.9715367 8.4866413e-05
-0.0046689748 0.010494748 -0.00039094102 0.22940391 0.030775124 -0.97284466 7.5115109e-05
-0.0026049062 0.0099216718 -3.4208668e-05 0.23908462 0.017642338 -0.97083843 0.00012010078
-0.039301757 0.013477293 -0.00054965139 -0.98016942 -0.024754604 -0.19660896 0.0074990629
-0.038804453 0.012996223 -0.0018446043 -0.99054331 -0.018523488 -0.13594386 0.010256935
-0.01821401 0.014648065 -0.0029429407 0.21705011 0.11484925 -0.96938068 4.7580885e-05
-0.016036944 0.013658048 -0.0027508161 0.2102385 0.10188209 -0.97232699 7.2151663e-05
-0.013455803 0.013515329 -0.0022147063 0.20957559 0.087423816 -0.97387636 0.0001076361
-0.010519547 0.01350517 -0.0015820136 0.21475354 0.071220241 -0.97406805 9.1529073e-05
-0.0075982739 0.013511262 -0.00093130529 0.21566105 0.049991451 -0.97518778 0.00011837325
-0.0047506085 0.013445018 -0.00028103022 0.20973918 0.030379497 -0.97728527 0.00011814477
-0.0023114686 0.013829835 -5.5327073e-06 0.22214052 0.014027473 -0.97491378 0.00011925661
-0.039373789 0.016354216 -0.00052341766 -0.98100889 -0.059839357 -0.18450111 0.0050641638
-0.038861416 0.016046237 -0.0017791145 -0.97772098 -0.054976042 -0.20258166 0.014876328
-0.018633511 0.01689025 -0.0028734384 0.19808121 0.12523027 -0.97215289 6.5378888e-05
-0.016433958 0.01638568 -0.0025255119 0.199856 0.11535472 -0.97301131 7.5724973e-05
-0.01358903 0.016442122 -0.0019783613 0.19537388 0.09899012 -0.97572023 8.7138033e-05
-0.010477957 0.016526792 -0.0013355348 0.19176517 0.079515539 -0.97821432 0.00015667082
-0.0075291903 0.016475895 -0.00073010061 0.18945304 0.055882577 -0.98029822 0.00022290685
-0.0048429207 0.016420996 -0.00023201885 0.1879565 0.035821699 -0.98152387 0.00012342654
-0.0023661265 0.016181791 -1.3249487e-05 0.21199094 0.013930424 -0.97717237 0.00020018961
-0.039643016 0.019627001 -0.002450872 -0.73037535 0.054932103 -0.68083358 0.017030897
-0.021646336 0.020488909 -0.0029173505 0.16659433 0.15259533 -0.97414631 9.8584853e-05
-0.01936717 0.019553056 -0.0026664084 0.17974471 0.13525669 -0.97437024 7.2128743e-05
-0.016417237 0.01952449 -0.0021183477 0.1801212 0.11958673 -0.97634804 7.25641e-05
-0.013474859 0.019507835 -0.001576628 0.17544177 0.10162063 -0.97923106 0.00010410133
-0.010556067 0.019503381 -0.0010565129 0.17049783 0.08122699 -0.98200446 0.00017331378
-0.0075672315 0.019480526 -0.0005648298 0.1670339 0.058965936 -0.98418635 0.00014772007
-0.0051690382 0.019522259 -0.00016875552 0.16892213 0.043069918 -0.98468792 6.2279149e-05
-0.039718505 0.022850437 -0.0022824463 -0.68279904 0.10677579 -0.72276163 0.017345283
-0.024530293 0.023298284 -0.0028967746 0.14524181 0.16314167 -0.97585326 8.5127467e-05
-0.022353511 0.022659231 -0.0027110495 0.15011713 0.14551747 -0.97790056 9.2711402e-05
-0.019565403 0.022489196 -0.0023008673 0.16058032 0.13257413 -0.97807872 9.4498733e-05
-0.016496673 0.022484187 -0.0017819644 0.16815315 0.11331672 -0.97922611 0.00011237532
-0.013519265 0.022538986 -0.0012904039 0.15629767 0.089638688 -0.98363405 0.00013269212
-0.010498242 0.022543402 -0.00082812121 0.14946255 0.073316798 -0.98604542 0.00010364157
-0.0075508789 0.022461552 -0.0003941569 0.14817882 0.057175014 -0.98730648 4.6142624e-05
-0.0054557342 0.022244927 -9.3254806e-05 0.15097268 0.04690586 -0.98742455 3.696141e-05
-0.039645605 0.025600392 -0.0021795984 -0.56894368 0.12172733 -0.81331766 0.019141003
-0.038789988 0.026494257 -0.0029439291 -0.37373465 0.10657113 -0.92139304 0.014075241
-0.030365571 0.026981227 -0.002965492 0.13035637 0.1861138 -0.97384232 4.1944117e-05
-0.027724903 0.026339773 -0.0028861337 0.13188745 0.17126642 -0.97635722 9.4734503e-05
-0.025452435 0.025625747 -0.0026967474 0.12786366 0.15602343 -0.97944254 7.0625203e-05
-0.022541862 0.025508305 -0.0023405554 0.13669667 0.1424173 -0.98032206 8.2604412e-05
-0.019496877 0.025504431 -0.0019080614 0.14377752 0.12170356 -0.9820978 0.00014520841
-0.016568821 0.025517702 -0.001459977 0.14261106 0.098728947 -0.98484242 0.0001672518
-0.013582026 0.02547049 -0.001027611 0.13668878 0.078866981 -0.98746955 0.00012737607
-0.010458534 0.025538394 -0.00060974411 0.13520861 0.060317367 -0.98897952 8.2255749e-05
-0.0076386235 0.025361096 -0.00024975472 0.13736469 0.045529459 -0.98947358 8.4832915e-05
-0.0055447812 0.025221189 -8.0499667e-05 0.13644816 0.034333281 -0.9900521 8.9340974e-05
-0.039669536 0.028443869 -0.0018259782 -0.59179747 0.1588842 -0.79027313 0.017770102
-0.038496181 0.028655583 -0.0027914394 -0.36479557 0.15102968 -0.9187569 0.0091369692
-0.033433642 0.029630957 -0.0029324421 0.077581435 0.17895356 -0.98079395 0.00086569891
-0.031166503 0.029107299 -0.002813759 0.11480519 0.17131624 -0.97850424 0.00010292786
-0.028439879 0.028560575 -0.0025889541 0.11510819 0.15724146 -0.98082882 9.0609894e-05
-0.025487144 0.028457662 -0.0022710573 0.11465637 0.14129731 -0.98330516 9.9922545e-05
-0.022516195 0.028516751 -0.0019179608 0.1200805 0.12608415 -0.98472512 0.00011503289
-0.019452047 0.028447902 -0.0015434537 0.12225945 0.10631833 -0.98678726 0.00013168019
-0.016567104 0.028599972 -0.0011834293 0.12170993 0.08238209 -0.98914093 0.00015540179
-0.013569409 0.028453797 -0.00084818481 0.11869446 0.064664088 -0.99082297 9.5750635e-05
-0.010456281 0.028564984 -0.00046102641 0.11646857 0.047827326 -0.99204212 4.2016134e-05
-0.0078510595 0.028357726 -0.00015849565 0.11666018 0.03779323 -0.99245256 5.3831947e-05
-0.0056000608 0.028493619 -6.2869753e-05 0.11820056 0.025073308 -0.99267316 7.6862612e-05
-0.039852105 0.031560566 -0.0012983584 -0.585383 0.08433608 -0.80635858 0.02550382
-0.037659824 0.031690888 -0.0026554777 -0.2652829 0.15120332 -0.95224082 0.013839273
-0.034281079 0.031557836 -0.0027715447 0.052702378 0.1584577 -0.98595828 0.0020950683
-0.031412862 0.03145219 -0.0024805253 0.10386265 0.14200306 -0.98440218 0.00013860947
-0.02850692 0.031455707 -0.0021804143 0.10451039 0.13209461 -0.98571217 0.00012953722
-0.025544796 0.031498656 -0.0018779732 0.10343966 0.12274057 -0.98703349 0.00012470319
-0.022504112 0.03146971 -0.0015748705 0.10384893 0.099088937 -0.98964477 0.00013312872
-0.019469338 0.031530373 -0.0012488803 0.10415663 0.084172785 -0.99099261 0.00013528868
-0.016472358 0.03152281 -0.00093069376 0.10185141 0.068491235 -0.99243909 0.00011133074
-0.013518517 0.031433407 -0.00064356544 0.1053627 0.056751598 -0.99281311 6.340554e-05
-0.010495523 0.031506073 -0.00032290973 0.10594735 0.042179123 -0.99347675 3.8437222e-05
-0.0081325918 0.031071693 -8.3375176e-05 0.10497919 0.035328075 -0.99384677 2.9009947e-05
-0.005746346 0.030709315 -4.3531312e-05 0.10155647 0.024489362 -0.99452835 3.5391669e-05
-0.039889261 0.034603193 -0.0010383548 -0.52575886 0.047987107 -0.84927899 0.024461716
-0.037499722 0.034511004 -0.0023537138 -0.21425724 0.10680152 -0.9709208 0.0092673413
-0.034521315 0.034499615 -0.0024350246 0.02550547 0.099286921 -0.99473196 0.0016313787
-0.031464532 0.034434013 -0.0021525861 0.10121456 0.080042668 -0.99163949 0.00052403391
-0.028509341 0.034546379 -0.0018482362 0.103273 0.05297184 -0.99324149 0.0010032379
-0.025551751 0.034539804 -0.0015744369 0.090193398 0.067569755 -0.99362946 0.00046789859
-0.022479529 0.034367479 -0.0012967628 0.092838913 0.070159905 -0.9932062 0.00013311257
-0.019479696 0.034439243 -0.0010146797 0.093441993 0.041169193 -0.99477321 0.00081505877
-0.016447913 0.03444868 -0.00075752748 0.090466589 0.040899299 -0.99505931 0.00034023248
-0.013484622 0.034413017 -0.00049764774 0.093451783 0.033243775 -0.99506861 0.00019054348
-0.010653079 0.034411419 -0.00022666296 0.094987869 0.02706942 -0.99511033 7.1668153e-05
-0.0082198819 0.033944376 -5.6531488e-05 0.092677787 0.01630443 -0.99556267 7.9994337e-05
-0.0058232304 0.034210399 -2.8779152e-05 0.095499352 0.0041046101 -0.99542105 0.00010214149
-0.039689083 0.037242655 -0.0011319277 -0.40748307 -0.058655057 -0.91132712 0.026987873
-0.037363566 0.037440684 -0.002127562 -0.20548245 0.038764521 -0.9778927 0.014304928
-0.034519449 0.037557181 -0.0022756986 -0.0091324802 0.017669441 -0.99980217 0.00455597
-0.031559542 0.037528768 -0.0021247109 0.071403362 -0.02465108 -0.99714285 0.0026499433
-0.028561106 0.03750138 -0.0016754604 0.07911066 -0.064799175 -0.99475753 0.0032735758
-0.02554214 0.037498407 -0.0014399986 0.077212758 -0.087424994 -0.99317425 0.0038894999
-0.022489114 0.037410218 -0.0011817933 0.086644381 -0.081420392 -0.99290651 0.0040902272
-0.019462291 0.037485249 -0.00092699804 0.085852154 -0.11482506 -0.98966891 0.0046897745
-0.01650241 0.037497476 -0.00068128319 0.080506079 -0.08153218 -0.99341404 0.0026197354
-0.013511624 0.037386108 -0.00043303834 0.0835848 -0.088737257 -0.99254179 0.0021799433
-0.010593954 0.03740903 -0.00020798942 0.083455443 -0.091101781 -0.99233848 0.0018866166
-0.0079881884 0.038235702 -8.9594549e-05 0.078495756 -0.12550008 -0.98898339 0.0026306831
-0.0057266988 0.038559999 -6.4150903e-05 0.084984973 -0.16730842 -0.98223495 0.0063571334
-0.045715526 0.041588135 -0.00025639246 -0.33441865 -0.8171593 -0.46948355 0.059100181
-0.04302077 0.041070592 -0.0010381147 -0.40266311 -0.71010655 -0.57759082 0.035734538
-0.040010132 0.040173743 -0.0016712141 -0.23225226 -0.40605134 -0.88384455 0.026379881
-0.037420306 0.040149983 -0.0022330598 -0.17934978 -0.12581635 -0.97570688 0.01992449
-0.0342355 0.039897986 -0.0022503084 0.011172879 -0.078082867 -0.99688429 0.006024953
-0.031470265 0.03999627 -0.00216858 0.061250333 -0.13861726 -0.98845011 0.0059857848
-0.02848454 0.040207505 -0.0019988427 0.067034587 -0.18231075 -0.98095328 0.0053997845
-0.025373451 0.040429119 -0.0018628105 0.061655268 -0.22719902 -0.97189468 0.0051223519
-0.022509791 0.040467832 -0.0016512247 0.071458064 -0.25182757 -0.96513039 0.004852186
-0.019600557 0.04039238 -0.0013736552 0.073852114 -0.2833097 -0.95618075 0.0033269504
-0.016485928 0.040491261 -0.0011529778 0.078511693 -0.28930521 -0.95401174 0.0033907769
-0.013555249 0.040415317 -0.00091849256 0.062234286 -0.2941798 -0.95372182 0.0035493129
-0.010525664 0.040400721 -0.00078225665 0.045197718 -0.31917551 -0.94661725 0.0043021883
-0.0075476696 0.040453155 -0.00065091334 0.056094922 -0.33300263 -0.94125587 0.0045546498
-0.0046849088 0.040404599 -0.00053029612 0.064617492 -0.37320408 -0.92549622 0.004873679
-0.0015701704 0.040700097 -0.00065378775 0.020401334 -0.50358057 -0.86370742 0.0089907097
0.0010978448 0.040746644 -0.00065973151 -0.019855807 -0.5816496 -0.81319708 0.013049448
0.0040988978 0.040773842 -0.0011061513 -0.085538223 -0.70634049 -0.70268512 0.010275883
0.0073463446 0.040958118 -0.0020353661 -0.098892264 -0.83307189 -0.54425311 0.0019318014
0.010376818 0.040452905 -0.0016650609 -0.033370819 -0.88849491 -0.45767149 0.00093038002
0.013057616 0.040186644 -0.00081114966 -0.00115922 -0.90346628 -0.42865756 0.0011272128
0.0167924 0.041099727 -0.0023036711 0.050093591 -0.91886723 -0.39137408 0.00062749436
-0.05146483 0.044466246 -0.0011854192 -0.90364796 0.4259862 -0.044227716 0.019427368
-0.049407646 0.044119023 -0.0025439439 -0.1547768 -0.91430706 -0.37428162 0.018220201
-0.04651482 0.043323375 -0.0014904167 -0.2708568 -0.82386827 -0.49787319 0.039437879
-0.043908171 0.042543143 -0.0020878073 -0.35392448 -0.71471328 -0.6032598 0.018664967
-0.040582992 0.042244479 -0.0027060355 -0.2057678 -0.65840894 -0.7239871 0.019391663
-0.038126152 0.042266846 -0.002950476 -0.065359943 -0.51134068 -0.85688901 0.016087551
-0.034661543 0.042054385 -0.0029168057 -0.015673531 -0.40901968 -0.91239101 0.030175427
-0.030838916 0.042295739 -0.0028807849 0.04486873 -0.37899694 -0.92430955 0.010896643
-0.02841571 0.042311922 -0.0027439562 0.053658612 -0.50460708 -0.86168009 0.0096517215
-0.02539772 0.042352308 -0.0025919906 0.07376419 -0.44513521 -0.89242005 0.0052446239
-0.022257771 0.04285115 -0.0026509217 0.092946716 -0.53017491 -0.84277838 0.0058783046
-0.019499876 0.042779677 -0.0023347696 0.07244534 -0.49565929 -0.86549038 0.0062448978
-0.016572896 0.04319324 -0.0023031505 0.057389382 -0.50092304 -0.86358702 0.0058688321
-0.013495874 0.043097105 -0.002030195 0.02871714 -0.48751205 -0.87264383 0.0053862217
-0.010513971 0.04309871 -0.0020148521 0.015326656 -0.5157069 -0.85662794 0.005382956
-0.0076791849 0.043093272 -0.0020667713 -0.027616307 -0.54275966 -0.83943391 0.0060544917
-0.0045981305 0.042877041 -0.002098761 -0.035634793 -0.6116271 -0.79034328 0.0040000933
-0.001614447 0.042691987 -0.0021607338 -0.057183906 -0.65577191 -0.75279027 0.0047914963
0.0014016784 0.042409271 -0.0023139929 -0.11327405 -0.71379858 -0.69112986 0.0044552125
0.0041138981 0.042102937 -0.0028568925 -0.16183478 -0.78507763 -0.59788173 0.002004745
-0.051741399 0.046613358 -0.0014511207 -0.99133909 -0.092282169 -0.093438968 0.0023037018
-0.05194718 0.049744535 -0.0010582352 -0.99287033 0.00081671134 -0.11919702 0.0019349521
-0.051787008 0.052575767 -0.0012918385 -0.97716147 0.18939744 -0.096353382 0.01521831
-0.051311869 0.055749066 -0.0012513181 -0.78957498 0.58014143 -0.20001823 0.027017763
-0.049468163 0.056827717 -0.0022240463 -0.1700201 0.95493966 -0.24327624 0.016438838
-0.046463206 0.056827627 -0.0022341884 -0.12714401 0.90935373 -0.39611882 0.016314764
-0.044305075 0.056777351 -0.0024406831 -0.31043369 0.82148892 -0.47831675 0.018016551
-0.049495731 0.057205956 -0.0006716894 -0.23857345 0.93291336 -0.26973209 0.020124489
-0.046267096 0.057571441 -0.00066722586 -0.23232099 0.87185222 -0.43116209 0.013859319
-0.043444861 0.058783896 -0.001454644 -0.35430327 0.82183319 -0.44616079 0.0083562341
-0.040572371 0.059420645 -0.0015998433 -0.18211274 0.905065 -0.38430771 0.00042077806
-0.037725743 0.059598763 -0.0022010156 -0.12417474 0.90039891 -0.41696823 0.00031803048
-0.034796532 0.059816044 -0.0025809414 -0.10205001 0.88224292 -0.45960125 0.00042835972
-0.032027505 0.059915472 -0.0028650041 -0.080251113 0.8533116 -0.5151884 0.00052130956
0.04289278 0.059697296 -0.0010725255 0.6609208 0.072864905 0.74690998 0.0026276771
-0.039559931 0.060167056 -0.0002653907 -0.18769474 0.90649521 -0.37820268 0.00032224372
-0.037290394 0.06034879 -0.00073595654 -0.15605272 0.89652234 -0.41460246 0.00030374355
-0.034476407 0.060576014 -0.0011840176 -0.13476847 0.88037586 -0.45472613 0.00044792629
-0.031543948 0.06084327 -0.0014336191 -0.10967189 0.86092788 -0.49676472 0.00052685814
-0.028563345 0.061171193 -0.0014993557 -0.10535908 0.83566582 -0.53903812 0.00056261884
-0.025539801 0.061526306 -0.0015095895 -0.09779226 0.80757755 -0.58159709 0.00053130265
-0.022596013 0.061840933 -0.0015873549 -0.11283842 0.77414006 -0.62287617 0.00053924159
-0.019643214 0.06205488 -0.0018942779 -0.13516685 0.73953879 -0.65940285 0.00077281496
-0.016681891 0.062312655 -0.0022992273 -0.17690578 0.71004736 -0.68156958 0.00054689299
-0.014093997 0.062630422 -0.0026824514 -0.24640347 0.66622043 -0.70387191 0.00094788952
0.041961156 0.062931024 -0.00065907784 0.63682383 0.12132591 0.76140368 0.00083772559
0.043249369 0.061825361 -0.0016798167 0.7052753 0.12716426 0.69743526 0.0015153507
-0.021818979 0.063184075 -0.00012436102 -0.14653972 0.77461439 -0.61522239 0.00034763198
-0.019381635 0.063404031 -0.00043560291 -0.16974418 0.74442303 -0.64577192 0.00042213089
-0.016484167 0.06377621 -0.00084486202 -0.20496009 0.70685095 -0.67701775 0.00051338552
-0.013426805 0.064313166 -0.0013290755 -0.26672596 0.66960233 -0.69317383 0.00070103584
-0.01061487 0.064883336 -0.0020193036 -0.34820452 0.63419074 -0.69033009 0.00069570495
-0.008353102 0.065569952 -0.0026112744 -0.42652509 0.61655241 -0.66176999 0.00056170952
0.041341085 0.063842244 -0.00032028669 0.65223616 0.14113049 0.74476188 0.00039225817
0.043168623 0.064742655 -0.0020523262 0.68773723 0.15851101 0.70844322 0.00097723166
-0.012136543 0.066148601 -0.00012292717 -0.32518041 0.6645084 -0.67281967 0.00033109891
-0.010095609 0.066644505 -0.00063966244 -0.35284382 0.65091515 -0.67216861 0.00042500588
-0.0074350969 0.06744878 -0.0014483118 -0.42443562 0.62929296 -0.6510337 0.0005758534
-0.0051242835 0.068304606 -0.0022957022 -0.49732098 0.61908257 -0.60778993 0.00059518329
0.040835429 0.068008721 -0.00076594361 0.62103474 0.18631417 0.7613166 0.00022985344
0.042583667 0.067960009 -0.0022332221 0.71554077 0.22533947 0.66122884 0.0010968726
-0.0063340487 0.069304116 -0.00034789913 -0.45689291 0.64080215 -0.61694533 0.00045951633
-0.0042313379 0.070141979 -0.0011514361 -0.49295142 0.63980508 -0.58961719 0.00066559965
-0.0019977845 0.071144298 -0.0020804238 -0.5165081 0.64595556 -0.56210387 0.0005729188
0.040722452 0.070952885 -0.0015198374 0.64200997 0.25676921 0.72242153 0.0010789237
0.042269498 0.0705349 -0.0027496202 0.7057814 0.28007165 0.65071696 0.00089746737
-0.0030226107 0.072044611 -0.00012244716 -0.48757729 0.68028635 -0.54724663 0.0012231679
-0.0010780327 0.072779141 -0.0010162484 -0.49256179 0.70634502 -0.50838929 0.0017118063
0.0012744354 0.073907562 -0.0016919598 -0.46992603 0.76742077 -0.43615925 0.0021906258
0.0034103531 0.074737169 -0.002544031 -0.43792525 0.81163132 -0.38662139 0.0029246011
0.038420901 0.074293651 -0.00082717766 0.57857007 0.47239685 0.66490448 0.003925283
0.040509656 0.073503226 -0.0022554868 0.64135236 0.42743659 0.63715398 0.003415996
0.002561884 0.07515768 -0.00067028648 -0.42754218 0.82291454 -0.37419155 0.0035256776
0.0046181162 0.075812377 -0.0014245518 -0.39047182 0.86135232 -0.32496747 0.0026080408
0.0075082877 0.076912567 -0.0015707848 -0.31717944 0.92694169 -0.20044035 0.0024890071
0.009995047 0.077715516 -0.0016243825 -0.30266041 0.94130719 -0.14945734 0.0027223965
0.032985948 0.077663444 -0.00012704318 0.32726958 0.65219057 0.68377054 0.002409037
0.034948744 0.077379592 -0.00077175617 0.39895907 0.68693817 0.60741055 0.0044180863
0.037445351 0.076568246 -0.0017693934 0.50695282 0.61771452 0.60118842 0.0036449353
0.039422978 0.075482339 -0.0024617824 0.58625323 0.56360549 0.58194166 0.002001249
0.011481475 0.078134663 -0.0014436188 -0.2449535 0.96631515 -0.078948833 0.0023122146
0.01336284 0.078561068 -0.00165978 -0.2266469 0.97249931 -0.053630341 0.0027186801
0.016384874 0.07913956 -0.0016269523 -0.17415038 0.98312116 0.056076694 0.0029114031
0.019298445 0.079541929 -0.0017272367 -0.12208528 0.98198515 0.14422299 0.0040994575
0.022449683 0.079809628 -0.0017115721 -0.066537276 0.96119857 0.26771277 0.0031795804
0.025290072 0.079906195 -0.0016920101 -0.032841485 0.9483164 0.31562227 0.0027250121
0.02801563 0.079894364 -0.0018243699 0.010675283 0.92589194 0.37763768 0.0015756709
0.031560197 0.079525664 -0.0018705415 0.1609906 0.88234532 0.44220889 0.0032967222
0.034134485 0.079015702 -0.0022275329 0.2991488 0.82827759 0.47377869 0.0047090417
0.036358099 0.078121558 -0.0025235428 0.45688167 0.69496036 0.55523807 0.004569564
-0.00087610621 -0.073155098 1.0001118e-05 -0.4981153 -0.68664074 -0.52953351 0.00066454016
-0.0098320721 -0.06936606 0.0023956129 -0.37301755 -0.65494847 -0.65719122 0.00062666473
-0.0072003249 -0.069726199 0.0010757832 -0.42884749 -0.63264108 -0.6448682 0.00061866612
-0.0048128213 -0.070551351 0.00023123558 -0.470523 -0.62214935 -0.62573016 0.00070551754
-0.018107587 -0.066254094 0.0029578123 -0.24683307 -0.72155505 -0.64686298 0.00031428447
-0.015737996 -0.066664018 0.0024791316 -0.28802845 -0.69534868 -0.65842974 0.00016700628
-0.013401699 -0.066938199 0.0017643804 -0.31923315 -0.67469484 -0.66549003 0.00031564184
-0.010292018 -0.068042688 0.0012540297 -0.37240016 -0.6546331 -0.65785539 0.00056852924
-0.0085752616 -0.068385072 0.00066302955 -0.40816179 -0.6428706 -0.64816779 0.00042906855
-0.028908953 -0.063284248 0.0026392881 -0.15880544 -0.83142006 -0.53246742 0.00048411341
-0.025782112 -0.063665383 0.002217772 -0.17803337 -0.80429614 -0.56693202 0.0002997609
-0.022375647 -0.0640627 0.0017019624 -0.19046913 -0.77841794 -0.598153 0.00023346761
-0.019479893 -0.064441986 0.0013288809 -0.20170383 -0.75320524 -0.62609696 0.00032355794
-0.016519152 -0.065014079 0.00097172032 -0.24201611 -0.71571296 -0.65512067 0.00032384216
-0.013343747 -0.06568303 0.00037058312 -0.31948099 -0.67217767 -0.66791391 0.00047979702
-0.033173461 -0.062484853 0.0029256379 -0.19629321 -0.84102219 -0.50413364 0.00040620845
-0.031498387 -0.062017292 0.0014462161 -0.16249353 -0.84473491 -0.50992048 0.00038530785
-0.02816779 -0.062348887 0.0010663123 -0.13387008 -0.82958728 -0.54209208 0.00043048445
-0.025422549 -0.06277217 0.00085610512 -0.16079867 -0.79995143 -0.57811892 0.00047774863
-0.023330003 -0.062738732 0.00022281564 -0.15697458 -0.78333139 -0.6014573 0.00045597873
-0.051235106 -0.057091534 0.0015756004 -0.97636747 -0.17171943 -0.13122155 0.0026151247
-0.046139292 -0.058339685 0.00021936845 -0.39230201 -0.71263075 -0.58159834 0.0067561124
-0.051760137 -0.055181187 0.0018635368 -0.90644032 -0.19980441 -0.37208068 0.0059018205
-0.052126877 -0.052202787 0.0015316739 -0.98790437 -0.077775307 -0.1341486 0.0027222517
0.035577483 -0.052028969 0.0027061321 0.54564387 0.52459824 0.65350544 0.0014214981
0.037440047 -0.052081298 0.001318845 0.55682749 0.55215931 0.62053466 0.00099800027
0.039434697 -0.053026553 0.00031969897 0.57915729 0.55826491 0.59406817 0.0020480012
-0.052238148 -0.049435779 0.0014572168 -0.98709315 0.00019180616 -0.16014683 0.0017172075
0.032543879 -0.04851057 0.002537797 0.52867931 0.65179533 0.54374725 0.0018795297
0.034646146 -0.048989095 0.0011321113 0.50770891 0.70081848 0.50108391 0.002251162
0.036997627 -0.050485615 0.00047348233 0.54274565 0.59074706 0.59703022 0.0021132545
-0.052055098 -0.046501156 0.0011459289 -0.91515213 0.34040561 -0.21591806 0.041685641
0.029171938 -0.045538522 0.0018405943 0.49022457 0.78943121 0.3694295 0.0031886348
0.031136993 -0.046389744 0.0010041851 0.47794846 0.80153745 0.35930911 0.0029892197
0.033473138 -0.047528211 0.0003884336 0.48635459 0.74005646 0.46451652 0.001660075
-0.051506266 -0.043047871 0.0015557383 -0.61932415 0.69311279 -0.36882555 0.036407571
-0.049480353 -0.042391304 0.0011393061 -0.28147408 0.87278259 -0.39877683 0.0186256
-0.047158226 -0.042504758 0.00081343373 -0.29034594 0.81368071 -0.50360978 0.020444874
0.023232369 -0.042343508 0.0015883745 0.39347991 0.90954602 0.13378903 0.0025469658
0.025475394 -0.04333023 0.0013099747 0.40035227 0.89728975 0.1859816 0.0027015884
0.027966607 -0.044504393 0.0010433706 0.42645675 0.86683464 0.25832632 0.0023883353
-0.051261701 -0.041843913 0.0027226063 -0.2575314 0.89213121 -0.37118658 0.021341912
-0.049167834 -0.041479744 0.0026246163 -0.34458622 0.82048112 -0.45614794 0.018445589
-0.046315812 -0.040436938 0.0016453948 -0.37616882 0.81412858 -0.4423705 0.010388807
-0.043668654 -0.039770197 0.0013027823 -0.43652138 0.80646414 -0.3988291 0.014912975
-0.041847721 -0.039225608 0.00079973805 -0.55007064 0.74916935 -0.3690089 0.024238076
-0.0036650719 -0.039133474 4.8844246e-05 0.061330732 0.3680585 -0.92777771 0.0077319853
-0.0012726543 -0.039244335 0.0001017729 0.049117438 0.50645512 -0.86086625 0.0058252076
0.0017124858 -0.03931668 0.00023978934 0.074452117 0.62217307 -0.77933151 0.01204673
0.0044011222 -0.03928142 0.00040354693 0.012374207 0.78240317 -0.62264925 0.012838197
0.0072469162 -0.039159805 0.00023990328 -0.017843543 0.86742985 -0.49723953 0.003741479
0.010733871 -0.039130125 0.00038057836 0.061397731 0.94197816 -0.33001119 0.0036150536
