# .PCD v0.7 - Point Cloud Data file format
VERSION 0.7
FIELDS x y z normal_x normal_y normal_z curvature
SIZE 4 4 4 4 4 4 4
TYPE F F F F F F F
COUNT 1 1 1 1 1 1 1
WIDTH 553
HEIGHT 1
VIEWPOINT 0 0 0 1 0 0 0
POINTS 553
DATA ascii
0.037360854 -0.052190505 0.0015709063 0.55071968 0.56604415 0.61343461 0.00061806693
0.039897945 -0.053247984 0.00021328725 0.59570646 0.60317355 0.53039187 0.0030697403
-0.052231386 -0.049643517 0.0014056329 -0.98473984 -0.039998379 -0.16937412 0.0021271985
0.032766517 -0.048681129 0.0026420059 0.55816209 0.59751862 0.57569671 0.0017598935
0.034839228 -0.048848227 0.00081610854 0.51417834 0.69256806 0.50593489 0.0026010987
0.037172165 -0.050429549 0.00039366944 0.53620327 0.60450381 0.58911902 0.00244642
-0.052142251 -0.046449784 0.0017079588 -0.9785111 0.12868172 -0.1611122 0.002639103
0.029045533 -0.045436248 0.00180439 0.48235333 0.79661298 0.36433914 0.0024620204
0.031277481 -0.046595737 0.0012825703 0.49466917 0.7647922 0.41278961 0.0036656635
0.033480234 -0.047682345 0.00066932617 0.48798531 0.74486464 0.45502403 0.0018549705
-0.051429968 -0.042865213 0.0013996116 -0.57570839 0.73125929 -0.3658137 0.027110899
-0.049573053 -0.042422354 0.0011456478 -0.32685596 0.87057191 -0.36779028 0.020054605
-0.047173757 -0.042540248 0.00080731796 -0.3001096 0.80436331 -0.51277065 0.019114541
0.023213292 -0.042344023 0.0016157185 0.40849242 0.8995409 0.15479077 0.0032337101
0.025514513 -0.043371502 0.0013809764 0.40242651 0.89179015 0.2067928 0.0025876765
0.027934447 -0.044476926 0.0010510231 0.42222697 0.86875927 0.25880823 0.002481333
-0.051357549 -0.041871026 0.0027317523 -0.29840788 0.86236978 -0.40898788 0.033863936
-0.049405444 -0.041631386 0.0027242668 -0.33822232 0.83109325 -0.44146323 0.019048603
-0.046280742 -0.040458515 0.0015733493 -0.37707737 0.82701594 -0.416962 0.010286429
-0.043622762 -0.039779026 0.0013193083 -0.40261388 0.84221071 -0.35858485 0.021060772
-0.041722558 -0.039311126 0.0014300239 -0.56730807 0.73524594 -0.37091103 0.029998383
-0.0037748185 -0.039065368 9.1190363e-05 0.051521067 0.41582906 -0.90798223 0.0041675707
-0.0012377095 -0.039241716 0.00015101908 0.060421146 0.49599081 -0.8662231 0.0058472976
0.0017489224 -0.039370373 0.00027311841 0.068075091 0.62875241 -0.77462012 0.012175806
0.004515721 -0.039302204 0.00044238163 0.0099372808 0.7933374 -0.60870117 0.013514861
0.0076620542 -0.039153039 0.00029454881 -0.018925205 0.86934322 -0.49384624 0.0036021899
0.01080268 -0.039146986 0.00042796391 0.051719934 0.93914384 -0.3396084 0.0035826378
0.013708013 -0.039309468 0.0013033772 0.19704992 0.96569914 -0.16910511 0.0030028683
0.016399723 -0.039916921 0.0015430531 0.26799101 0.95933521 -0.088638358 0.0040533845
0.019499706 -0.040882099 0.0013401752 0.30677181 0.95175135 -0.0077732108 0.0025820972
0.021777501 -0.041699115 0.0012300989 0.3592158 0.92996883 0.078243956 0.0028498501
-0.042329114 -0.038630355 0.0020011631 -0.59809405 0.72610712 -0.33919314 0.026603004
-0.041394193 -0.037726093 0.0011578582 -0.72385544 0.56687844 -0.39329666 0.042519122
-0.0095020011 -0.036820628 5.5959554e-05 0.068175808 0.087815724 -0.993801 0.0040439507
-0.0070472541 -0.037288714 0.00012744832 0.073298268 0.12826125 -0.98902804 0.0043589179
-0.0045086159 -0.037451725 0.00030461958 0.071456723 0.14305587 -0.98713166 0.0048007932
-0.0014605819 -0.037619602 0.0005146339 0.10387786 0.20163517 -0.97393662 0.0070830281
0.0015613801 -0.03764854 0.001000109 0.20183207 0.30295911 -0.93138587 0.01890081
0.0044889189 -0.03810836 0.0018993284 0.24730974 0.72657877 -0.64103138 0.053969949
0.0075154267 -0.03842476 0.0018322566 0.0724243 0.90695989 -0.41494408 0.0049661607
0.010495408 -0.038649548 0.001846352 0.13767308 0.94555873 -0.29489806 0.0034715899
0.012684022 -0.038859967 0.0024562173 0.24015965 0.9558847 -0.16913839 0.0029529158
-0.040472079 -0.034815941 0.0020131548 -0.95392996 0.17372008 -0.24462013 0.013816111
-0.0092881043 -0.035133548 1.8537718e-05 0.085976765 -0.016734879 -0.99615657 0.00069509179
-0.0071659856 -0.03477351 0.00012184161 0.08633396 -0.018838651 -0.99608815 0.0004373152
-0.0044595287 -0.034440633 0.00036683367 0.090502121 0.008922766 -0.99585629 0.00061350036
-0.0013821059 -0.034456737 0.00066985656 0.15689766 0.035103805 -0.98699087 0.0025041753
0.0014469539 -0.034482878 0.0012242774 0.38693774 0.088855967 -0.91781461 0.033567309
0.0031900501 -0.034741122 0.0022510737 0.69146019 0.20934249 -0.69141769 0.042389099
-0.040359929 -0.031469833 0.0023474037 -0.97264433 0.0025044188 -0.2322859 0.0027525462
-0.0069412012 -0.031440109 8.1107704e-05 0.10826954 -0.035899002 -0.99347317 4.0965315e-05
-0.0044609569 -0.031550266 0.0002889141 0.11099849 -0.027790761 -0.99343193 5.4613465e-05
-0.0015130412 -0.031488467 0.00062699622 0.16762713 -0.0085607944 -0.98581332 0.0013775458
0.0015518848 -0.031470519 0.0012593815 0.4067474 0.0022975989 -0.91353774 0.028140545
0.0032161106 -0.031712245 0.0023671696 0.7894066 0.0066958643 -0.61383414 0.032805115
-0.04029052 -0.028025677 0.0021624076 -0.97349912 0.0058424957 -0.22861634 0.0033851464
-0.0064887982 -0.028672582 4.2418866e-05 0.1222434 -0.031257555 -0.99200785 3.5914451e-05
-0.0045103189 -0.02858372 0.00021395186 0.12764686 -0.019614844 -0.99162567 4.8914157e-05
-0.0014328565 -0.028497601 0.000611806 0.1822269 -0.01199295 -0.98318338 0.001393082
0.0016552362 -0.0284662 0.0012989312 0.40148288 0.00041366011 -0.91586643 0.027476385
0.0032795211 -0.028613064 0.0024410179 0.80286425 0.0058251903 -0.59613341 0.029738294
-0.040236931 -0.025369404 0.002019512 -0.9635272 0.035611033 -0.26523039 0.0039584436
-0.0042777569 -0.025527304 0.0001835755 0.13827333 -0.020189954 -0.99018836 3.245979e-05
-0.0015112633 -0.025502061 0.00058375095 0.20822121 -0.012877689 -0.977997 0.0022774714
0.001485615 -0.025487727 0.0012323201 0.40463868 -0.0030598112 -0.91447151 0.026549513
0.0032348768 -0.025671113 0.0023956737 0.85624874 0.0076952814 -0.51650649 0.014090149
-0.040047724 -0.022354446 0.0015221209 -0.96955049 0.020816915 -0.24400535 0.0033132399
-0.0041394397 -0.022629485 0.00015208324 0.15243477 -0.015764175 -0.98818779 2.6446438e-05
-0.001581211 -0.022515729 0.00054774195 0.18349025 -0.0097442186 -0.98297322 0.00019428896
0.0015137596 -0.022515001 0.0012357436 0.43757579 0.0028814743 -0.89917696 0.027962195
0.0031800633 -0.022273812 0.0023384758 0.85249054 0.00071719941 -0.52274215 0.014140675
-0.039990973 -0.019516239 0.001369782 -0.96933264 0.041499898 -0.24222304 0.0035802489
-0.0040120687 -0.019703439 0.00012660229 0.16116612 -0.016193425 -0.98679447 1.8821913e-05
-0.0014816956 -0.019457588 0.00054123061 0.19324045 -0.0069093024 -0.98112708 0.00024706655
0.0014201381 -0.019592734 0.0011967378 0.44471192 0.01817324 -0.89548922 0.028454011
0.0032959261 -0.019113807 0.0023679056 0.76664543 -0.019973233 -0.64176005 0.03210032
-0.04005627 -0.016404776 0.0015356342 -0.94711798 0.04090267 -0.31826791 0.0016397308
-0.0038395573 -0.016703576 0.00010403712 0.17370462 -0.017358243 -0.98464477 3.5255482e-05
-0.0016053002 -0.016473442 0.00049973332 0.20065962 -0.011140868 -0.97959775 0.00023302429
0.0015666127 -0.016510583 0.0012795865 0.45182803 0.0069845826 -0.89207768 0.026698453
0.0034931425 -0.016620914 0.0025756611 0.80223417 -0.011737903 -0.59689415 0.024121156
-0.04004484 -0.01340789 0.0015014282 -0.93330151 0.0011345564 -0.35909206 0.00020515616
-0.0037635949 -0.013561331 0.00012849068 0.18949604 -0.020441771 -0.98166871 3.8642174e-05
-0.0016740552 -0.01346952 0.00045889002 0.21659628 -0.015114324 -0.97614425 0.00015095183
0.0014956648 -0.013426182 0.0012361958 0.45270422 -0.0060395347 -0.89164031 0.025151106
0.0034535863 -0.013544415 0.0025267268 0.73373735 -0.0079650246 -0.67938644 0.011621081
-0.040124577 -0.010544883 0.0017063029 -0.89380389 0.0056488365 -0.44842249 0.0055667805
-0.0034388641 -0.010864939 6.5273045e-05 0.20717682 -0.021672161 -0.9780634 4.1550986e-05
-0.0013919869 -0.010568592 0.0004826611 0.23041143 -0.013165519 -0.97300422 0.00015265851
0.0016258968 -0.010447197 0.0012816571 0.46381453 -0.0085538356 -0.88589096 0.026117267
0.0033869294 -0.010555271 0.0024496741 0.73568594 -0.0045761904 -0.67730731 0.010561086
-0.040068127 -0.0076145725 0.0015560309 -0.8926897 -0.070373133 -0.44514355 0.0057187174
-0.003483858 -0.007606185 4.6425987e-05 0.22026142 -0.025667055 -0.97510314 6.0402534e-05
-0.0015398912 -0.0075138542 0.00040659812 0.23758362 -0.019885523 -0.97116351 0.0001255778
0.0015477847 -0.0075056613 0.0012459349 0.46903676 -0.0042749722 -0.88316834 0.024736023
0.0033196174 -0.007299338 0.0023753536 0.73455465 0.0049177972 -0.67853183 0.0098716859
-0.040517289 -0.0039679338 0.00089881488 -0.91828078 -0.0525584 -0.39242589 0.0047435435
-0.0013931872 -0.0045009814 0.00040163248 0.25281423 -0.018503141 -0.96733791 0.00012776633
0.0014494914 -0.0045520156 0.0012041602 0.47105044 -0.0062716193 -0.88208395 0.025295028
0.0032608567 -0.0043848562 0.0023141534 0.68574482 -0.0018471805 -0.72783971 0.020583382
-0.040931039 -0.0012748747 0.0016900832 -0.91842866 -0.025767485 -0.39474648 0.0045636934
-0.0014124565 -0.0015399485 0.00034586084 0.27852765 -0.010379394 -0.96037215 0.00072943815
0.0014189655 -0.0014976988 0.0011830848 0.46711904 -0.0057019908 -0.88417602 0.023061031
0.0032048447 -0.0016193371 0.0022587837 0.6660772 -0.0011276384 -0.74588192 0.018800126
-0.041035268 0.0016611659 0.002278442 -0.88810128 0.013336142 -0.4594543 0.0037287821
-0.0013900382 0.0014408337 0.00033023403 0.28544632 0.0013526509 -0.95839381 0.00068528001
0.0014722268 0.0015137399 0.0012173651 0.41422635 0.0031143697 -0.91016859 0.011974919
0.0031472922 0.0013875345 0.0022170364 0.60918003 -0.021860814 -0.79273051 0.01438091
-0.040453363 0.0042370846 0.0017816969 -0.90156823 0.094441704 -0.42220324 0.0049487501
-0.0030682441 0.0054461341 1.0223818e-05 0.25899392 0.017117538 -0.96572727 4.8292939e-05
-0.0013905372 0.0045028999 0.00035164351 0.28329587 0.010803072 -0.95897168 0.00066413404
0.0014857625 0.0044923741 0.0012349903 0.39591438 0.0033902798 -0.91828114 0.012040219
0.0031608371 0.0044402005 0.0023206375 0.65571547 -0.00044819646 -0.75500798 0.0080223959
-0.04003831 0.0074519292 0.0014613802 -0.92115444 0.069905281 -0.38286787 0.00258585
-0.0030920412 0.0077241114 5.8802172e-05 0.24281661 0.021460934 -0.9698348 3.1102383e-05
-0.001406597 0.0075105657 0.00039390798 0.26043597 0.01127411 -0.96542525 0.00014202046
0.0015473318 0.0075258221 0.001260045 0.37337831 -0.0042300369 -0.92766947 0.011974744
0.0032686838 0.006816234 0.0024352279 0.64923579 0.00080948567 -0.7605868 0.0082058748
-0.039966315 0.010461547 0.0012706583 -0.9213109 0.010615242 -0.38868183 0.0005742677
-0.0034047742 0.011142688 6.408948e-05 0.2255497 0.021969618 -0.97398394 5.6694458e-05
-0.0013983032 0.010484683 0.00042902306 0.24558474 0.010117208 -0.96932238 0.00016093084
0.0014382362 0.010531276 0.0012036174 0.37689617 -0.00046594988 -0.9262554 0.012817874
0.0032027846 0.010631988 0.0023885244 0.86077368 0.00014945038 -0.50898784 0.014602749
-0.040087335 0.013492237 0.001583405 -0.9332028 -0.0034277129 -0.35933375 0.00033612765
-0.0034740518 0.013704713 9.3038921e-05 0.20951769 0.018096907 -0.97763741 5.4584914e-05
-0.001530344 0.013482742 0.00043514161 0.22551386 0.012700102 -0.97415721 0.00015420008
0.001307073 0.013466698 0.0011610603 0.36683545 -0.006557934 -0.93026268 0.012986865
0.0034080218 0.014133995 0.0024574543 0.74901956 -0.061698608 -0.65966886 0.020271394
-0.040126003 0.016612049 0.0016797337 -0.91484845 0.01735647 -0.40342426 0.0065697851
-0.003538575 0.017300775 8.0727019e-05 0.18606974 0.025377519 -0.98220873 5.3566222e-05
-0.0015037894 0.016478987 0.00045002345 0.21497913 0.012602057 -0.97653729 0.00015431062
0.0011602696 0.016347356 0.0011120258 0.354709 0.0046153478 -0.93496537 0.013908054
0.0033661695 0.01648213 0.0024118056 0.70257235 -0.065190054 -0.70862007 0.041148782
-0.040090516 0.019551655 0.0015830534 -0.96560842 -0.040624797 -0.25680727 0.0039036209
-0.0036205454 0.01960914 0.00012868333 0.16987105 0.02945067 -0.98502612 7.0196482e-05
-0.0015647899 0.019393777 0.00049778767 0.19743818 0.01915242 -0.98012823 0.00023277874
0.0014958982 0.019517686 0.0011984934 0.4180668 0.00019009794 -0.90841627 0.019922698
0.0032991972 0.01949589 0.0023382171 0.56973034 -0.012011732 -0.82174391 0.025164083
-0.040158961 0.022447603 0.0017578118 -0.97221804 -0.012838848 -0.23372479 0.0034380187
-0.0040446771 0.022599295 0.00016458884 0.15166886 0.037996333 -0.98770082 9.1307571e-05
-0.0017258961 0.022353971 0.00050823786 0.17552221 0.023457816 -0.98419595 0.00025932831
0.0014161089 0.022464871 0.0011650717 0.4123975 0.001045607 -0.91100341 0.021521267
0.0033361225 0.022598375 0.0023805064 0.63807124 -0.0014229253 -0.76997602 0.0094922753
-0.040207319 0.0254221 0.001880592 -0.97305256 0.00039295497 -0.23058322 0.0030825105
-0.0064953486 0.026093699 4.855642e-05 0.13092087 0.037794694 -0.99067217 7.1536546e-05
-0.0044763875 0.025492111 0.00023327122 0.13759583 0.032000117 -0.9899714 7.62665e-05
-0.001453287 0.025474435 0.0005919016 0.19010924 0.01198973 -0.98168975 0.0021598216
0.0014128021 0.025548488 0.0011619898 0.39346275 -0.0013154094 -0.9193396 0.021480937
0.0032657729 0.02546715 0.0023109834 0.62911493 0.00086664862 -0.77731186 0.0094993412
-0.040431645 0.028795164 0.0024620176 -0.96683323 -0.043105558 -0.25174457 0.0018385092
-0.0068301619 0.02866294 5.841396e-05 0.11826877 0.031307466 -0.99248797 6.6771383e-05
-0.0047601694 0.02833765 0.00022088167 0.11767064 0.023524007 -0.99277395 5.8083417e-05
-0.0015034049 0.028528685 0.0005826847 0.17762807 0.004642345 -0.98408669 0.0022516414
0.0013343431 0.028447345 0.0011297651 0.38782939 9.0692512e-05 -0.92173117 0.022282209
0.0032193731 0.028478017 0.0022695288 0.62073183 -0.00026623238 -0.78402293 0.0094093829
-0.040616762 0.031734433 0.0019927146 -0.97162193 -0.022851476 -0.23543291 0.0013596652
-0.0072053201 0.031667978 5.8110629e-05 0.10302137 0.030174252 -0.99422139 3.1340689e-05
-0.0045096204 0.031443954 0.00028278684 0.10473482 0.019446246 -0.99431008 4.7105408e-05
-0.0015783061 0.031577103 0.00058827712 0.16950925 0.010709932 -0.98547041 0.0023383859
0.001311796 0.031403728 0.001118544 0.3774462 -0.00044162781 -0.92603141 0.022729022
0.0031698998 0.031470977 0.0022177415 0.74750435 0.01366921 -0.66411626 0.034916606
-0.040674511 0.034263853 0.0012330204 -0.94048083 -0.13844129 -0.31037045 0.0090689575
-0.0091911154 0.034768466 2.0237831e-05 0.084104255 0.008351652 -0.99642199 0.00040305243
-0.0070647248 0.034622595 0.00010216322 0.087757796 0.014405754 -0.99603766 7.6830547e-05
-0.0045267362 0.034485906 0.00032345642 0.086194582 0.0021957201 -0.9962759 7.2788942e-05
-0.0015567662 0.034529567 0.00060564204 0.13639782 -0.039281633 -0.98987508 0.0019853725
0.0014361634 0.034602985 0.0011938779 0.39306614 -0.039500736 -0.91866136 0.023788527
0.0031275791 0.033895046 0.0021764887 0.54001379 -0.039442804 -0.84073144 0.026711026
-0.04200276 0.037914429 0.0026981607 -0.8839336 -0.30815363 -0.35171399 0.017106328
-0.041306045 0.037389424 0.0010956306 -0.88393921 -0.30813777 -0.35171378 0.017111825
-0.0094119664 0.03671157 3.62176e-05 0.090923905 -0.092995748 -0.99150628 0.0029359646
-0.0071906121 0.037114896 0.000113473 0.079827182 -0.088228352 -0.9928965 0.0025036517
-0.0045675216 0.037365194 0.00030396431 0.060865201 -0.12075873 -0.99081421 0.0031735972
-0.0015467689 0.037459958 0.0005268883 0.098205499 -0.18591261 -0.97764623 0.0063801501
0.0014220357 0.037389342 0.001073879 0.27131498 -0.19925407 -0.94164008 0.011662467
0.003442419 0.037367135 0.0022568272 0.29105213 -0.22624941 -0.92956966 0.036376476
-0.041685343 0.039441437 3.7195787e-05 -0.50321966 -0.67353278 -0.54140884 0.030430665
-0.0063372431 0.039145492 2.8477834e-06 0.07840734 -0.30394906 -0.94945633 0.0057366784
-0.003977593 0.039110724 5.9000107e-05 0.060269803 -0.30634066 -0.95001209 0.0032966514
-0.0011999635 0.039400429 0.00011900478 0.082168408 -0.42045215 -0.90358633 0.0061361669
0.0012064115 0.039448142 0.00034316466 0.1256423 -0.4763658 -0.87022388 0.018038241
0.0041630357 0.039417621 0.00075042422 -0.034074292 -0.69750482 -0.71576953 0.015791692
-0.051772822 0.043867625 0.0017728511 -0.98668885 -0.09732601 -0.13027969 0.0015573007
-0.052134749 0.046641003 0.0014428727 -0.98669022 -0.097314745 -0.1302775 0.0015437
-0.052308541 0.049424089 0.0015750227 -0.98467541 -0.035511091 -0.17074344 0.0017773364
-0.052194923 0.052438989 0.0017254144 -0.97936696 0.11651508 -0.16512017 0.0013020405
-0.051707424 0.055621468 0.0015362151 -0.91182858 0.33008391 -0.2441583 0.026883831
-0.051201325 0.057527989 0.0013803 -0.45098054 0.83225107 -0.3224512 0.01156522
-0.049454171 0.057813205 0.001563627 -0.30488971 0.88786662 -0.34457967 0.0139523
-0.046614505 0.058822978 0.0013856892 -0.28204751 0.85924351 -0.42679018 0.0035770312
-0.043837063 0.059744574 0.00093346206 -0.28646377 0.87021255 -0.40083492 0.0030794786
-0.045193233 0.060045615 0.0027627796 -0.33212653 0.85492778 -0.39848518 0.0032474804
-0.043151285 0.060324002 0.0021156096 -0.24920544 0.90074897 -0.35573578 0.00073682365
-0.040495574 0.060724847 0.0015514854 -0.20527935 0.90765041 -0.36610264 0.00031976338
-0.037474927 0.061346248 0.0014998211 -0.18736418 0.89633542 -0.40184271 0.00049201743
-0.034491569 0.061983854 0.0015844447 -0.17897809 0.88401783 -0.43183255 0.0004140895
-0.031569634 0.062267806 0.0010555793 -0.15584636 0.86229604 -0.48182717 0.00053417066
-0.02865361 0.062528789 0.00066793105 -0.1401993 0.83784705 -0.52759504 0.00048559482
-0.025894266 0.062771648 0.00027661899 -0.13770856 0.80940902 -0.57087076 0.00047032605
-0.031109985 0.063210815 0.0025823659 -0.18720776 0.85545558 -0.48285505 0.00037508446
-0.028327987 0.06354636 0.0021517975 -0.17761753 0.83489579 -0.5209617 0.00037798163
-0.02536482 0.063820094 0.0016431848 -0.16977718 0.80980569 -0.56159633 0.00052901654
-0.022435131 0.064356446 0.0015383705 -0.1662818 0.78765619 -0.59325212 0.00039148011
-0.019602612 0.06492006 0.0014004147 -0.20364334 0.75163347 -0.62735683 0.00034376961
-0.016687509 0.065294906 0.00084023847 -0.234442 0.71728683 -0.65615284 0.00039074535
-0.014122995 0.065761447 0.00037364062 -0.29250255 0.69564515 -0.65614027 0.00050158461
-0.018704541 0.066278949 0.0026983323 -0.22629116 0.75018317 -0.62130314 0.00039911913
-0.016231509 0.066738829 0.0022821308 -0.25868481 0.73432833 -0.62757003 0.00046127068
-0.013414952 0.067324996 0.0017039089 -0.3090927 0.70300937 -0.64049947 0.00069931382
-0.010717374 0.067949444 0.00097851944 -0.35409331 0.66899437 -0.65350169 0.00027623755
-0.0083646541 0.06870617 0.00040686812 -0.41575128 0.66209728 -0.62352079 0.00056056649
-0.012057523 0.069018602 0.0027290147 -0.34532869 0.69812405 -0.62719297 0.00048731026
-0.010156162 0.069592118 0.0023431964 -0.35674053 0.71086776 -0.60613793 0.00090944819
-0.0074621928 0.070407294 0.0015478075 -0.41817456 0.70291609 -0.57535994 0.001678886
-0.0051021585 0.071267426 0.00074256689 -0.46774685 0.65690148 -0.59134877 0.00074320834
-0.0061484086 0.072142772 0.0026490747 -0.43006262 0.71802962 -0.54724729 0.0026474234
-0.0041434448 0.072712898 0.0018086785 -0.43931589 0.75464308 -0.48735547 0.0032103746
-0.0016213052 0.073925033 0.0014256036 -0.41420701 0.83267015 -0.36754999 0.0014543749
0.000525449 0.074724182 0.00069397071 -0.40677419 0.8547343 -0.32243454 0.0036528227
-0.00013450335 0.075130537 0.0026021954 -0.41628933 0.85791826 -0.30113029 0.0051893238
0.0016367703 0.075547159 0.0016299397 -0.32610786 0.90875089 -0.26043317 0.0042017004
0.0044164979 0.076495111 0.0014854455 -0.29184881 0.9459843 -0.14120182 0.0032065175
0.0074394951 0.0773312 0.0014356337 -0.24013789 0.96920162 -0.054608557 0.0043537873
0.0099012572 0.077836543 0.0016884075 -0.18749754 0.98192805 0.025729537 0.0042115962
0.01119961 0.078120306 0.00094857591 -0.1823435 0.98131585 0.061400428 0.0028554541
0.013383612 0.07841517 0.0011952979 -0.12301459 0.98297822 0.13645956 0.0020828978
0.016261585 0.078662544 0.0013669161 -0.079054445 0.97384131 0.21303394 0.0031581579
0.01930378 0.078800201 0.0013395485 -0.045181002 0.96716362 0.25010648 0.0013287767
0.022540869 0.078782812 0.0011920686 -0.052856963 0.95929235 0.27742437 0.00088444928
0.025444554 0.079212725 1.7465498e-05 -0.057060577 0.96015936 0.27356553 0.00093608029
-0.015673853 -0.067556277 0.0034094672 -0.33592945 -0.6616596 -0.67034173 0.00013120621
-0.051656004 -0.057314835 0.0036123951 -0.98861164 -0.14506383 -0.040043857 0.0057601826
-0.052159615 -0.055172384 0.0035975548 -0.9785198 -0.13731278 -0.15376697 0.0012968787
-0.052569915 -0.052170642 0.0035331771 -0.98472214 -0.10879728 -0.13596134 0.00215868
0.034494743 -0.051842708 0.0036799817 0.55326509 0.57820833 0.59964401 0.0012246184
-0.052690685 -0.049178995 0.0034856859 -0.98385274 0.16709247 -0.064139791 0.02240446
0.029421011 -0.048393153 0.0054780869 0.54201961 0.61061615 0.57737571 0.0011916873
0.031501301 -0.048828043 0.0039256085 0.52259129 0.67854953 0.51620615 0.0012589931
0.033490445 -0.049875699 0.0030342645 0.536542 0.60456628 0.58874643 0.0020079317
-0.052509394 -0.046278417 0.0034248806 -0.96944505 0.23243944 -0.078410491 0.02545369
0.026132513 -0.045354858 0.0051705614 0.51982349 0.74010438 0.42664871 0.0030847024
0.028274927 -0.046317376 0.0042060032 0.50720865 0.73581427 0.44868341 0.0017112545
0.030682884 -0.047630139 0.0034658574 0.51134664 0.7317884 0.45056665 0.0022813233
-0.052160259 -0.043161161 0.0039672288 -0.84925014 0.51247627 -0.12705231 0.051501695
0.020721028 -0.042182866 0.005657474 0.48471576 0.83018559 0.27539539 0.008162383
0.022777056 -0.042876136 0.0044124778 0.4483209 0.85191661 0.27064076 0.0019707715
0.025235802 -0.044290032 0.0043515195 0.46293914 0.82279181 0.32969844 0.0020494915
-0.051420558 -0.041309219 0.0044915541 -0.63914114 0.748429 -0.17706695 0.03152835
-0.049470272 -0.040834181 0.0045771911 -0.37898508 0.85872912 -0.34489787 0.0094687892
-0.046513867 -0.039557755 0.0045111733 -0.32969698 0.88256067 -0.33524111 0.0044230018
-0.04417038 -0.039257534 0.0039239647 -0.36799037 0.88350981 -0.2898165 0.010390519
-0.041464571 -0.039019018 0.0033012317 -0.55284953 0.80157274 -0.22768107 0.032102667
0.014406892 -0.039172981 0.0047418457 0.32738781 0.94483399 0.010294103 0.0028150922
0.016486989 -0.039927509 0.0044315704 0.35637423 0.93321848 0.045832619 0.0038821027
0.019334504 -0.041113738 0.0043279617 0.40265885 0.89666414 0.18400931 0.0030293444
0.021283969 -0.04186669 0.0037635628 0.43900794 0.86753583 0.23378117 0.0030448318
-0.045056596 -0.038965363 0.0055365399 -0.39253956 0.85342145 -0.34290615 0.0080272509
-0.043328762 -0.038263191 0.0046616425 -0.43635193 0.82728201 -0.35383812 0.019811038
-0.041360769 -0.037291028 0.0042824508 -0.73698026 0.60967678 -0.29181194 0.036918789
0.0049739922 -0.036993507 0.004298443 0.586142 0.67820579 -0.44325429 0.044209972
0.0075196442 -0.037361961 0.0044984128 0.20689325 0.92231733 -0.32638302 0.01481923
0.010518689 -0.038072117 0.0043958831 0.23360164 0.95439702 -0.18589434 0.0055346251
0.012961216 -0.038706392 0.0045590666 0.29631099 0.95346957 -0.055638392 0.0041413908
-0.041158058 -0.033741951 0.0045115827 -0.94360107 0.12582444 -0.30624375 0.015532
0.0045037917 -0.034851197 0.0051302635 0.8053149 0.31153303 -0.50439572 0.022033134
-0.041420087 -0.031565972 0.0051899403 -0.93212825 0.044908386 -0.35933292 0.0025292239
0.0039957501 -0.031589966 0.0052369153 0.8903532 0.0026636915 -0.45526272 0.0080189193
-0.041283615 -0.028218608 0.0048281071 0.086500093 0.92428857 -0.37176386 0.00092803169
0.0040136729 -0.028507736 0.0052598398 0.88307631 -0.01579524 -0.46896347 0.0074079735
-0.041214351 -0.025586629 0.0045676618 -0.93372005 -0.00048761998 -0.35800371 0
0.0039801691 -0.025485428 0.0052174814 0.88915372 0.0023172968 -0.45760286 0.0079919407
-0.041149415 -0.022560805 0.0043936558 -0.91083217 -0.040268376 -0.410808 0.002642103
0.0040829838 -0.022655884 0.0053480761 0.88014454 0.017016914 -0.47440076 0.0077898046
-0.04124444 -0.019468151 0.0046382202 -0.8857668 -0.061273646 -0.46006823 0.0043382747
0.0040374058 -0.019213272 0.0052909469 0.88497978 -0.017591869 -0.46529701 0.0073153847
-0.042750534 -0.015683617 0.0058902125 -0.85853696 -0.047235943 -0.51057136 0.0053240876
-0.041179556 -0.016491735 0.004466393 -0.86779684 -0.033218678 -0.49580765 0.0052800346
0.0039721807 -0.01627847 0.0052088518 0.88472766 -0.013248321 -0.46592003 0.0098644746
-0.042364702 -0.01338123 0.0055203973 -0.87552428 -0.029640563 -0.48226413 0.0047937073
-0.041118626 -0.013696956 0.0043048151 -0.84667081 -0.033453319 -0.53106445 0.0076828343
0.0039236094 -0.013375212 0.0051479619 0.8945424 0.0056546582 -0.44694731 0.0096408371
-0.042631604 -0.011027647 0.0050387131 -0.8756268 -0.027256867 -0.48221859 0.0047178427
-0.041267548 -0.010607206 0.0043618069 -0.8377986 -0.043999895 -0.54420358 0.0069757928
0.0041235425 -0.010287897 0.0054023461 0.90060353 0.014091457 -0.43441302 0.0075328276
-0.0426258 -0.0073889932 0.0049440553 -0.87930053 -0.011171954 -0.47613633 0.0062068524
-0.04149773 -0.0074893278 0.0039628306 -0.87983954 -0.024331836 -0.47464761 0.0057391706
0.0040249918 -0.0075653517 0.0052778181 0.8853389 -0.0050156433 -0.46491927 0.0096129756
-0.042336687 -0.0043908032 0.0041856314 -0.90235227 -0.024551954 -0.43029946 0.0060271644
-0.041133657 -0.0042236401 0.0033193312 -0.89963108 -0.043919582 -0.43443647 0.0072458708
0.0040235468 -0.004401566 0.0052763023 0.87899166 0.006662102 -0.47679055 0.011253225
-0.042555884 -0.0022360063 0.004754819 -0.89998174 -0.026560582 -0.43511772 0.0041281735
-0.041550234 -0.0025088547 0.003030004 -0.89012039 -0.012649881 -0.45554984 0.0031607589
0.0038183769 -0.0014861677 0.0050163898 0.87901169 0.0076030688 -0.47673967 0.011577593
-0.042519867 0.001421409 0.0046552639 -0.8894549 0.0022506837 -0.45701736 0.003074419
0.003824441 0.0015526607 0.005065992 0.88529623 0.0041873478 -0.46500865 0.010580485
-0.042428866 0.0046607521 0.0044129719 -0.89973712 0.014955563 -0.43617603 0.003313303
-0.041393504 0.0048866505 0.0033161393 -0.90543014 0.029888975 -0.42344189 0.0049357577
0.0038083142 0.0045549888 0.0050454964 0.89124924 0.0022173612 -0.45350841 0.0085302852
-0.042429373 0.0080151465 0.0044413377 -0.89077598 0.018141665 -0.45408043 0.0044948873
-0.041494623 0.0073383842 0.003854828 -0.88590056 0.022492001 -0.46332964 0.0041072527
0.0037576517 0.0074550658 0.0049808403 0.88191426 -0.0020202824 -0.47140563 0.010686962
-0.042394876 0.0099014146 0.0046648616 -0.88713109 0.02429067 -0.46087775 0.0045951391
-0.04121238 0.010620347 0.0041722516 -0.84382063 0.05089888 -0.53420609 0.0063256426
0.0037518211 0.010492811 0.004973304 0.88003981 -0.00086915097 -0.47489917 0.010782504
-0.042479772 0.013575477 0.0053870529 -0.7973693 0.068000756 -0.59964836 0.0096770013
-0.041198537 0.013450947 0.0043813116 -0.85573357 0.065640926 -0.51323617 0.01202598
0.0037013853 0.013514008 0.0049091391 0.87936968 0.00066765648 -0.47613916 0.010842392
-0.042820327 0.015792988 0.0058696973 -0.78748411 0.073909454 -0.6118874 0.0087491674
-0.041212302 0.016377801 0.0045163808 -0.86064529 0.089182779 -0.50133443 0.011215195
0.003695871 0.016503178 0.0049018366 0.87911546 0.00098342542 -0.47660795 0.011047341
-0.041218087 0.019616758 0.0045273951 -0.89633745 0.021825751 -0.44283512 0.0082287844
0.0036459374 0.01947549 0.0048388508 0.87973273 -0.0082012098 -0.47539788 0.011272139
-0.041257333 0.022483651 0.0046262448 -0.90665662 0.022046175 -0.42129293 0.004028643
0.0038555951 0.022443384 0.0051045767 0.89178741 -0.0072129355 -0.45239711 0.0086615309
-0.041171696 0.025464231 0.0043982398 -0.93384928 -0.0004842109 -0.35766646 0
0.0037982336 0.025473788 0.0050320257 0.89419681 -0.0025084217 -0.44766706 0.0082565797
-0.041173063 0.028463144 0.0043976074 -0.94107711 -0.020609472 -0.33756357 0.00063878077
0.0039210194 0.02857388 0.0051877839 0.8927182 -0.0048661269 -0.45058921 0.0079108216
-0.041249536 0.031621706 0.0045930436 -0.95440441 -0.041358143 -0.295638 0.001661274
0.0039361985 0.031460281 0.0052070119 0.89294034 0.0069750273 -0.45012099 0.0086063305
-0.04127901 0.034240283 0.0046669762 -0.9431746 -0.17231563 -0.28412879 0.0039817276
0.0038192312 0.034128949 0.0050589684 0.84114999 -0.075423867 -0.5355165 0.011605325
-0.042524733 0.037480298 0.0042326991 -0.8934809 -0.3102133 -0.32474554 0.0096439309
-0.052139152 0.043417882 0.0037374047 -0.99498034 -0.088987805 -0.045773946 0.0061516967
-0.052648824 0.046627384 0.0036789929 -0.98591137 -0.075239874 -0.14939143 0.0010281304
-0.052742008 0.049440142 0.0035607291 -0.99838609 0.0070424313 -0.056353852 0.0080017531
-0.052744441 0.052288048 0.004096115 -0.99637783 0.083886757 0.013937666 0.006235424
-0.052168962 0.055891484 0.003986876 -0.92768109 0.36548665 -0.076337196 0.040563956
-0.051387504 0.058307402 0.0042132055 -0.45575038 0.84923041 -0.26664448 0.017142281
-0.049540814 0.058747858 0.0044363486 -0.39213634 0.8864184 -0.24595022 0.0072116684
-0.047349662 0.059767328 0.0037609376 -0.33340088 0.87926167 -0.34020987 0.0017610105
-0.048149176 0.060078993 0.005565363 -0.37798217 0.8888588 -0.2589587 0.0068819923
-0.046221819 0.060425077 0.0048506153 -0.3138738 0.88944489 -0.33222148 0.0019169622
-0.043518879 0.061063901 0.004476123 -0.25224957 0.91242641 -0.32225502 0.00015632145
-0.040515702 0.061890826 0.0045165597 -0.23554198 0.90576959 -0.35228029 0.00029821065
-0.037735924 0.062457792 0.0041792542 -0.22217 0.89656293 -0.38316503 0.000414585
-0.035225064 0.062803298 0.0034958338 -0.20622817 0.88624614 -0.41477433 0.00039139728
-0.036778089 0.063218638 0.0053530768 -0.2449896 0.89241046 -0.37892434 0.00011954387
-0.034341134 0.063601963 0.0047582714 -0.22215734 0.88194573 -0.4157137 0.00030508463
-0.031502031 0.064166382 0.004476341 -0.21287723 0.86804491 -0.44853243 0.00059582561
-0.028477348 0.064943992 0.0044774292 -0.2154232 0.85120779 -0.47857931 0.00095236243
-0.025626184 0.065337427 0.0039749406 -0.2083676 0.82664973 -0.52271712 0.00099823996
-0.022906743 0.065728664 0.0034851036 -0.2110344 0.79421294 -0.56981599 0.00081865763
-0.025184402 0.066360995 0.0053868708 -0.2361417 0.83520019 -0.49666661 0.00070906128
-0.022343067 0.066871814 0.0048912507 -0.23928496 0.81266648 -0.53133416 0.0011114286
-0.019491505 0.067455962 0.0044756746 -0.25308639 0.78885716 -0.56004614 0.0019164437
-0.016703695 0.068114787 0.004049452 -0.28820083 0.76597148 -0.5746547 0.0021336591
-0.014122082 0.068646431 0.0034290291 -0.32174534 0.70879138 -0.62776971 0.00057905563
-0.01601943 0.069384284 0.005402552 -0.29567993 0.79665953 -0.52716893 0.0017872668
-0.013326753 0.06996496 0.0046845209 -0.3249594 0.77292079 -0.54497236 0.002338365
-0.010601473 0.070903555 0.0042628702 -0.37885311 0.77520311 -0.50550026 0.0031520198
-0.0081965718 0.071621224 0.0035326071 -0.39379185 0.78321904 -0.48114029 0.0050258902
-0.0096124439 0.072146028 0.005630278 -0.36334682 0.82180637 -0.43887743 0.0032584495
-0.0073346086 0.072717778 0.0047526481 -0.34247804 0.84856355 -0.40329733 0.0052830745
-0.0045736339 0.07376384 0.0043524411 -0.37111941 0.88105243 -0.29328641 0.0032284399
-0.0022603557 0.074678898 0.0040492713 -0.38002273 0.89695579 -0.22594914 0.0041243518
-0.0010069449 0.075308859 0.0047252285 -0.33258188 0.93223566 -0.14256926 0.0033276035
0.0014462294 0.07601887 0.0043624435 -0.29788911 0.94503421 -0.13480529 0.0020559686
0.0044327267 0.076738179 0.0044113463 -0.22370993 0.97465497 -0.001271125 0.0049700104
0.0074015195 0.077236965 0.0044951597 -0.16066635 0.98115057 0.10737751 0.0034232149
0.010382455 0.077552095 0.0044898544 -0.095326714 0.97843748 0.18322909 0.0030818102
0.013529637 0.07761468 0.0046955678 -0.061093867 0.97040266 0.23363708 0.0016176426
0.017332844 0.077800825 0.0040265303 -0.031517446 0.96073699 0.27566475 0.00076262187
0.019045653 0.077589162 0.0042731524 -0.01912031 0.96188068 0.27280024 0.0013216198
0.013591077 0.078055762 0.0032530739 -0.073595844 0.97256696 0.22067432 0.0021687413
0.016480559 0.078126103 0.0033399849 -0.027597668 0.96362424 0.26583228 0.0015505296
-0.051871013 -0.049396675 0.0086707743 -0.99936092 0.0048510353 0.035414979 0.007759911
0.026384959 -0.048341699 0.0080760028 0.55566716 0.55243307 0.62133062 0.0018788575
0.028471997 -0.049695335 0.0072244052 0.54069036 0.56242532 0.62556517 0.0015093047
-0.051743697 -0.046682853 0.008615247 -0.98777068 0.15398897 0.024424471 0.0098039946
0.023438631 -0.045284577 0.0079078618 0.51793563 0.6921379 0.50268054 0.0015991679
0.025262311 -0.046322595 0.0072625172 0.53863001 0.65714192 0.52729708 0.0024581898
0.027544366 -0.047708936 0.0065536583 0.54907447 0.55980992 0.62058848 0.0016154835
-0.051238667 -0.043132737 0.0084048668 -0.88422936 0.46476108 0.046212878 0.014620052
-0.050991479 -0.042495884 0.0083722072 -0.95543891 0.29360381 -0.030550251 0.02267001
0.020098658 -0.042618066 0.0075128828 0.48151705 0.81119084 0.33182928 0.0022437337
0.022151461 -0.043601349 0.006823136 0.48893905 0.78693241 0.37639895 0.002095555
-0.051055212 -0.040596154 0.006293545 -0.35498214 0.89107668 -0.28278995 0.0047443737
-0.049727213 -0.040175669 0.0074558221 -0.52925164 0.83105934 -0.17097691 0.024253922
-0.046854675 -0.039074223 0.0063965577 -0.33162788 0.89056337 -0.31131941 0.0055287122
0.014141701 -0.039361697 0.0077212285 0.4475497 0.88127393 0.15184052 0.0043154438
0.016280515 -0.04035053 0.0073567289 0.43068445 0.87435013 0.22365801 0.0030477431
0.018764837 -0.0415284 0.006915824 0.44839609 0.84699935 0.28553995 0.0025235722
-0.04826659 -0.038692798 0.0078089782 -0.41941494 0.87241346 -0.25096983 0.010755308
-0.046371486 -0.038625147 0.0077559366 -0.31865662 0.91253084 -0.25640839 0.0070309001
-0.043975081 -0.037929527 0.0072330558 -0.49318036 0.81104004 -0.31462228 0.031618938
-0.041790109 -0.036568198 0.0060309484 -0.70089167 0.60779101 -0.37328398 0.032275632
0.0054919957 -0.036552828 0.0067295134 0.61193478 0.6415199 -0.46258837 0.046437044
0.0077402606 -0.03658399 0.0073371842 0.47589785 0.79500395 -0.37615144 0.034959417
0.010374703 -0.037606761 0.0075585083 0.46392199 0.87044305 -0.16463661 0.037172873
0.012642316 -0.038652092 0.0072721788 0.43182653 0.90094769 0.042651918 0.0094825858
-0.042419333 -0.034268022 0.0078002862 -0.92125028 0.10500012 -0.37453026 0.006826092
-0.041845597 -0.035682164 0.0063073412 -0.86726588 0.31740817 -0.38353881 0.035432011
0.0054169851 -0.034529697 0.0069322586 0.78441125 0.1874567 -0.5912351 0.017871642
0.0071415212 -0.035036713 0.0082370453 0.73465526 0.29156709 -0.61259311 0.043979358
-0.042295344 -0.030909725 0.0074714739 -0.93674541 0.036123503 -0.34814233 0.0028246951
-0.041978702 -0.030588061 0.0065674381 -0.93375289 -0.00049744482 -0.35791811 0
0.0054438696 -0.031441521 0.0069683031 0.72648358 0.041856825 -0.6859079 0.011100017
0.0066798148 -0.031574674 0.0085353544 0.67459977 0.02215052 -0.73785132 0.010510117
0.0095791435 -0.0308483 0.0088325553 0.25673267 -0.17622323 -0.95028085 0.022992851
-0.042641878 -0.028604746 0.0083726123 -0.19725202 0.89443022 0.40135553 0.0010479712
-0.04192695 -0.028280888 0.0064299544 -0.93377626 -0.00043904388 -0.35785714 0
0.0053950227 -0.028498223 0.0069074593 0.70940042 0.0035672886 -0.70479667 0.0083097992
0.0066824607 -0.028627986 0.0085391849 0.4800517 -0.011978088 -0.87715846 0.040843144
0.010140403 -0.02833035 0.0087902946 0.14920093 -0.099849418 -0.98375261 0.02050036
-0.042523202 -0.025626296 0.0079832962 -0.89850152 -0.088329397 -0.42999187 0.0057189283
-0.041858405 -0.025226085 0.0062480448 -0.92768013 -0.015726 -0.37304476 0.00052414491
0.0053692088 -0.025503375 0.0068753324 0.71254057 -0.0056795776 -0.70160788 0.0039623766
0.0065938863 -0.025640676 0.0084277466 0.61742896 -0.0055951341 -0.78660673 0.015792241
0.010392469 -0.025504051 0.0086694965 0.085623026 -0.046845432 -0.99522567 0.019376302
-0.0433814 -0.022184843 0.008228601 -0.8830297 -0.10237089 -0.45801613 0.0028715627
-0.041790545 -0.02219622 0.0060671945 -0.88443732 -0.076105006 -0.46041152 0.004784456
0.0053080525 -0.02274284 0.0067985491 0.693847 0.016556876 -0.71993202 0.0042742942
0.0065419455 -0.022454714 0.0083631445 0.54497546 0.029817242 -0.83792162 0.027090833
0.010291946 -0.022571994 0.0086581511 0.090432145 0.004548966 -0.99589223 0.021890976
-0.042868201 -0.019478783 0.0072352225 -0.88382208 -0.043602005 -0.46578678 0.0025385604
0.0052052885 -0.019507784 0.0067726686 0.7634297 0.00025272861 -0.64589089 0.00097193231
0.0064625833 -0.019489074 0.008263234 0.52127564 0.037943743 -0.85254449 0.032857407
0.0098842932 -0.019911317 0.0087450063 0.30140901 0.10333112 -0.94787931 0.032046493
-0.043324813 -0.017047727 0.0071962699 -0.88836563 -0.045070864 -0.45691916 0.0033898959
0.0053513581 -0.016387781 0.0069587324 0.81793815 0.0036219808 -0.57529473 0.004079998
0.0064761448 -0.016558176 0.0082810437 0.61995584 0.080897547 -0.78045529 0.021480588
0.0099775335 -0.017722625 0.0089725535 0.33279702 0.1916168 -0.92332506 0.024611311
-0.043652453 -0.013440339 0.0076325079 -0.90642095 -0.043022569 -0.42017874 0.0045590005
0.005159616 -0.013542783 0.006715605 0.83656913 0.022391679 -0.54740357 0.0036840709
0.0064048856 -0.01358436 0.0081915352 0.72496927 0.033230774 -0.6879791 0.0071364357
-0.043362346 -0.010413692 0.0068703694 -0.90746444 -0.017287955 -0.4197731 0.0045797052
0.0053904206 -0.010574361 0.0070086229 0.84627157 0.020001672 -0.53237611 0.0024922637
0.0063047865 -0.01047902 0.008035671 0.81955647 0.0057401508 -0.57296962 0.00084604044
-0.043647408 -0.0082525779 0.0076117092 -0.91200274 -0.0099452296 -0.41006351 0.0036734273
0.005228484 -0.0075552799 0.0068033533 0.86377144 0.0050721718 -0.50385833 0.0016521801
0.0062405048 -0.0074775666 0.0079539921 0.78499836 8.9344227e-05 -0.6194979 0
-0.043634236 -0.0045135245 0.0075718388 -0.91931856 -0.001907464 -0.39350957 0.0029524262
0.0056326743 -0.0043534739 0.0071842619 0.78500581 0.00013596078 -0.61948842 0
0.0064688362 -0.0045012035 0.0082439575 0.78512067 0.00028700606 -0.6193428 0
-0.043496192 -0.0012171569 0.0072063385 -0.92052257 -0.011023805 -0.39053395 0.0025487433
0.0055511245 -0.0015588237 0.0070816134 0.78517425 0.00015566625 -0.61927491 1.572004e-07
0.0067538526 -0.0014996075 0.0086057354 0.7852214 0.00029942568 -0.61921507 4.4974894e-07
-0.043602303 0.0015388392 0.0074149109 -0.93377626 -0.00039499073 -0.35785717 0
0.0055104485 0.0013932951 0.0070310337 0.7851699 0.00016886706 -0.61928046 1.273861e-07
0.0067493455 0.0013845444 0.0086008925 0.72610128 -0.01802705 -0.68735141 0.0063314615
-0.043479487 0.0039164154 0.0071553579 -0.91543519 0.0016918277 -0.4024618 0.00069912191
0.005416343 0.0045030154 0.0069126342 0.78511822 0.00015870393 -0.6193459 5.5126034e-08
0.0066567669 0.0043232823 0.0084844828 0.75364637 -0.0060134116 -0.65725261 0.0025787542
-0.043333054 0.007197286 0.0067681423 -0.91372889 -0.0005445503 -0.40632406 0.00078333303
0.005401249 0.0076481677 0.0068941242 0.78510243 0.00012616513 -0.61936599 0
0.0066291546 0.0073933043 0.0084505435 0.74946326 -0.0033338205 -0.66203755 0.0038431603
-0.043656182 0.010500411 0.0075459131 -0.89940828 -0.0019278589 -0.4371053 0.0048432071
0.0053756693 0.010344972 0.0068622269 0.77255785 0.002750711 -0.63493842 0.00033903381
0.0065792343 0.010618243 0.0083878515 0.77571481 0.0049413648 -0.6310643 0.00052108662
-0.043600317 0.013433113 0.0073968489 -0.88470387 0.058273103 -0.46249682 0.010398874
0.0053162165 0.013500204 0.0069563175 0.78516006 -9.1527363e-05 -0.61929291 0
0.0065160505 0.013458703 0.0083080158 0.74626356 -0.035700105 -0.66469258 0.0081987772
-0.043321185 0.016556885 0.0071447776 -0.83072293 0.1103602 -0.54563737 0.0082533965
-0.041873019 0.016374581 0.0061277412 -0.78748429 0.073910058 -0.6118871 0.0087513523
0.0052817594 0.016500639 0.0069125253 0.77863723 -4.0791096e-05 -0.62747437 0.00010046332
0.0064338213 0.016530808 0.0082043577 0.60493672 -0.087379538 -0.79146469 0.015464643
0.0097696446 0.017851731 0.008973782 0.33846197 -0.20936072 -0.91739392 0.022556391
-0.043124668 0.019557336 0.0072582583 -0.84394574 0.074936852 -0.53116864 0.0063919192
-0.041798633 0.018696683 0.0060430802 -0.8718226 0.045087431 -0.48774233 0.0096058697
0.0052475207 0.019476587 0.0068697128 0.76827347 -0.00016152317 -0.64012182 0.0007131513
0.0063622412 0.019662682 0.008114893 0.46041256 -0.03142862 -0.88714856 0.031095771
0.0098786205 0.019877382 0.0087687718 0.23850742 -0.13115674 -0.96224332 0.026190849
-0.043077596 0.022397431 0.0078989631 -0.87553823 0.15632312 -0.4571608 0.0019975111
-0.041989513 0.023599651 0.0065371324 -0.89487207 0.094083644 -0.4362939 0.0038238885
0.0052135317 0.022428852 0.0068268683 0.75947124 0.00079538801 -0.65054041 0.0015747426
0.0064480649 0.022665396 0.0082060127 0.43356395 -0.024134355 -0.90079957 0.030263532
0.010398375 0.022591159 0.0086730607 0.1544207 -0.00084145402 -0.9880048 0.018954657
-0.042582612 0.025469396 0.0080814296 -0.9144451 0.077905834 -0.39714092 0.0031212405
-0.041941572 0.025590161 0.0064082793 -0.92701215 0.032632809 -0.37360883 0.0020493325
0.0055818991 0.026143732 0.0071272529 0.66952306 0.0092211077 -0.74273401 0.0044354177
0.0065337983 0.025488771 0.0083174026 0.42952898 0.00089901505 -0.90305263 0.034655437
0.010419935 0.025574865 0.0086294366 0.15253262 0.047749985 -0.98714423 0.020540446
-0.042461164 0.028552983 0.0077609546 -0.93378991 -0.00040928801 -0.35782158 2.1569107e-05
-0.041869815 0.028555909 0.0062173083 -0.93384588 -0.0004623069 -0.35767537 0
0.0055984086 0.028464973 0.0071485071 0.66635025 0.013591961 -0.74551499 0.0080334023
0.0067859776 0.028637797 0.0086536314 0.45725566 0.057569567 -0.88746995 0.035672545
0.010169136 0.028405678 0.0087226816 0.14222738 0.10297371 -0.98446316 0.022458151
-0.042432744 0.031500101 0.0076828832 -0.93382865 -0.00042887926 -0.35772046 0
-0.041814525 0.030844986 0.0060696262 -0.94338834 -0.0096636927 -0.33154956 0.00076645298
0.0055326824 0.031501189 0.0070660524 0.64776039 0.0054531586 -0.76182461 0.017364677
0.0067285821 0.031243749 0.0085821189 0.49517998 -0.099077426 -0.86312246 0.037425045
0.00986923 0.030555997 0.0089291893 0.21130291 0.069724016 -0.97493058 0.026523607
-0.042386692 0.034265038 0.0075591626 -0.94453597 -0.094405793 -0.31454647 0.0067895409
0.0054464475 0.033503503 0.0069573307 0.67478508 -0.0028437029 -0.7380088 0.023097908
0.0069212429 0.033335775 0.0086610364 0.41104418 -0.1084329 -0.90514368 0.034191772
-0.051903866 0.050526876 0.0086481925 -0.99734002 0.05527892 0.047508914 0.0098459376
-0.051771026 0.052553404 0.0086855376 -0.98595947 0.16485842 0.026564827 0.0093287667
-0.051208813 0.055886716 0.0085695926 -0.95722544 0.28507864 0.049493566 0.020184403
-0.051041953 0.058844417 0.0063100019 -0.62197846 0.77752554 -0.092718877 0.018252522
-0.049824148 0.059132349 0.0075565171 -0.59757358 0.79131985 -0.12930092 0.019996474
-0.048311785 0.060567185 0.0073702629 -0.46722087 0.86130232 -0.19965731 0.0072946437
-0.046489693 0.061203387 0.0075354101 -0.39220363 0.89068574 -0.22990268 0.0047306912
-0.043500435 0.062101215 0.0074437205 -0.28222144 0.91160554 -0.29887527 0.00012571084
-0.040881377 0.062705494 0.0068848273 -0.2641497 0.9063763 -0.32970753 0.00036244094
-0.042153768 0.063024469 0.0089366566 -0.29164335 0.91116899 -0.29105884 0.00082070497
-0.040149871 0.063331112 0.0079907198 -0.27578253 0.90301454 -0.3294068 0.00033761654
-0.037453491 0.063921645 0.0074609928 -0.25727987 0.89831215 -0.35614946 0.00021907076
-0.034480251 0.064777523 0.0075030252 -0.24794492 0.89636457 -0.36749679 0.00025064577
-0.031662807 0.065463141 0.0072830482 -0.24604677 0.89014918 -0.38353029 0.00052220473
-0.029340263 0.065716408 0.0063818293 -0.23725323 0.88081247 -0.40973207 0.00080596766
-0.03070046 0.066232085 0.008471569 -0.25527006 0.89492655 -0.36598313 0.00033798307
-0.028401649 0.066525236 0.0075989207 -0.25136751 0.88995194 -0.38052589 0.00048850587
-0.025537517 0.067296654 0.007454738 -0.25683543 0.87592572 -0.40839887 0.0010645558
-0.022612482 0.068175688 0.0074028037 -0.2894983 0.87428361 -0.38963962 0.00092494173
-0.020134382 0.068642795 0.0066629173 -0.28596026 0.85938698 -0.42388758 0.0015838349
-0.021468248 0.069118761 0.008736359 -0.28143454 0.90567839 -0.31708246 0.0024472729
-0.019208718 0.069481075 0.007804363 -0.28660068 0.87779206 -0.3838504 0.0019927602
-0.016507169 0.070285648 0.0075126914 -0.29261681 0.87736118 -0.38027993 0.0028887412
-0.013640969 0.071282156 0.0073796138 -0.34334892 0.87967777 -0.32905704 0.002675625
-0.011463526 0.071751885 0.0064286599 -0.34193027 0.88864911 -0.30559185 0.0058945152
-0.012248606 0.072174296 0.0084433313 -0.33133954 0.92311531 -0.19512101 0.016431132
-0.010363908 0.072557144 0.0075117121 -0.30039912 0.92023611 -0.25085026 0.0068594613
-0.0076502105 0.07345742 0.0072832583 -0.32823288 0.92293638 -0.2011258 0.0062615876
-0.0045478493 0.074429601 0.0073711518 -0.30024326 0.95248038 -0.051332708 0.0052650473
-0.002652063 0.074926734 0.0082724737 -0.26171213 0.96490639 0.021502672 0.0043797237
-0.0012804978 0.075349137 0.0073133758 -0.25309628 0.9667232 0.037263721 0.0033944652
0.0015655214 0.076099575 0.0071959905 -0.2024202 0.97550493 0.086117856 0.0016691204
0.0044833352 0.076508455 0.0072674938 -0.12533753 0.9777323 0.1683152 0.0031860396
0.0074041178 0.076650396 0.0074721165 -0.05331827 0.9715113 0.23091765 0.0026378881
0.0096528549 0.076963119 0.0066178241 -0.053643022 0.96927661 0.24005269 0.0021485921
0.012525061 0.076775312 0.0069661234 -0.053923342 0.96757799 0.24674916 0.0019361202
-0.051795051 -0.052885037 0.0095528187 -0.99909973 -0.03925065 -0.016099004 0.0081827603
-0.052040637 -0.049414128 0.010160138 -0.98536605 -0.00020445409 -0.1704516 0.00058017432
0.02276996 -0.048985712 0.011252496 0.56170607 0.49901634 0.65990078 0.00080461707
0.025583306 -0.049812444 0.0095623713 0.55167007 0.49367577 0.67226803 0.00061158679
-0.05189801 -0.046291769 0.010075057 -0.9821341 0.098583475 -0.1602933 0.0013097358
0.019976318 -0.045475069 0.011330195 0.54607707 0.63550025 0.54583812 0.0013038337
0.022280082 -0.046351168 0.010012656 0.5558939 0.5457437 0.62701339 0.0022163533
0.024221579 -0.047907628 0.0095660081 0.53727937 0.53844613 0.64915848 0.0026746355
-0.051255442 -0.042843968 0.010847271 -0.93402696 0.32398286 -0.15042849 0.010915413
0.017125173 -0.042592287 0.011015442 0.53608954 0.70475489 0.46468124 0.0038511925
0.019060209 -0.043579467 0.010178477 0.525684 0.70860535 0.47067499 0.001783713
0.021551499 -0.044740472 0.0091293165 0.53638995 0.67060542 0.51242 0.0036800203
-0.051024832 -0.04159572 0.010374021 -0.8674444 0.46067193 -0.18794028 0.0092217326
-0.049849227 -0.039649874 0.009947178 -0.66248679 0.71622658 -0.21938729 0.016073512
0.013594267 -0.03989825 0.01052964 0.55131143 0.79912913 0.23968413 0.0083650621
0.016029593 -0.04125499 0.010115638 0.50999981 0.76599509 0.39134604 0.0028429497
-0.048790943 -0.038413126 0.01090699 -0.51075381 0.83365768 -0.21010803 0.018872017
-0.046569258 -0.037863951 0.010492909 -0.35918012 0.91102457 -0.20254366 0.015670262
-0.044049263 -0.037409581 0.010372458 -0.64567083 0.72705668 -0.23344776 0.048336167
0.0081876032 -0.03651667 0.0098096058 0.52991152 0.68897498 -0.49447677 0.039729003
0.010533144 -0.037287399 0.010224257 0.61228293 0.7602154 -0.21721449 0.04472461
0.012340992 -0.038888395 0.0097259479 0.62805963 0.76724803 0.12989038 0.024771897
-0.043670338 -0.0348031 0.011065962 -0.9052003 0.2832998 -0.31678638 0.031661529
0.0080848606 -0.034760792 0.010117178 0.60093522 0.10831673 -0.79192442 0.038836177
0.0099130385 -0.035056055 0.010373858 0.62971413 0.3047564 -0.71455127 0.058012098
0.012203987 -0.033548404 0.011585228 0.72078216 -0.2883684 -0.63033068 0.015853014
-0.043371953 -0.031713627 0.010283185 -0.93025768 0.019813338 -0.36637163 0.00068255147
0.008177883 -0.031252999 0.009886493 0.35624316 -0.15348707 -0.92170089 0.030635307
0.010764629 -0.031059995 0.0097038867 0.23322432 -0.17801885 -0.95598942 0.019617952
0.012934268 -0.031232182 0.010942745 0.53799629 -0.27099672 -0.79819846 0.011276987
-0.043485299 -0.028655585 0.010497937 -0.93377823 -0.0003968775 -0.35785192 3.0248189e-05
