# .PCD v0.7 - Point Cloud Data file format
VERSION 0.7
FIELDS x y z normal_x normal_y normal_z curvature
SIZE 4 4 4 4 4 4 4
TYPE F F F F F F F
COUNT 1 1 1 1 1 1 1
WIDTH 542
HEIGHT 1
VIEWPOINT 0 0 0 1 0 0 0
POINTS 542
DATA ascii
-0.040091097 -0.041829452 -0.0031551053 -0.10092931 0.71777231 -0.68892401 0.039029587
-0.037442468 -0.041615643 -0.0032286325 -0.071579851 0.31977811 -0.94478476 0.037358858
-0.03448645 -0.041492134 -0.003255229 -0.032099474 0.34555009 -0.93785113 0.0346753
-0.031426303 -0.041583419 -0.0031768484 0.052255534 0.36553562 -0.9293294 0.014395976
-0.028631661 -0.041790031 -0.0031188054 0.055985313 0.5722937 -0.81813544 0.014032189
-0.026769862 -0.041918471 -0.0030945309 0.031895064 0.53545159 -0.8439635 0.018113473
0.0045742127 -0.04158362 -0.003344479 -0.17592524 0.7899037 -0.5874542 0.00092083064
0.0075132372 -0.041434571 -0.0039296146 -0.13140735 0.83326137 -0.53703588 0.00041446899
0.010404713 -0.041227445 -0.0043112729 -0.099975102 0.85159248 -0.51458257 0.00060736731
0.01315646 -0.041207217 -0.0046914043 -0.060286492 0.87444544 -0.48136327 0.0012263118
0.01603163 -0.04153157 -0.0053617228 -0.0092469435 0.88986456 -0.45613101 0.0016169598
0.019059824 -0.041519709 -0.0047430592 0.085371725 0.93132615 -0.35403851 0.0013625883
0.021500288 -0.041950267 -0.0050317203 0.12482747 0.94747102 -0.29447711 0.00055958785
-0.037221666 -0.031072097 -0.0032282646 -0.41069922 -0.10928829 -0.90519732 0.020232977
-0.034927495 -0.031198367 -0.0031127874 0.052911643 -0.11244773 -0.99224794 0.0021938402
-0.037774194 -0.028378738 -0.0034844691 -0.47028404 -0.079411805 -0.87893498 0.018114237
-0.034622893 -0.028592054 -0.0034758607 0.04969693 -0.14280757 -0.98850203 0.0025397695
-0.032338504 -0.028361587 -0.0031369829 0.13362397 -0.1435163 -0.9805854 0.00022578287
-0.039195511 -0.02489602 -0.003289324 -0.67943311 -0.095100068 -0.72754836 0.022587836
-0.037851617 -0.025429541 -0.00392946 -0.54897422 -0.090375014 -0.83093899 0.027938448
-0.034391142 -0.02581257 -0.0039600977 0.040389966 -0.17932411 -0.98296052 0.005807546
-0.031242676 -0.025564661 -0.0034461501 0.14562383 -0.16353905 -0.97572982 0.00028902304
-0.02887889 -0.025225867 -0.0031758635 0.12890922 -0.15062141 -0.98015082 0.00018748216
-0.026621481 -0.024489837 -0.0030246619 0.10184714 -0.11999501 -0.98753655 0.0001477109
-0.039412845 -0.022455802 -0.0033916961 -0.81425834 -0.028910739 -0.57978237 0.03200537
-0.037771005 -0.022436216 -0.0044791535 -0.65248078 -0.090976305 -0.75232452 0.025581853
-0.035150968 -0.022115555 -0.0049443138 -0.19011323 -0.19337688 -0.96252912 0.022968929
-0.031126808 -0.022404876 -0.0040352307 0.16875239 -0.18952712 -0.96726525 0.00036481814
-0.028195661 -0.022773614 -0.0034904117 0.13338885 -0.16020998 -0.97802877 0.0001476162
-0.025607534 -0.022217624 -0.0032252832 0.12916994 -0.14270194 -0.98130083 0.00025215629
-0.023531355 -0.021645792 -0.0030384022 0.12033703 -0.1203536 -0.98541057 0.00018078477
-0.039496746 -0.019383119 -0.0036524467 -0.91663712 -0.013201162 -0.39950255 0.02397093
-0.037791286 -0.019437561 -0.005023465 -0.62623262 -0.12678729 -0.7692579 0.021590991
-0.035171874 -0.019417439 -0.0055614458 -0.13334571 -0.21188375 -0.96815503 0.038243398
-0.031498745 -0.019422513 -0.0047763465 0.20075037 -0.2121163 -0.95640266 0.00012419658
-0.0281718 -0.019784376 -0.0040358379 0.17403981 -0.1791479 -0.96830583 0.00044791386
-0.025171518 -0.019354027 -0.0036034468 0.14646941 -0.1473573 -0.97817814 0.000149086
-0.022635799 -0.019552033 -0.0031765625 0.15156129 -0.13213603 -0.97957605 0.00025466882
-0.03950287 -0.016591473 -0.0039280746 -0.92171717 -0.021320043 -0.38727629 0.039604377
-0.038170993 -0.016546072 -0.0052572279 -0.70570296 -0.080730684 -0.70389336 0.033506483
-0.034013402 -0.017348373 -0.0058286139 0.031798113 -0.26256582 -0.96439004 0.012157032
-0.031786077 -0.016751977 -0.0054570567 0.17898379 -0.20783603 -0.96164912 0.0034244517
-0.028568285 -0.016553473 -0.004796044 0.20754321 -0.20137939 -0.9572733 0.00023371956
-0.025513358 -0.016705919 -0.004116741 0.19045472 -0.16863647 -0.9671033 0.00025523035
-0.022533376 -0.016967259 -0.0035261083 0.16720636 -0.12900275 -0.97744578 0.00012669759
-0.019817188 -0.015874825 -0.0031725909 0.1750534 -0.11172085 -0.97819978 0.00015449181
-0.039354306 -0.013741568 -0.0044150981 -0.94245249 -0.03226183 -0.33277979 0.034618367
-0.038535994 -0.013490283 -0.0048466083 -0.8576324 -0.058603879 -0.51091313 0.033241328
-0.030565789 -0.014074636 -0.0058090524 0.2195193 -0.20943181 -0.95286387 5.9227859e-05
-0.028078493 -0.014145497 -0.0052021863 0.21008861 -0.17961495 -0.96104181 0.00016612638
-0.025489876 -0.013413033 -0.0047305645 0.2252235 -0.1760719 -0.95826566 0.00028696546
-0.022146661 -0.01370091 -0.0039226096 0.20198163 -0.13456295 -0.97010112 0.00022595123
-0.020183614 -0.014073961 -0.0034695833 0.18315253 -0.10966307 -0.97694892 9.6479882e-05
-0.017840128 -0.012947368 -0.0031302862 0.1921003 -0.10283192 -0.97597289 8.0845661e-05
-0.039240655 -0.010578611 -0.0048396247 -0.9737587 0.015635386 -0.22704524 0.025313327
-0.038602415 -0.010450373 -0.0044468124 -0.97174639 0.043767214 -0.23193386 0.024375116
-0.027817009 -0.011187286 -0.0057441839 0.24214415 -0.18165962 -0.95308238 0.00014196269
-0.025667924 -0.010469755 -0.0053090551 0.25344723 -0.16678362 -0.95286292 0.00010361371
-0.022581585 -0.010279547 -0.0045430898 0.23741235 -0.13942453 -0.96135122 0.00015198963
-0.018715255 -0.011225531 -0.0035083632 0.20287946 -0.099789716 -0.97410572 0.00010414123
-0.016745355 -0.010317534 -0.0031674653 0.21700619 -0.10388322 -0.97062695 9.7378252e-05
-0.039120007 -0.0075616199 -0.005208225 -0.95181847 -0.0051560993 -0.30661863 0.031483311
-0.038481571 -0.0074218553 -0.0041960012 -0.97550571 -0.0019066038 -0.21996567 0.031611521
-0.025183326 -0.0078065023 -0.005609158 0.2611022 -0.13986821 -0.95512438 0.00011664008
-0.022378819 -0.0074288566 -0.0048962082 0.2542896 -0.12722783 -0.95872307 9.5279625e-05
-0.019733502 -0.007504784 -0.0041961041 0.24060351 -0.11452068 -0.96384388 6.2807128e-05
-0.016715737 -0.0073562516 -0.0034718204 0.23309217 -0.10121833 -0.96717262 5.5003464e-05
-0.014951408 -0.0074800495 -0.0030311919 0.22329263 -0.090015151 -0.97058624 4.1729403e-05
-0.039563041 -0.0043524592 -0.0045226552 -0.96109676 -0.021979261 -0.27533594 0.038589425
-0.038423892 -0.0051158387 -0.0042458009 -0.92066383 -0.0086108651 -0.39026141 0.059713323
-0.035157222 -0.0034188677 -0.0044011637 -0.70756006 0.681723 -0.18604453 0.13923886
-0.024587566 -0.0046146866 -0.0058636582 0.27320537 -0.108725 -0.95579165 6.8905349e-05
-0.022500966 -0.0044518579 -0.0053009382 0.26487875 -0.10386118 -0.95867205 4.2764572e-05
-0.019315731 -0.0046926141 -0.0044170306 0.24944976 -0.1019877 -0.96300226 3.5799785e-05
-0.016216265 -0.0044735251 -0.0036446832 0.24590103 -0.089308597 -0.96517181 3.8842147e-05
-0.014187415 -0.0041922899 -0.0031605768 0.24216932 -0.084781617 -0.96652269 5.1716481e-05
-0.039633486 -0.0014237479 -0.0034772397 -0.91270208 0.012745908 -0.40842685 0.033627052
-0.037433855 -0.001459979 -0.0039302213 -0.75345206 0.21393415 -0.62172514 0.093635738
-0.034925807 -0.0011728227 -0.0047113467 -0.96149921 0.075047016 0.26436195 0.13321313
-0.024281217 -0.0028807446 -0.005970682 0.26843914 -0.068655901 -0.9608469 0.00037570452
-0.022395572 -0.0015001759 -0.0055648005 0.26302984 -0.05936129 -0.96295983 0.00023489996
-0.019573772 -0.00151577 -0.0048020184 0.2597599 -0.060111985 -0.96380049 0.00016471352
-0.016396236 -0.0017347415 -0.003935114 0.25775671 -0.041917253 -0.96530014 0.00022900378
-0.013975403 -0.0014412999 -0.0033278815 0.24930549 -0.055574119 -0.966829 9.3437811e-05
-0.039635763 0.0015587626 -0.0034776565 -0.93144172 -0.028820816 -0.36274746 0.040587593
-0.037283171 0.0014879782 -0.0039301547 -0.72120327 -0.11050621 -0.68385249 0.10656449
-0.034928516 0.0014290093 -0.0046861237 -0.79126465 -0.29265228 0.53689373 0.23386431
-0.022227375 0.0014935356 -0.0055887275 0.25201052 0.028958291 -0.96729112 0.0003620481
-0.020259971 0.0019950343 -0.0050496794 0.25449565 0.023504581 -0.96678829 0.00032814834
-0.016928624 0.0015274568 -0.0041997703 0.2580218 -0.0013976347 -0.96613812 0.00013587672
-0.0140909 0.0015081511 -0.0034594208 0.2515623 -0.017615754 -0.96768081 0.00034674941
-0.039585412 0.0045581334 -0.0043346244 -0.93864238 -0.015288627 -0.34455305 0.038195688
-0.037962284 0.0043270341 -0.004560892 -0.75236166 -0.1668766 -0.63726312 0.10661062
-0.035336398 0.0033263804 -0.004454881 -0.5029999 -0.59423679 -0.62759358 0.17911164
-0.024218237 0.0056045619 -0.0059384317 0.23706785 0.068263583 -0.96909183 0.00017898536
-0.022305556 0.0044798544 -0.005512008 0.24943383 0.056915715 -0.96671784 0.0001117889
-0.019555014 0.0043178098 -0.0047983192 0.24360771 0.060366411 -0.96799338 4.3140746e-05
-0.016969848 0.0050719557 -0.0040870719 0.24021026 0.059910309 -0.96887034 3.8322778e-05
-0.013891531 0.0044656312 -0.003327104 0.24846518 0.03815243 -0.96788919 4.236247e-05
-0.039122768 0.0075871539 -0.0052299052 -0.93964475 0.039163932 -0.33990276 0.027453998
-0.038514677 0.007535236 -0.0043768152 -0.96802402 -0.006692756 -0.25076818 0.032263268
-0.024835624 0.008204042 -0.0058076726 0.22771995 0.11961287 -0.96635211 7.0889437e-05
-0.022619074 0.0074182465 -0.0053595859 0.23745199 0.09348502 -0.96689045 3.014818e-05
-0.019268619 0.0075937416 -0.0045118448 0.24070553 0.080916747 -0.96721941 5.0978491e-05
-0.015891934 0.006996619 -0.0036848038 0.23582697 0.074433118 -0.96894032 4.1939413e-05
-0.014113132 0.0073574455 -0.0032223207 0.23262793 0.072453201 -0.96986324 4.6551901e-05
-0.03920237 0.010629824 -0.0049599283 -0.95307148 0.011841963 -0.30251366 0.028384795
-0.03857553 0.010356057 -0.0044641653 -0.97291404 -0.032151669 -0.22891997 0.024310976
-0.026149379 0.011353096 -0.0057028001 0.22483779 0.14177762 -0.96402651 0.00011312379
-0.022456374 0.010193869 -0.0050165029 0.23071817 0.12074824 -0.96549934 0.00024341806
-0.019617427 0.010757239 -0.0042758812 0.22685292 0.1055729 -0.96819013 0.00012597231
-0.016566666 0.010526028 -0.0035692595 0.22889741 0.093247667 -0.96897411 9.6892152e-05
-0.014430239 0.010465641 -0.0030685358 0.22433525 0.081424549 -0.97110444 4.7226014e-05
-0.039346043 0.013526225 -0.004534978 -0.95428598 0.0077415532 -0.29879498 0.031753894
-0.03857908 0.013488892 -0.0048555559 -0.87381244 0.027388413 -0.48549107 0.034618884
-0.028174156 0.014198828 -0.0056740856 0.20862357 0.17695466 -0.9618541 9.5629715e-05
-0.025263015 0.01318188 -0.0052118218 0.21380669 0.15314968 -0.96479636 0.00010232044
-0.022353604 0.01375713 -0.0044930642 0.20760462 0.14112943 -0.96797872 9.8931901e-05
-0.019425238 0.013604808 -0.0038861965 0.21361101 0.12257279 -0.96919882 9.4611059e-05
-0.016546298 0.013044957 -0.0032974882 0.21312906 0.098751478 -0.97202069 0.00011292647
-0.01480209 0.012126883 -0.0030078087 0.21565248 0.092168123 -0.97211063 9.9514305e-05
-0.039465148 0.016575759 -0.0040937294 -0.94038755 0.042167105 -0.33748055 0.036803834
-0.038305122 0.016570264 -0.0051133265 -0.73127747 0.078221343 -0.67758006 0.039493937
-0.033185333 0.017845269 -0.0059530088 0.11785781 0.18182419 -0.9762426 0.00269019
-0.030916834 0.016465366 -0.0058035487 0.18432772 0.19625464 -0.96307188 0.00010780165
-0.028673068 0.017003208 -0.0052499692 0.19173637 0.18683375 -0.96349901 6.5664834e-05
-0.025537483 0.016048994 -0.0047804653 0.19847248 0.16779076 -0.96563703 0.00010547084
-0.022754937 0.016925942 -0.0040952982 0.1903104 0.15058491 -0.97010624 8.0519843e-05
-0.019431267 0.016133029 -0.0035576895 0.19476055 0.12968116 -0.97224027 8.8272944e-05
-0.017497752 0.01654757 -0.0030920226 0.19070384 0.11998328 -0.97428745 6.2512743e-05
-0.03958578 0.019392138 -0.0036516096 -0.94209087 0.0051497906 -0.33531824 0.02713199
-0.037864119 0.019415643 -0.0051950808 -0.65640414 0.096454784 -0.74821794 0.027424047
-0.034533452 0.019944109 -0.005662716 0.0049612457 0.25898725 -0.965868 0.005122127
-0.031446289 0.019257082 -0.005312426 0.16465138 0.21111409 -0.96349412 0.00011983151
-0.028563846 0.019925682 -0.0046494869 0.17719787 0.18852735 -0.96594948 0.00012191577
-0.02538763 0.019393347 -0.0041674236 0.17184977 0.17386261 -0.96965945 0.00011285343
-0.022573797 0.019407138 -0.0036640167 0.17438652 0.14903937 -0.97333276 7.6660523e-05
-0.020129396 0.019186694 -0.0032456981 0.18321487 0.13998252 -0.97305566 7.459375e-05
-0.039499875 0.022326788 -0.0034678613 -0.83773953 0.0032227091 -0.5460605 0.031176204
-0.037922278 0.022333441 -0.0046517239 -0.67140788 0.050330486 -0.73937708 0.032617979
-0.034743056 0.02248073 -0.0051002316 0.0096356291 0.22747989 -0.97373515 0.0042109732
-0.031433865 0.022416312 -0.00460904 0.15221033 0.21293907 -0.96513677 0.00010203529
-0.028316936 0.022616431 -0.0040565347 0.15604687 0.18825723 -0.96964353 0.00016207089
-0.025373131 0.022552425 -0.0035913147 0.15331705 0.16371164 -0.97452158 9.1784372e-05
-0.022704072 0.022152379 -0.0032520276 0.16139938 0.14950269 -0.97549945 9.5483076e-05
-0.020371236 0.021079818 -0.0030667582 0.16928171 0.13130803 -0.97678143 0.00010411145
-0.039276864 0.025258562 -0.0033239797 -0.77587187 0.083416112 -0.62535155 0.034310441
-0.038000736 0.025277957 -0.0040813456 -0.58966851 0.09446194 -0.80210221 0.022326192
-0.034494348 0.025547778 -0.0043636998 -0.03360787 0.19509907 -0.98020762 0.0070097763
-0.031531475 0.025562841 -0.0039519537 0.13448656 0.19120298 -0.97229362 7.7826553e-05
-0.028586082 0.025616869 -0.0035258201 0.13626254 0.18187626 -0.97383446 0.00011883953
-0.025816835 0.025069717 -0.0032347864 0.13664371 0.16123082 -0.97741145 0.00010531697
-0.023352828 0.02430474 -0.0030243855 0.14208578 0.14270793 -0.97951317 7.6807199e-05
-0.039050292 0.02742368 -0.0032147572 -0.70084679 0.10230386 -0.70593745 0.006297172
-0.037932899 0.028339542 -0.0035708954 -0.56366575 0.093846329 -0.82065451 0.021135045
-0.034581386 0.028566765 -0.003758081 0.013180008 0.17481883 -0.98451239 0.0028102929
-0.031613886 0.028470829 -0.0033948636 0.12253444 0.17938267 -0.97611845 6.6707064e-05
-0.029178511 0.027920393 -0.0031862545 0.12078014 0.16621292 -0.97866517 0.00011222255
-0.037543561 0.030819602 -0.0033151172 -0.42792889 0.098050967 -0.89847803 0.014171455
-0.034699094 0.031479396 -0.00322172 0.028207667 0.13214673 -0.99082875 0.0037386164
-0.032414161 0.030855954 -0.0030593674 0.1100113 0.14662285 -0.98305607 0.00019543905
-0.036542628 0.033542432 -0.0030672606 -0.14892714 0.10961068 -0.98275435 0.015139215
-0.035145544 0.033209719 -0.0030451957 0.012437641 0.089192905 -0.99593675 0.0028979818
-0.036550295 0.041784041 -0.0030641195 -0.048557848 -0.39795986 -0.91611689 0.025136042
-0.034858722 0.041789871 -0.0031312506 0.077663966 -0.36853015 -0.92636591 0.029720979
-0.032322384 0.041784186 -0.0030607311 0.057835858 -0.45066679 -0.89081675 0.024133915
0.0056254454 0.041776173 -0.0031147082 -0.15275581 -0.81363374 -0.56095076 0.00065892644
0.0078819161 0.041640453 -0.0035091981 -0.1322469 -0.83223969 -0.53841245 0.00046355394
0.010373442 0.041449904 -0.0038079144 -0.094282851 -0.85492158 -0.51011747 0.0008401348
0.013037702 0.041500896 -0.0042042728 -0.045669109 -0.87598348 -0.48017418 0.0012746138
0.016446432 0.041568797 -0.0040483791 0.10500031 -0.93699569 -0.33318761 0.0038806798
0.01873968 0.041803908 -0.0039246068 0.14715122 -0.94428068 -0.29441571 0.0041327169
-0.051486388 0.044713806 -0.0040230895 -0.79026937 -0.58444959 -0.18410017 0.035579327
-0.049491819 0.044594526 -0.0042547025 -0.2913276 -0.91378754 -0.28305587 0.051106192
-0.046488438 0.04455426 -0.0041366359 -0.075003177 -0.90163326 -0.42594841 0.0042007221
-0.04316552 0.043815866 -0.004132119 -0.26801193 -0.77481335 -0.57256782 0.010642007
-0.040873293 0.04331189 -0.0046846336 -0.20531623 -0.75713474 -0.6201551 0.015616313
-0.037557468 0.042801935 -0.0041250065 0.014945182 -0.74894744 -0.66246086 0.023576073
-0.034511093 0.042940009 -0.0041998341 0.070797853 -0.57495785 -0.81511426 0.02004792
-0.031346336 0.04308505 -0.0041193604 0.054369785 -0.53938258 -0.84030378 0.014361299
-0.028104978 0.043167975 -0.003849745 0.11123693 -0.58284032 -0.80493695 0.0024944728
-0.025735198 0.0435079 -0.0038562736 0.10883632 -0.54083544 -0.83405739 0.0021891368
-0.022522699 0.044181451 -0.0039671063 0.12551902 -0.63409507 -0.76299959 0.0024753802
-0.019545136 0.044301346 -0.0036512313 0.1117892 -0.62020379 -0.77643448 0.0023520621
-0.016496629 0.04446182 -0.0034769049 0.068441123 -0.61236966 -0.7876035 0.00069991278
-0.012880273 0.044570543 -0.0033705495 0.032010447 -0.59285927 -0.80466962 0.001804516
-0.010135571 0.044470254 -0.0033231513 -0.023774842 -0.61109596 -0.79119939 0.0018581133
-0.0071513643 0.044427328 -0.0035098055 -0.065193564 -0.66041768 -0.74806303 0.00081350544
-0.0044071758 0.044283412 -0.0037079691 -0.097321436 -0.70471197 -0.70278704 0.00098431134
-0.0016021726 0.04417634 -0.0040833317 -0.13694437 -0.74970222 -0.64745098 0.0016241337
0.0015722796 0.044037569 -0.0048751659 -0.21073163 -0.77912885 -0.59038162 0.00064950477
0.0045041768 0.043051038 -0.0046119653 -0.18625446 -0.80356663 -0.56532282 0.00023794321
0.0073632617 0.042718761 -0.0050010965 -0.15815687 -0.82181704 -0.54736012 0.00012215356
0.01036682 0.04236988 -0.0052832132 -0.11754341 -0.84354717 -0.52403408 0.00032981005
0.013424342 0.042315681 -0.0057387888 -0.067721784 -0.86506748 -0.49706343 0.000687199
0.016704975 0.042176176 -0.005554107 0.02572009 -0.91841882 -0.39477259 0.0021104817
0.019518018 0.042229626 -0.0049367854 0.1257533 -0.95361209 -0.27351439 0.0041406569
0.022099432 0.042664099 -0.0048885359 0.20102957 -0.96011621 -0.19432952 0.0024351135
0.025360623 0.043407764 -0.0047793477 0.21858095 -0.96143365 -0.16693628 0.0014222958
0.028112307 0.044245563 -0.0047742822 0.21628177 -0.96251392 -0.16367403 0.001272254
-0.051895265 0.046513364 -0.0045289597 -0.92620182 -0.33815351 -0.16674046 0.04730748
-0.049500726 0.045133144 -0.0057968982 -0.12543333 -0.91694713 -0.37878016 0.020689543
-0.046670441 0.045085385 -0.0056574093 -0.015332197 -0.84618306 -0.53267169 0.0089348201
-0.043461777 0.045054428 -0.0055654543 -0.19783281 -0.84304065 -0.50014466 0.012925348
-0.041849513 0.045100071 -0.00569533 -0.24721828 -0.79120952 -0.55934834 0.011719435
-0.024906285 0.045362636 -0.0056505436 0.1281492 -0.67419571 -0.72734994 0.0032717581
-0.022251636 0.045639433 -0.0053957049 0.1401695 -0.66389143 -0.73457515 0.00084631564
-0.019301243 0.046130609 -0.005326299 0.10160992 -0.5851571 -0.80452883 0.0029235466
-0.016323887 0.046235483 -0.0050194417 0.076218888 -0.57197785 -0.81672037 0.0026529208
-0.013613264 0.046484027 -0.0050809891 0.016490906 -0.56145364 -0.82734382 0.0022109749
-0.010438384 0.046219468 -0.0049091782 -0.056882989 -0.59091932 -0.80472273 0.001986813
-0.0073488024 0.046034068 -0.0050567999 -0.11503271 -0.62847084 -0.76928014 0.002462334
-0.0044646976 0.045776594 -0.0053077377 -0.16123934 -0.68210912 -0.71325254 0.00238561
-0.0016166369 0.045360107 -0.0055348822 -0.2066561 -0.74185836 -0.63791806 0.0014471955
0.00056896836 0.045067746 -0.0057838536 -0.21671745 -0.78183258 -0.58461219 0.00040927739
-0.052082043 0.049476098 -0.004444411 -0.99854094 -0.044683717 0.030323165 0.0022895953
-0.051954333 0.052474853 -0.0045256317 -0.99081504 0.1274275 0.045253865 0.0096747894
-0.05156514 0.055173386 -0.0044229194 -0.97892308 0.20412412 -0.006556117 0.012147679
-0.049355377 0.056447297 -0.0043964484 -0.34271976 0.90501827 -0.2519626 0.069485761
-0.046495855 0.056343816 -0.0047635082 -0.024027988 0.93570077 -0.35197547 0.013168474
-0.043229368 0.056487761 -0.0047324169 -0.28002083 0.89308882 -0.35210893 0.031279322
-0.041348681 0.056720607 -0.0051562674 -0.21726647 0.81157809 -0.54234332 0.0199364
-0.036667656 0.056947131 -0.0058405879 -0.0055253077 -0.86965579 0.49362773 0.010761736
-0.042571191 0.057828929 -0.0044440841 -0.19502974 0.82556915 -0.52952719 0.02463259
-0.04120031 0.057897441 -0.005140455 -0.21696755 0.81008309 -0.54469305 0.020187814
-0.037362389 0.058914397 -0.0043417639 -0.18804368 0.87379545 -0.44846532 0.016985049
-0.034430165 0.05904907 -0.0046430137 -0.072267883 0.86668843 -0.4935874 0.0018803839
-0.031566944 0.059321579 -0.0045412248 -0.049102895 0.85739082 -0.51231813 0.0014432711
-0.028602181 0.059188958 -0.0050185705 -0.0084210271 0.75912595 -0.65088928 0.006161883
-0.025273083 0.059109665 -0.0052113491 -0.01433208 0.67572731 -0.73701233 0.0069931871
-0.022396419 0.059243992 -0.0051892316 -0.051610563 0.66106969 -0.74854738 0.0077416459
-0.019268962 0.059104588 -0.0054356046 -0.029112881 0.52781129 -0.84886259 0.0068866881
-0.016277492 0.059337929 -0.0055670869 -0.11295859 0.50504708 -0.85566813 0.0066307373
-0.014084835 0.05957742 -0.0057779443 -0.20296179 0.50815839 -0.83700752 0.0047454275
-0.028756781 0.060208946 -0.0034294873 -0.070024952 0.82357275 -0.56287158 0.00076341553
-0.024960157 0.060401972 -0.0036139498 -0.070051417 0.75880867 -0.64753544 0.0012546191
-0.022280913 0.060657524 -0.0035918045 -0.059888225 0.74036741 -0.66952932 0.0016274023
-0.019357128 0.060875311 -0.0037761866 -0.10617959 0.68991613 -0.7160598 0.0026172949
-0.016553797 0.061005309 -0.0041346815 -0.14958298 0.65166348 -0.74361253 0.0029126192
-0.013507381 0.061421528 -0.0045016259 -0.2372863 0.59757441 -0.76589823 0.0026228111
-0.01077554 0.061907701 -0.0051177293 -0.33988944 0.56201845 -0.75406259 0.0037450437
-0.0087271687 0.062304094 -0.0058329077 -0.44643676 0.52322096 -0.7259022 0.0030538696
-0.012610902 0.063236296 -0.0031066868 -0.25651383 0.66907108 -0.69752747 0.00064997119
-0.010225177 0.063793659 -0.0037104664 -0.32993388 0.63038635 -0.7026782 0.0007100415
-0.007579301 0.064498812 -0.0046103215 -0.43438259 0.58840752 -0.68197393 0.0011424238
-0.0054014139 0.065326184 -0.0054776482 -0.53102064 0.56796706 -0.62883264 0.0008705114
-0.0065366011 0.066490032 -0.0035528699 -0.48676217 0.59258294 -0.6418007 0.00083709497
-0.00436367 0.067379043 -0.0044662156 -0.52494699 0.60005814 -0.60362309 0.00072997611
-0.0023507052 0.068312645 -0.0054410808 -0.56457341 0.5979802 -0.5689258 0.00027297929
-0.0034397973 0.069339767 -0.0032732976 -0.52338153 0.61955595 -0.58499759 0.00020831902
-0.0012990942 0.070292674 -0.004291595 -0.54144067 0.63213295 -0.55430138 0.00011852433
0.00081942085 0.071316347 -0.0052460148 -0.54136026 0.64200234 -0.54291999 0.00013488617
-0.0004628975 0.072101735 -0.003017684 -0.52282763 0.65393293 -0.54683006 0.00052809331
0.0016568109 0.072960593 -0.0040813503 -0.51242542 0.68650329 -0.51588118 0.0014732254
0.0040635378 0.074072249 -0.004932588 -0.47766665 0.73927832 -0.47465998 0.0010212251
0.0060297581 0.074766345 -0.0058223037 -0.48377064 0.72962123 -0.48334131 0.00072313863
0.005395351 0.07562504 -0.0036190227 -0.43659234 0.79304749 -0.4248091 0.0019837925
0.0075020101 0.076132014 -0.0047754627 -0.44010547 0.79680449 -0.41401675 0.0011693359
0.010048917 0.077274613 -0.0046623023 -0.36311743 0.88884592 -0.27946153 0.0016282183
0.011541333 0.078044251 -0.0037276472 -0.33247575 0.9161101 -0.22405848 0.0026613558
0.01338639 0.07841114 -0.0047899657 -0.26427972 0.95401442 -0.14146647 0.0026777349
0.015892208 0.079151154 -0.0046051964 -0.23769894 0.96841437 -0.075318195 0.001491655
0.01874944 0.079805434 -0.0050244038 -0.25278914 0.96577954 -0.058031142 0.0012199358
0.021339091 0.080277167 -0.0046339482 -0.2222193 0.9738102 -0.048086159 0.0010729195
0.024589214 0.080849931 -0.0052705398 -0.21717437 0.97549772 -0.03520748 0.0010500428
0.013994211 -0.078276247 -0.0015395157 -0.19122401 -0.98126245 0.023610204 0.0015817666
0.016507097 -0.078713879 -0.0017847893 -0.17348631 -0.98284346 0.062619142 0.0023775918
0.018857166 -0.079038128 -0.0019249369 -0.1368608 -0.9824993 0.12634969 0.0026264032
0.021784957 -0.079287887 -0.0018766219 -0.10855283 -0.97816294 0.17723882 0.0021635038
0.025455631 -0.079322867 -0.0017997812 -0.024116846 -0.93632358 0.35030922 0.0012194993
0.029214304 -0.079413153 -0.0023596701 -0.048276514 -0.95659751 0.28738582 0.0031249921
0.0026514085 -0.075174361 -0.00041912921 -0.46112093 -0.82850766 -0.31771472 0.003659087
0.0047080391 -0.075495012 -0.0017693024 -0.38732818 -0.88010925 -0.27456251 0.0061799041
0.0074852258 -0.076601684 -0.0016272624 -0.31715435 -0.92276919 -0.21888372 0.0029064417
0.010497993 -0.077488586 -0.0015941239 -0.26753622 -0.95893574 -0.094162665 0.003531957
0.012374274 -0.07792668 -0.0018613411 -0.22789682 -0.9733876 -0.024074528 0.0029576493
-0.00081358879 -0.072778165 -0.0010855342 -0.55690533 -0.75109226 -0.35456595 0.0069628204
0.0012957253 -0.073785849 -0.0016812872 -0.5077334 -0.79419577 -0.33385608 0.0084785363
0.0035876234 -0.074777454 -0.0023187713 -0.43397278 -0.83913296 -0.32790768 0.0065343506
-0.0065511595 -0.069367141 -0.00019623259 -0.37633333 -0.74377394 -0.55242515 0.0069867931
-0.0042905156 -0.070011623 -0.0013141013 -0.44615799 -0.76000857 -0.47257805 0.0096653672
-0.0018836907 -0.071127415 -0.0019148109 -0.55429828 -0.72393501 -0.41069642 0.0075750132
-0.010116665 -0.066598371 -0.00071837241 -0.3608835 -0.6543802 -0.66449195 0.00057251635
-0.0074214838 -0.067484461 -0.0014934711 -0.44305816 -0.65150011 -0.61583036 0.0012538094
-0.0050920858 -0.068402447 -0.0022949658 -0.49203748 -0.63340145 -0.5972451 0.00087699032
-0.021081429 -0.063199446 -0.00020603242 -0.16017243 -0.75494176 -0.6359306 0.00050216529
-0.019148137 -0.063383266 -0.00049185235 -0.17590477 -0.7422353 -0.64664072 0.00049225311
-0.016406678 -0.063835233 -0.00081198278 -0.21431048 -0.70967913 -0.67113823 0.00066305697
-0.013001279 -0.064016365 -0.0018044672 -0.30420947 -0.65299046 -0.69358486 0.00050940638
-0.010551718 -0.064950697 -0.0020632779 -0.35922661 -0.6343832 -0.68448102 0.00059932267
-0.0084426599 -0.065642126 -0.0026001958 -0.41720483 -0.6185925 -0.66579533 0.00066468306
-0.037128031 -0.060228363 -0.00057168101 -0.16414209 -0.89790142 -0.40844879 0.00034259204
-0.034501255 -0.060506642 -0.00087790017 -0.14270061 -0.87989569 -0.453233 0.00039271102
-0.031406604 -0.060781278 -0.0012170472 -0.1273478 -0.86038017 -0.49348617 0.00050377159
-0.028348908 -0.061069358 -0.0014248178 -0.099300772 -0.82953387 -0.54955703 0.000374872
-0.025405414 -0.061487623 -0.0014149005 -0.13035844 -0.79887456 -0.58720195 0.00051385612
-0.022586321 -0.061814934 -0.0015571694 -0.12817265 -0.77005309 -0.62497199 0.0005155885
-0.019739781 -0.06196956 -0.0019413376 -0.14292675 -0.72961783 -0.66875237 0.00053935481
-0.016841564 -0.062289357 -0.0022283515 -0.18927664 -0.70591265 -0.68254066 0.00061913603
-0.014022062 -0.062721632 -0.0026620231 -0.26513311 -0.67004329 -0.69335878 0.00070902344
-0.045680035 -0.058074627 -0.00080865901 -0.32649618 -0.86372703 -0.38389564 0.013309702
-0.043678686 -0.058401048 -0.0016881919 -0.32446688 -0.81362396 -0.48242852 0.013741752
-0.040471829 -0.059237622 -0.0015213658 -0.18019806 -0.90647137 -0.38188773 0.00033564662
-0.037757631 -0.059518091 -0.0019185225 -0.13201818 -0.90441841 -0.40570739 0.0005631916
-0.034559544 -0.059758436 -0.0023126756 -0.10812394 -0.88492978 -0.45299953 0.0003416519
-0.0320215 -0.05986673 -0.0026645076 -0.095058955 -0.85959893 -0.50204933 0.00038552744
-0.029711502 -0.059968304 -0.002895226 -0.083544679 -0.83503294 -0.54382008 0.00039249504
-0.051519316 -0.055343281 -0.0014189418 -0.88663882 -0.45145303 -0.10030854 0.039270852
-0.049561907 -0.056676548 -0.0015062351 -0.31633472 -0.90807354 -0.27447191 0.018264875
-0.046528585 -0.056679692 -0.0014899083 -0.19886692 -0.89127725 -0.40752524 0.016918344
-0.044078458 -0.056572281 -0.0022504323 -0.31067958 -0.81874847 -0.4828344 0.018725965
-0.05198447 -0.052496731 -0.00145541 -0.97867739 -0.18687384 -0.085256539 0.014582892
-0.05216914 -0.049467415 -0.0014148623 -0.99657041 0.022940371 -0.079505816 0.0018347641
-0.052033182 -0.046508133 -0.0014834573 -0.98947412 0.1218071 -0.078128137 0.0096363723
-0.051705088 -0.044082284 -0.00141585 -0.91736138 0.37350273 -0.13763654 0.035249192
-0.049548242 -0.043194082 -0.0016734366 -0.31544214 0.90419275 -0.2879788 0.048887637
-0.046303667 -0.042685591 -0.0012022667 -0.26336604 0.84690863 -0.46193516 0.019583248
-0.044250242 -0.042627804 -0.0021523719 -0.33013183 0.74804252 -0.57571286 0.015204942
-0.036781501 -0.043254111 -0.001830262 -0.11736721 0.21758059 -0.96896011 0.042624071
-0.022091351 -0.042175412 -0.0028923261 0.098908387 0.51386195 -0.85215199 0.0070352452
-0.019552447 -0.042381741 -0.002748555 0.080487572 0.53582352 -0.84048498 0.0032448741
-0.016433883 -0.042606406 -0.0025969287 0.063688166 0.52433038 -0.8491298 0.0028746352
-0.013403581 -0.04277942 -0.002490452 0.035555437 0.52985275 -0.84734404 0.0027130703
-0.010561002 -0.042800058 -0.0024781341 -0.00079636247 0.55103368 -0.83448261 0.0027085142
-0.0075774519 -0.042600345 -0.0024319431 -0.032431811 0.59378338 -0.80397105 0.0028573591
-0.0044244062 -0.042644341 -0.0026604771 -0.055852119 0.64738041 -0.76011789 0.0027570431
-0.0015174146 -0.042382069 -0.0026830854 -0.079292573 0.70206136 -0.70768815 0.0031626264
0.00054119801 -0.042178847 -0.0027102658 -0.15422328 0.73204321 -0.66357201 0.0036013671
-0.045846228 -0.041210007 -0.00064906431 -0.32909331 0.79238278 -0.513641 0.013225353
-0.042916566 -0.040323902 -0.0012364489 -0.46254772 0.66124964 -0.59059161 0.031817656
-0.040641546 -0.039935511 -0.0019387313 -0.4498544 0.52020657 -0.72595876 0.029709404
-0.037485413 -0.040107355 -0.0026377463 -0.090866573 0.22215994 -0.97076684 0.02873911
-0.034508351 -0.040193301 -0.0027058949 -0.0068962695 0.28776586 -0.95767599 0.016674824
-0.031754538 -0.040083308 -0.00264923 0.058712047 0.25712958 -0.96459174 0.011219173
-0.028485838 -0.040282052 -0.0025297501 0.077926196 0.32881862 -0.9411726 0.0086804628
-0.025491431 -0.040555522 -0.0024434668 0.088717103 0.34796095 -0.93330193 0.0062535712
-0.022625692 -0.040581502 -0.0022296146 0.10168734 0.3476752 -0.93208456 0.0057414565
-0.019581094 -0.040514499 -0.0019458192 0.095344819 0.32867742 -0.93961728 0.0043944884
-0.016596444 -0.04044801 -0.0016807585 0.06921567 0.32789892 -0.94217384 0.0040727528
-0.013499087 -0.040478095 -0.001474492 0.051800948 0.33978316 -0.93907619 0.0039209914
-0.010500085 -0.040475313 -0.0013400917 0.032766238 0.37055239 -0.92823339 0.0044456637
-0.0075285221 -0.040554721 -0.0012797762 0.020922851 0.41771111 -0.90833902 0.0052324031
-0.0045728749 -0.040660419 -0.0012966044 0.014320263 0.45581487 -0.88995939 0.0057270471
-0.0016153245 -0.040535409 -0.0012146295 0.0090328194 0.50477928 -0.8632012 0.0050219763
0.0016284341 -0.040710613 -0.0014787252 -0.070547804 0.67330968 -0.73598713 0.009963965
0.0045368434 -0.040307354 -0.0015396532 -0.055382371 0.80637163 -0.58881038 0.004480537
0.0071651572 -0.039929576 -0.0015848577 -0.080570087 0.83964461 -0.53712696 0.0011779204
0.010113234 -0.039747618 -0.0016701842 -0.0645357 0.87180877 -0.48557663 0.001437215
0.013204016 -0.039840512 -0.0016830321 0.11508212 0.92394888 -0.36479396 0.0043438203
0.016041085 -0.040225849 -0.0018311753 0.10379791 0.945822 -0.30764708 0.0028321031
0.018830933 -0.040879093 -0.0023155946 0.13195831 0.95190835 -0.27650946 0.0011107972
-0.040382225 -0.037527595 -0.0011273181 -0.70470059 0.26972735 -0.6562348 0.048658248
-0.037651375 -0.037526377 -0.0024559954 -0.21233714 0.088244207 -0.97320396 0.012242361
-0.034643836 -0.037542019 -0.002646093 -0.0013770235 0.046050541 -0.9989382 0.0027752572
-0.03222397 -0.037489466 -0.0026017374 0.072635084 0.066995956 -0.99510592 0.0028360076
-0.028903665 -0.03765168 -0.0021394058 0.084613748 0.094373539 -0.99193454 0.00309119
-0.025644105 -0.037601948 -0.0018445917 0.082625046 0.10120875 -0.9914282 0.0033521629
-0.022346383 -0.037431013 -0.0015686362 0.075953223 0.12250499 -0.98955733 0.0045894179
-0.019243555 -0.037520856 -0.0013179608 0.088052996 0.12450272 -0.9883045 0.0047574015
-0.01636507 -0.037457421 -0.0010747169 0.083791636 0.13512285 -0.98727947 0.0051492103
-0.01351675 -0.037565626 -0.00085311686 0.074122712 0.15147297 -0.98567837 0.0055151768
-0.010647003 -0.037486557 -0.00063175359 0.059119646 0.14937878 -0.98701108 0.0044537261
-0.0077124191 -0.037624754 -0.00042920368 0.070862271 0.18218218 -0.980708 0.0057060216
-0.0047385604 -0.037732448 -0.00021918953 0.096689098 0.17793554 -0.97928041 0.004705539
-0.0016944326 -0.038401239 -0.00013146407 0.099493742 0.27237037 -0.95703465 0.011065902
0.00083549303 -0.038943354 -0.0001021948 0.091241181 0.5457049 -0.83299536 0.010986532
0.007970144 -0.038969617 -7.3084004e-05 -0.012124876 0.88688505 -0.46183112 0.0033043872
-0.04025628 -0.034475092 -0.0011740593 -0.81893325 0.082891323 -0.56787097 0.029138932
-0.037902206 -0.034542661 -0.0026478656 -0.50007683 -0.0082673356 -0.86594158 0.014578805
-0.034863349 -0.034588955 -0.0027489313 0.020137202 -0.073097259 -0.99712151 0.0018059047
-0.031505704 -0.034435786 -0.002462985 0.091492139 -0.049844235 -0.99455756 0.00038700714
-0.028188355 -0.03450175 -0.0022019153 0.090243563 -0.031043995 -0.99543571 0.00088629394
-0.025205571 -0.034693047 -0.0019291313 0.083368771 -0.039636627 -0.99573016 0.0013241711
-0.022235855 -0.034505233 -0.0017097745 0.085563913 -0.041644171 -0.99546194 0.0014802981
-0.019275557 -0.034544911 -0.0014453246 0.087418318 -0.066955179 -0.99391907 9.2644623e-05
-0.016409148 -0.034500517 -0.0011882016 0.090747729 -0.058244813 -0.99416924 0.00011807413
-0.01346573 -0.034589048 -0.00091078377 0.09153346 -0.047383673 -0.99467403 0.00014959082
-0.010625429 -0.034518987 -0.00065210555 0.09056031 -0.031395242 -0.99539602 0.00018582432
-0.0077976566 -0.034512267 -0.00038943917 0.091296367 -0.014919234 -0.99571198 0.00024942862
-0.0049104146 -0.034507893 -0.00011666089 0.096594311 0.0028190252 -0.99531984 0.00036009791
-0.040250264 -0.031477768 -0.0013706269 -0.86880636 -0.037774932 -0.49370888 0.034991834
-0.038497772 -0.031802487 -0.0027753692 -0.50389993 -0.090464219 -0.85901165 0.022270834
-0.033519305 -0.032101691 -0.0028282697 0.070363656 -0.10723794 -0.99174041 0.0013626294
-0.031109497 -0.031594247 -0.0026386601 0.096473061 -0.093753465 -0.99091029 0.00020243302
-0.028426915 -0.031441644 -0.002441383 0.081283174 -0.087609589 -0.99283308 5.0749921e-05
-0.025804967 -0.031510841 -0.002259505 0.076978125 -0.086294845 -0.99329132 1.5960042e-05
-0.022895638 -0.031446122 -0.0020473995 0.080598377 -0.085236795 -0.99309546 1.876161e-05
-0.019750349 -0.031561494 -0.0017605475 0.091081947 -0.077955522 -0.99278748 5.4343374e-05
-0.016558003 -0.031419024 -0.0014640108 0.10028141 -0.072775811 -0.99229395 4.4361666e-05
-0.013562443 -0.031531341 -0.0011407316 0.10507088 -0.064633034 -0.9923622 4.8286362e-05
-0.010604784 -0.031593218 -0.00081984495 0.10630725 -0.054767009 -0.99282396 4.1460262e-05
-0.0081066154 -0.031532221 -0.00055589736 0.10618363 -0.037727375 -0.99363059 6.2007777e-05
-0.0051050037 -0.031513792 -0.00022352158 0.11119315 -0.026082139 -0.99345654 7.6769e-05
-0.040058322 -0.028432379 -0.0016713293 -0.86003864 -0.060073953 -0.50667989 0.031661183
-0.038925208 -0.029562354 -0.0028046223 -0.33988625 -0.096757896 -0.93547601 0.024622399
-0.031323601 -0.029040188 -0.0029394703 0.11642788 -0.12710309 -0.98503268 0.00028590864
-0.028640708 -0.028341234 -0.0027461839 0.089294605 -0.11213123 -0.9896732 0.00019727412
-0.025427463 -0.028555032 -0.0024778666 0.079623997 -0.095338225 -0.99225533 5.3192143e-05
-0.022232994 -0.028523687 -0.0022291471 0.091628782 -0.085567027 -0.99211013 5.7027239e-05
-0.019269954 -0.028568288 -0.0019472761 0.099314578 -0.077384442 -0.99204254 2.0362906e-05
-0.016382482 -0.028569486 -0.00164845 0.10644674 -0.067184687 -0.99204606 2.9371391e-05
-0.013299178 -0.028527193 -0.0013004488 0.11366691 -0.057560802 -0.99185014 3.762003e-05
-0.009970285 -0.028457385 -0.00090394856 0.11759987 -0.043325178 -0.9921155 4.5404624e-05
-0.0066980161 -0.028017256 -0.0005168143 0.12796995 -0.030514283 -0.99130857 5.1429353e-05
-0.0051250048 -0.028758416 -0.00029586485 0.12393788 -0.020729141 -0.99207348 5.9249556e-05
-0.0026509708 -0.027417492 -3.4626328e-06 0.14300318 -0.011081663 -0.9896602 0.00011118571
-0.039990816 -0.025532603 -0.0016703143 -0.91829461 -0.079493158 -0.38783494 0.020669909
-0.027959153 -0.026372556 -0.0029203468 0.11044621 -0.13424887 -0.98477358 0.00031174754
-0.025354903 -0.025453746 -0.0027893055 0.095431857 -0.1124214 -0.98906732 0.00010177527
-0.022836408 -0.025596635 -0.0025367078 0.097139999 -0.099362426 -0.99029845 0.000100665
-0.019862618 -0.02547124 -0.00223933 0.10939474 -0.081572644 -0.99064559 7.2709969e-05
-0.016758943 -0.025522947 -0.0018953101 0.11447497 -0.069382809 -0.99100024 4.6987741e-05
-0.013785115 -0.025553998 -0.0015255399 0.12608184 -0.054108623 -0.99054313 3.577624e-05
-0.01047042 -0.025544185 -0.0010963921 0.13128929 -0.043071106 -0.990408 3.8498001e-05
-0.0069135078 -0.025467798 -0.00061785738 0.13699937 -0.026916768 -0.99020541 4.0527335e-05
-0.0044048345 -0.025521409 -0.0002710016 0.13973843 -0.021074591 -0.98996419 3.171587e-05
-0.0026349146 -0.024986073 -1.7761968e-05 0.14588366 -0.014270209 -0.9891988 3.7821956e-05
-0.039780453 -0.022510743 -0.0014385912 -0.94204456 -0.0039206594 -0.33546484 0.019399727
-0.024606735 -0.023443919 -0.0029420929 0.11123481 -0.12625906 -0.98574108 0.00016566529
-0.022224844 -0.022663917 -0.0027607295 0.1160975 -0.11030786 -0.98709345 0.00013200798
-0.019222444 -0.022307331 -0.0024292781 0.12875719 -0.089389957 -0.98763913 6.8842004e-05
-0.016348571 -0.022514995 -0.0020448493 0.13763912 -0.067434706 -0.98818421 6.5459288e-05
-0.014078409 -0.022738855 -0.0017220442 0.13756211 -0.057612438 -0.9888162 5.670192e-05
-0.010909241 -0.022538722 -0.0012876174 0.14131303 -0.042751379 -0.98904145 4.3034583e-05
-0.0073017199 -0.022401346 -0.00076148426 0.14776005 -0.028702822 -0.98860669 3.8230552e-05
-0.0037143845 -0.022037461 -0.00022289739 0.15062305 -0.01904124 -0.98840785 2.6844886e-05
-0.0027495497 -0.022810698 -6.486092e-05 0.15433386 -0.014451679 -0.98791307 4.4130757e-05
-0.039580788 -0.019529568 -0.0013156515 -0.96877384 0.038805958 -0.24489011 0.011888354
-0.038906004 -0.01897485 -0.0022561743 -0.95422268 0.049998246 -0.29488853 0.022219358
-0.021387249 -0.020218719 -0.0029210269 0.14637978 -0.11432955 -0.9825995 0.00012390148
-0.01976442 -0.019622866 -0.00275182 0.14571385 -0.097413801 -0.98451918 0.00015966744
-0.016604945 -0.019645382 -0.0023017058 0.14672713 -0.075956292 -0.98625642 9.2267896e-05
-0.012925955 -0.01925057 -0.0017529832 0.15500966 -0.056758702 -0.98628116 6.5613684e-05
-0.011123806 -0.020026434 -0.0014256542 0.15375249 -0.049742032 -0.98685658 6.3260799e-05
-0.0077173552 -0.019475129 -0.00091321225 0.1589843 -0.032349326 -0.98675102 5.0872994e-05
-0.0039085336 -0.019575927 -0.00029056118 0.16100669 -0.017885815 -0.98679125 2.9322588e-05
-0.0026883492 -0.019465469 -9.74574e-05 0.1719508 -0.010759554 -0.9850468 5.055466e-05
-0.039428018 -0.016505152 -0.0011212275 -0.97006363 0.074387349 -0.23117757 0.0088717053
-0.038841061 -0.016065495 -0.0026447934 -0.97173923 0.047639262 -0.23120013 0.027546013
-0.018631991 -0.016739771 -0.0028759749 0.17012987 -0.10238867 -0.980088 0.00015413811
-0.017118176 -0.017000182 -0.00258803 0.17284517 -0.095041223 -0.98035288 9.8771678e-05
-0.013762747 -0.016501017 -0.0020597526 0.16843511 -0.065053016 -0.98356384 7.1752707e-05
-0.010030611 -0.01596991 -0.0014397153 0.1737009 -0.051382903 -0.98345709 6.8301393e-05
-0.0081681535 -0.016785387 -0.0010781604 0.17210127 -0.036490142 -0.98440319 6.7326102e-05
-0.0041251443 -0.016581316 -0.00037592006 0.1696478 -0.022525301 -0.98524731 4.1541269e-05
-0.0026969886 -0.016318243 -0.00013020268 0.18297502 -0.012284471 -0.98304081 5.8661171e-05
-0.03940767 -0.013540544 -0.0011745933 -0.97192532 0.046024561 -0.23074435 0.01159397
-0.038838226 -0.01355661 -0.002657267 -0.99098581 0.042707443 -0.12697747 0.012667991
-0.016057961 -0.013650772 -0.0027089992 0.18677139 -0.086357526 -0.97860044 7.7560151e-05
-0.01339759 -0.013384562 -0.0022223231 0.18681836 -0.07222113 -0.97973621 7.7031167e-05
-0.010421271 -0.013501799 -0.0016473737 0.18952826 -0.05540901 -0.98031062 8.0193269e-05
-0.0072940304 -0.013660205 -0.0010450375 0.18768913 -0.039879769 -0.98141855 6.7501613e-05
-0.0045020045 -0.013558187 -0.00051253138 0.18243632 -0.029603871 -0.98277193 5.1199258e-05
-0.0027209437 -0.013451485 -0.00017169816 0.19579914 -0.015027236 -0.98052889 5.7898811e-05
-0.039392624 -0.010532095 -0.0012141761 -0.96765018 0.018645337 -0.25160593 0.0093797753
-0.038837045 -0.010545999 -0.0026609537 -0.99176401 0.043589234 -0.12043339 0.010443387
-0.015662795 -0.011011626 -0.0028661483 0.20915122 -0.088232003 -0.97389472 7.3276307e-05
-0.013319979 -0.010216281 -0.0024369112 0.20460725 -0.071332306 -0.97624153 6.5160159e-05
-0.011144938 -0.011060294 -0.0019315323 0.1964836 -0.05428813 -0.97900307 7.3541007e-05
-0.0068050064 -0.0098313801 -0.0010915122 0.20122522 -0.047237713 -0.97840536 6.2957566e-05
-0.0050848601 -0.010656964 -0.00070732459 0.19670559 -0.035475191 -0.97982061 6.0312974e-05
-0.0027647752 -0.010581315 -0.00022765082 0.20983249 -0.01770922 -0.97757697 5.5249468e-05
-0.039398421 -0.0074677407 -0.0011994774 -0.9656707 -0.043983467 -0.25601849 0.0096227583
-0.038835954 -0.0074390755 -0.0026645947 -0.98315799 -0.068625711 -0.16938399 0.012763806
-0.013232455 -0.0076259379 -0.0026321176 0.21877772 -0.078390852 -0.97262079 7.4909934e-05
-0.010243637 -0.0075158272 -0.0019692753 0.2176701 -0.063209541 -0.97397351 7.4694079e-05
-0.007412646 -0.0075334422 -0.0013249932 0.21120745 -0.053170506 -0.97599399 9.744105e-05
-0.0049588438 -0.0075305342 -0.00078301405 0.21964453 -0.032086186 -0.97505218 6.4794658e-05
-0.0023222174 -0.007358985 -0.00019346586 0.22486442 -0.019769041 -0.97418952 6.5870787e-05
-0.039723668 -0.0044283331 -0.0014644858 -0.96416557 -0.1227176 -0.23521298 0.0097994413
-0.038834475 -0.0055126334 -0.0025031429 -0.98433328 -0.10156142 -0.14412966 0.016029233
-0.012668937 -0.0039453763 -0.0027875141 0.22126113 -0.068946786 -0.97277433 0.00016477992
-0.010559369 -0.0045591276 -0.0022331746 0.22876985 -0.066767879 -0.97118819 0.00011651785
-0.0083299773 -0.0051808031 -0.0016552042 0.22832985 -0.058603369 -0.97181845 0.00011071013
-0.0050625233 -0.004546742 -0.00091300381 0.23499663 -0.032983739 -0.97143638 6.8635018e-05
-0.0022608179 -0.0044977833 -0.00022855047 0.2393681 -0.018754244 -0.97074777 8.6917273e-05
-0.039815862 -0.0014568126 -0.0013215644 -0.95643985 -0.02036907 -0.29121816 0.022230776
-0.010815263 -0.0013602335 -0.0025104883 0.24800587 -0.048323892 -0.96755254 7.9122539e-05
-0.0077813934 -0.0015045354 -0.0017151773 0.2481288 -0.02565383 -0.96838731 0.00015269307
-0.004376207 -0.0015289348 -0.00083647977 0.24697167 -0.02380627 -0.96873027 5.1320116e-05
-0.0017698257 -0.001703436 -0.00015958621 0.25286689 -0.014154941 -0.96739751 0.00011064747
-0.039812237 0.0015563065 -0.0013946128 -0.94956267 0.040425148 -0.31096056 0.025966851
-0.010584441 0.0014280233 -0.0025380652 0.25225005 -0.01696907 -0.96751332 0.00023618281
-0.006993555 0.0014609232 -0.0015829527 0.25233069 -0.0031480279 -0.96763599 4.6578225e-05
-0.0037900093 0.0016230509 -0.00072819646 0.26009807 0.0021771856 -0.96557975 6.301883e-05
-0.0015194826 0.001398721 -0.00012114339 0.26862928 0.0022808288 -0.96324098 0.00011016414
-0.039808761 0.0044762474 -0.001399279 -0.95765793 0.077331781 -0.27732825 0.014303372
-0.011018807 0.0044617518 -0.0025807172 0.25031567 0.032221772 -0.96762794 3.2470751e-05
-0.0079196785 0.0043272185 -0.0017782321 0.25226068 0.015411035 -0.96753663 0.00010389998
-0.0048643192 0.0044843694 -0.00097780139 0.25109664 0.017978618 -0.96779507 2.8653842e-05
-0.002083492 0.0045800009 -0.00024849063 0.26431549 0.010420982 -0.96437997 9.5357165e-05
-0.039399642 0.0075742514 -0.0011988183 -0.96328598 0.075323984 -0.25769457 0.0070657008
-0.038797706 0.0075068786 -0.0025828129 -0.9850474 0.086572617 -0.14895205 0.011161195
-0.012728553 0.0081076231 -0.0028354283 0.22815655 0.068880126 -0.97118491 5.3784635e-05
-0.010739344 0.0074798418 -0.0023931609 0.24345677 0.047262471 -0.96875954 4.0579846e-05
-0.0078458134 0.007484029 -0.0016513977 0.24486965 0.037067078 -0.96884722 3.1408043e-05
-0.0049105743 0.0074918782 -0.00089577929 0.24350956 0.027523085 -0.96950793 3.8133363e-05
-0.0024793732 0.0073334109 -0.00028767984 0.24303052 0.015499951 -0.96989483 0.00010676112
-0.039423089 0.010472582 -0.0011383673 -0.96693087 0.01382381 -0.25466385 0.0083696516
-0.038865123 0.010485065 -0.0025918738 -0.99116683 -0.027369786 -0.12976603 0.010608009
-0.012995744 0.010716713 -0.002734771 0.22606224 0.07078667 -0.97153753 3.849245e-05
-0.010423873 0.010381523 -0.002136834 0.21968035 0.068212293 -0.97318429 6.2979103e-05
-0.0082497317 0.011179913 -0.0015710024 0.21761924 0.058928214 -0.97425318 7.5198921e-05
-0.0047038994 0.010525214 -0.00076871377 0.22995973 0.029239343 -0.97276086 8.638866e-05
-0.0025704061 0.0105801 -0.00026454602 0.22593962 0.017683992 -0.97398084 4.1679596e-05
-0.039418377 0.013420026 -0.0011508638 -0.96555144 0.0081323301 -0.26008528 0.0090041533
-0.038863719 0.01355173 -0.0025953969 -0.99298996 -0.024281714 -0.11567792 0.011568569
-0.015582399 0.014854633 -0.0029102892 0.20455506 0.1030571 -0.97341484 6.4910164e-05
-0.013996714 0.013886252 -0.0026613683 0.20238598 0.091500431 -0.9750219 0.00012876801
-0.010362515 0.013579782 -0.0019127523 0.21477126 0.067051969 -0.97435999 9.2791561e-05
-0.0073467162 0.013595928 -0.0012399382 0.20407379 0.054878015 -0.97741616 0.00011677748
-0.0044609155 0.013587639 -0.00061539281 0.20954712 0.028518628 -0.9773826 0.00013962906
-0.0024157041 0.013617286 -0.00017778735 0.21201 0.013445173 -0.977175 5.1702467e-05
-0.039446604 0.016538622 -0.0010778996 -0.97179931 -0.058894787 -0.22833624 0.012146894
-0.038887259 0.016425639 -0.0025335986 -0.98802906 -0.041678388 -0.14853093 0.015364037
-0.016304407 0.017264616 -0.0027615668 0.19096252 0.11496262 -0.97484201 7.2193019e-05
-0.013190761 0.01625777 -0.002298143 0.19480464 0.094045825 -0.97632295 0.00016185979
-0.01103519 0.016949248 -0.0018010135 0.19520812 0.084733143 -0.97709477 0.00015209237
-0.0068742838 0.016268872 -0.0010143861 0.18918745 0.051432595 -0.98059314 0.00016750619
-0.0050462964 0.016843075 -0.00064375927 0.18637215 0.041825689 -0.98158854 0.0001248194
-0.0023364439 0.016637038 -0.00014566125 0.19404803 0.016316283 -0.98085636 6.6336375e-05
-0.03951269 0.019559124 -0.0011863253 -0.9724468 -0.06191412 -0.22475287 0.0068636928
-0.0389219 0.01907271 -0.0024763634 -0.95847958 -0.038656749 -0.28252876 0.02478715
-0.018609639 0.020339094 -0.0028189812 0.177729 0.12740654 -0.97579718 5.8493701e-05
-0.015991241 0.019090384 -0.0024855216 0.17982227 0.11277063 -0.97721374 2.4222882e-05
-0.013832351 0.019689197 -0.002015685 0.17249526 0.10165156 -0.97975117 8.4650987e-05
-0.010167454 0.019550376 -0.0013852317 0.17441018 0.07943169 -0.98146403 0.00018057303
-0.007515585 0.019342666 -0.00096724863 0.16766746 0.057669166 -0.98415542 0.00015511259
-0.0047942442 0.019508105 -0.00050084543 0.16916831 0.034856427 -0.98497063 0.00013176758
-0.002150777 0.019714229 -3.6772697e-05 0.16901743 0.016289787 -0.98547846 6.7859808e-05
-0.039745711 0.022448741 -0.0013908846 -0.95618033 -0.015761593 -0.29235372 0.015248348
-0.021371908 0.022760209 -0.0029359434 0.15496087 0.13755032 -0.97829807 7.6025208e-05
-0.01990841 0.023092531 -0.0026577318 0.15312487 0.13007225 -0.97960913 5.7011472e-05
-0.016593855 0.022565631 -0.0021898882 0.16228943 0.10918923 -0.98068339 8.1263352e-05
-0.012961999 0.022411581 -0.0016112525 0.16015674 0.092737332 -0.98272562 0.00012863633
-0.011010138 0.023156265 -0.001253288 0.14576727 0.07345666 -0.98658812 0.00012024996
-0.0078914184 0.022600938 -0.00083783938 0.1468865 0.052902043 -0.98773766 5.7145502e-05
-0.0043293089 0.022448989 -0.00031528325 0.14729328 0.031027773 -0.9886061 0.00011680016
-0.0020991317 0.021842765 -1.7186881e-05 0.16056685 0.022815648 -0.98676127 0.00016136584
-0.039952498 0.025515296 -0.0016322549 -0.92638725 0.0606988 -0.37164801 0.019825397
-0.024862003 0.026471782 -0.0028804275 0.12519933 0.15154503 -0.98048925 7.9153157e-05
-0.02228757 0.025679842 -0.0026858519 0.1331244 0.13435481 -0.98195046 7.8141282e-05
