# .PCD v0.7 - Point Cloud Data file format
VERSION 0.7
FIELDS x y z normal_x normal_y normal_z curvature
SIZE 4 4 4 4 4 4 4
TYPE F F F F F F F
COUNT 1 1 1 1 1 1 1
WIDTH 555
HEIGHT 1
VIEWPOINT 0 0 0 1 0 0 0
POINTS 555
DATA ascii
-0.068089627 0.046521101 -0.0083162887 -0.59206724 -0.055645902 -0.80396509 0.003067699
-0.048198331 0.047738519 -0.0088707218 0.31452277 0.69002509 -0.6518749 0.0017868126
-0.046301223 0.047350287 -0.0082373442 0.35179302 0.73831171 -0.57544547 0.001920864
-0.043454662 0.046337537 -0.0075707925 0.37980533 0.75320661 -0.53705466 0.0012266616
-0.041015204 0.045412242 -0.0070359334 0.40251094 0.76369649 -0.5047304 0.0010853942
0.047234274 0.045554794 -0.0066577331 -0.46429116 0.74643165 -0.47673205 0.0020995298
0.04958877 0.046390656 -0.0074981917 -0.41710693 0.73472333 -0.53497976 0.001673543
0.052075293 0.047269285 -0.0082021803 -0.37425509 0.68540186 -0.6246258 0.0019503281
0.054396406 0.047901168 -0.008778939 -0.33641216 0.66974413 -0.66201937 0.0023304864
0.0684103 0.046184313 -0.0086534768 0.51281476 0.15397783 -0.84457785 0.0026444781
0.069412649 0.046443559 -0.0077446126 0.56436098 0.14295156 -0.81305695 0.002186839
-0.070096366 0.049531411 -0.0068742665 -0.62679082 -0.018811652 -0.77896047 0.0083905989
-0.06785693 0.049622405 -0.008380183 -0.46631014 0.093812257 -0.87963289 0.0063697617
-0.06572298 0.050905917 -0.0089203222 -0.18456283 0.30361843 -0.93474728 0.010026124
-0.057111274 0.050988879 -0.0089304307 0.0869831 0.69384223 -0.71485448 0.0036724757
-0.054962222 0.050787188 -0.008693248 0.21210362 0.70655346 -0.67512536 0.0021087846
-0.052338913 0.050178476 -0.0081909802 0.29936403 0.7413649 -0.60063243 0.0025176692
-0.049692407 0.049319401 -0.0077933646 0.32641026 0.73625863 -0.59277284 0.0012829476
-0.046996843 0.04865573 -0.0068323445 0.36841497 0.75514221 -0.54224598 0.0012710223
0.050799925 0.048077747 -0.0062131179 -0.4505862 0.73577946 -0.50556952 0.0011548004
0.052861795 0.048710506 -0.0070214183 -0.41159326 0.72004831 -0.55867821 0.0024270553
0.055426512 0.04959175 -0.007677861 -0.34515893 0.69428813 -0.63152939 0.0023431552
0.058298323 0.050300244 -0.0083528347 -0.26946396 0.64806241 -0.71232319 0.0032868728
0.06112498 0.050743949 -0.0088056969 -0.14240825 0.56712449 -0.81122726 0.0044610263
0.065279424 0.050796699 -0.00889898 0.11654919 0.41687635 -0.90146017 0.011886831
0.067430846 0.049757648 -0.0084826117 0.38438544 0.24992202 -0.88869947 0.0071433126
0.069573209 0.049516797 -0.0071311435 0.51953262 0.18013567 -0.83524668 0.0036385788
-0.07023003 0.05252884 -0.0067255814 -0.48989475 0.10527061 -0.8654024 0.0099116536
-0.067588471 0.052496713 -0.0078749536 -0.27652511 0.28461248 -0.91789412 0.012561419
-0.064682156 0.052599218 -0.0083225938 -0.099288605 0.45082045 -0.88707542 0.0090494696
-0.061688453 0.052735399 -0.0081701707 0.040569067 0.58064032 -0.8131488 0.0036288884
-0.058518428 0.052501727 -0.007796064 0.16373405 0.69855565 -0.69657099 0.0030064189
-0.055699699 0.051900972 -0.0076595983 0.2130263 0.73199826 -0.64714628 0.0020142761
-0.052958414 0.051533196 -0.0068452163 0.33002144 0.76158279 -0.55774319 0.0012269889
0.056455109 0.05129832 -0.0063619236 -0.40609267 0.71369767 -0.57072276 0.0031265041
0.05872136 0.051975686 -0.0069113802 -0.35526717 0.68359184 -0.63756365 0.0034286303
0.061460819 0.052525859 -0.0075943787 -0.24999088 0.59404951 -0.76459783 0.0064738714
0.064378105 0.052572746 -0.0081169503 -0.041669253 0.48164713 -0.87537408 0.007111799
0.067249261 0.05255419 -0.0077105924 0.16509682 0.37034395 -0.91410524 0.00781433
0.069400333 0.053072155 -0.0065863654 0.37031022 0.25208274 -0.89404953 0.0068639894
-0.070118956 0.055150229 -0.0063651092 -0.29017958 0.29297221 -0.91102308 0.014144351
-0.067594551 0.055341806 -0.0067519951 -0.12309378 0.39801058 -0.90908504 0.0086112209
-0.06484621 0.054917458 -0.0068959855 0.046143789 0.53700733 -0.8423146 0.0078963665
-0.061657637 0.054475486 -0.0065847733 0.16897318 0.66379291 -0.72857875 0.0050404724
-0.059237696 0.054091044 -0.0061468733 0.23596823 0.74027056 -0.62953842 0.0030414497
0.062183712 0.054382917 -0.0063948743 -0.33270693 0.62440032 -0.7067039 0.0064064986
0.064630322 0.055161964 -0.0066521671 -0.21047717 0.51737285 -0.82947254 0.010821078
0.067328401 0.055617835 -0.0066232826 -0.045361284 0.40709338 -0.91225946 0.011991803
0.069428705 0.0550786 -0.0061819004 0.25529668 0.27292475 -0.92754281 0.0070479303
0.067050532 0.057334796 -0.0060592983 -0.15120174 0.37147903 -0.91604656 0.014018983
-0.015217883 0.0029309548 -0.0032265983 -0.2641446 -0.93348742 -0.24254656 0.0012099352
-0.013131867 0.0026549448 -0.0041542673 -0.20560208 -0.92173815 -0.32882607 0.0025639609
-0.010380823 0.0023148379 -0.0047433372 -0.16652226 -0.92603701 -0.33871207 0.0016569083
-0.0074913139 0.001913076 -0.0047438294 -0.13091502 -0.92452312 -0.35793611 0.0021303401
-0.0045057065 0.0014805784 -0.0047599874 -0.10246426 -0.92519093 -0.36540759 0.0024078311
-0.0014202674 0.0011220494 -0.0043347464 -0.05873299 -0.93105042 -0.36013278 0.0019371032
0.0014518906 0.001043158 -0.0044619255 -0.033508919 -0.92433727 -0.38010219 0.0016532021
0.0045128018 0.0010288325 -0.0045873458 0.0045792209 -0.92052072 -0.3906669 0.0017137295
0.0074892608 0.001192814 -0.0047535095 0.039276853 -0.92693371 -0.37316406 0.0017123637
0.010527129 0.0012902997 -0.0046223127 0.058743082 -0.93024325 -0.36221075 0.0014786101
0.013518463 0.0016494859 -0.0048130471 0.090826131 -0.92396075 -0.37154707 0.0012211029
0.016259035 0.001953695 -0.0046810638 0.11952511 -0.93143266 -0.34372512 0.0011256814
0.01923489 0.0024332677 -0.0048459801 0.14950122 -0.92056036 -0.36085731 0.0011732979
0.022015516 0.0027298084 -0.0039700065 0.19546537 -0.94266349 -0.27051571 0.0010347099
0.02400835 0.0028918632 -0.0030728942 0.17094059 -0.97517914 -0.1407302 0.0020882343
-0.024309836 0.0059058173 -0.0033675351 -0.35283685 -0.90481228 -0.23837143 0.0019151444
-0.02230495 0.0055226954 -0.0044907196 -0.32369894 -0.88492674 -0.33484864 0.0020831781
-0.019552618 0.0046333517 -0.0047269356 -0.28203085 -0.89409602 -0.34792373 0.0019963582
-0.016471984 0.0038011449 -0.0047972449 -0.25293282 -0.9024049 -0.34884155 0.0015985935
-0.013984433 0.0033051809 -0.0053233649 -0.22519554 -0.89436567 -0.38651916 0.0020822301
-0.011713388 0.0030630175 -0.0059976885 -0.211202 -0.87147743 -0.44262955 0.0027411962
0.020671219 0.0030332054 -0.0058804983 0.17673805 -0.93392485 -0.31072193 0.0016445374
0.02274948 0.0033292065 -0.0054204515 0.18937393 -0.90425205 -0.3827084 0.0010496114
0.025254007 0.0037220896 -0.0049289833 0.21831046 -0.90627271 -0.36195356 0.00091046013
0.028454533 0.0045189708 -0.0046714558 0.25919104 -0.91678751 -0.30384305 0.0015404724
0.03140948 0.0053438731 -0.0045139566 0.2796984 -0.91382033 -0.29445073 0.0016954448
0.033497863 0.0058331462 -0.003941678 0.32668132 -0.91351634 -0.24241942 0.0018843227
-0.030886471 0.0087355915 -0.00403583 -0.35703543 -0.88399851 -0.30178189 0.0020423145
-0.02843117 0.0079494873 -0.0046950011 -0.34853792 -0.87815475 -0.32766673 0.0018785734
-0.025641631 0.006918143 -0.0048483368 -0.34929311 -0.87944221 -0.32338169 0.0015092959
-0.023441222 0.0063416823 -0.0055592614 -0.33883297 -0.864793 -0.37057421 0.0020649352
0.032645185 0.0060481969 -0.0055823158 0.29881495 -0.89257389 -0.33767062 0.0019696618
0.034711502 0.0065608528 -0.0047303583 0.32316327 -0.89032793 -0.32075173 0.0014179752
0.037332669 0.007569402 -0.0047672046 0.33695713 -0.88133907 -0.33121198 0.0010668691
0.03989746 0.0084380843 -0.0042380337 0.3829436 -0.89084333 -0.24444304 0.0018076904
-0.036991276 0.011537345 -0.0042535593 -0.41718236 -0.85662121 -0.30357695 0.0021052049
-0.034621816 0.010542083 -0.004667352 -0.39698359 -0.8604756 -0.31935209 0.0015316718
-0.031948451 0.0095189176 -0.0049850498 -0.36561435 -0.86992091 -0.33100432 0.0018757087
-0.029913008 0.009029543 -0.0057430645 -0.33545157 -0.8791064 -0.33859143 0.0028955201
0.041436058 0.0094342753 -0.0050653969 0.40503499 -0.85736316 -0.31760833 0.001277871
0.043695867 0.010353554 -0.0046212361 0.41478539 -0.84978503 -0.32529759 0.0013255901
0.04597982 0.011406535 -0.0043691024 0.44527704 -0.8565681 -0.26080537 0.0019954932
-0.042658683 0.014560143 -0.0042057978 -0.49229604 -0.81184173 -0.31393898 0.0018825812
-0.040442619 0.013520318 -0.0047006384 -0.45978221 -0.82993996 -0.31591123 0.0017980911
-0.038094021 0.01241847 -0.0050807884 -0.44112322 -0.83948421 -0.31729585 0.001682499
0.047311209 0.012327978 -0.0048012752 0.4816094 -0.83599806 -0.2629821 0.001852831
0.049420141 0.013476525 -0.0046269367 0.49312061 -0.82709807 -0.26970512 0.0016309588
0.051312178 0.014430751 -0.0041804262 0.50889039 -0.79711866 -0.32501113 0.0013680249
-0.048161685 0.017927457 -0.0032375441 -0.56521827 -0.79324883 -0.22646107 0.00092482538
-0.046242367 0.017129257 -0.0044686296 -0.53961813 -0.78465182 -0.30517823 0.0017912037
-0.043977357 0.015695633 -0.0048304838 -0.5268566 -0.79340911 -0.3048346 0.0017018471
0.052952565 0.015767276 -0.0047816094 0.53861099 -0.79792964 -0.27056697 0.0014089104
0.055372197 0.017346444 -0.004457952 0.5585317 -0.76588744 -0.31852594 0.0015007467
-0.051386274 0.020624975 -0.0038755187 -0.57278425 -0.76742125 -0.28806752 0.0017597651
-0.049634963 0.019612879 -0.0046358495 -0.56469786 -0.76541847 -0.30862769 0.0014049719
-0.047577903 0.018354004 -0.0052748625 -0.5521459 -0.77476972 -0.30800456 0.0018121257
0.056377307 0.018294994 -0.0050678076 0.5824222 -0.76034975 -0.28749365 0.0021230513
0.058390997 0.019735102 -0.0046374188 0.61916894 -0.72643286 -0.29820314 0.002283582
0.060258146 0.020972311 -0.0037914349 0.63987958 -0.71166754 -0.28997159 0.0015307284
-0.054734733 0.023387199 -0.0043754983 -0.59345275 -0.74371636 -0.30773345 0.0018075871
-0.052832309 0.022083418 -0.0048163137 -0.58005643 -0.7521919 -0.31263682 0.0016157556
-0.050805341 0.021122903 -0.0059516854 -0.54932791 -0.72484112 -0.41574535 0.00068425958
0.059822652 0.021312004 -0.0052123787 0.63742054 -0.69757479 -0.32723784 0.0017397896
0.060924947 0.022175362 -0.0048905499 0.64120257 -0.66463429 -0.38356292 0.0023949144
-0.058088291 0.026195021 -0.0044202674 -0.62127995 -0.70911628 -0.33341473 0.0019435887
-0.056140173 0.024754465 -0.0048558032 -0.60745221 -0.72795868 -0.3179276 0.0015676208
0.064232059 0.02551551 -0.0047015212 0.71367407 -0.60184854 -0.35839602 0.0012614961
-0.060966555 0.029023239 -0.0044376445 -0.683855 -0.6395458 -0.35117427 0.0018152347
-0.059422594 0.02763374 -0.0049439692 -0.66069037 -0.67706007 -0.3241573 0.0019590466
0.065650344 0.02789484 -0.0055840225 0.71731317 -0.50433344 -0.48073861 0.0019602948
0.066758648 0.028742949 -0.0044434825 0.76496863 -0.48572567 -0.42295823 0.0014886543
-0.063775107 0.03212991 -0.0044231536 -0.73052037 -0.58622229 -0.35026211 0.0021534294
-0.062352777 0.030756826 -0.0049226396 -0.70857906 -0.62306452 -0.33121946 0.0020690274
-0.0068070823 0.032840151 -0.0055217613 0.1677098 0.90056044 -0.40107897 0.0018809537
-0.004296809 0.03263839 -0.0051358156 0.14340675 0.91148841 -0.38551694 0.0018936249
-0.0014041488 0.032450147 -0.0047075148 0.11549383 0.92757618 -0.35533583 0.0024643634
0.0015943003 0.032209389 -0.0047488916 0.059306424 0.93545729 -0.34842849 0.003192686
0.0043986095 0.032227524 -0.0044897748 0.02402886 0.94574362 -0.32402405 0.00244876
0.0076010651 0.032189373 -0.0046488028 -0.038846929 0.94715178 -0.31842497 0.0032143279
0.01049039 0.032316811 -0.0048244842 -0.10968179 0.93737185 -0.33061138 0.0032491342
0.013557972 0.032690965 -0.0047547054 -0.14611623 0.92921323 -0.33943033 0.0020781984
0.01589785 0.032864191 -0.0053804182 -0.19744034 0.92080343 -0.33636039 0.0025030577
0.067543477 0.030759469 -0.0053801127 0.76101279 -0.40516916 -0.50665331 0.0012873593
0.06905473 0.031841192 -0.003363607 0.81861186 -0.40942281 -0.40279976 0.0010282252
-0.066508524 0.035442021 -0.0040593063 -0.76210469 -0.53201663 -0.36899155 0.0025314512
-0.065159775 0.0341717 -0.0048251064 -0.74591607 -0.57107961 -0.34274971 0.0021916241
-0.018459901 0.035742506 -0.0056243888 0.30596802 0.87767601 -0.36887437 0.0017663699
-0.016382046 0.035395827 -0.0050765532 0.2641792 0.88214517 -0.3899093 0.0013935921
-0.013434593 0.034607153 -0.0048759487 0.24085554 0.88711083 -0.39372966 0.0013804042
-0.01047211 0.033873156 -0.0047730925 0.20631334 0.90423858 -0.37388149 0.0013845579
-0.0074895364 0.033384819 -0.004511903 0.16427371 0.9081527 -0.38506231 0.0018371822
-0.0051853079 0.033256516 -0.0038823024 0.14657621 0.92867613 -0.3406994 0.0014516078
-0.0025453004 0.033022434 -0.0033259527 0.094353333 0.96319914 -0.25168383 0.0015480946
0.014195133 0.033154856 -0.003733759 -0.15415998 0.9392786 -0.30657843 0.0015634977
0.016849753 0.033354126 -0.0045561758 -0.19536117 0.92724502 -0.31945366 0.0023315316
0.01941237 0.033912551 -0.0047810222 -0.22633357 0.91523236 -0.33335102 0.0022010042
0.022553952 0.03488544 -0.0045421715 -0.26267329 0.91304892 -0.31200072 0.0014699082
0.025236951 0.035520192 -0.0049174996 -0.28387088 0.90522772 -0.31619638 0.0018872543
0.027475476 0.035873555 -0.0056645619 -0.2871893 0.90378821 -0.31731552 0.0021613298
0.068857528 0.033688471 -0.0057417243 0.82571232 -0.34726718 -0.44452751 0.0012366242
0.069532357 0.034860604 -0.0052550533 0.81938279 -0.30246523 -0.48695651 0.0020287542
-0.069085397 0.038737737 -0.003300518 -0.81155884 -0.48440269 -0.3266899 0.0034571504
-0.067626201 0.0375457 -0.0045934035 -0.78634477 -0.49164972 -0.37408876 0.0031791655
-0.065904498 0.036087479 -0.0059048338 -0.740897 -0.4812611 -0.46846497 0.0056497687
-0.027064288 0.038956814 -0.0058892542 0.39752746 0.84123808 -0.36645663 0.0040694159
-0.024993666 0.038667377 -0.0047012521 0.35183895 0.85394245 -0.3833949 0.0011856845
-0.022400428 0.0373956 -0.0051589641 0.33856809 0.86178231 -0.37776032 0.0012690949
-0.019719675 0.036481436 -0.0048573446 0.3033379 0.87115049 -0.3861126 0.001555891
-0.017598847 0.036118705 -0.0041804006 0.27434012 0.89290637 -0.35700941 0.0013533477
0.026341368 0.036177464 -0.0038689682 -0.27526838 0.92626101 -0.25742528 0.0020991305
0.028451042 0.036631167 -0.0045961067 -0.30048376 0.90348911 -0.30564159 0.0022568405
0.031554971 0.03774827 -0.0045595313 -0.35189408 0.88863939 -0.29409266 0.002417664
0.033876725 0.038591225 -0.0050073657 -0.40496743 0.86204356 -0.30476609 0.0023219001
0.070547 0.037523903 -0.0050544892 0.82621431 -0.21340233 -0.52137262 0.0017070428
-0.069674008 0.040837117 -0.0042855074 -0.82307255 -0.39345422 -0.40956721 0.0035901603
-0.068592735 0.039823934 -0.0053324061 -0.80604315 -0.40336597 -0.433117 0.0045016673
-0.031356491 0.041452967 -0.0047964836 0.40692225 0.83645535 -0.36709225 0.0011416044
-0.028137118 0.039901547 -0.0048457929 0.37563387 0.8424964 -0.38613349 0.0015594354
-0.026369913 0.039344233 -0.0044253198 0.36344337 0.85489601 -0.37021849 0.0011767914
0.035044264 0.03941476 -0.0042034034 -0.40348461 0.86590898 -0.29563794 0.0023798291
0.03749327 0.040541627 -0.00457669 -0.45738068 0.83848917 -0.29620728 0.0024923382
0.039598044 0.041602198 -0.0050741886 -0.48824736 0.81822211 -0.30352443 0.0021803628
0.071208663 0.04041345 -0.0050002411 0.82793808 -0.12643468 -0.54638153 0.0019241285
-0.072019666 0.044923473 -0.003128462 -0.86513728 -0.33979535 -0.36888564 0.01539701
-0.070607387 0.043589484 -0.0045903181 -0.82958841 -0.30706754 -0.46636093 0.0039914194
-0.039129384 0.044950079 -0.0058977953 0.45064369 0.80952132 -0.37629172 0.0041085305
-0.037165962 0.044401199 -0.004749774 0.43142322 0.8189587 -0.37839225 0.0013950096
-0.034502398 0.04307507 -0.0046712207 0.41488725 0.83547634 -0.36034396 0.0013761823
-0.032490667 0.04225716 -0.0042128465 0.40867695 0.85062522 -0.33078676 0.0016296692
0.041000724 0.042763233 -0.0042822524 -0.48745021 0.81306863 -0.31829494 0.0020836894
0.043332353 0.044104196 -0.0046320413 -0.52296352 0.80091071 -0.29163551 0.0019247017
0.045273967 0.044874825 -0.0057417988 -0.48435807 0.769786 -0.41572443 0.0019112455
0.071394011 0.042953812 -0.0052577909 0.83145678 -0.075871535 -0.55038458 0.0028233062
0.072172046 0.044221934 -0.0039053187 0.7974695 0.0058727372 -0.60333067 0.0011729576
-0.072337851 0.047007542 -0.0035993394 -0.83930826 -0.27822876 -0.46706575 0.0037180439
-0.071302019 0.046403706 -0.0049763084 -0.82193631 -0.22533499 -0.52311081 0.0064079184
-0.042978533 0.047512606 -0.0048217149 0.4393805 0.81158721 -0.38505971 0.0015784695
-0.04045976 0.046270914 -0.0044894 0.44104344 0.81776226 -0.36979133 0.0016270524
-0.03834375 0.045253709 -0.0041545532 0.43892682 0.82777655 -0.34946981 0.0015822456
0.044626269 0.045346592 -0.0035941764 -0.51441514 0.80295676 -0.30106071 0.0018086169
0.046521243 0.046232507 -0.0044690068 -0.51302779 0.78476405 -0.34777546 0.0026179578
0.048849028 0.047426414 -0.0051799943 -0.49455923 0.77795702 -0.38754874 0.0031517677
0.071745917 0.04650566 -0.0047580004 0.78129059 0.043342113 -0.62266082 0.0011603499
0.072082669 0.047702216 -0.0042014578 0.80522281 0.037303306 -0.59179789 0.00035195032
-0.072755419 0.049659494 -0.0040585152 -0.78567761 -0.22836471 -0.57494372 0.0067519378
-0.071546167 0.049449544 -0.0055471282 -0.71906328 -0.12906283 -0.68285495 0.0058399625
-0.049140215 0.050531801 -0.0054871514 0.37265682 0.77887017 -0.5044682 0.0014344271
-0.04649701 0.049538489 -0.0045730793 0.43246025 0.8079415 -0.40026084 0.0017250372
-0.044239283 0.048547313 -0.0039825086 0.42534119 0.81781185 -0.38764504 0.0014301806
0.049968753 0.048546162 -0.0042705466 -0.49734244 0.78724301 -0.36455318 0.0025094261
0.052386332 0.049916491 -0.004633537 -0.49939996 0.78261918 -0.37162742 0.0026515846
0.054460231 0.050677761 -0.0055800187 -0.46652547 0.75789076 -0.45602137 0.0033910379
0.071054898 0.04993837 -0.0055374149 0.68114507 0.10577779 -0.72446704 0.0033009239
0.072375767 0.049772512 -0.0036168057 0.78160781 0.069254734 -0.61991382 0.00091032684
-0.07512743 0.053965844 -0.0030240535 -0.89775282 -0.037345298 -0.4389137 0.033565193
-0.073352799 0.052626953 -0.0043676216 -0.72179472 -0.19245477 -0.6648109 0.0074207471
-0.071667679 0.05225848 -0.0057414207 -0.60167772 -0.031861406 -0.79810315 0.0076223998
-0.057374265 0.053792007 -0.0057855234 0.263776 0.81309015 -0.51894772 0.0056873951
-0.055319548 0.053431433 -0.0051908721 0.29462352 0.81655401 -0.49642375 0.0016562038
-0.05269295 0.052489921 -0.0050677941 0.33918279 0.80650389 -0.48425868 0.0015705932
-0.050404079 0.051351704 -0.0050702523 0.36936259 0.79183024 -0.48639089 0.0015933907
0.053644896 0.051235832 -0.0035316555 -0.4916313 0.78797621 -0.37066439 0.0035811446
0.055571172 0.051963586 -0.004490382 -0.45830613 0.78013027 -0.42585471 0.0036454117
0.058118246 0.053215269 -0.0049449671 -0.44756094 0.74906558 -0.4884567 0.0057365177
0.060358252 0.053880747 -0.0058304663 -0.40054685 0.66987067 -0.62516838 0.0045953495
0.071014248 0.05270632 -0.0052690301 0.67885286 0.11173324 -0.72572339 0.0032740433
0.072577029 0.052344427 -0.0031657042 0.75869495 0.045162048 -0.64987874 0.0022497657
-0.075183161 0.055548117 -0.0032249915 -0.83882862 0.063966505 -0.5406245 0.03244698
-0.073574699 0.055484455 -0.004629076 -0.62670207 0.1470717 -0.76525444 0.019561429
-0.071197681 0.055982664 -0.0058022104 -0.35855645 0.19326442 -0.91328317 0.016750379
-0.066833802 0.0568197 -0.0058965697 0.007197869 0.51272428 -0.85852319 0.0082862759
-0.064214543 0.056435786 -0.0055280775 0.22889705 0.67862588 -0.6979062 0.0062829736
-0.061488371 0.055767909 -0.0049582231 0.27109975 0.73066932 -0.62659973 0.0045883791
-0.058685619 0.054746881 -0.0049133883 0.24646017 0.77747232 -0.578614 0.0022130504
-0.056287788 0.054243837 -0.0042613423 0.29012266 0.82724923 -0.48113158 0.0016171793
0.059125666 0.054529075 -0.0039983168 -0.49315774 0.73255819 -0.46920574 0.0045354296
0.0614889 0.055626187 -0.0046512741 -0.45840454 0.68164259 -0.57028824 0.0071931146
0.063941352 0.056426719 -0.0055319257 -0.34573403 0.57777232 -0.73935586 0.0093756597
0.067689694 0.056887969 -0.0059653874 0.049129106 0.33612698 -0.94053435 0.023619553
0.070438191 0.055778276 -0.0053435829 0.30430651 0.21411449 -0.92819852 0.0092540449
0.072208747 0.055863302 -0.0036029888 0.66861761 0.053013779 -0.74171418 0.0085453084
-0.07324075 0.057759568 -0.0042267586 -0.56887895 0.48095936 -0.66712427 0.021053692
-0.070591055 0.058411419 -0.0049385768 -0.27032107 0.60304403 -0.75050944 0.025013151
-0.067789599 0.058170941 -0.0050241197 0.075490899 0.62425309 -0.77756625 0.0085157109
-0.064849846 0.057941865 -0.004281675 0.28442106 0.68233442 -0.67344218 0.0050592301
-0.062373474 0.057240319 -0.0035152249 0.33378249 0.72583193 -0.60146254 0.005313253
0.062602937 0.057470977 -0.0035122149 -0.54874241 0.59693176 -0.58528131 0.011616235
0.064566143 0.058414027 -0.0043970705 -0.5016433 0.51431328 -0.69558311 0.015382942
0.06729497 0.058728412 -0.005444888 -0.1711234 0.34883979 -0.92142695 0.014859733
0.069918402 0.05880915 -0.005131654 0.010842315 0.2744633 -0.96153647 0.017289121
0.072220042 0.058512896 -0.0035099329 0.51017433 0.11824253 -0.85190427 0.015927311
-0.069427915 0.060121957 -0.0033443593 -0.16921206 0.90491265 -0.390513 0.028272076
-0.06821803 0.060150061 -0.0033759645 0.073254421 0.8587001 -0.50721586 0.033557899
0.065411068 0.061160441 -0.0035209225 -0.6123516 0.31820887 -0.72371864 0.013953893
0.067331038 0.06154171 -0.0045186249 -0.3810944 0.27828571 -0.88165987 0.022277549
0.06996002 0.061840445 -0.0047209458 -0.12359345 0.20574965 -0.97076863 0.018364457
0.072465047 0.061488237 -0.0034511755 0.3405906 0.053561013 -0.93868482 0.019588493
0.065895289 0.063511573 -0.0032311988 -0.74631101 0.22357373 -0.62692481 0.022844145
0.067457601 0.064484484 -0.0038560268 -0.45887923 0.18631323 -0.86874461 0.019383121
0.070137039 0.064577721 -0.0044687218 -0.19845887 0.15087479 -0.96842694 0.020046093
0.072501637 0.065025479 -0.003622805 0.031911727 0.0091545489 -0.99944872 0.017206529
0.067922316 0.067415588 -0.0036980861 -0.56798887 0.11862823 -0.81444216 0.016935581
0.07025791 0.067514077 -0.0044554197 -0.21313564 0.037855268 -0.97628897 0.021674113
0.072819255 0.067890495 -0.0038698716 0.11667274 -0.065531947 -0.99100608 0.0092451442
0.068282261 0.070378788 -0.0035316255 -0.73184848 0.092978455 -0.67509466 0.02937944
0.070304871 0.070612639 -0.0044552102 -0.35641363 0.014662378 -0.93421322 0.027374061
0.072917685 0.070626512 -0.0042675161 -0.011037781 -0.10521157 -0.99438864 0.012076036
0.07511434 0.071757764 -0.003172558 0.56510466 -0.20280311 -0.79970467 0.0032201132
0.068481542 0.073411427 -0.0034562058 -0.73663515 0.09815044 -0.66913009 0.024909595
0.070343174 0.073514216 -0.0046125641 -0.41037798 -0.013852306 -0.91181034 0.028604349
0.073161654 0.073613591 -0.0049088127 -0.14156966 -0.041835885 -0.98904383 0.030298395
0.075659364 0.073499247 -0.003475551 0.34417087 -0.099345766 -0.93363631 0.050280944
0.068650685 0.075832337 -0.003349399 -0.72709179 0.20833805 -0.65416557 0.067606635
0.07018695 0.075761177 -0.004480382 -0.51764631 0.1784898 -0.83676976 0.049202394
0.072718948 0.075457677 -0.0050839083 -0.25528401 0.1312793 -0.95791227 0.051366232
0.075391613 0.075222969 -0.003448071 0.65346867 0.52058876 -0.54951435 0.10708854
-0.01566002 0.002765402 -0.0014004166 -0.24960904 -0.95561153 -0.15653083 0.00097224361
-0.013434713 0.0021889822 -0.0016500605 -0.22209615 -0.95842201 -0.17916639 0.001542415
-0.010554601 0.0016061513 -0.0017413882 -0.16590555 -0.9730705 -0.16002876 0.002251063
-0.0071488842 0.0010649635 -0.0012642879 -0.14128321 -0.9748835 -0.1721663 0.0027318727
-0.0048411964 0.00080352952 -0.0018310939 -0.10753082 -0.97481024 -0.19540247 0.0022107814
-0.0016779216 0.00056448206 -0.0018168226 -0.067719989 -0.98748136 -0.14245929 0.001997475
0.0015113845 0.00040303037 -0.0016085114 -0.037233081 -0.9917357 -0.1227762 0.0049485946
0.0045862738 0.00039992793 -0.0019814882 0.011542559 -0.98199171 -0.18857102 0.0030861949
0.0074570915 0.00044956367 -0.0013165779 0.038029399 -0.98334062 -0.1777495 0.001574941
0.010423121 0.00068550359 -0.0020921335 0.065834887 -0.96605188 -0.24981922 0.0011468622
0.013243633 0.00091678818 -0.0018144988 0.11616012 -0.98055506 -0.15817297 0.0032815672
0.016713299 0.0013329202 -0.0013138691 0.13547502 -0.97202235 -0.19188282 0.0023700753
0.019433251 0.0017833862 -0.0017235279 0.17865412 -0.97177702 -0.15405223 0.0017786296
0.02249611 0.0024116205 -0.0015529642 0.19870822 -0.96852398 -0.14992131 0.0017542095
0.024575477 0.002797975 -0.0009360353 0.22325352 -0.96749997 -0.11875059 0.0013320399
-0.024881598 0.0058116298 -0.0015466913 -0.34880853 -0.9188239 -0.18464951 0.00067254103
-0.022622991 0.0049587912 -0.0016380002 -0.3272177 -0.92499352 -0.19317275 0.00063356338
-0.019647883 0.0039069578 -0.0017226997 -0.29355088 -0.93974721 -0.17522295 0.00054096256
-0.017313579 0.0032544518 -0.0017421664 -0.27136254 -0.94850987 -0.16337501 0.00070944376
0.025888449 0.0031914997 -0.0018695892 0.25843465 -0.95589614 -0.1395499 0.0014689671
0.028491357 0.0038864745 -0.0013351986 0.27016839 -0.95226473 -0.14212972 0.0012995697
0.031043025 0.0046818224 -0.0016608463 0.28919351 -0.94682628 -0.14102177 0.0011325439
0.034009077 0.0056386339 -0.0015318289 0.32312137 -0.94281173 -0.081844762 0.0018872633
-0.033050638 0.0089304969 -9.3665789e-05 -0.36629686 -0.9085539 -0.20088923 0.0035637731
-0.031368647 0.0084132226 -0.0014541391 -0.37411726 -0.90103471 -0.21948268 0.00060144567
-0.028496403 0.0072382181 -0.0017305252 -0.35673669 -0.90912342 -0.21501981 0.00094613089
-0.026255269 0.0063630999 -0.0017599451 -0.35433945 -0.91284341 -0.20288044 0.0011356695
0.035507493 0.0062121442 -0.001544782 0.36934865 -0.92610538 -0.076879211 0.0019612724
0.037435427 0.0069455826 -0.0015190665 0.36502421 -0.9273572 -0.082256034 0.0018592516
0.040429823 0.008211161 -0.001694461 0.40134141 -0.9079712 -0.12047177 0.0013596222
0.042172704 0.0088678915 -0.00037175283 0.42163983 -0.89466941 -0.14760265 0.0004091007
-0.039166402 0.011949824 -0.00097723084 -0.43995312 -0.86170274 -0.25280359 0.0026479838
-0.037557974 0.011232471 -0.0015995208 -0.43229163 -0.87209707 -0.22928299 0.001233006
-0.034702253 0.0098427515 -0.001627801 -0.3985104 -0.88738686 -0.23180626 0.00098953408
-0.032860558 0.0091298912 -0.0023798738 -0.38543266 -0.89374989 -0.22946194 0.00092182995
0.041824833 0.0090158228 -0.0028801872 0.40434361 -0.90767872 -0.11236394 0.0024265761
0.043539912 0.00967809 -0.001694711 0.43878293 -0.89004618 -0.12364174 0.00086991745
0.046322219 0.011041172 -0.0014390626 0.46151432 -0.87854791 -0.123118 0.0012359525
0.048105434 0.011990491 -0.0010516952 0.47975478 -0.86361122 -0.15495493 0.00044731461
-0.043183953 0.014270517 -0.0014688715 -0.51423222 -0.83090085 -0.2125302 0.0023789098
-0.040552527 0.012814212 -0.0015954677 -0.46333823 -0.85434353 -0.23540339 0.0010996357
-0.038853444 0.012060974 -0.0027937854 -0.45510206 -0.86062884 -0.22847368 0.0010616085
0.049607031 0.01295341 -0.0017099723 0.49991 -0.85579437 -0.13306376 0.00096959888
0.051860698 0.014261657 -0.0014909499 0.52596271 -0.83734661 -0.14904316 0.00097832666
-0.048305228 0.017831862 -0.0015267181 -0.57530379 -0.78527695 -0.22883533 0.0012265673
-0.046534803 0.016594011 -0.0015265716 -0.55045056 -0.79916829 -0.24152482 0.0022791915
-0.044624563 0.015307863 -0.0019094559 -0.55580628 -0.79693717 -0.23658098 0.0026774248
0.053310465 0.015345139 -0.0022243145 0.55628508 -0.80500507 -0.20618884 0.00089439785
0.055390842 0.016734377 -0.00179025 0.57339227 -0.79449922 -0.19998114 0.00029906043
0.057097062 0.017732412 -0.00041603955 0.57936871 -0.79103404 -0.19646142 0.00035616476
-0.051756084 0.020371217 -0.0014513228 -0.59314334 -0.77962691 -0.20090519 0.0012541226
-0.049789451 0.018916801 -0.0016134236 -0.57211012 -0.78517771 -0.23703578 0.0014647953
0.05836647 0.018917393 -0.0017672492 0.60542113 -0.7631554 -0.22596262 0.00097502361
0.060212161 0.020353602 -0.0014304484 0.63320708 -0.74463636 -0.21110554 0.0009168816
-0.055204254 0.023012871 -0.0015184054 -0.61230791 -0.76830953 -0.18649256 0.0010514025
-0.053247057 0.021514852 -0.0016703599 -0.59882617 -0.76980293 -0.22093114 0.0019801233
0.061769843 0.021961998 -0.0023642925 0.67395645 -0.69107234 -0.26115453 0.0018653634
0.063328408 0.023543024 -0.0024920264 0.69191521 -0.65588534 -0.30177453 0.0016443563
-0.060090452 0.026884804 -0.00061249774 -0.66781968 -0.72510606 -0.16804211 0.0011966295
-0.058496974 0.025727848 -0.0015169482 -0.64151454 -0.74381441 -0.18761441 0.00086901698
-0.056698479 0.024267865 -0.0017468389 -0.63060343 -0.74883205 -0.20393619 0.0012976059
0.065066896 0.025397733 -0.0017170304 0.73648793 -0.6020844 -0.30835024 0.0010417803
-0.061486449 0.028637933 -0.0016487488 -0.71164405 -0.67861855 -0.18176818 0.0012077226
-0.059953257 0.027233459 -0.0028046414 -0.66977221 -0.69420648 -0.26359525 0.0015463283
0.068083771 0.029852174 -0.0029157815 0.81304288 -0.43379125 -0.38831231 0.00086220558
-0.064257555 0.031677987 -0.0016405616 -0.75796282 -0.62710065 -0.1795468 0.0015651806
-0.06290374 0.030268911 -0.0025178329 -0.7416929 -0.64402539 -0.18741111 0.0017019289
-0.00047457364 0.032938685 -0.0026107139 0.10425504 0.96599102 -0.2366267 0.0019766127
0.0016880194 0.032898784 -0.0017790881 0.062538192 0.97407019 -0.21743116 0.0022869403
0.0045365314 0.032888852 -0.0012508375 0.016508326 0.97548831 -0.21943124 0.0023035046
0.0076167393 0.032896377 -0.0012989613 -0.040523104 0.9836539 -0.1754503 0.0021478743
0.010350651 0.032947302 -0.0022380671 -0.092848703 0.97520876 -0.20086566 0.0024950427
0.012075634 0.032965545 -0.0028461758 -0.083671346 0.98790026 -0.13058409 0.0022638973
-0.066829264 0.03487071 -0.0015599617 -0.80484021 -0.57437986 -0.14939879 0.0026499024
-0.065671116 0.033412796 -0.0016522842 -0.78375429 -0.60417062 -0.14389955 0.0017829472
-0.015471499 0.035846297 -0.0022925667 0.28559703 0.94750047 -0.14379571 0.0024165637
-0.013643155 0.03541562 -0.0015863674 0.26677534 0.9453212 -0.18761332 0.002169353
-0.01040417 0.034529526 -0.0017734129 0.21567786 0.95526093 -0.20238493 0.0028237526
-0.0075568864 0.034009997 -0.0014800772 0.16928113 0.96807516 -0.18486328 0.0016282453
-0.0045000101 0.033501171 -0.0017613622 0.13454269 0.97010833 -0.20196058 0.001779094
-0.0017708354 0.03324895 -0.0011764131 0.10143596 0.98266852 -0.15515645 0.0014094003
0.0010819494 0.033078939 -0.00073585083 0.042340241 0.99598378 -0.078889921 0.0016835062
0.0045669274 0.033023495 -0.00016770291 0.012760839 0.99991494 0.0027025212 0.0016035992
0.0079720961 0.033021051 -0.00047359118 -0.036649156 0.99917889 -0.017275315 0.0012364591
0.010745163 0.033129495 -0.0010091451 -0.071451522 0.99562901 -0.060145453 0.0023367447
0.013813446 0.033444297 -0.0014599191 -0.14533508 0.97857749 -0.14582103 0.0020201879
0.016670302 0.033919912 -0.0016196728 -0.19981271 0.969446 -0.14230011 0.0019527628
0.019540051 0.034620848 -0.0014824019 -0.24584393 0.96166569 -0.12149059 0.002346768
0.02240153 0.03539462 -0.0015891393 -0.27079454 0.956568 -0.10792601 0.0015997929
0.024338122 0.035874017 -0.0021430892 -0.29634675 0.94791198 -0.11679658 0.002229094
0.070397899 0.034430869 -0.0027901148 0.86138582 -0.34931079 -0.36877707 0.0017616455
-0.069292396 0.038495492 -0.0014374955 -0.85024446 -0.49223122 -0.18652827 0.0041381516
-0.068284415 0.037040606 -0.0017792577 -0.82130325 -0.54688233 -0.16242133 0.0025370594
-0.024242779 0.038874298 -0.0025484178 0.39420626 0.90049589 -0.18359891 0.0015755355
-0.022549972 0.038345482 -0.0013245804 0.36578518 0.91626084 -0.16330095 0.0014715308
-0.019495146 0.037153173 -0.0014436264 0.30915779 0.93855608 -0.1534081 0.0026495631
-0.016746625 0.03632997 -0.0014947403 0.27789229 0.95354915 -0.11627517 0.0027189937
0.025808848 0.036402643 -0.0014959667 -0.29486281 0.94875318 -0.1136808 0.0018219682
0.028626524 0.037314869 -0.0015503133 -0.31626624 0.94140601 -0.11717632 0.0022654096
0.031476114 0.038335331 -0.0015503153 -0.35960302 0.92447311 -0.12663002 0.0021951061
0.033223007 0.038928512 -0.0022368992 -0.41531453 0.903534 -0.10554682 0.0028628965
0.071670577 0.037963565 -0.0025675909 0.87951672 -0.22521567 -0.41919956 0.0015546789
-0.070397235 0.040476337 -0.0016817139 -0.8757447 -0.44400692 -0.18954962 0.0039826273
-0.030464413 0.041717373 -0.0017560523 0.457717 0.88160241 -0.11520555 0.001506086
-0.028481469 0.040783733 -0.0015674978 0.41264519 0.90246427 -0.1236214 0.0016292386
-0.025752448 0.039649017 -0.0014727508 0.38147172 0.90668094 -0.18002494 0.0016465127
-0.023940792 0.039101593 -8.4539417e-05 0.37990624 0.91738921 -0.11860996 0.00083290262
0.032887202 0.039060161 -0.00020480786 -0.36975104 0.92821831 -0.04117116 0.003815654
0.034566347 0.039714418 -0.0015324268 -0.43346888 0.8947292 -0.10753798 0.0024332041
0.037393529 0.041170806 -0.0015639812 -0.48505276 0.8670826 -0.11354119 0.0020662725
0.039074291 0.041970316 -0.0023714083 -0.51249278 0.85174459 -0.10900643 0.0028415883
-0.072205193 0.044388805 -0.0012164869 -0.92380846 -0.33562168 -0.18421735 0.0071389154
-0.071523555 0.043054271 -0.0017975172 -0.90027624 -0.38104925 -0.21048537 0.0045659109
-0.036453724 0.044740018 -0.0019271241 0.46720442 0.87468225 -0.12903903 0.0023011344
-0.034559131 0.043836068 -0.001507371 0.45875159 0.88232338 -0.10513037 0.001619971
-0.031948917 0.042525053 -0.0013914999 0.43325779 0.89349079 -0.11815997 0.0016047382
0.038829491 0.042034984 -0.0015270932 -0.51367056 0.85046452 -0.11336984 0.0028408682
0.040511705 0.043086037 -0.0014957032 -0.52398229 0.84498584 -0.10696498 0.0025035159
0.042715974 0.044493847 -0.0016042932 -0.55627424 0.82686329 -0.082801901 0.0024157071
-0.072852455 0.04652543 -0.0016637197 -0.91971946 -0.29786184 -0.25572351 0.0078635849
-0.042123385 0.047796384 -0.0024531877 0.48244327 0.85904235 -0.17115688 0.0026240465
-0.040470704 0.047011815 -0.0014476395 0.48295367 0.86507058 -0.13567857 0.0015111128
-0.037882373 0.045557752 -0.0014669525 0.46643874 0.87601668 -0.1225956 0.0019904096
0.044269834 0.045554534 -0.0013151768 -0.55313092 0.82745665 -0.096755616 0.0030382415
0.046458028 0.046977196 -0.001615931 -0.54997116 0.82552326 -0.12666135 0.0035974656
0.048116025 0.04785642 -0.0026153505 -0.55485368 0.81426638 -0.17060962 0.002768009
-0.073942535 0.049579088 -0.0016959938 -0.8940708 -0.31932762 -0.31411356 0.011403331
-0.046315223 0.050284553 -0.0015302717 0.48056364 0.86325973 -0.15440612 0.0026057912
-0.04365946 0.048791744 -0.0015431502 0.46733698 0.87645513 -0.11585581 0.0030749138
0.0479169 0.04814079 -0.00052890152 -0.55187643 0.83224344 -0.052946344 0.0062826979
0.049456224 0.048994228 -0.0015914589 -0.53745669 0.83070987 -0.14512548 0.0034581299
0.051696334 0.050467134 -0.0017156546 -0.5578779 0.81537211 -0.15472734 0.0030632482
0.072754122 0.050966918 -0.0027758852 0.77022982 0.058260661 -0.63509989 0.0014571071
-0.075476162 0.052930173 -0.0014266748 -0.91844928 -0.21323286 -0.33314049 0.019457737
-0.074682504 0.051814754 -0.00231468 -0.86719728 -0.30222026 -0.39576748 0.01301257
-0.052608341 0.053528618 -0.0020226906 0.38068318 0.88685441 -0.26185805 0.0020415997
-0.049457293 0.051916108 -0.0021079357 0.43266889 0.85867405 -0.27472982 0.0015771535
-0.047769479 0.051219009 -0.00060400518 0.46048161 0.87315869 -0.15984526 0.0026088892
0.053227432 0.051542778 -0.0014304565 -0.54489195 0.82484335 -0.15075198 0.0047417628
0.055450857 0.052910659 -0.0017629445 -0.53325683 0.82150757 -0.20189744 0.0052901218
0.057183187 0.053833272 -0.0023888373 -0.53525883 0.80989265 -0.23994146 0.0082664993
0.072757766 0.052404217 -0.002827226 0.75368965 0.051811792 -0.65518504 0.0023031675
-0.075884521 0.05546917 -0.0017285994 -0.91859853 0.064602114 -0.38987601 0.032784756
-0.074881136 0.054101441 -0.0029932759 -0.72955048 0.10466282 -0.67587113 0.022669766
-0.060449582 0.056770071 -0.0021078347 0.4407627 0.82838804 -0.34568998 0.0053714514
-0.058373891 0.055872824 -0.0019314728 0.37543356 0.86159331 -0.34162363 0.0040820958
-0.055330027 0.054637574 -0.0019600803 0.32805705 0.89070636 -0.31467551 0.0022178311
-0.053610325 0.054126553 -0.00087753485 0.38573426 0.90268773 -0.1906935 0.002952538
0.056904972 0.054137349 -0.00052018266 -0.52813309 0.84733015 -0.055740587 0.0074389605
0.0585755 0.055081919 -0.0017344648 -0.55579096 0.78802991 -0.26477402 0.0073752771
0.060690422 0.056616995 -0.001875455 -0.64756566 0.71418405 -0.26570618 0.009423594
-0.075377479 0.057280309 -0.0014936636 -0.85675746 0.42831725 -0.28724718 0.054305214
-0.073866881 0.058201313 -0.00172495 -0.64806336 0.701083 -0.29748365 0.02832515
-0.071145616 0.059601143 -0.0013652616 -0.40295917 0.89937156 -0.16957168 0.0086016627
-0.066248454 0.059793949 -0.0027533369 0.26385102 0.88449734 -0.38476893 0.018245732
-0.064980753 0.059350051 -0.002428975 0.33949715 0.80096763 -0.49314559 0.012117056
-0.061835855 0.057719219 -0.0017453205 0.43757278 0.79740602 -0.41554031 0.004412232
0.062117014 0.058211911 -0.0014934385 -0.72764027 0.62245953 -0.28824225 0.018064337
0.063420177 0.059433013 -0.0022733996 -0.74978107 0.57711917 -0.32366928 0.022270212
0.073199138 0.059196457 -0.0021523382 0.64965308 -0.0013768019 -0.76022953 0.0042120554
-0.069717079 0.06026607 -0.001633359 -0.27577499 0.94339544 -0.1842639 0.021454284
-0.067877024 0.060639713 -0.0018141241 -0.039778166 0.93726242 -0.34634808 0.030232396
-0.065791085 0.060179695 -0.0016037805 0.27122259 0.88003331 -0.38984567 0.022814063
0.064310692 0.061487179 -0.001649071 -0.82871813 0.41299385 -0.37770671 0.027313231
0.073258869 0.061371669 -0.0024469905 0.47795728 0.052108832 -0.87683606 0.0090467026
0.065255746 0.064363845 -0.0014999836 -0.90566677 0.25780672 -0.3366057 0.026294218
0.066223137 0.065319218 -0.0026957716 -0.80784756 0.19935538 -0.55465275 0.033381876
0.07369677 0.064778447 -0.0023967971 0.4858031 -0.062724739 -0.87181479 0.0045846789
0.065720946 0.067111641 -0.00093995215 -0.93432158 0.2291604 -0.27299944 0.028354621
0.066474102 0.067782648 -0.0022029297 -0.87467879 0.23611704 -0.42330334 0.021695321
0.074365012 0.067593448 -0.0024230636 0.44005036 -0.11973801 -0.88995427 0.006762723
0.065977484 0.069260105 -0.00046789457 -0.93144155 0.21175385 -0.29593387 0.03470093
0.066869728 0.070514344 -0.0016585458 -0.90253544 0.19065812 -0.3861078 0.016758395
0.074754067 0.069844663 -0.0026777058 0.49289209 -0.20683667 -0.8451485 0.0095256651
0.075442739 0.070814162 -0.002337194 0.57040977 -0.20614655 -0.79506993 0.018253436
0.067360222 0.073465034 -0.0016680663 -0.89278245 0.14876306 -0.42521641 0.023862334
0.076382011 0.073159821 -0.0024093732 0.5951643 -0.10394138 -0.7968536 0.04071613
0.067787066 0.07610026 -0.0016186829 -0.87043613 0.30515864 -0.38628879 0.054270655
0.07001172 0.076911241 -0.001963956 -0.34383282 0.81515414 -0.46615756 0.085930265
0.073452771 0.07588686 -0.0013124869 0.33232346 0.93142003 -0.14838436 0.019051434
0.075916909 0.07513009 -0.00095299684 -0.57344872 0.27104977 -0.77310324 0.10711575
-0.018196898 0.0028675301 0.0023789394 -0.24102698 -0.97030729 -0.020242905 0.0064746574
-0.016431965 0.0026254484 0.0013648907 -0.24518307 -0.96577859 -0.084599681 0.0025964109
-0.013799794 0.0020278355 0.0013384888 -0.21897279 -0.97393394 -0.059191152 0.0012129815
-0.010298307 0.0014210866 0.001694251 -0.1643876 -0.98636568 -0.0077135446 0.0026242752
-0.0075672073 0.0010749238 0.0013310544 -0.12768827 -0.98851937 0.080778219 0.0032384354
-0.0046142475 0.00070067216 0.0014266361 -0.090329386 -0.99436074 0.055562608 0.0023861616
-0.0012721766 0.00052229204 0.0016599407 -0.061479375 -0.99727499 0.040777866 0.0029470043
0.0017363058 0.00037423134 0.0011547767 -0.033157624 -0.99943113 -0.0061664297 0.0031050402
0.0046303384 0.00031931041 0.0011479639 0.010329334 -0.99756747 0.068937086 0.0045348965
0.0078439433 0.00045737252 0.0010311467 0.040308155 -0.99804699 -0.047721956 0.0035270413
0.010518203 0.0006142786 0.0013414738 0.064235233 -0.9779321 0.19880304 0.0058456114
0.01353741 0.00087460439 0.00092268881 0.10955999 -0.99329716 -0.036841385 0.0014266431
0.016013958 0.0012610231 0.0015464965 0.14693731 -0.98892158 -0.021057878 0.0036169619
0.019321736 0.0017078936 0.0010957188 0.17810348 -0.98364025 0.027039038 0.0017872714
0.022577599 0.0024098242 0.0012842126 0.20835555 -0.97717482 0.041440774 0.0017546398
0.024828723 0.0028516324 0.00090715825 0.22270334 -0.97462589 0.022530291 0.0023153699
-0.027425896 0.0057593929 0.0020753732 -0.34211922 -0.92821705 -0.14617667 0.0053474861
-0.025428861 0.0054294029 0.0013418861 -0.32569227 -0.93189085 -0.15969968 0.0031724274
-0.022411337 0.0044239764 0.0012798338 -0.32301995 -0.93930256 -0.1156233 0.001494085
-0.019593837 0.0034587637 0.0014659732 -0.29022333 -0.95252019 -0.092063405 0.00132897
-0.01778228 0.003186618 0.00050493062 -0.25943863 -0.96031541 -0.10240103 0.0014059168
0.025853463 0.0031534866 0.0014199789 0.25336805 -0.96710593 0.02259998 0.0020083054
0.028489212 0.0038801774 0.001201957 0.28240272 -0.9590494 0.021748202 0.0018009525
0.031245641 0.00470581 0.0012429 0.31201157 -0.9495787 0.030805413 0.0015329038
0.033853762 0.0056036506 0.0015901364 0.32971042 -0.94322932 0.040119186 0.0013958008
-0.036046423 0.0089811711 0.0018827445 -0.40984786 -0.90408355 -0.12106925 0.014618493
-0.03414318 0.0085801836 0.0015463041 -0.38116121 -0.90575826 -0.18525155 0.0033900421
-0.031456135 0.0077026077 0.0013432399 -0.36339426 -0.91239065 -0.18838261 0.0019194089
-0.028688487 0.0066930698 0.0011858938 -0.36053467 -0.9141472 -0.18533617 0.0024480126
-0.026619563 0.0062313611 0.00062090612 -0.34606504 -0.92176926 -0.17487258 0.0025814376
0.035431486 0.0062075206 0.001580975 0.34480312 -0.93795365 0.036794994 0.001398345
0.037146755 0.0069188932 0.0020225344 0.35823303 -0.93254447 0.04505486 0.00083438953
0.040754564 0.0082888473 0.0007291293 0.40346214 -0.9142248 -0.037566658 0.0017489071
0.042148046 0.0089787561 0.00075155613 0.43258655 -0.90128493 0.023543969 0.0010077991
-0.04207927 0.011941922 0.0024512857 -0.48888069 -0.85145444 -0.18979192 0.010595769
-0.040220026 0.011410344 0.0017007696 -0.45720541 -0.86544293 -0.20487002 0.0041874782
-0.037525855 0.010329435 0.0013353912 -0.43822742 -0.87114507 -0.2215015 0.0023490125
-0.03497348 0.0094596976 0.00087141234 -0.40243104 -0.89180332 -0.20672692 0.0023724544
0.041975193 0.0091172336 0.0026046806 0.42216685 -0.90607232 0.028427204 0.00095416064
0.044455692 0.010038389 0.0007253217 0.44744104 -0.89280105 -0.05198805 0.00066959037
0.046022452 0.010946848 0.0014732071 0.45696652 -0.88727278 0.06267906 0.00058843824
0.048021652 0.011981502 0.0005217712 0.48346886 -0.87390083 -0.050548747 0.0013137758
-0.045630097 0.014486503 0.0019359477 -0.53803599 -0.8104139 -0.23183289 0.0041258945
-0.043511026 0.013480922 0.0014373637 -0.51439124 -0.82209653 -0.24404709 0.0044737426
-0.0409716 0.012527374 0.00084866898 -0.47552216 -0.84702301 -0.23755136 0.0038153485
0.047763579 0.01205125 0.0023111689 0.47696736 -0.87822807 0.034895442 0.0009200676
0.049775612 0.013092827 0.0013568039 0.50255829 -0.86222488 -0.063272536 0.0015296703
-0.051052507 0.017865999 0.0028521034 -0.54108071 -0.83980495 -0.044265136 0.013027544
-0.049188629 0.017144633 0.00177878 -0.56502002 -0.79269934 -0.22886688 0.0037996254
-0.046806537 0.015908025 0.0012620585 -0.54902583 -0.79926258 -0.24443828 0.0036941329
-0.044735659 0.015119383 0.00062450545 -0.54909742 -0.79990184 -0.24217583 0.0046646441
-0.054360073 0.02063014 0.0024479807 -0.61192113 -0.7459622 -0.26285538 0.0043557398
-0.052357789 0.019678744 0.0017080695 -0.58514571 -0.76296663 -0.27474788 0.004084147
-0.050158653 0.018597631 0.0010063477 -0.5855096 -0.76762909 -0.26062241 0.0030797592
-0.057429913 0.023507131 0.00232422 -0.65594316 -0.71980786 -0.22718976 0.0029937627
-0.055550065 0.022351746 0.0016289614 -0.62527108 -0.73656684 -0.25788608 0.0045836326
-0.05350377 0.021350008 0.00085463346 -0.5887751 -0.76261973 -0.26787135 0.0040769009
-0.060418591 0.026519187 0.0021956582 -0.7250973 -0.66592151 -0.17544904 0.0014523183
-0.058801502 0.025236621 0.0016696081 -0.66907263 -0.71180773 -0.21370916 0.002045495
-0.056817681 0.024143696 0.00054169493 -0.62568736 -0.74627489 -0.22713231 0.0025206809
-0.063204266 0.029739017 0.0023268391 -0.76953673 -0.62922794 -0.10902026 0.00074502639
-0.061738845 0.028322507 0.0016327995 -0.73959541 -0.65801239 -0.14148603 0.001081213
-0.06442643 0.031460389 0.0016594224 -0.79441029 -0.60405624 -0.063468717 0.0015506628
-0.062934242 0.030002473 0.00098629599 -0.75775647 -0.64029282 -0.12581865 0.00085112959
-0.00067880441 0.032963101 0.0026435414 0.094751775 0.989052 0.11312937 0.0032907426
0.0023265511 0.032917757 0.0015626842 0.049453471 0.99584025 0.076527707 0.0022798036
0.0050735725 0.032877371 0.0015784897 0.0046510026 0.99814355 0.060727317 0.002260434
0.0074230758 0.032856598 0.0018353604 -0.031886727 0.99623716 0.080590457 0.0031033382
0.010452302 0.032916784 0.0026022934 -0.080096811 0.98689383 0.14008984 0.0023080921
0.012385464 0.032983135 0.0028827719 -0.11972408 0.97417533 0.19143794 0.0043014986
-0.066864446 0.034719519 0.0015188602 -0.82479173 -0.56533802 0.01056158 0.0012648248
-0.065761209 0.033238091 0.0015482644 -0.80934423 -0.5868094 -0.024832267 0.00083882443
-0.015490245 0.035894312 0.0025142855 0.27558291 0.9582954 0.075656764 0.0035229011
-0.013468535 0.035465002 0.0012564481 0.26789865 0.96163297 0.059096601 0.0023740889
-0.010438332 0.034678459 0.0010724913 0.21957046 0.97505474 0.032512605 0.0047899727
-0.0071766675 0.034119185 0.0012330386 0.16309154 0.98637772 -0.021451863 0.0029805799
-0.0046685538 0.033734065 0.00094720558 0.14835274 0.98892832 0.0034898019 0.0026798688
-0.0012662039 0.033236392 0.0012431572 0.082708813 0.99576062 0.040248748 0.0034442181
0.0020193022 0.033064667 0.00044450257 0.037327301 0.99927151 0.0079432046 0.0035466638
0.0045005241 0.033034116 9.9692494e-05 0.011586589 0.99989974 0.0081441961 0.0017425641
0.0085281711 0.033040393 0.00062169362 -0.025844878 0.99927413 0.027987357 0.0024944125
0.010551795 0.033151787 0.0010045453 -0.067445494 0.99575621 0.06261526 0.0041743927
0.013531623 0.03346752 0.0011607341 -0.13213369 0.99103874 -0.019568078 0.0026979279
0.016517127 0.033980791 0.001140738 -0.19388238 0.98101491 -0.0044013918 0.0028725159
0.019748172 0.034751531 0.0011302218 -0.24190287 0.97028857 0.0048036394 0.0025062684
0.022706091 0.035513189 0.0014965753 -0.26581749 0.96399933 0.0068038413 0.0020638523
0.024463549 0.035909906 0.0024699119 -0.28414729 0.94964778 0.13202034 0.0038895733
-0.069342323 0.038447659 0.0012477428 -0.8634392 -0.50144351 0.055020902 0.0034660278
-0.068319902 0.036866128 0.0015139751 -0.84136695 -0.53973234 0.028119253 0.0014742081
-0.024433522 0.038900249 0.0029910919 0.41704565 0.89275604 0.17046906 0.0053498889
-0.022244986 0.038275819 0.0013999578 0.37027761 0.92868596 -0.020900542 0.0017158911
-0.019405363 0.037209548 0.0012550394 0.33420923 0.94097382 0.053594954 0.0035458193
-0.016571075 0.036381569 0.0011373828 0.27767804 0.96033013 -0.025709551 0.0024581414
0.025424909 0.036361896 0.0011112071 -0.28179714 0.95931906 0.017243439 0.0024389673
0.028414262 0.037305318 0.0012084021 -0.310702 0.95028609 0.02050725 0.0024206459
0.031660102 0.038460117 0.0012156278 -0.3836858 0.92346305 -0.0010182322 0.0029612987
0.033123165 0.038896807 0.002493113 -0.40670776 0.90814233 0.09932892 0.0040487321
-0.070367448 0.040336844 0.0015071771 -0.89603978 -0.4378207 0.073659964 0.0029635029
-0.030282971 0.041771069 0.0010820553 0.44623083 0.89473408 0.018136831 0.0025865759
-0.028441293 0.040874429 0.0013091213 0.41102567 0.91155499 0.011201191 0.0019467534
-0.025375953 0.039609592 0.001071156 0.38064367 0.92448252 -0.021033762 0.0020301796
0.032840684 0.039029483 0.00076757337 -0.40767959 0.91288924 0.020751081 0.0028947571
0.034555372 0.039779682 0.0011210546 -0.4164089 0.90886319 0.023904255 0.0033916216
0.03740447 0.041193806 0.0013993084 -0.48422629 0.87107408 0.082188673 0.0026271066
-0.072194666 0.044470679 0.00097526592 -0.93760544 -0.3270781 0.11796568 0.0058391374
-0.071578965 0.043066472 0.0015157645 -0.92216039 -0.360035 0.14140379 0.0052161696
-0.036264617 0.044767119 0.0016179963 0.46734354 0.88203257 0.060071614 0.0034188381
-0.034480207 0.04389137 0.0012053162 0.44621903 0.8940351 0.039872967 0.0028603105
