# .PCD v0.7 - Point Cloud Data file format
VERSION 0.7
FIELDS x y z normal_x normal_y normal_z curvature
SIZE 4 4 4 4 4 4 4
TYPE F F F F F F F
COUNT 1 1 1 1 1 1 1
WIDTH 556
HEIGHT 1
VIEWPOINT 0 0 0 1 0 0 0
POINTS 556
DATA ascii
-0.014011458 0.0032617289 -0.0052044741 -0.23038763 -0.89224368 -0.3883591 0.001549386
-0.011713388 0.0030630175 -0.0059976885 -0.211202 -0.87147743 -0.44262955 0.0027411962
0.022892602 0.003284808 -0.0051341187 0.1990141 -0.91231805 -0.35786754 0.0011284496
0.025441598 0.0036973422 -0.0046608411 0.21825133 -0.91839522 -0.3300252 0.0011850551
0.028422637 0.0045559858 -0.0047684452 0.25402761 -0.90960473 -0.32876936 0.0011092109
0.031398695 0.0053911256 -0.0046333075 0.27546847 -0.90329444 -0.32890171 0.001291421
-0.030957943 0.0087443665 -0.0039156899 -0.36192083 -0.88242608 -0.30056208 0.0017569759
-0.028384387 0.0078630485 -0.00450391 -0.35499775 -0.87994927 -0.31569892 0.0019332207
-0.025689105 0.0069993255 -0.0049956976 -0.34623787 -0.87971377 -0.32591861 0.0013689379
-0.023357119 0.0062782229 -0.0054558637 -0.34494439 -0.87247807 -0.34611461 0.0025530595
0.032806419 0.0060055535 -0.005196875 0.29821506 -0.87124819 -0.38986462 0.00052137533
0.034756921 0.0065570585 -0.0046136854 0.30591482 -0.87670988 -0.37120876 0.0010593177
0.037208095 0.0075989245 -0.0049641039 0.32602641 -0.85593396 -0.40135249 0.000787789
-0.037106767 0.011575746 -0.0041198134 -0.43145296 -0.85158265 -0.29775062 0.0020382421
-0.034729693 0.010597619 -0.0046856902 -0.40298107 -0.86138862 -0.30921808 0.0015003281
-0.031790815 0.0094487555 -0.0049611214 -0.36952996 -0.87209171 -0.32078597 0.0019280365
-0.029913008 0.009029543 -0.0057430645 -0.33545157 -0.8791064 -0.33859143 0.0028955201
0.041923687 0.0098060239 -0.0054331659 0.38472277 -0.82414645 -0.41565734 0.00087910832
0.044025533 0.010481701 -0.0044869995 0.39258444 -0.81954682 -0.41739729 0.0010080585
-0.042667355 0.014486627 -0.0039365757 -0.49146858 -0.81907433 -0.29593229 0.0019663898
-0.040485654 0.013545779 -0.0046908841 -0.459306 -0.83453012 -0.30429849 0.0018207724
-0.037972301 0.012368239 -0.0050953291 -0.44233227 -0.84206241 -0.30866337 0.0017510973
0.051076271 0.014094493 -0.00363641 0.50117505 -0.7636885 -0.40694413 0.00078471599
-0.046177197 0.017093038 -0.0044582342 -0.53971428 -0.78954333 -0.29211277 0.0018559992
-0.043946069 0.015664505 -0.0047825309 -0.53309536 -0.79597485 -0.28676391 0.0016324377
0.055713333 0.017567942 -0.0043896371 0.54782403 -0.73648763 -0.39683113 0.0010044072
-0.051380288 0.020633107 -0.0038432013 -0.56640309 -0.7700972 -0.29349244 0.001840055
-0.049518913 0.019514333 -0.0045834486 -0.5636937 -0.77264297 -0.29201415 0.0020615573
-0.047517717 0.018293755 -0.0052169524 -0.55237734 -0.77887028 -0.29705286 0.0021288111
-0.05468687 0.023319004 -0.0042939615 -0.59571427 -0.74251324 -0.30626544 0.0021587932
-0.052727971 0.02197326 -0.00472213 -0.57647806 -0.7615521 -0.29616129 0.0022666471
-0.058069509 0.026168117 -0.0043844585 -0.61927223 -0.71538395 -0.32361665 0.0022339115
-0.056099072 0.02468746 -0.0047636251 -0.61103922 -0.73566902 -0.2922709 0.0018707281
-0.060994133 0.029007683 -0.0043332698 -0.6873095 -0.64435059 -0.33528796 0.0018321397
-0.059382837 0.027599195 -0.0049465788 -0.66496599 -0.68273354 -0.30281213 0.0020042195
0.065646149 0.028075747 -0.0058403746 0.68240398 -0.44171008 -0.58242339 0.0013881894
-0.063762911 0.032069173 -0.0043366035 -0.73414832 -0.58740962 -0.34055281 0.0022537736
-0.062380236 0.030800045 -0.004942026 -0.70869029 -0.63154221 -0.3145037 0.002040891
-0.0067647658 0.032832339 -0.005526619 0.16244794 0.92548549 -0.34218022 0.0028031012
-0.0044126306 0.032659035 -0.0051335902 0.14500803 0.93201864 -0.33213532 0.0030433626
-0.0014042996 0.032449082 -0.0047123758 0.10873314 0.94141221 -0.31924933 0.0028041024
0.0015127986 0.032233302 -0.0047063511 0.065869577 0.94064718 -0.33293241 0.0036525284
0.004535058 0.032210436 -0.0045278259 0.01963301 0.95061028 -0.30976555 0.0025719223
0.0076065548 0.032190457 -0.0046483343 -0.03538762 0.94691938 -0.31951752 0.003133771
0.01053533 0.032321006 -0.0048204726 -0.097587019 0.93966264 -0.32788852 0.0030610207
0.013338421 0.032708038 -0.0046508345 -0.1444377 0.92381996 -0.35453421 0.0019463341
0.016273312 0.032890435 -0.005486208 -0.2032198 0.92518508 -0.32052186 0.0025589888
-0.066493079 0.035403997 -0.0040231096 -0.76210546 -0.52998656 -0.37189981 0.0026749161
-0.065142728 0.034156013 -0.0048293155 -0.74564773 -0.5772981 -0.33277082 0.0022651351
-0.018397082 0.035705544 -0.0057237959 0.29796219 0.85726684 -0.41989535 0.00055624626
-0.016298968 0.035388146 -0.0050676791 0.2795333 0.89813834 -0.33942395 0.0019322784
-0.013438102 0.034662917 -0.0047409544 0.25362149 0.90805012 -0.33334833 0.002492541
-0.010435591 0.033909671 -0.0046521192 0.21310265 0.92478454 -0.31521538 0.0024635182
-0.0077101132 0.033434171 -0.004506228 0.15775771 0.93738407 -0.31052154 0.0027808526
-0.0051113125 0.033272654 -0.003724762 0.14350274 0.9549194 -0.25987673 0.001892407
-0.0027313107 0.033012096 -0.0035565507 0.090054743 0.95291024 -0.28957263 0.0027160312
0.014525237 0.033228971 -0.0038180265 -0.16896141 0.92271608 -0.34647816 0.0020036325
0.01682467 0.03331995 -0.0046379934 -0.20378658 0.91805893 -0.34005696 0.0020219686
0.01922062 0.033768643 -0.0050403136 -0.22361141 0.9126296 -0.34220639 0.0021347261
0.022453504 0.03491554 -0.0044246647 -0.25937206 0.9065764 -0.33293441 0.0015247198
0.025370985 0.035608619 -0.0048078224 -0.27397141 0.90089184 -0.33665058 0.0016774394
0.027384065 0.035847113 -0.0056950916 -0.29715496 0.89360762 -0.33639905 0.0019660383
-0.069106765 0.038862124 -0.0033996322 -0.80736113 -0.47244611 -0.35350057 0.0023846761
-0.067622475 0.037539169 -0.0045880186 -0.78660059 -0.48758641 -0.37883896 0.003894167
-0.025139604 0.038562227 -0.0051124296 0.3530699 0.85707933 -0.37517565 0.001449106
-0.022498067 0.037502822 -0.0050305007 0.34617871 0.8631717 -0.36755261 0.0017168621
-0.019399211 0.036519274 -0.0045072054 0.29998013 0.88750726 -0.34977552 0.0017633931
-0.017452084 0.036117345 -0.004155891 0.28529191 0.90154439 -0.32530931 0.0022322573
0.026569448 0.036360294 -0.0034172104 -0.27173558 0.93810749 -0.21474189 0.0021304078
0.028480023 0.036617711 -0.0046921927 -0.29788253 0.90320641 -0.30900526 0.0029355679
0.031494018 0.037694439 -0.0046789246 -0.35696414 0.88449329 -0.30041343 0.0026104616
0.033966742 0.03869525 -0.0048663919 -0.40519217 0.86398441 -0.29891539 0.0022257327
-0.069646664 0.040813398 -0.0043124449 -0.82002628 -0.39442658 -0.41471031 0.0045626611
-0.068560921 0.039785281 -0.0053493218 -0.8089031 -0.40883049 -0.42253205 0.0044715437
-0.03132055 0.041398354 -0.0049202209 0.39763904 0.82197672 -0.40772232 0.00028116454
-0.028417554 0.040066872 -0.0047618197 0.38143909 0.84267545 -0.38000298 0.0013794571
-0.02655603 0.039379839 -0.00456928 0.36413473 0.86086947 -0.35540077 0.0011959585
0.035106424 0.039530978 -0.0039504929 -0.41220078 0.87064803 -0.26844475 0.0028656898
0.037492175 0.040546529 -0.0045921667 -0.45318925 0.84166932 -0.2936193 0.0026970014
0.03963295 0.041690141 -0.0049293665 -0.50822794 0.8109808 -0.28985265 0.0020737939
-0.070623659 0.043577313 -0.0045524905 -0.82825762 -0.32219666 -0.45845237 0.0044280845
-0.037245639 0.044298597 -0.0051229 0.41679224 0.80383599 -0.42441955 0.00071424758
-0.034446359 0.043045048 -0.0047230199 0.40549904 0.811032 -0.42166054 0.00050855026
-0.032455925 0.042146228 -0.0045096464 0.40053648 0.82302982 -0.40273127 0.00020310299
0.041045565 0.042776916 -0.0043237093 -0.49130487 0.82342911 -0.28387323 0.0020663014
0.043289084 0.044096619 -0.0046069506 -0.52169526 0.80627167 -0.27885494 0.0021853894
0.045365538 0.044931941 -0.0056798882 -0.47006422 0.77067411 -0.43023378 0.0012266277
-0.072339542 0.046936389 -0.0035586709 -0.84050125 -0.28444776 -0.46113667 0.0033764301
-0.071291901 0.046392471 -0.0049860082 -0.83020043 -0.23265833 -0.50659382 0.0069347639
-0.042994764 0.047507852 -0.0048932447 0.42277768 0.7912842 -0.44173339 0.00069648994
-0.040368091 0.046233658 -0.0045080823 0.41308975 0.80180782 -0.43181145 0.00068243069
-0.03830494 0.045167476 -0.0043646581 0.42130238 0.80033612 -0.42657527 0.00060267083
0.044711575 0.045383021 -0.0036687199 -0.51898676 0.80496556 -0.28754669 0.0018922593
0.046565056 0.046257854 -0.0044870651 -0.50586003 0.78889728 -0.34892216 0.0030746625
0.048780855 0.047380131 -0.0051999553 -0.49982041 0.77587229 -0.38496974 0.0035427653
-0.072741389 0.049624715 -0.0040631592 -0.78871739 -0.2269326 -0.57133734 0.0067546978
-0.071552068 0.049320966 -0.0055092708 -0.73886341 -0.13176486 -0.66084725 0.0061658355
-0.049031913 0.050624885 -0.0052062189 0.38668594 0.78071409 -0.49087629 0.0012469265
-0.046545725 0.049592704 -0.0045462032 0.41772681 0.79627901 -0.43754315 0.00051756238
-0.04423406 0.048614208 -0.0038509707 0.42204806 0.79928786 -0.42780176 0.00052804156
0.049950365 0.048540067 -0.0042616818 -0.49654192 0.7918362 -0.35558629 0.0022307409
0.052416611 0.04993334 -0.0046624709 -0.49192411 0.78625315 -0.37392053 0.0028643496
0.054401066 0.05068453 -0.0055370242 -0.46176484 0.76279354 -0.45267996 0.0047375918
0.070755705 0.050539937 -0.0058581424 0.56343877 0.15213248 -0.8120299 0.0011143648
-0.073329799 0.052610267 -0.0043841158 -0.71876442 -0.18231337 -0.67092443 0.0075106979
-0.071674682 0.052339826 -0.0057496005 -0.58878344 -0.037062738 -0.8074407 0.0074161352
-0.057334308 0.05373276 -0.0059071044 0.25786203 0.81693959 -0.51586515 0.0046358597
-0.055215389 0.05350861 -0.0049531637 0.30162641 0.83670771 -0.45710137 0.0018594244
-0.052586619 0.052551214 -0.004835099 0.34747425 0.8261596 -0.44353348 0.0016124198
-0.050163865 0.051533349 -0.0044362801 0.38157013 0.808276 -0.44843525 0.00087743439
0.05362042 0.0511733 -0.0035683059 -0.49659181 0.78811961 -0.36368126 0.0021560353
0.055563871 0.052002639 -0.0044186474 -0.46233115 0.79103786 -0.40063575 0.0036045692
0.058173191 0.05328111 -0.0049075461 -0.45796284 0.75091362 -0.47581381 0.0063832686
0.060382999 0.053967625 -0.0058985013 -0.3964574 0.6374293 -0.66068554 0.0026281518
0.070937097 0.052765626 -0.0053813453 0.5068354 0.17924578 -0.84320158 0.0037189154
-0.075231642 0.055673938 -0.003178987 -0.83102149 0.058429237 -0.55316305 0.030589921
-0.073628359 0.055445168 -0.0045906501 -0.61275518 0.16855703 -0.77208787 0.019346016
-0.07128831 0.055929411 -0.0057991445 -0.34396884 0.20376152 -0.91660607 0.018213488
-0.066930301 0.05685921 -0.0059155175 -0.0052512912 0.47881454 -0.87790042 0.0087993005
-0.064315349 0.056455903 -0.0055570444 0.23942162 0.68878108 -0.68429375 0.0078071728
-0.061517946 0.055865198 -0.0048474343 0.31291035 0.7637918 -0.56454337 0.0061391899
-0.058695637 0.05489926 -0.0046642208 0.2900959 0.81882858 -0.49534249 0.0031272098
-0.056300696 0.054393914 -0.0039531766 0.29828179 0.84251022 -0.44855827 0.0019898578
0.05915013 0.054599624 -0.0039230976 -0.52995086 0.71383238 -0.45781606 0.0045548305
0.061475445 0.055588543 -0.0046883151 -0.43588534 0.7159555 -0.54535472 0.0070578442
0.063999899 0.05644381 -0.0055563166 -0.3371107 0.5848152 -0.73779917 0.011892282
0.06897597 0.056806549 -0.0059840558 0.11253955 0.26267964 -0.95829761 0.030296097
0.07068304 0.055775966 -0.0051615834 0.4239845 0.19449548 -0.88453871 0.0079112258
-0.073233046 0.057734597 -0.0042544003 -0.59685534 0.3642486 -0.71490318 0.018446766
-0.070542626 0.05841111 -0.0049454994 -0.24757923 0.56050217 -0.79027957 0.019047646
-0.067799807 0.058147382 -0.0050587971 0.057778422 0.58505434 -0.80893326 0.0053656022
-0.064838618 0.057976261 -0.0042512948 0.3280338 0.70356542 -0.63038838 0.0049603092
-0.062799245 0.057566613 -0.0034226503 0.34819791 0.71762121 -0.60314006 0.0045346846
0.062477548 0.057292808 -0.0036001157 -0.53505582 0.63493347 -0.55729234 0.013994929
0.064561069 0.058426946 -0.004386812 -0.50561404 0.52089614 -0.68776572 0.015017985
0.067308754 0.058724731 -0.0054615163 -0.14575216 0.34543267 -0.9270559 0.012762989
0.069896288 0.058783423 -0.0051687746 -0.048128784 0.31365621 -0.94831604 0.008120128
-0.069434077 0.060176723 -0.003184584 -0.13304371 0.94030857 -0.3132399 0.03210761
-0.068153769 0.060182989 -0.0032861154 0.057230853 0.84255916 -0.53555465 0.03005486
0.065461285 0.061219398 -0.003549142 -0.6262235 0.30455428 -0.71769822 0.01921235
0.067333817 0.061564069 -0.0045141042 -0.3574729 0.25368908 -0.89880759 0.024787908
0.070149951 0.061641037 -0.0047066188 -0.12284146 0.23514819 -0.96416557 0.020375902
0.072862759 0.062388651 -0.0030801538 0.50857681 -0.027109945 -0.86058974 0.0051025865
0.065917887 0.06339705 -0.0032729735 -0.83794659 0.24257524 -0.48887914 0.02810175
0.06750048 0.064447194 -0.0038705152 -0.43385401 0.1718747 -0.88443756 0.020143049
0.070315324 0.064681619 -0.004436872 -0.19336498 0.10891989 -0.97506225 0.020671381
0.072426736 0.064682722 -0.0036312896 0.049490456 0.010023481 -0.99872434 0.020762339
0.067931272 0.067315154 -0.0037214963 -0.56908458 0.11544565 -0.81413448 0.018825669
0.070240118 0.067513704 -0.0044486276 -0.19977579 0.0458031 -0.97877055 0.020583149
0.072839387 0.067518666 -0.0037625181 0.42804369 -0.078016751 -0.90038437 0.0069288835
0.068294697 0.070389591 -0.0035379531 -0.74319857 0.10115359 -0.66138023 0.032353692
0.070351362 0.070532747 -0.0044775219 -0.37647089 0.030193176 -0.92593634 0.028818602
0.072999492 0.070583701 -0.0042310837 -0.047498118 -0.09856692 -0.99399626 0.011537013
0.075086355 0.071855426 -0.0032266174 0.55145097 -0.19898841 -0.8101269 0.0033645618
0.068474375 0.073322304 -0.0034530433 -0.76595724 0.080552213 -0.63782507 0.021767279
0.070351191 0.073502839 -0.0046130233 -0.3708787 -0.022964945 -0.9283973 0.027855068
0.073175743 0.07365828 -0.004919651 -0.16387397 -0.066063188 -0.98426676 0.027452936
0.075721361 0.073682562 -0.003536521 0.25965667 -0.201167 -0.94451594 0.03086241
0.068657078 0.075813867 -0.0033554069 -0.73297477 0.17944707 -0.65616059 0.07294976
0.070132345 0.075771481 -0.0044739256 -0.55113691 0.13132346 -0.82401592 0.03548187
0.072658695 0.075355969 -0.0052265041 -0.31762245 -0.051999111 -0.9467904 0.042658258
-0.015831441 0.0028218646 -0.0013889729 -0.25211316 -0.95597565 -0.15016484 0.0008630862
-0.013378089 0.0021777453 -0.0016246832 -0.21604988 -0.96115518 -0.17176484 0.0017792585
-0.011057101 0.0017465623 -0.002209031 -0.17397304 -0.96397305 -0.20121957 0.0019166295
-0.0078752432 0.001223129 -0.0017015397 -0.14187957 -0.97336346 -0.18009354 0.0019023095
-0.0043586162 0.00073680509 -0.0017630917 -0.10169886 -0.97436911 -0.20065436 0.0022517382
-0.0019825229 0.00064804219 -0.0022540088 -0.07790973 -0.97612768 -0.20274343 0.002068066
0.0014431395 0.00039724383 -0.0014457258 -0.04282568 -0.99616826 -0.076254688 0.0035045159
0.005083059 0.00047830044 -0.0023356129 0.013623643 -0.968077 -0.25028256 0.0016100091
0.0072117033 0.00048807327 -0.0016866815 0.035515673 -0.96254623 -0.26878124 0.0022366438
0.010185566 0.00061372545 -0.0015771225 0.068553805 -0.99012554 -0.12227798 0.0010421637
0.013718755 0.00098499062 -0.001769679 0.1163566 -0.9682523 -0.22124334 0.0019171458
0.01644855 0.0013250462 -0.0015096267 0.13721551 -0.97109306 -0.19532087 0.001510956
0.019281635 0.0017821037 -0.0017714417 0.17629699 -0.96651036 -0.18648617 0.00060563657
0.02252092 0.0024431702 -0.0016169857 0.20500343 -0.94912881 -0.23901494 0.0017014527
0.024338312 0.0027017025 -0.00031442105 0.2353556 -0.95726556 -0.16807869 0.00029557911
-0.024854399 0.0058269817 -0.0016284767 -0.34744042 -0.91881263 -0.18726608 0.00053342548
-0.022960559 0.0051337145 -0.0019466114 -0.33125657 -0.91989011 -0.20993175 0.0013033777
-0.019539254 0.0038844016 -0.0017754082 -0.28872252 -0.94180393 -0.17217633 0.00064523588
-0.017429929 0.0033004528 -0.0018033185 -0.2758193 -0.94670576 -0.1663488 0.00071282499
0.025482699 0.0031498584 -0.0022330484 0.24298987 -0.94439751 -0.22151607 0.0013542331
0.028619606 0.0039037005 -0.00092627062 0.24856086 -0.94072688 -0.2307606 0.0012032749
0.030168081 0.004508622 -0.0022773915 0.27936953 -0.92560095 -0.25537348 0.00095994683
-0.03155892 0.0085121738 -0.0014863155 -0.3707225 -0.90125489 -0.22428651 0.00051787269
-0.028708383 0.0073842439 -0.0021146252 -0.35398713 -0.90908796 -0.21966378 0.00093093951
-0.026244625 0.0063697579 -0.0017548034 -0.35116792 -0.91279393 -0.20853868 0.0011173439
-0.039141908 0.011975775 -0.0011639786 -0.44024137 -0.86126947 -0.25377634 0.0025669408
-0.037529018 0.011263707 -0.0018403543 -0.4276695 -0.87261665 -0.23587941 0.00079791079
-0.035034884 0.010010905 -0.0017027083 -0.40359643 -0.88484138 -0.23273507 0.00058126292
-0.032854699 0.0091685159 -0.0025714447 -0.38670743 -0.89092922 -0.23812294 0.00082024123
-0.04313511 0.014260617 -0.0014803646 -0.50565159 -0.83377653 -0.22166008 0.0023985638
-0.040431216 0.012755877 -0.0015134867 -0.46236509 -0.85584009 -0.2318538 0.00084625807
-0.048299085 0.017844796 -0.0015637315 -0.57376939 -0.78608519 -0.22991048 0.00091983174
-0.046582848 0.016653629 -0.0015693457 -0.55742866 -0.7939344 -0.24277866 0.0021612283
-0.04458328 0.015282745 -0.0017823825 -0.55503851 -0.79676288 -0.23895843 0.0024716537
-0.051766593 0.020402513 -0.0014859427 -0.5953036 -0.77754849 -0.20256339 0.0010318286
-0.049790937 0.018939765 -0.0016048988 -0.57312787 -0.78508276 -0.2348821 0.0010458635
-0.055152401 0.02299401 -0.0015042815 -0.607512 -0.7702536 -0.19400659 0.00071096374
-0.053171854 0.021476984 -0.0016689593 -0.59898263 -0.77108705 -0.21597342 0.0015572027
-0.058487371 0.025745429 -0.0015155035 -0.6447674 -0.73729122 -0.20168455 0.00068282941
-0.056690942 0.024302253 -0.0018933769 -0.62528032 -0.75304431 -0.20481436 0.00054759096
-0.061504796 0.028648747 -0.0015121155 -0.71369046 -0.67694658 -0.17996997 0.001034259
-0.059987694 0.02721091 -0.0026214891 -0.6721794 -0.70504034 -0.22603747 0.0013010229
-0.064236455 0.031634036 -0.0015214235 -0.76128787 -0.62961048 -0.15502036 0.0017018366
-0.062895648 0.03027541 -0.0024222557 -0.73765415 -0.65122724 -0.17823964 0.0014480747
-0.00063614151 0.032939494 -0.0027249563 0.096138574 0.97849715 -0.18248481 0.0012077198
0.0016846788 0.032907993 -0.0017561287 0.064165615 0.97529542 -0.21138032 0.0024679888
0.0045746788 0.032892149 -0.0012463131 0.018711675 0.97821927 -0.20672905 0.0028360817
0.0075617773 0.032891642 -0.0013759207 -0.03984309 0.97726297 -0.20825377 0.0030281944
0.010247424 0.032934815 -0.0022857999 -0.10781416 0.96697426 -0.23094778 0.0019746497
0.012010912 0.03299797 -0.0027728891 -0.08271613 0.98887938 -0.12359501 0.0022922549
-0.066892602 0.034967516 -0.0015370185 -0.80312693 -0.57768506 -0.14583211 0.0026897639
-0.065648697 0.033428773 -0.0017231741 -0.78377378 -0.6044296 -0.14270034 0.0018540021
-0.015226034 0.035749622 -0.0025333876 0.26703593 0.94926411 -0.16610099 0.0027513593
-0.013753507 0.03545171 -0.001636873 0.26694581 0.92948133 -0.25456697 0.0025918786
-0.010279965 0.034480669 -0.0020090693 0.21550305 0.9373827 -0.27362773 0.0019129217
-0.0075201653 0.034015693 -0.001494257 0.1742869 0.96103591 -0.21455535 0.0012044782
-0.0045088055 0.033561133 -0.0014336342 0.12757212 0.97206831 -0.19699898 0.0012800212
-0.0022046296 0.033310182 -0.0011295486 0.11187562 0.97721654 -0.18036544 0.0011299382
0.00084989239 0.033141151 -0.00052216632 0.034028601 0.999403 -0.0059813675 0.0015559031
0.0041434155 0.033022348 -0.00034404141 0.011736858 0.99985087 -0.012671849 0.0013941033
0.0080338437 0.033011042 -0.00055536901 -0.035552412 0.99895978 -0.028556094 0.0010714339
0.01087861 0.033131901 -0.0011756615 -0.070153862 0.99107528 -0.11335035 0.0018121887
0.013774804 0.033437431 -0.0014639243 -0.13756151 0.97426146 -0.17858168 0.001534313
0.016620379 0.033904962 -0.0016619922 -0.1949257 0.96804643 -0.15776587 0.0023637591
0.01951088 0.034618415 -0.0014355863 -0.2590757 0.95883191 -0.1162807 0.0014288003
0.022417188 0.035399117 -0.0015893967 -0.27764645 0.95355541 -0.11681009 0.0013528401
0.024363229 0.035903554 -0.0020416812 -0.28775775 0.94847733 -0.13261349 0.0021376424
-0.069302954 0.038486023 -0.0013017729 -0.85349381 -0.49630237 -0.15884647 0.0041216579
-0.068307541 0.037062202 -0.0017263019 -0.82246226 -0.55052072 -0.14311819 0.0028671697
-0.024459209 0.038920883 -0.0028718614 0.38981152 0.87807041 -0.27755982 0.0017094819
-0.022563975 0.0383959 -0.0010284395 0.35474956 0.9053517 -0.23343338 0.0011176855
-0.01953291 0.037200391 -0.0012314109 0.3115944 0.9300878 -0.19453959 0.0033523983
-0.016640682 0.036254704 -0.0018772401 0.26703468 0.94926465 -0.16609982 0.0027517159
0.025824867 0.036403593 -0.0014466199 -0.28974047 0.95225513 -0.096232131 0.0020027969
0.02851579 0.037270613 -0.0015083549 -0.30951437 0.94262958 -0.12510133 0.0015764016
0.031312954 0.038275871 -0.0015616575 -0.35176921 0.92338276 -0.15369679 0.0023818954
0.033266444 0.038960628 -0.0024228946 -0.43729794 0.89069992 -0.12419426 0.0017006716
-0.070406802 0.040472034 -0.0015970612 -0.87905216 -0.44109407 -0.18084064 0.0043082177
-0.026056457 0.03976848 -0.0015335878 0.39663154 0.87334394 -0.28276101 0.001867741
0.034508996 0.039676111 -0.0016476497 -0.43602145 0.89323336 -0.10963304 0.0019898377
0.037267953 0.041104835 -0.001535409 -0.48302871 0.86777997 -0.11679516 0.0022523289
-0.072192311 0.044435203 -0.0013140634 -0.92339808 -0.33355662 -0.18993659 0.0077440883
-0.071541481 0.043082278 -0.0017673747 -0.90960974 -0.37673852 -0.17515184 0.00582308
0.038867567 0.042022366 -0.0018977333 -0.51606411 0.84813964 -0.11973754 0.0023275868
0.040538564 0.043100622 -0.0015339073 -0.52013952 0.8464154 -0.11417439 0.0024202249
0.042689409 0.044484824 -0.0015432524 -0.55195475 0.82979977 -0.082329586 0.0024451064
-0.072833627 0.046473544 -0.0016447068 -0.92749506 -0.29885578 -0.2245841 0.0099916747
0.044215295 0.045519311 -0.0013478611 -0.54766285 0.83193934 -0.089120202 0.0028661285
0.0464749 0.046992689 -0.0016141034 -0.5523259 0.82260132 -0.13514125 0.0031633277
0.048079532 0.047832798 -0.0029624095 -0.53060025 0.80679339 -0.25989962 0.0016034724
-0.073931016 0.049532667 -0.0016711173 -0.90028244 -0.32393974 -0.29078272 0.010618827
0.047813997 0.048037574 -0.00034706166 -0.54012334 0.84088904 -0.034240846 0.0038689235
0.049374238 0.04894422 -0.0015716321 -0.54456723 0.82702559 -0.13955344 0.0029865541
0.051572647 0.050399709 -0.0016826884 -0.55776656 0.81665462 -0.14822879 0.0039613131
-0.07545647 0.052880198 -0.0014327158 -0.91458654 -0.19472952 -0.35441783 0.021796906
-0.074656665 0.051738933 -0.0022904924 -0.87435544 -0.31928998 -0.36545393 0.010862497
-0.053263385 0.053733349 -0.0024976654 0.32806307 0.85181552 -0.40839309 0.0013087512
-0.04930523 0.051703349 -0.0029685032 0.40550247 0.7957691 -0.44979918 0.00097716227
0.053226974 0.05151644 -0.0016119502 -0.54425472 0.82041121 -0.17524928 0.0054445937
0.055600096 0.053046968 -0.0016172916 -0.53707004 0.8255899 -0.17308122 0.0059631863
0.057090912 0.053857997 -0.0022616093 -0.56389207 0.80071491 -0.20219164 0.0081423782
-0.075895615 0.055430323 -0.0016903706 -0.90005517 0.029497743 -0.4347764 0.029996172
-0.060706556 0.056740098 -0.0026360985 0.37008923 0.78537804 -0.49620086 0.0031020597
-0.058284819 0.055785559 -0.0022277667 0.34350643 0.83009309 -0.43925944 0.0017065271
-0.055157043 0.054513372 -0.0023366762 0.31275555 0.8487398 -0.42640907 0.0011112634
0.056848839 0.054134831 -0.00059927505 -0.55854821 0.80617523 -0.19520628 0.0049758288
0.058585834 0.055121705 -0.0016266578 -0.57260579 0.77961582 -0.25361738 0.0091299005
0.060560506 0.056569401 -0.0016193199 -0.64701009 0.72767174 -0.2277537 0.010502975
-0.075452998 0.057185974 -0.0015974628 -0.87997532 0.34192008 -0.32974851 0.071045935
-0.074148893 0.058029115 -0.0019688476 -0.68476844 0.57652807 -0.44576624 0.034237534
-0.071079135 0.059624918 -0.00083036319 -0.35146871 0.90299684 -0.24711636 0.010143424
-0.066194721 0.059853144 -0.0026928105 0.28736794 0.89588225 -0.33884329 0.019868771
-0.064580113 0.059194304 -0.0023813969 0.33249384 0.74647641 -0.57638603 0.0041014478
-0.061878935 0.057708871 -0.0019962187 0.38818982 0.75847989 -0.52346635 0.0023058173
0.062105577 0.058177482 -0.0015516874 -0.73650581 0.63143003 -0.24260087 0.021411994
0.063420177 0.059452657 -0.0022702802 -0.76026064 0.59502256 -0.26067603 0.02442245
-0.069408864 0.060384676 -0.0019269981 -0.21181737 0.9410305 -0.26380882 0.023910334
-0.067676187 0.060581617 -0.0019762577 0.010576383 0.93276322 -0.36033443 0.038289607
-0.06596563 0.060092106 -0.0022017495 0.23361295 0.88183302 -0.40962863 0.037825156
0.064334348 0.061493907 -0.0016831794 -0.86356598 0.39166448 -0.31757322 0.029758858
0.073164195 0.060904283 -0.0025349136 0.25353321 0.16588773 -0.95299643 0.016537471
0.065244012 0.06439244 -0.0014542076 -0.92174679 0.25782305 -0.28967217 0.032629929
0.066200741 0.065287665 -0.0026756413 -0.83234054 0.2264016 -0.5059166 0.035914499
0.073803045 0.06525778 -0.002422116 0.47678357 -0.068056688 -0.87638217 0.0032328297
0.065717466 0.06719245 -0.00086386251 -0.9438352 0.22319189 -0.24363999 0.028478682
0.066485375 0.067762099 -0.0022246316 -0.8847937 0.24141996 -0.39856821 0.020438669
0.074252166 0.067800991 -0.0026522793 0.40803197 -0.10672916 -0.9067077 0.0085696513
0.066817112 0.070468418 -0.0015617633 -0.92399776 0.19392247 -0.32957894 0.013803732
0.074905828 0.069870301 -0.0025149891 0.58675015 -0.21553798 -0.78055602 0.0020153343
0.075368352 0.070575662 -0.0023762845 0.4376334 -0.2089726 -0.87453276 0.013509366
0.067362167 0.073433824 -0.0016731868 -0.89444613 0.15618712 -0.41901293 0.024895728
0.076404355 0.072987318 -0.002420825 0.34988564 -0.2287592 -0.9084323 0.018134894
0.067771323 0.076057054 -0.0016478669 -0.89694583 0.33621508 -0.28713703 0.043396503
0.06940873 0.077056438 -0.0027971403 -0.61964613 0.65327001 -0.43505979 0.072997347
-0.018230287 0.002878895 0.0022881785 -0.24345699 -0.96989679 0.0053772139 0.0081582405
-0.016681841 0.0026842458 0.0014554303 -0.24991375 -0.96711165 -0.047309667 0.0037510861
-0.013810111 0.0020268946 0.001463149 -0.22942808 -0.97210836 -0.048662834 0.0017271707
-0.01047617 0.0014396497 0.0014537942 -0.16025309 -0.98381245 0.080199823 0.0055142376
-0.007813911 0.0011168618 0.0013315955 -0.13058919 -0.98557204 0.10767645 0.0061607128
-0.0049846731 0.00076180766 0.0015214351 -0.080717057 -0.99523026 0.054785956 0.00076822762
-0.0015024287 0.00052665552 0.0015386844 -0.066371575 -0.99777728 -0.0059474376 0.0033617825
0.0016447274 0.00039359377 0.0012249947 -0.04347153 -0.99856281 -0.031345796 0.0028040176
0.0047940514 0.0003098688 0.00097260083 -0.0079326266 -0.99810249 -0.061061848 0.0029822199
0.0083851321 0.00047682584 0.00098148454 0.042735826 -0.99470985 -0.09341307 0.001195127
0.013196385 0.00081281533 0.00065506285 0.098976918 -0.98633987 -0.1316711 0.00078075903
-0.027380375 0.0057625566 0.0020111846 -0.34290013 -0.92918426 -0.13797143 0.0067917523
-0.025475932 0.0055123772 0.0012989683 -0.33257303 -0.93064797 -0.15260892 0.0041866959
-0.022453923 0.0044252397 0.0013343357 -0.31595707 -0.94277346 -0.10653306 0.001876534
-0.019598544 0.0035003847 0.0013801123 -0.28796515 -0.95382291 -0.085427478 0.00150996
-0.017842051 0.003235634 0.00048795919 -0.27342319 -0.9578191 -0.088444516 0.0015691079
-0.034091104 0.008604343 0.0014499991 -0.38526863 -0.90480012 -0.18139693 0.0022201599
-0.031431805 0.0077111386 0.0013410546 -0.35595796 -0.91694009 -0.18031871 0.0016718326
-0.028748875 0.0067273029 0.0011680773 -0.35776147 -0.91519988 -0.18551505 0.0021602304
-0.026672719 0.0061985091 0.00074033142 -0.34604073 -0.92239875 -0.17157024 0.0029132224
-0.04208266 0.011932736 0.0024460428 -0.49231625 -0.85848427 -0.14362986 0.015538642
-0.040063255 0.011436027 0.0015442757 -0.45450768 -0.86732656 -0.2028975 0.0051049576
-0.037483733 0.010371852 0.0012654619 -0.43831107 -0.87367666 -0.21112177 0.001720213
-0.035010289 0.009436368 0.0009439867 -0.40878484 -0.8917467 -0.19412042 0.0018583821
-0.045585115 0.014462103 0.0019056896 -0.52622479 -0.81766307 -0.23348351 0.0040296311
-0.043474764 0.013520968 0.0013773605 -0.51871449 -0.81961083 -0.24325576 0.0046129511
-0.040955532 0.012477428 0.00096016965 -0.46540537 -0.84864897 -0.25138178 0.0028555181
-0.049173247 0.0171888 0.0017436958 -0.57902288 -0.78044975 -0.2358615 0.0030492116
-0.046731636 0.01590215 0.0012384061 -0.55666423 -0.79168051 -0.25172782 0.0035352909
-0.044718169 0.015097514 0.00071616634 -0.54564446 -0.80289495 -0.24006636 0.0053243968
-0.054301873 0.020606259 0.0024601801 -0.60509253 -0.7458421 -0.27853656 0.0039549796
-0.052308708 0.019712644 0.001642885 -0.58222353 -0.76374942 -0.27875179 0.0036575494
-0.050241228 0.018652678 0.0010712517 -0.57825816 -0.77044213 -0.26839611 0.002491964
-0.057481635 0.023630539 0.0022342189 -0.65445018 -0.7201919 -0.2302576 0.0024291219
-0.055600267 0.022442965 0.0015940038 -0.62912148 -0.7328428 -0.25912833 0.0041140919
-0.053620338 0.02141775 0.00095066341 -0.5895561 -0.76038367 -0.27247056 0.0042575095
-0.060413528 0.026517136 0.002220162 -0.72272742 -0.66588438 -0.18510273 0.00081501278
-0.058756117 0.025264919 0.0015952758 -0.67440259 -0.70728421 -0.21196723 0.0017293257
-0.056842327 0.024102537 0.00052509428 -0.61461091 -0.75988591 -0.21172357 0.0027485511
-0.063199103 0.02973531 0.0023899022 -0.76990581 -0.62775034 -0.11478055 0.00070121029
-0.061647605 0.028258091 0.0016153045 -0.73860514 -0.65891099 -0.14247391 0.0011795011
-0.064402789 0.031452436 0.0016399805 -0.79549402 -0.60165083 -0.072150424 0.0014635391
-0.062934242 0.030002473 0.00098629599 -0.75775647 -0.64029282 -0.12581865 0.00085112959
-0.00085345458 0.032963142 0.0027282084 0.10932947 0.99175286 0.066883512 0.0028004157
0.0023432549 0.032885805 0.0018382424 0.048906691 0.99024582 0.130466 0.00076736743
0.0047745546 0.032881655 0.0015588832 -0.016055059 0.99627739 0.084696971 0.0025193885
0.007715201 0.032878991 0.0017240798 -0.030213375 0.99567306 0.087876804 0.0038447219
0.010551557 0.032865655 0.0028661245 -0.098287053 0.9691081 0.22620621 0.0010183115
0.012278242 0.032976285 0.0029321185 -0.087502517 0.97470379 0.20565984 0.0065278052
-0.066874348 0.034760967 0.0015208003 -0.82418865 -0.5663141 0.0011713922 0.0012062845
-0.065797277 0.033326339 0.0015891573 -0.80961752 -0.58616477 -0.030500451 0.00067334453
-0.0066216551 0.034056712 0.0012618202 0.1678955 0.98026013 -0.10440873 0.0018784204
-0.005040078 0.033845462 0.00038141222 0.15644474 0.98525012 -0.069334753 0.0017670032
-0.00066086877 0.033213697 0.0010495825 0.04973818 0.99785906 0.042467657 0.0032010691
0.0028592278 0.033018183 0.00040417479 0.040941719 0.99776304 0.052847348 0.0040475386
0.005266482 0.033023015 0.00010183261 -0.0020040898 0.99994272 -0.010521787 0.0011768857
0.0082419552 0.033032008 0.00051572552 -0.024948018 0.99776655 0.061964296 0.0047782864
0.010220553 0.033140033 0.00086463662 -0.072014362 0.99410921 0.080999263 0.0052006063
0.013406769 0.033417378 0.0014095107 -0.1356862 0.98364139 0.11848583 0.0040952382
0.016564758 0.033972695 0.001248467 -0.18804312 0.9735536 0.12974282 0.0045566647
0.020227887 0.034842458 0.0015391326 -0.25841087 0.96592027 0.01489854 0.0030348606
0.023350466 0.035762995 0.00082197989 -0.27074632 0.96249557 0.017284237 0.002330642
0.024742454 0.035922386 0.0028674456 -0.26743767 0.93883741 0.21693638 0.0066405293
-0.069401771 0.038555216 0.0012103856 -0.86451089 -0.49657208 0.07769873 0.0039225263
-0.068411157 0.037024181 0.001458948 -0.84018457 -0.54162085 0.02714438 0.001111094
-0.016338486 0.036292892 0.0013535171 0.26760396 0.95246637 -0.14558843 0.001411899
0.025785469 0.036473781 0.0010266004 -0.2946305 0.95557266 -0.0085901814 0.002863046
0.028021302 0.037178271 0.0010668919 -0.30287659 0.95299864 -0.0077051544 0.0015295164
0.031665586 0.038436115 0.0012532976 -0.38197339 0.92416143 0.0046887193 0.0022853888
0.033143014 0.038926899 0.0024005249 -0.39901677 0.90838039 0.12502293 0.0048472323
-0.070370808 0.040388297 0.0016309625 -0.90037268 -0.42575452 0.089789614 0.0035395853
0.032917056 0.039026603 0.00098923082 -0.39631882 0.91442865 -0.08216878 0.0018217392
0.034663174 0.0398545 0.00094045344 -0.43917161 0.89826089 -0.015986759 0.0018848799
0.037301306 0.041162446 0.0011761436 -0.48017392 0.87716919 -0.0026854167 0.0019661856
-0.072149046 0.044535354 0.0012593194 -0.93556499 -0.33622885 0.10802004 0.0047199526
-0.071561426 0.043056849 0.0014729892 -0.92333162 -0.37243611 0.093542211 0.0054073506
0.038770914 0.042054471 0.00090058736 -0.51335412 0.85799932 0.017455461 0.0017216136
0.040590901 0.043097187 0.0014824867 -0.52337265 0.85105884 0.042188995 0.0012774412
0.042738546 0.044416104 0.0019617563 -0.53510511 0.84338737 0.048582081 0.00103722
-0.072802678 0.046499878 0.0013404051 -0.92923856 -0.29869193 0.21748275 0.0064507574
0.044064358 0.045375288 0.001320423 -0.54730409 0.83692527 -0.0038006061 0.0024849712
0.046445545 0.046955217 0.0014035664 -0.56100577 0.8278085 0.0023682825 0.0023847679
0.04848269 0.047979373 0.0029174271 -0.52312279 0.80274332 0.28626174 0.0037856363
-0.073890671 0.049474843 0.0013553221 -0.9027946 -0.38926455 0.18285239 0.0075125047
0.049531866 0.049052704 0.0012582258 -0.55050856 0.83476114 -0.010687411 0.0024380523
0.051740933 0.050509825 0.0014218442 -0.56552809 0.82444048 -0.021814495 0.0022934808
-0.075527102 0.052795 0.00094407389 -0.9516592 -0.26891252 0.14842774 0.012767758
-0.074745104 0.051711347 0.0018186222 -0.91457123 -0.35443732 0.19476566 0.011923307
0.052936256 0.051388953 0.00090818788 -0.55324149 0.83244687 -0.030921184 0.0030940368
0.055459101 0.052993219 0.0011749616 -0.55998749 0.8277899 -0.034320805 0.0022734904
0.057372656 0.053902246 0.0024584592 -0.59479415 0.77452695 0.21523948 0.00954693
-0.075961553 0.055510797 0.0013078706 -0.98224658 0.096060522 0.16113374 0.027431767
0.058767427 0.055341601 0.0009858876 -0.59696329 0.79900676 -0.072270595 0.005159195
0.060580533 0.056500956 0.0015462027 -0.65546972 0.72938287 0.19585717 0.011761815
-0.075445853 0.057350434 0.00062864291 -0.96216106 0.25701967 0.090482093 0.027337868
-0.073563613 0.058379896 0.0013671621 -0.58720511 0.80008376 0.12270384 0.014994198
-0.071149208 0.059581779 0.0014652553 -0.45156011 0.89157397 0.034488007 0.0008330869
0.062067673 0.058245402 0.00096956099 -0.75431287 0.65206182 -0.076338209 0.015988847
0.06341552 0.059538409 0.0017600182 -0.80201262 0.59295285 -0.071991049 0.016269172
-0.069817975 0.060235899 0.0010613631 -0.29175404 0.93938965 -0.18007405 0.013040557
-0.068513848 0.060786314 0.00092141156 -0.35631177 0.93397558 -0.027047517 0.00448906
0.064190559 0.061458707 0.0010637664 -0.88903087 0.45676982 -0.031392202 0.017583439
0.065115489 0.064272977 0.00090613664 -0.96600145 0.25053659 -0.063816793 0.016027527
0.066175595 0.065386437 0.0021529426 -0.97060567 0.23514517 0.051296957 0.019472966
0.065676026 0.066947587 0.0006028653 -0.96613383 0.21527177 -0.14227957 0.012212679
0.06633582 0.068403244 0.00102317 -0.96412498 0.21630499 -0.15386739 0.012029023
0.066659324 0.07066723 0.00070079835 -0.95471621 0.24120693 -0.17417295 0.021250643
0.067177892 0.073633946 0.00070287613 -0.97029448 0.24132733 -0.017023178 0.030095885
0.069008678 0.074953578 0.0027961847 -0.91417748 0.37622213 0.15078633 0.038100392
0.067730151 0.076145411 0.00094184489 -0.9387992 0.3157101 -0.13777949 0.046393778
0.06915924 0.076835833 0.0023188191 -0.94999653 0.30130726 0.08197888 0.055121925
-0.016387748 0.0026247855 0.0034860976 -0.23384665 -0.95304149 0.19242589 0.0084028859
-0.01338251 0.0021422927 0.0038242014 -0.17064546 -0.95357162 0.24815582 0.0035951559
-0.01004934 0.0015348309 0.0035028921 -0.14934599 -0.952663 0.2648187 0.0028557503
-0.0075721247 0.0013075748 0.0036762885 -0.13750161 -0.97561568 0.17107736 0.005089303
-0.0052371691 0.0011231744 0.0038204577 -0.096971475 -0.9822312 0.16068128 0.0034878964
-0.0021939275 0.00082419591 0.0034024611 -0.072939597 -0.99499106 0.068356603 0.00048285289
0.00011786307 0.00076557382 0.0033962955 -0.04603957 -0.99741966 0.05508557 0.00060015672
-0.027609281 0.0058507528 0.0031857914 -0.34592894 -0.92293906 0.16886882 0.017512601
-0.025193561 0.0053746034 0.0040124562 -0.29596442 -0.94322026 0.15079984 0.012296715
-0.022434147 0.004627035 0.0043324833 -0.28271925 -0.93104237 0.23071623 0.0034237891
-0.019518247 0.003710476 0.0042551304 -0.29089361 -0.9185226 0.26776323 0.0039792638
-0.016848762 0.0034889106 0.0053635072 -0.20936905 -0.92939794 0.30394742 0.0037546824
-0.014974029 0.0030000634 0.0052397987 -0.17508063 -0.94574809 0.27369213 0.0038077994
-0.034174189 0.0085400157 0.0038675547 -0.37576234 -0.91888934 0.12018767 0.0077816858
-0.031366013 0.0076833279 0.0043974444 -0.35829347 -0.89735496 0.25764295 0.006080112
-0.028503902 0.0066232756 0.0043911198 -0.34401941 -0.90675259 0.24382457 0.007998921
-0.026352432 0.0061775493 0.005139743 -0.32947281 -0.92533439 0.18762705 0.014215502
-0.040215556 0.011423483 0.004132668 -0.43390074 -0.88536859 0.16689125 0.017832255
-0.03750832 0.010168301 0.0042231185 -0.43906632 -0.87272209 0.21348771 0.0054030525
-0.035065081 0.0093652904 0.0051052324 -0.36756945 -0.90622389 0.20892817 0.010710343
-0.045817494 0.014564713 0.0039043245 -0.53345859 -0.83646083 0.1255201 0.023896923
-0.043527346 0.013328665 0.0044118902 -0.52106911 -0.81434464 0.25559717 0.0068858718
-0.041266683 0.012358611 0.0052418197 -0.44011393 -0.85315531 0.28004599 0.0039016565
-0.049406793 0.01706551 0.0042200233 -0.54635412 -0.83215749 0.094927117 0.014884026
-0.047023509 0.015615609 0.0046097743 -0.55421138 -0.810314 0.19037063 0.012990924
-0.054464884 0.020612655 0.0037393707 -0.5917933 -0.80288297 0.071831077 0.023102868
-0.053242791 0.019739399 0.0034945011 -0.60359484 -0.78799778 -0.12137879 0.005305456
-0.050662342 0.018445285 0.0053457343 -0.54945731 -0.82145613 0.15266457 0.017356664
-0.057673614 0.023457611 0.0037007208 -0.64783186 -0.72421741 -0.23626915 0.007744024
-0.056057472 0.022065803 0.0037963518 -0.64983338 -0.7429741 -0.16033116 0.0053211967
-0.06060138 0.026365802 0.0037488143 -0.73209584 -0.67355806 -0.10176095 0.0045273253
-0.059131131 0.024890291 0.0040925005 -0.70289356 -0.71065867 -0.030081771 0.0066589415
-0.063333981 0.029612074 0.0038345202 -0.79367167 -0.60605127 0.052792389 0.006640689
-0.062249068 0.028403064 0.0038700104 -0.78178477 -0.6207521 0.058987226 0.0062092287
-0.064639814 0.031561229 0.0038508016 -0.81289977 -0.57648104 0.082847685 0.0047622435
-0.00060604716 0.03276471 0.0035322546 0.089111052 0.99185282 0.091034204 0.0019623698
0.0026591623 0.032502841 0.0036110643 0.054572951 0.98733133 0.14899208 0.00045397232
0.0048926021 0.032518603 0.0034862619 0.0038582936 0.98781615 0.15557751 0.00059882365
0.0082107736 0.032355368 0.003968691 -0.044868853 0.95701569 0.28654468 0.0036602109
0.010477445 0.032370143 0.0043522581 -0.094247974 0.94146198 0.32367688 0.0019845718
0.013408147 0.032510277 0.0047683148 -0.12670229 0.93524867 0.33053979 0.0015773613
0.016808018 0.032828942 0.0053935461 -0.18421386 0.92899281 0.32099485 0.0019113636
-0.066763692 0.034819532 0.0038755545 -0.82999486 -0.53482014 0.15835418 0.005265486
-0.065734439 0.033340633 0.004009644 -0.82287258 -0.55158818 0.13649626 0.0054307836
0.014287627 0.033248838 0.0032021664 -0.1295158 0.94124269 0.31191003 0.001889837
0.016716531 0.033485331 0.0037755624 -0.17522866 0.93383807 0.31183565 0.0016972694
0.019548237 0.033955295 0.0043272441 -0.23917726 0.92060232 0.30868378 0.0013236795
0.022537464 0.034739185 0.0044200765 -0.27022025 0.909522 0.31583351 0.0012451746
0.025548762 0.035420917 0.0048732464 -0.26819122 0.9028002 0.3361924 0.0016666559
0.027974866 0.035790108 0.0058393981 -0.29319519 0.86348331 0.41040611 0.00083858834
-0.069136068 0.038793616 0.0034911023 -0.85932702 -0.41563749 0.29799744 0.0083913477
-0.068051711 0.037330225 0.0043593934 -0.82712257 -0.47384039 0.30223089 0.0054156352
0.02623645 0.036220629 0.0033320633 -0.27714795 0.91487586 0.29358336 0.0017041127
0.028641315 0.036588117 0.0044529918 -0.29544628 0.90228939 0.31398311 0.0021301035
0.031496048 0.037651803 0.0043307818 -0.34957111 0.88329792 0.31238577 0.0021003401
0.034142472 0.038553711 0.0049480582 -0.39368749 0.85552585 0.33628234 0.0026153072
-0.069707505 0.040621527 0.0041237068 -0.85364741 -0.37419981 0.362299 0.0048369858
-0.068694592 0.039558604 0.0053038751 -0.84089112 -0.38420087 0.38117164 0.0043755146
0.03508278 0.039449874 0.0037834982 -0.40815362 0.85800207 0.31183821 0.0020612266
0.037601758 0.040482979 0.0044567818 -0.45046026 0.82872874 0.33210596 0.0030359728
0.039673273 0.041508526 0.0049655205 -0.48926291 0.80709529 0.33048296 0.0031567218
-0.070652291 0.043492712 0.0043461337 -0.86032563 -0.31281611 0.40247458 0.0024207847
0.04110086 0.042628381 0.004337695 -0.48261425 0.80869329 0.33630154 0.0030009258
0.043438386 0.044017211 0.0045878123 -0.50323617 0.80279297 0.31980762 0.0025204835
-0.072217032 0.046992745 0.0033986107 -0.89310807 -0.30849931 0.32739288 0.0039981292
-0.071459055 0.046321385 0.0043764831 -0.88428205 -0.30925623 0.34986547 0.0025118371
0.044893194 0.045382582 0.0035387296 -0.52447057 0.78196454 0.33684149 0.0020777283
0.046561997 0.046136752 0.0043359897 -0.51380843 0.78223473 0.35229218 0.0025810434
0.04894352 0.047481719 0.0047522602 -0.50965178 0.78405792 0.3542715 0.0021349574
-0.072815932 0.049372017 0.0036338386 -0.87471312 -0.33660552 0.34867412 0.0033151519
-0.071966588 0.048226506 0.0044918437 -0.84108895 -0.28607103 0.45905635 0.001828004
0.050145809 0.048662193 0.0039110482 -0.49920389 0.78588951 0.36492896 0.0017197002
0.052293036 0.049718242 0.0045200633 -0.51009023 0.7915954 0.3364293 0.0016757147
0.054455221 0.05053544 0.0054661212 -0.49594608 0.77273911 0.39612094 0.003025444
-0.074279621 0.053080693 0.0034325435 -0.89626491 -0.13349068 0.42295325 0.024658306
0.053746555 0.051208533 0.0034208298 -0.48388368 0.78376061 0.38932747 0.0033167463
0.055565361 0.052072689 0.0039805244 -0.48923177 0.77478701 0.40044653 0.0032289426
0.0581614 0.053112861 0.0048623844 -0.47066164 0.76398265 0.44137082 0.0044941492
-0.075016223 0.05664786 0.003147556 -0.98469657 -0.056054227 0.16501719 0.030061286
-0.074858248 0.055126075 0.0033462816 -0.92857516 0.047055341 0.36814952 0.032632176
0.059074517 0.054527566 0.0036098314 -0.5097791 0.72958636 0.4558827 0.0043719704
0.06123168 0.055573896 0.0041962913 -0.52287525 0.68898237 0.50190121 0.0068812929
-0.073497713 0.058032062 0.0035009815 -0.5988692 0.67655098 0.42852581 0.039088991
-0.071439922 0.059319489 0.0034911546 -0.51536673 0.84797072 0.12386619 0.013579007
0.062922001 0.057044227 0.0040188371 -0.58627021 0.57706261 0.56858242 0.010812148
0.064368658 0.058721334 0.0037514765 -0.66060519 0.51914006 0.54230475 0.0059363884
-0.069721818 0.060101721 0.0030953393 -0.42775771 0.90370274 0.018567204 0.002391163
0.06529244 0.061060723 0.0031548203 -0.83703214 0.44487762 0.31852964 0.019900814
0.066502012 0.062455125 0.0033530439 -0.91120785 0.31315026 0.26765129 0.020237716
0.069821626 0.074395552 0.0034290757 -0.93289387 0.32644793 0.15212102 0.04179721
0.069267005 0.075597882 0.0031713194 -0.93615222 0.32805222 0.12649454 0.049057029
-0.010920141 0.0027111715 0.0061190883 -0.16761132 -0.94191396 0.29104054 0.0024520778
-0.0083680414 0.0025105698 0.0063624266 -0.12468416 -0.9539277 0.27290261 0.0027850079
-0.02207344 0.0056650098 0.0069246725 -0.25731757 -0.8488335 0.46181107 0.0011438647
-0.019428711 0.0047323829 0.0067073042 -0.2487316 -0.8701942 0.42531723 0.0024236669
-0.016559679 0.0041431999 0.0069629122 -0.22452095 -0.90203595 0.36867532 0.00089971052
-0.012890404 0.0034155543 0.0069425097 -0.15815574 -0.933667 0.32132965 0.0022735856
-0.030920718 0.0084299231 0.0066221296 -0.30972138 -0.84315282 0.43950659 0.0011246064
-0.028587705 0.0077417358 0.006925392 -0.29059759 -0.84941977 0.44049877 0.0012903204
-0.025854528 0.0067851641 0.0068677031 -0.28284478 -0.84981281 0.44476622 0.0012714829
-0.023433033 0.0070633395 0.0085183894 -0.26664686 -0.84215635 0.46869195 0.0010526249
-0.039126191 0.011886546 0.0065156668 -0.39290333 -0.80879092 0.43758914 0.0017888251
-0.037290622 0.011188789 0.006911593 -0.37798768 -0.81789488 0.43378949 0.001600104
-0.034740392 0.0099518094 0.0067968937 -0.3485882 -0.84510219 0.40532523 0.00063684734
-0.031828776 0.0094740186 0.0078723896 -0.31728643 -0.83667928 0.44642711 0.0011352446
-0.043087371 0.014305942 0.007079266 -0.46313828 -0.76563072 0.4464443 0.0013418014
-0.04070501 0.012935505 0.0071425159 -0.43877 -0.78327817 0.44040465 0.0014426671
-0.038768522 0.012119715 0.0074337437 -0.39454764 -0.80815732 0.43728015 0.0017299895
-0.048501652 0.017591616 0.0067969458 -0.50953805 -0.73841596 0.44171587 0.0014622266
-0.046389922 0.016421625 0.0071531339 -0.48199144 -0.75590891 0.44304177 0.0015311431
-0.044197753 0.015442252 0.0078549972 -0.47322702 -0.76261634 0.44099039 0.0013306842
-0.051911753 0.020230809 0.0070053129 -0.54804283 -0.7132104 0.43701252 0.0013127734
-0.049925067 0.019029813 0.0074541601 -0.5303117 -0.72110558 0.44584328 0.0017285807
-0.047716033 0.018195415 0.0086047696 -0.49773353 -0.70761359 0.50154197 0.0012068743
-0.055306785 0.022950543 0.0071234037 -0.575674 -0.68927795 0.43988115 0.0017750917
-0.053233318 0.021709511 0.0078095943 -0.56473172 -0.69212729 0.4494862 0.0018616406
-0.058361247 0.025712674 0.0070345872 -0.63342154 -0.62511247 0.45608297 0.0018886938
-0.056658752 0.024786273 0.0080505367 -0.61822063 -0.62281758 0.47948059 0.0022562712
-0.06106849 0.028798457 0.0071139438 -0.68648213 -0.54789436 0.47807339 0.0022620996
-0.05936886 0.027711773 0.0081876041 -0.65430766 -0.55862105 0.50972944 0.0019602361
-0.063527584 0.03193602 0.0069175577 -0.76809049 -0.51177979 0.3848615 0.0049363379
-0.062408864 0.030967195 0.0075637205 -0.70226562 -0.50408143 0.50271761 0.0027639768
0.0085077118 0.031099251 0.0068787839 -0.064027108 0.93312681 0.35380065 0.0015327138
0.011070186 0.031269383 0.0069722114 -0.10643578 0.92495012 0.36488181 0.0005843477
0.013664716 0.031802006 0.0064524906 -0.14018576 0.91799933 0.37097871 0.00046758185
0.016269885 0.032234699 0.0065468913 -0.17550583 0.88245946 0.43642071 0.0016525974
0.018839259 0.032638445 0.0069114948 -0.21860623 0.86113459 0.45897558 0.0016253358
0.022594415 0.032592487 0.0084565002 -0.23319441 0.8465938 0.47843432 0.0011452363
-0.066273361 0.035822708 0.0063881651 -0.74405348 -0.41300377 0.52517837 0.0027436586
-0.064916119 0.034615099 0.0072920825 -0.79512852 -0.42974013 0.42789489 0.0045147333
-0.062916495 0.033367623 0.0088763097 -0.67771798 -0.40151009 0.61602598 0.00060801196
0.019471962 0.03314922 0.0061352206 -0.21860927 0.86113566 0.45897207 0.0016275079
0.022449201 0.033688802 0.0067832307 -0.23320806 0.84657955 0.47845286 0.0011577812
0.025482249 0.03447542 0.0068930313 -0.26707652 0.85964984 0.43551394 0.0022757899
0.028446589 0.035114296 0.0074354582 -0.29762179 0.84011811 0.45345655 0.0011128176
0.03111895 0.035176128 0.0087538222 -0.31680781 0.83115661 0.45695904 0.00076280249
0.03317228 0.035763726 0.0089861741 -0.32827884 0.82752383 0.45545289 0.0010253801
-0.066865161 0.037776284 0.0068827211 -0.74867803 -0.36797541 0.55143034 0.0033687036
-0.065626681 0.036624268 0.0077497307 -0.76770467 -0.39010248 0.50837946 0.001344682
0.031646449 0.036727536 0.0066256654 -0.30473328 0.85461152 0.42044848 0.0019822645
0.03443123 0.037313227 0.0075906091 -0.36512166 0.81446284 0.45092854 0.0014588181
0.036870033 0.03838098 0.0077190725 -0.41637093 0.74948186 0.51469618 0.0050972044
0.039060567 0.038827397 0.0088157253 -0.41208687 0.71526819 0.56442529 0.0029788886
-0.067757212 0.040459782 0.0070901718 -0.79975528 -0.3566179 0.48292357 0.0025036535
0.037808709 0.039501682 0.0067901746 -0.41989872 0.78117418 0.46200874 0.0020589486
0.040408988 0.040648982 0.0073243715 -0.44413155 0.76470095 0.46688297 0.0016657297
0.04271229 0.041380677 0.0082669659 -0.44904754 0.72282159 0.52524775 0.0029004393
-0.069347993 0.042946629 0.0061632241 -0.78381073 -0.27534121 0.55662191 0.0026324906
-0.068620332 0.042392414 0.0068365051 -0.78240335 -0.27694568 0.55780482 0.0028559142
0.043671023 0.04292481 0.0068799467 -0.44842452 0.74949819 0.48699898 0.0019997843
