# .PCD v0.7 - Point Cloud Data file format
VERSION 0.7
FIELDS x y z normal_x normal_y normal_z curvature
SIZE 4 4 4 4 4 4 4
TYPE F F F F F F F
COUNT 1 1 1 1 1 1 1
WIDTH 549
HEIGHT 1
VIEWPOINT 0 0 0 1 0 0 0
POINTS 549
DATA ascii
-0.0013555588 0.055529114 -0.013118918 -0.60845852 -0.17020684 -0.77511799 0.0039515938
0.00054787484 0.055248156 -0.014596187 -0.61965734 -0.18834175 -0.76193976 0.0033480076
0.044588454 0.054122984 -0.014447967 0.71321666 -0.64844954 -0.26614881 0.0031042402
0.04590331 0.055428132 -0.013335054 0.73951262 -0.63092136 -0.23464751 0.0019331664
-0.0013678701 0.058444213 -0.013264172 -0.66474235 0.078931496 -0.74289125 0.0039102351
0.00031914486 0.058660552 -0.014740238 -0.66417801 0.041181196 -0.74643928 0.0031878478
0.047274508 0.057822015 -0.014327961 0.75826049 -0.54609311 -0.35612273 0.0017781123
-0.00095915515 0.061305311 -0.012934568 -0.67069501 0.29749084 -0.67946118 0.00315255
0.00066991017 0.061774939 -0.014336376 -0.66859442 0.2668106 -0.69411367 0.0032779286
-0.00028244004 0.063512802 -0.01235328 -0.64059216 0.47401702 -0.60411048 0.001591553
0.0014400291 0.064345412 -0.013538856 -0.63490856 0.44308364 -0.63290441 0.0021250343
0.0033947036 0.065485664 -0.014537339 -0.60370088 0.53639871 -0.58976412 0.0013319238
0.0024758456 0.066508718 -0.012522583 -0.59508222 0.57034808 -0.56619817 0.00069597142
0.0044045895 0.067352384 -0.013588361 -0.56810564 0.60826612 -0.55431795 0.00046693996
0.0065263533 0.068506733 -0.014389934 -0.53889239 0.64419681 -0.54277575 0.00015268917
0.0056315106 0.069371589 -0.012499399 -0.54277837 0.64090759 -0.54279739 0.00018102015
0.0075944494 0.070099585 -0.013512725 -0.52106696 0.66124105 -0.53967547 0.00016102787
0.009711762 0.071240656 -0.014060847 -0.49694654 0.68654281 -0.53075701 0.00019085401
0.010866648 0.072663344 -0.013260304 -0.47921005 0.70609671 -0.52133006 0.00016755311
0.013298047 0.073867463 -0.013735388 -0.45223588 0.72866994 -0.51431775 0.0001036816
0.015552403 0.074586779 -0.014558113 -0.43498489 0.74022484 -0.51269424 8.1356215e-05
0.014463423 0.075262442 -0.012768853 -0.43896955 0.74468976 -0.50273544 0.00023963067
0.016546944 0.07603287 -0.013390407 -0.42118472 0.75801331 -0.49801531 0.00021968965
0.019308276 0.077192225 -0.013894148 -0.39318568 0.78072816 -0.48566297 0.00043466093
0.021578841 0.077866666 -0.01457946 -0.3742502 0.78735918 -0.48990023 0.00050828833
0.020099837 0.07838089 -0.012571921 -0.37399504 0.81648928 -0.43985566 0.0013536105
0.02254482 0.07908684 -0.013258017 -0.35308164 0.81868476 -0.45286715 0.00089893193
0.025350045 0.079960637 -0.013589554 -0.26509345 0.87737107 -0.39993176 0.0016623639
0.02822778 0.08047159 -0.013902956 -0.16938736 0.89914048 -0.40355209 0.002066453
0.030728631 0.080585539 -0.01402752 -0.061695304 0.91084659 -0.40810797 0.0021281845
0.034449864 0.080219619 -0.014113611 0.078619547 0.91703582 -0.39097852 0.0010758709
0.028829513 0.08111912 -0.012340546 -0.12263736 0.93396819 -0.33565396 0.0030433657
0.031064117 0.081027552 -0.01268365 -0.04495405 0.92307019 -0.38199544 0.0027162386
0.026792306 -0.081025518 -0.0090596024 -0.09122327 -0.99572939 0.014190846 0.0034879099
0.028291091 -0.081114568 -0.0099542597 -0.078143671 -0.98973268 -0.1196779 0.0044956519
0.031033291 -0.08110211 -0.0098922951 0.057697747 -0.99581301 -0.070905164 0.0057633729
0.017574538 -0.078135885 -0.0096452013 -0.36811829 -0.85616422 -0.36259037 0.0026985698
0.019769965 -0.078626029 -0.010495234 -0.33562464 -0.88095391 -0.33358109 0.0022475962
0.022295915 -0.079419397 -0.01082623 -0.30925959 -0.90321082 -0.29760507 0.0025960794
0.025304187 -0.080415338 -0.010630705 -0.24853046 -0.93748969 -0.24360959 0.0027885244
0.02825903 -0.08086995 -0.011254276 -0.10205099 -0.97224987 -0.21051332 0.0036041159
0.031233909 -0.08079616 -0.0115882 -0.0084991436 -0.97192699 -0.23512898 0.00380608
0.033606339 -0.080563918 -0.011173983 0.11654497 -0.97389543 -0.19479471 0.0032247701
0.037044078 -0.079695672 -0.010563265 0.3164638 -0.94375831 -0.095764995 0.0019979593
0.039616294 -0.078600064 -0.011047477 0.37132722 -0.91955316 -0.12860107 0.002955378
0.011537874 -0.075289413 -0.0094214836 -0.43004751 -0.77324504 -0.46599489 0.00091099675
0.013625305 -0.075847708 -0.010374683 -0.42595953 -0.77756518 -0.46254829 0.00080768374
0.016297536 -0.077075124 -0.010629834 -0.39564049 -0.81923586 -0.41511601 0.001376736
0.018558687 -0.077724546 -0.011503738 -0.37372988 -0.83907259 -0.39532676 0.0022457689
0.041048612 -0.077824444 -0.011121359 0.43245527 -0.89412677 -0.11627477 0.0031271949
0.0079512047 -0.072637431 -0.0098559074 -0.48803326 -0.70360571 -0.51649052 0.000170828
0.010361243 -0.073686048 -0.010624919 -0.46554011 -0.72787619 -0.50345665 0.00025757935
0.01260795 -0.074489385 -0.011516643 -0.44437489 -0.74054193 -0.50411159 0.00025071463
0.0027181827 -0.069214188 -0.0091471765 -0.5630908 -0.6300987 -0.53470027 0.00013731868
0.0048149135 -0.069985799 -0.01023528 -0.53524417 -0.65487629 -0.53352672 0.00020022645
0.0070901732 -0.071169823 -0.011000888 -0.50812823 -0.68198025 -0.52603108 0.00017027846
0.0090500396 -0.071943931 -0.011829513 -0.49296001 -0.69766492 -0.51985961 0.00019306596
-0.00021777549 -0.066240892 -0.0092789177 -0.59022433 -0.5872997 -0.55381787 0.00014812702
0.0017403092 -0.06723617 -0.010280131 -0.57858813 -0.607521 -0.54420036 0.00018103592
0.0037663609 -0.068283267 -0.011214407 -0.56035095 -0.62909532 -0.53874481 0.00010962372
-0.0032094931 -0.063164428 -0.0091675259 -0.60985875 -0.52122378 -0.59699082 0.00087814522
-0.0011879114 -0.064270586 -0.010255497 -0.62408215 -0.51801175 -0.58496606 0.0012306181
0.00070316606 -0.065289043 -0.011293625 -0.60433841 -0.57187855 -0.55473417 0.00038760566
-0.0039161341 -0.061177298 -0.0097933561 -0.62353849 -0.3962557 -0.67392963 0.0034883544
-0.0021718703 -0.061850667 -0.011119024 -0.6494205 -0.35393751 -0.67303878 0.0026572549
-0.006358054 -0.057797287 -0.0091880569 -0.56640965 -0.23654065 -0.78944832 0.0058396291
-0.0044193189 -0.058511116 -0.010432226 -0.60441488 -0.22086032 -0.76544333 0.0054842061
-0.0027516885 -0.05912561 -0.011731843 -0.65289515 -0.16264932 -0.73977911 0.0037301127
-0.051734921 -0.05428176 -0.0094855512 -0.89432293 -0.3952347 -0.20970473 0.06532225
-0.05023443 -0.054350857 -0.0095092915 0.015382885 -0.79889977 -0.6012674 0.089652792
-0.039325118 -0.054772709 -0.0093226815 -0.20122117 -0.55740631 -0.80548632 0.015555817
-0.037674148 -0.054809693 -0.0095653422 -0.12249497 -0.55342126 -0.82384455 0.014921276
-0.034625147 -0.05458276 -0.0092905154 0.1108579 -0.52499145 -0.84385687 0.011060724
-0.032767031 -0.054404385 -0.0090902215 0.17526887 -0.48167631 -0.85864353 0.0095769931
-0.0066025662 -0.055449411 -0.0093067046 -0.46253455 -0.014177899 -0.88648784 0.005852289
-0.0044647306 -0.055558838 -0.010674028 -0.55361706 0.035591714 -0.83201045 0.0052781845
-0.0028478601 -0.054918375 -0.011810487 -0.60482901 0.10833929 -0.78895152 0.0045214156
-0.05231335 -0.052374259 -0.010571025 -0.89078969 -0.2971952 -0.34375688 0.084272154
-0.050320048 -0.052479785 -0.010859123 -0.43889263 -0.5265305 -0.72810644 0.089119107
-0.045399003 -0.051461607 -0.009106135 -0.17089589 -0.24282983 -0.95489705 0.023452483
-0.043311052 -0.052082159 -0.0094003975 -0.17507696 -0.2942026 -0.93957061 0.011376451
-0.040356159 -0.052479934 -0.0096066855 -0.19534543 -0.30152512 -0.93323243 0.014534254
-0.038085327 -0.052419696 -0.010413523 -0.097245164 -0.25684857 -0.96154678 0.011733889
-0.034499675 -0.052601829 -0.0099517666 0.16459996 -0.24616243 -0.95514965 0.0049107452
-0.031569343 -0.052284706 -0.009430591 0.18624069 -0.15267739 -0.9705689 0.0049532829
-0.02948153 -0.051840674 -0.0091039445 0.18154807 -0.14572868 -0.97252423 0.0037513629
-0.0064589186 -0.053173129 -0.0092159519 -0.37957886 0.1946025 -0.90446109 0.0073881047
-0.0044453079 -0.052579198 -0.010167354 -0.47182775 0.26911548 -0.83961618 0.0060968581
-0.0022176625 -0.052131008 -0.011440629 -0.55810386 0.30875251 -0.77018946 0.004468393
-0.052452169 -0.049531933 -0.010909207 -0.94090933 0.045710493 -0.33555943 0.063382454
-0.050323464 -0.049324688 -0.01128656 -0.02500871 0.042926591 -0.99876523 0.12915936
-0.045743518 -0.049400534 -0.009154357 -0.16650125 0.12273487 -0.97837287 0.023009429
-0.043394215 -0.049541682 -0.0096534053 -0.16550733 0.066873692 -0.98393863 0.017106006
-0.040533282 -0.049459953 -0.0099598225 -0.180841 0.12571774 -0.97544426 0.018308608
-0.038095608 -0.049623813 -0.010715746 -0.10024065 0.051941864 -0.99360651 0.017623495
-0.034501135 -0.04962308 -0.010295369 0.17173158 0.10915202 -0.97907823 0.0087816268
-0.031527229 -0.049485467 -0.0096035292 0.20609233 0.094292708 -0.97397894 0.0082221283
-0.029391292 -0.049610384 -0.0091371108 0.20135978 0.091104783 -0.9752714 0.0093256654
-0.0039854688 -0.050276197 -0.0094673606 -0.40413591 0.42971635 -0.80747628 0.0054874853
-0.0014849998 -0.049586702 -0.010446388 -0.40134636 0.5286628 -0.74795502 0.0034927698
0.0010490095 -0.048815493 -0.011338248 -0.38453528 0.6315884 -0.6732226 0.0031446985
0.0033522991 -0.048168477 -0.011872518 -0.35154131 0.70217633 -0.61916643 0.0024169495
0.040425032 -0.049050592 -0.011835834 0.43685505 0.80286878 -0.40565932 0.0025600065
-0.052261304 -0.047151253 -0.010117101 -0.85668206 0.34668645 -0.3819744 0.056389842
-0.050184816 -0.047009658 -0.010251337 -0.047949802 0.60376722 -0.79571724 0.10689001
-0.045111429 -0.047673672 -0.0090464419 -0.094220087 0.21048896 -0.97304523 0.016692039
-0.043175928 -0.047550298 -0.0092929816 -0.16784427 0.4053345 -0.89862794 0.010112291
-0.03996557 -0.046793304 -0.0094292378 -0.17529307 0.44708896 -0.87714523 0.014618592
-0.038050298 -0.046839021 -0.010163882 -0.070531756 0.42131492 -0.90416759 0.017856013
-0.034463268 -0.047055032 -0.0096868975 0.15776677 0.39510611 -0.90498662 0.0093108201
-0.032120705 -0.047235254 -0.0092079425 0.20911786 0.40937835 -0.88807607 0.0082390606
-0.00053277262 -0.047666378 -0.0093174363 -0.33677438 0.67116964 -0.66038954 0.0026328901
0.0016656219 -0.047319666 -0.010087258 -0.33520874 0.69258755 -0.63871562 0.0020532245
0.0043723546 -0.0467158 -0.010565311 -0.28084359 0.76060575 -0.5853253 0.001028785
0.0074100699 -0.04595387 -0.010712015 -0.20724824 0.80720347 -0.55269396 0.00019190462
0.010365078 -0.045606583 -0.01116032 -0.15630378 0.82545453 -0.54239643 0.00014717777
0.013239212 -0.045236219 -0.011320587 -0.11517807 0.84046811 -0.52947831 0.00014736697
0.016197504 -0.045219138 -0.011834071 -0.073617913 0.85154897 -0.51908076 0.00010688357
0.019375212 -0.045042366 -0.011906613 -0.034999769 0.86310172 -0.50381595 0.00016367904
0.022746745 -0.045034491 -0.01184401 0.00030481975 0.87544501 -0.48331761 0.00051659066
0.025735483 -0.045065898 -0.011915495 0.052256335 0.90288436 -0.42669553 0.0018164356
0.028721921 -0.045167897 -0.011591718 0.10653843 0.91940719 -0.37860265 0.0023919165
0.031689078 -0.045395847 -0.01083525 0.15310621 0.93363655 -0.32385373 0.0020842268
0.033905968 -0.045850124 -0.010752986 0.19097024 0.92454922 -0.32975614 0.0017128648
0.037146326 -0.04704649 -0.011274376 0.32863164 0.8898865 -0.31639105 0.0034862349
-0.039249983 -0.044953391 -0.0092729898 -0.20198224 0.6204592 -0.75778198 0.029324153
0.0084941667 -0.044880535 -0.0094694644 -0.18472604 0.81871873 -0.54366899 0.0002119743
0.010673073 -0.044642184 -0.0097600855 -0.14312232 0.83433968 -0.53234702 0.00016197041
0.013693983 -0.044385817 -0.010049908 -0.10142066 0.84767985 -0.52072328 0.00015257762
0.016606528 -0.044256166 -0.010280119 -0.060653549 0.85919988 -0.5080322 0.00015984394
0.019323455 -0.044319537 -0.01065087 -0.02424925 0.86640686 -0.49874955 0.00032626928
0.022024645 -0.044276193 -0.010632902 0.0037400494 0.8760919 -0.48212966 0.00081376306
0.024858722 -0.044408739 -0.010688123 0.0477238 0.89215982 -0.44919187 0.0013935135
0.028050683 -0.04462488 -0.01038414 0.12852204 0.92702043 -0.35229981 0.0020987135
0.030247593 -0.044855397 -0.0099296505 0.16271973 0.93403089 -0.31797576 0.0021931047
-0.039590046 0.044994835 -0.0090280687 -0.29166588 -0.61406463 -0.73338646 0.034950722
0.0089212824 0.044965498 -0.0090196002 -0.16185607 -0.82773805 -0.53726375 0.0001414633
0.010990905 0.044850484 -0.009334689 -0.14427558 -0.83519673 -0.53068918 0.00015002744
0.013657502 0.044657271 -0.0096287783 -0.099842004 -0.84734398 -0.52157426 0.00013548776
0.016560512 0.0445146 -0.009851235 -0.057347838 -0.86016673 -0.50677842 0.00024623869
0.019506283 0.04444671 -0.0099774729 -0.012675324 -0.87433475 -0.48515782 0.00059769145
0.022555403 0.044497643 -0.010056293 0.04424075 -0.89520061 -0.44346216 0.0014898229
0.025356144 0.044639267 -0.009897707 0.10205025 -0.91750973 -0.38439763 0.0021010565
0.027588557 0.04483892 -0.0096686753 0.15967172 -0.92847401 -0.3353222 0.0031415008
-0.052078795 0.047224596 -0.0099666081 -0.79300129 -0.47643921 -0.379677 0.06872014
-0.050130084 0.046975777 -0.0098545896 -0.080862701 -0.73826462 -0.66964662 0.078596778
-0.045078672 0.047946364 -0.0090867477 -0.14171983 -0.41147143 -0.90033698 0.041990262
-0.042984843 0.04773261 -0.0092046047 -0.16995038 -0.51127201 -0.84244752 0.016128378
-0.03984775 0.047022685 -0.0094156275 -0.16896853 -0.52911729 -0.83155549 0.012181544
-0.037850641 0.046793114 -0.0099479733 -0.054494388 -0.51240766 -0.8570115 0.017560838
-0.034671083 0.047152303 -0.0095693348 0.17976019 -0.50483757 -0.8442899 0.010110578
-0.032052916 0.047644123 -0.0091887396 0.23019736 -0.48144791 -0.84570515 0.0082691927
-0.00025571225 0.047820371 -0.0092021804 -0.34371188 -0.6929006 -0.6338383 0.001942808
0.0017534423 0.047516063 -0.0097639123 -0.30715314 -0.72824204 -0.61263412 0.0017835303
0.0045332601 0.047010779 -0.010359508 -0.25735322 -0.77990049 -0.57054758 0.00077625731
0.0074819992 0.046331659 -0.01052342 -0.19211946 -0.81589979 -0.54534173 0.00015644751
0.010422371 0.045836646 -0.010718045 -0.15177475 -0.82977581 -0.53706288 0.0001196519
0.013428826 0.045579169 -0.011057601 -0.11078577 -0.84078801 -0.52990752 9.6320146e-05
0.01646906 0.045429531 -0.01134102 -0.071897306 -0.85088348 -0.52041143 0.00011531403
0.019465823 0.045327872 -0.011487902 -0.032437436 -0.86374539 -0.50288337 0.00018541185
0.022462167 0.045299646 -0.011538278 0.0094879717 -0.88008773 -0.47471628 0.00058480987
0.025464613 0.045285203 -0.011353257 0.060986098 -0.90408909 -0.42296997 0.001483402
0.02850147 0.045440052 -0.010922198 0.13445969 -0.92678523 -0.35069877 0.0030490491
0.031494834 0.045857996 -0.010583745 0.16806954 -0.9337281 -0.31607649 0.0023029272
0.034445934 0.046552699 -0.01072815 0.21186748 -0.92754352 -0.30785555 0.0023650937
0.036965869 0.047387183 -0.010815351 0.33592242 -0.89945245 -0.27953777 0.0032578718
-0.052445907 0.049447518 -0.010857035 -0.93225992 -0.17008364 -0.31931636 0.082914755
-0.050347529 0.049302209 -0.011167064 -0.024363324 -0.30246344 -0.95284963 0.11229732
-0.045913167 0.049620099 -0.0091537964 -0.036822889 -0.17612852 -0.98367828 0.031791307
-0.043512288 0.04932715 -0.0095898118 -0.16532412 -0.21979965 -0.96143436 0.017870048
-0.040480841 0.049424823 -0.0099428771 -0.18658245 -0.18959993 -0.96397036 0.018789805
-0.038058259 0.049452562 -0.010704543 -0.051205799 -0.16980118 -0.98414719 0.016327776
-0.034355171 0.04943864 -0.010227038 0.18423122 -0.2060793 -0.96103597 0.009465456
-0.031451263 0.049497727 -0.0095527805 0.21385744 -0.1710749 -0.96176839 0.0088608311
-0.029242979 0.050135754 -0.0091616772 0.22835015 -0.17242736 -0.95818835 0.0099150306
-0.003782423 0.050407022 -0.0093875155 -0.38950872 -0.45974651 -0.79807025 0.00570089
-0.0013719472 0.049664397 -0.010197307 -0.3864384 -0.5663082 -0.72798377 0.0036795049
0.0012143217 0.048992023 -0.011116251 -0.36496523 -0.64527553 -0.67113322 0.0032480645
0.0036281087 0.04828139 -0.011696962 -0.29959714 -0.72828597 -0.6163125 0.0018011997
0.03866512 0.04831389 -0.011075166 0.50615674 -0.85074377 -0.14156431 0.0029056761
0.040449355 0.049456339 -0.010662754 0.57319903 -0.80807859 -0.13583784 0.0025432764
0.042198636 0.050787479 -0.0097570922 0.63573253 -0.76816833 -0.075904563 0.0034590759
-0.052449424 0.052286852 -0.010668415 -0.93441045 0.063229986 -0.35054135 0.054259773
-0.050447404 0.052278325 -0.011147078 -0.42298177 0.33195272 -0.84314525 0.079852022
-0.045519885 0.05170637 -0.0091356514 -0.072140068 0.085222147 -0.99374694 0.02138437
-0.04335957 0.05219109 -0.0094943475 -0.17094968 0.15256289 -0.97339642 0.0085513974
-0.040185343 0.052435029 -0.0097910566 -0.20448947 0.16631845 -0.96463585 0.01415595
-0.038151864 0.052364919 -0.010568406 -0.063370168 0.13032955 -0.98944348 0.013079316
-0.034511436 0.052413136 -0.010119239 0.15749803 0.17690541 -0.97154462 0.005249836
-0.031517625 0.052345552 -0.0095130047 0.18576071 0.12777521 -0.97425169 0.0040756934
-0.029328132 0.051946629 -0.0091392938 0.19366398 0.082193874 -0.97761881 0.0051894384
-0.0064233704 0.053271681 -0.0091974689 -0.37387049 -0.20528041 -0.90447819 0.0079214582
-0.0044148364 0.052539662 -0.010032685 -0.46415147 -0.30910632 -0.83007032 0.0062216003
-0.0020539023 0.052172292 -0.011370537 -0.52282661 -0.36718592 -0.76930279 0.0058569643
0.043256447 0.051946014 -0.010738049 0.64481795 -0.74514169 -0.17021668 0.0019837369
-0.052075528 0.05440617 -0.0096212514 -0.94055289 0.24049927 -0.23983434 0.044081282
-0.050146148 0.05436961 -0.0099334018 -0.013524438 0.58024776 -0.81432766 0.078942522
-0.039281216 0.0549253 -0.0094329845 -0.18249816 0.47178966 -0.86261749 0.016534232
-0.037881099 0.054842371 -0.0098451916 -0.073895983 0.48120627 -0.87348723 0.024609718
-0.034546129 0.054734096 -0.0094297333 0.10672177 0.47383919 -0.87412065 0.015391331
-0.032072462 0.05434693 -0.0091551207 0.17487149 0.30243576 -0.93699127 0.0035165187
-0.0066115367 0.055465627 -0.0093411058 -0.43664199 -0.034954689 -0.89895606 0.0062859715
-0.0044211312 0.055500004 -0.010704738 -0.53913695 -0.08180134 -0.83823615 0.0056652189
-0.0027029095 0.054818578 -0.011784399 -0.61334336 -0.12170592 -0.78038305 0.0044198846
-0.006423051 0.057897583 -0.0092553394 -0.54254812 0.17803441 -0.82094181 0.0062899333
-0.0044235247 0.0584496 -0.010589004 -0.59755933 0.15909204 -0.78588337 0.0055217962
-0.0028689541 0.05902322 -0.011751866 -0.65432787 0.12653485 -0.74554938 0.0053212666
-0.004024067 0.061083015 -0.010067358 -0.62409747 0.34831992 -0.69941086 0.0039899028
-0.002327712 0.061772261 -0.011351583 -0.65964764 0.31640407 -0.6817283 0.003110084
-0.0032778806 0.063263357 -0.009396214 -0.62124109 0.4726319 -0.62504286 0.0021123087
-0.0014066179 0.064256318 -0.010533549 -0.62805182 0.47711983 -0.6147418 0.001592881
0.00048770459 0.065338179 -0.011567354 -0.61477345 0.54051816 -0.57436365 0.0011358666
-0.00032956107 0.06645675 -0.0094441641 -0.60366869 0.57071048 -0.55666292 0.00024071921
0.0014042058 0.067295134 -0.010435129 -0.58732551 0.59351879 -0.5502584 0.00026320675
0.00340278 0.068365604 -0.011360909 -0.5680604 0.61685896 -0.54478669 0.00018960109
0.0027066448 0.069420733 -0.0094371755 -0.56238782 0.62803274 -0.53786141 0.00012489631
0.004557916 0.07012073 -0.010469886 -0.54207855 0.64725059 -0.53592676 0.00017122107
0.006813243 0.071297713 -0.01122753 -0.51523083 0.67429847 -0.52901673 0.00014297263
0.0058219838 0.072030663 -0.0093612354 -0.50979871 0.68239957 -0.52386647 0.00025461975
0.0077112634 0.072854444 -0.010043562 -0.4932279 0.69647419 -0.52120048 0.00013434012
0.010241468 0.073936448 -0.0108679 -0.46907613 0.72323263 -0.50685513 0.00014854714
0.012419718 0.074714445 -0.011758691 -0.4457747 0.74270773 -0.49967003 0.00018555185
0.011197562 0.075447343 -0.0096267946 -0.4477776 0.74717259 -0.49115005 0.00037118155
0.013658974 0.07624203 -0.010589123 -0.4341428 0.76204044 -0.4804315 0.00045888862
0.016083037 0.077476583 -0.010704041 -0.40671992 0.7926302 -0.45422056 0.00081776071
0.018065145 0.077891529 -0.011808082 -0.38873154 0.81282991 -0.43381485 0.0022699772
0.017283848 0.078290604 -0.0102035 -0.3854914 0.82401097 -0.41521367 0.00123862
0.019448366 0.078880467 -0.010916029 -0.35915467 0.84324223 -0.39993808 0.0015987174
0.022489633 0.08005023 -0.010730518 -0.31715345 0.89561856 -0.31189913 0.0017601205
0.024807557 0.080753259 -0.011029704 -0.26945916 0.91605395 -0.29704696 0.003298118
0.026020922 0.081209488 -0.010168666 -0.24256496 0.93654233 -0.25308251 0.0030651835
0.028186902 0.081367142 -0.011228754 -0.16376577 0.94582349 -0.28035453 0.0043080091
0.031665787 0.081355326 -0.011192287 -0.019630658 0.96952486 -0.24420531 0.0053873193
0.02690934 -0.081062667 -0.0086566284 -0.106567 -0.99414259 0.01800248 0.0033705619
0.029041797 -0.081190072 -0.008111909 -0.067221791 -0.99771583 -0.0066598072 0.0041872305
0.030965991 -0.081127502 -0.0081881108 0.0037885923 -0.99892533 -0.046192236 0.0043221139
0.014712824 -0.078054562 -0.0063162604 -0.35056272 -0.89502782 -0.27573702 0.0029126233
0.016609685 -0.07840243 -0.0073459353 -0.29681867 -0.92707056 -0.22899561 0.0028179535
0.019411543 -0.07921312 -0.0076568075 -0.27073747 -0.94783551 -0.16825332 0.0031354518
0.022328002 -0.079972096 -0.0078571821 -0.26083758 -0.95712644 -0.12598677 0.0033894659
0.025476592 -0.080679573 -0.0076816818 -0.17998205 -0.98364872 -0.0064545432 0.0024465451
0.027538477 -0.080853976 -0.0063290354 -0.11127273 -0.99120301 0.071658 0.0035634905
0.03242112 -0.080808006 -0.0068119708 0.098287508 -0.9924596 0.073236145 0.0031745858
0.034099407 -0.080498919 -0.0074666766 0.1827309 -0.98054504 0.071699724 0.0039997804
0.037087899 -0.079597667 -0.0082563916 0.29776233 -0.95332903 -0.050014183 0.0021298847
0.0085249338 -0.07530313 -0.006504301 -0.43297067 -0.78884554 -0.43618703 0.0021391402
0.010583252 -0.075885795 -0.0073947874 -0.40627301 -0.81811708 -0.40697259 0.0024372563
0.013374713 -0.077021472 -0.0077673555 -0.38530248 -0.85594654 -0.34481499 0.001584472
0.015549932 -0.077761367 -0.0083438046 -0.3659898 -0.8877902 -0.2790699 0.0026320596
0.0050284257 -0.072708957 -0.0069840867 -0.4990389 -0.70304722 -0.50664073 0.00069087767
0.0073320223 -0.073815405 -0.0076454724 -0.47048306 -0.7397328 -0.48108312 0.00073092658
0.009467043 -0.074645601 -0.0084744599 -0.45658743 -0.74750191 -0.48246115 0.00061033334
-0.00024591631 -0.069258451 -0.0060730837 -0.56341606 -0.61465669 -0.55205029 0.00013622374
0.0018386893 -0.070029296 -0.007138845 -0.54923141 -0.6390959 -0.53842491 0.00019560776
0.0040601566 -0.071158044 -0.0080343056 -0.52431411 -0.66954327 -0.52612412 0.00022039055
-0.0031888313 -0.066238232 -0.0061499346 -0.56633502 -0.57888103 -0.58665282 0.00052072678
-0.0011911856 -0.067175686 -0.007195909 -0.5740332 -0.59635359 -0.56111342 0.00018082015
0.0007821992 -0.068194039 -0.0081641572 -0.5741387 -0.61206681 -0.54381895 0.00014237128
-0.0061850701 -0.063232183 -0.0061788391 -0.5067181 -0.55990106 -0.65555131 0.0013119014
-0.0041867364 -0.06412106 -0.0071850121 -0.56174105 -0.54252404 -0.62459165 0.00094083732
-0.0022427773 -0.065161668 -0.008190047 -0.59343553 -0.56733656 -0.57093221 0.00038236566
-0.0096515082 -0.060453877 -0.0062937704 -0.32272634 -0.54896855 -0.77102613 0.0036115674
-0.0072356146 -0.061229002 -0.0070885955 -0.44234565 -0.48469993 -0.75458354 0.0048065283
-0.0050872746 -0.061860736 -0.0082663381 -0.58263981 -0.43991852 -0.6833759 0.0042499076
-0.04018975 -0.057187364 -0.0065152389 -0.27446383 -0.81184888 -0.51533586 0.018484794
-0.037456363 -0.057341915 -0.0066396003 -0.10469599 -0.83613449 -0.53844029 0.01199454
-0.034463931 -0.057449143 -0.0066819503 -0.0046552932 -0.79709363 -0.60383785 0.0064415936
-0.031540584 -0.057461601 -0.0066807023 0.011510053 -0.75398606 -0.65678942 0.006204464
-0.028596491 -0.057542223 -0.0064893668 0.022700384 -0.71773624 -0.69594496 0.0066666463
-0.025701115 -0.057443935 -0.0063863024 0.037108131 -0.63999259 -0.76748455 0.0064717853
-0.02257373 -0.057481319 -0.0061841942 0.017662758 -0.60246968 -0.79794627 0.0051592709
-0.019667627 -0.057389867 -0.0061744098 -0.010533489 -0.52596748 -0.85043949 0.0052583455
-0.016473288 -0.057523195 -0.0062349183 -0.079626828 -0.47561148 -0.87604409 0.0054466203
-0.01334184 -0.057991888 -0.0064449473 -0.16446224 -0.4260675 -0.88961709 0.0063853492
-0.010409771 -0.058488343 -0.0070041581 -0.29473358 -0.37310979 -0.87972796 0.0074046897
-0.0076499204 -0.058581527 -0.0081946403 -0.46875355 -0.28127819 -0.83734858 0.0065056328
-0.0057685715 -0.059796084 -0.0088554649 -0.58435887 -0.33575919 -0.73877639 0.0042676493
-0.051663864 -0.054744758 -0.0075123399 -0.79382724 -0.5904668 -0.14555861 0.054382697
-0.049587287 -0.055147205 -0.0075200936 -0.045864932 -0.93618357 -0.34850639 0.072723992
-0.046174899 -0.054833703 -0.0070175924 0.043729316 -0.7916972 -0.60934651 0.025498515
-0.043585263 -0.054758649 -0.0074329926 -0.20209128 -0.72721702 -0.65598369 0.021454174
-0.040384319 -0.055582199 -0.0077538448 -0.28411797 -0.63578314 -0.71767455 0.020891013
-0.03760194 -0.056321394 -0.0080843726 -0.097687438 -0.74968356 -0.65454686 0.013176394
-0.034701895 -0.05608999 -0.0082685044 0.040384099 -0.65308428 -0.7562077 0.010817224
-0.031631686 -0.055650014 -0.0081770066 0.10713132 -0.53322858 -0.83916044 0.0063582696
-0.028547449 -0.055540193 -0.0078355307 0.12053135 -0.39023927 -0.91279 0.0047862553
-0.0254487 -0.055414416 -0.0074618286 0.11593032 -0.39931342 -0.90945536 0.0092395693
-0.022437962 -0.055479717 -0.0071230554 0.076419488 -0.35327244 -0.93239403 0.0064022057
-0.019462164 -0.05564094 -0.0068618278 0.031813402 -0.33022004 -0.94336766 0.0053343242
-0.01640694 -0.055586036 -0.006888486 -0.039849401 -0.26344162 -0.96385187 0.0049449094
-0.01341393 -0.055501286 -0.0071747247 -0.13700661 -0.21681547 -0.96655071 0.0053699072
-0.010433134 -0.055568803 -0.007782151 -0.28655273 -0.12349259 -0.95007211 0.0053730258
-0.0080757048 -0.055593811 -0.008604846 -0.43522829 -0.073691614 -0.89729923 0.0061646295
-0.05208464 -0.052478746 -0.0073260306 -0.95446956 -0.27736372 -0.10980579 0.051602922
-0.048305158 -0.052966878 -0.0087654842 0.29453838 -0.51118958 -0.80742329 0.044958796
-0.046351187 -0.052715804 -0.0085205864 0.067909911 -0.28994206 -0.95463181 0.036895271
-0.043814398 -0.053442083 -0.0087142829 -0.18166049 -0.42874983 -0.88497061 0.011868614
-0.040899657 -0.053753637 -0.0088704936 -0.23326735 -0.53665948 -0.81091487 0.014911833
-0.030267719 -0.053544741 -0.0089138271 0.17126881 -0.20320126 -0.96404159 0.004104746
-0.028308315 -0.052689314 -0.0087270755 0.20554481 -0.16550918 -0.96455073 0.0038778191
-0.025373887 -0.052401237 -0.0082322787 0.17846817 -0.10953905 -0.9778294 0.0042174873
-0.022714488 -0.052630149 -0.0078241499 0.13437968 -0.15063868 -0.97941309 0.0060546715
-0.019620797 -0.052521806 -0.007458677 0.08854796 -0.095102452 -0.99152148 0.0051143565
-0.016541751 -0.052484371 -0.0073024528 0.0088379784 0.010339564 -0.99990749 0.006932924
-0.013401878 -0.05264375 -0.0074204011 -0.095952749 0.07123033 -0.99283397 0.0068197814
-0.010377789 -0.052581646 -0.0078694308 -0.2325366 0.091782473 -0.96824723 0.0060825646
-0.0077280849 -0.052340329 -0.0085629737 -0.33663371 0.16606292 -0.92687696 0.0064591188
-0.0056299604 -0.051341411 -0.0089659048 -0.41566339 0.29761732 -0.85944629 0.010128539
-0.052298244 -0.049538817 -0.0075497585 -0.99338537 0.089536354 -0.071893565 0.038442191
-0.04663115 -0.049362 -0.0089289099 -0.038875807 0.070001408 -0.9967891 0.030570524
-0.027944241 -0.049262241 -0.0087667378 0.24287544 0.17028356 -0.9549948 0.007558296
-0.025320947 -0.049586035 -0.0082586361 0.2024516 0.13452038 -0.97000909 0.0057248711
-0.022579061 -0.049388092 -0.0077301068 0.15947102 0.22722806 -0.96069586 0.0094932411
-0.019493761 -0.049579926 -0.0072725727 0.11293614 0.24072194 -0.96400118 0.0067534982
-0.016494002 -0.049550723 -0.0069912737 0.041291062 0.25292465 -0.96660447 0.0055709411
-0.013524046 -0.049502585 -0.0069146035 -0.034773074 0.29558572 -0.95468318 0.0055083232
-0.010491073 -0.049551405 -0.0071646376 -0.13233262 0.35098246 -0.92698407 0.006406948
-0.0074519208 -0.049493887 -0.00774555 -0.24415757 0.38165045 -0.89147627 0.0067656576
-0.0048739142 -0.049226101 -0.008462281 -0.34320936 0.43716317 -0.83132172 0.0067903427
-0.0025510464 -0.048208237 -0.0087826401 -0.36451268 0.61789346 -0.69666225 0.004238666
-0.052112807 -0.046552517 -0.0074917302 -0.94454831 0.30816796 -0.11340635 0.04599458
-0.049669378 -0.045499578 -0.0079049179 -0.37328598 0.81384963 -0.44531611 0.086215712
-0.046082497 -0.046519339 -0.0081052631 0.073790103 0.43009391 -0.89976335 0.037623614
-0.043535922 -0.046211705 -0.0082561877 -0.18190828 0.50667238 -0.84272927 0.013195005
-0.040404357 -0.045750983 -0.0083363866 -0.21794435 0.58487839 -0.78129208 0.022243155
-0.037350722 -0.045264557 -0.0084635951 -0.063768722 0.6480915 -0.75888795 0.019958241
-0.034264147 -0.045546237 -0.0086445678 0.18676719 0.50451201 -0.84296244 0.0093684373
-0.031162985 -0.046319678 -0.0083965752 0.23153387 0.44764733 -0.86371523 0.0068891775
-0.02843623 -0.046612576 -0.0078876941 0.20904912 0.44183028 -0.87240154 0.0064819898
-0.025454964 -0.046763733 -0.0072774803 0.17734203 0.44634429 -0.87711263 0.0071379407
-0.022593075 -0.046898849 -0.006800699 0.14367488 0.49274084 -0.85823309 0.0070697516
-0.019576341 -0.047239315 -0.006476088 0.11658015 0.46114841 -0.87963128 0.0060819113
-0.016445301 -0.047548633 -0.0062805549 0.061421961 0.48471922 -0.87251055 0.0053506708
-0.01340613 -0.047621872 -0.0061821053 -0.00036873927 0.51602221 -0.85657519 0.0042127632
-0.010325881 -0.047611617 -0.0063078562 -0.079949528 0.5548805 -0.82807952 0.0039661019
-0.0073871873 -0.047335517 -0.0065525025 -0.160459 0.59212887 -0.78970647 0.0036581184
-0.0043665832 -0.047002651 -0.007044503 -0.21694368 0.61695945 -0.75650281 0.0039130789
-0.0015019713 -0.046575535 -0.0076250741 -0.25983503 0.7151705 -0.64885819 0.002470931
0.0012607794 -0.045943599 -0.0080660572 -0.26263908 0.76699203 -0.58544344 0.00092628755
0.0038279241 -0.04537629 -0.0084460704 -0.23606569 0.79073834 -0.56480604 0.00030176545
0.033096153 -0.045236636 -0.0069679841 0.22392875 0.95973051 -0.16962679 0.0014193059
-0.051625058 -0.044864304 -0.0062290546 -0.89048487 0.43423718 -0.13592222 0.038631648
-0.049832992 -0.044903293 -0.0064997561 -0.12772058 0.91050124 -0.39328748 0.050292302
-0.046548214 -0.0448405 -0.0063080494 0.016577717 0.85979575 -0.51036888 0.0070167338
-0.043521695 -0.044835575 -0.006300807 -0.20427316 0.77889854 -0.59294987 0.0090493113
-0.040492844 -0.044128083 -0.0072175949 -0.19249411 0.76788175 -0.61098582 0.011458971
-0.037624996 -0.044319361 -0.0080187283 -0.03620369 0.77345461 -0.63281697 0.012965652
-0.034475647 -0.044449624 -0.0074462071 0.14721267 0.76602387 -0.62572819 0.0062187687
-0.031774633 -0.044588864 -0.0069603873 0.15551966 0.74114764 -0.65308017 0.0060053468
-0.028613713 -0.044736616 -0.0063639064 0.14260435 0.71811163 -0.68116051 0.0025372673
-0.026966847 -0.044784598 -0.0060113003 0.14016961 0.70546204 -0.6947487 0.0014526398
0.0018262139 -0.044594314 -0.0064495765 -0.2301778 0.77956545 -0.58249122 0.00037174163
0.0045705708 -0.044284571 -0.0071678385 -0.21882029 0.80038238 -0.55812693 0.00015428977
0.0074178586 -0.043940712 -0.0076907682 -0.18407808 0.81821042 -0.54465324 0.0002214539
0.010416288 -0.043355521 -0.0076562483 -0.13727899 0.83531332 -0.532359 8.0084763e-05
0.013414606 -0.042951282 -0.0076429648 -0.085209742 0.85599017 -0.50992167 0.00027127317
0.016466111 -0.04278972 -0.0077693318 -0.046278879 0.86912638 -0.49242011 0.00073883258
0.019376639 -0.042928487 -0.0081238961 0.008394937 0.89065856 -0.45459527 0.0013375457
0.022429377 -0.042961352 -0.0077508278 0.092873856 0.92955995 -0.35678121 0.0024658474
0.025356557 -0.043351896 -0.0076365238 0.13566338 0.94046873 -0.3116312 0.0017440827
0.028531754 -0.044080969 -0.0080468152 0.14752832 0.94724399 -0.28454223 0.0010151988
0.030804479 -0.04464595 -0.0081256386 0.17764318 0.9488197 -0.26112089 0.00093810837
0.014675127 -0.041965719 -0.0061373422 -0.025673848 0.88733965 -0.46040118 0.0026742755
0.016661538 -0.041930892 -0.0061506219 0.029944738 0.9084838 -0.41684586 0.0028900204
0.018468978 -0.041943341 -0.0060943854 0.070016995 0.91187549 -0.40445116 0.0019964098
-0.036340006 -0.018127261 -0.0060135233 -0.30460697 -0.14989983 -0.94060868 0.024556266
-0.035596523 -0.01815776 -0.0060055885 -0.063932948 -0.3616187 -0.93013149 0.025982058
-0.03661558 -0.015965903 -0.0062113521 -0.39470112 -0.15655886 -0.90537316 0.019350581
-0.035044994 -0.016204681 -0.0062842714 -0.030553075 -0.19488075 -0.98035097 0.015122443
-0.032920174 -0.015279971 -0.0061009843 0.14048739 -0.19685742 -0.97031462 0.0022787997
-0.037028905 -0.01337869 -0.0065056738 -0.50105864 -0.10068431 -0.85953641 0.016847229
-0.034787495 -0.01344065 -0.0068472591 -0.11750466 -0.1620788 -0.97975671 0.014705546
-0.031904873 -0.01328895 -0.00628791 0.20735981 -0.20412588 -0.9567312 0.00042010835
-0.029937582 -0.012371319 -0.0060847546 0.22779724 -0.20902556 -0.95100832 4.7127283e-05
-0.037337687 -0.010435943 -0.0067829043 -0.56198817 -0.0783218 -0.82342881 0.019501662
-0.034798015 -0.010373483 -0.0074465331 -0.23031113 -0.15202008 -0.96116942 0.030526111
-0.031450275 -0.010561615 -0.006778603 0.21675207 -0.18867186 -0.95782125 0.00018501579
-0.029041793 -0.01017272 -0.006246184 0.24644315 -0.18436171 -0.95146024 0.00011559152
-0.037433941 -0.007466218 -0.0070555168 -0.64655411 -0.069470488 -0.75969833 0.031862825
-0.034804504 -0.0075866524 -0.0079067592 -0.26865035 -0.11198539 -0.95670593 0.034576029
-0.031653717 -0.007567937 -0.0073993197 0.20857203 -0.15372214 -0.96585053 0.00088751345
-0.028494474 -0.0074894172 -0.0065730619 0.25894552 -0.15131231 -0.95396632 0.0001022928
-0.026463283 -0.0068157027 -0.0061016832 0.26459524 -0.13974538 -0.9541806 8.2935017e-05
-0.039050549 -0.0040358226 -0.006151021 -0.91661787 -0.0093059521 -0.39965633 0.038870655
-0.037600834 -0.0045205494 -0.0071927845 -0.65314376 -0.063626193 -0.75455606 0.038157426
-0.034769405 -0.0044796127 -0.0082957391 -0.2935977 -0.050139967 -0.95461315 0.061925221
-0.031717375 -0.0045934012 -0.0078569502 0.15988965 -0.090512313 -0.9829765 0.014643509
-0.028602611 -0.0045942552 -0.0070018382 0.2619676 -0.10959864 -0.95883322 0.00014149254
-0.026037544 -0.0043204455 -0.0062959832 0.26663345 -0.10787723 -0.95774168 8.7906359e-05
-0.037501439 -0.0014886576 -0.0073853112 -0.74261963 0.06214086 -0.66682434 0.063883565
-0.034851696 -0.0015999564 -0.0085175596 -0.4658756 -0.080267563 -0.8812021 0.083302103
-0.031617895 -0.0015108269 -0.0080943359 0.14983636 -0.049158279 -0.98748797 0.0073640049
-0.028441824 -0.001533258 -0.0072222608 0.26205045 -0.046944749 -0.96391165 0.00019159752
-0.025393743 -0.0012888659 -0.0063889734 0.26129305 -0.05158364 -0.96388012 0.00045193997
-0.02391831 -0.00099927885 -0.0060288939 0.27205768 -0.055529416 -0.9606775 0.00052617834
-0.039022993 0.001509967 -0.006240177 -0.82669032 -0.0048372508 -0.56263649 0.031778086
-0.037542962 0.0015269597 -0.0073518604 -0.84177721 -0.034963273 -0.53869176 0.087109715
-0.034889948 0.0015497939 -0.0085447859 -0.54099983 0.050412316 -0.83951056 0.09657225
-0.031692453 0.0014623658 -0.0081321001 0.16181356 0.021412466 -0.98658895 0.0062293867
-0.028412767 0.0014339025 -0.0072473157 0.25851709 0.021909148 -0.96575814 0.00023435915
-0.025290452 0.00128379 -0.0064158263 0.25698614 0.013736401 -0.96631742 0.0003685113
-0.023826934 0.0012362697 -0.0060368795 0.25682792 0.0080478732 -0.96642363 0.00027125803
-0.039033912 0.0039482736 -0.006168833 -0.81011981 -0.074958637 -0.58145261 0.11309543
-0.037554946 0.0044954931 -0.0072496124 -0.68469024 -0.015849361 -0.72866172 0.065007843
-0.034753364 0.0044076685 -0.0084178355 -0.29602963 0.0017030791 -0.95517719 0.095071755
-0.031675659 0.0047022291 -0.0079076383 0.12919645 0.062982753 -0.98961681 0.026740041
-0.028654447 0.0044013434 -0.0071325814 0.24975909 0.077396221 -0.96520996 0.00014112939
-0.025704077 0.0044357153 -0.0063619623 0.24610415 0.07279364 -0.96650594 0.0001190196
-0.037502892 0.0074672573 -0.0070500863 -0.64828265 0.073955111 -0.75779963 0.022722833
-0.034778211 0.0074846712 -0.008076258 -0.24860737 0.095741749 -0.96386087 0.0378488
-0.031434245 0.0074602682 -0.007519362 0.20024058 0.12250062 -0.97205836 0.0010542787
-0.028447887 0.0074788239 -0.0067431615 0.2372403 0.11599673 -0.96450084 0.00010269983
-0.026205976 0.0074720853 -0.0061984407 0.23420201 0.11101671 -0.96582854 7.2112176e-05
-0.037402682 0.010404105 -0.0068363063 -0.6328432 0.050857559 -0.77260798 0.021355262
-0.034808282 0.010539638 -0.0076407567 -0.24867445 0.14365715 -0.95787454 0.031714801
-0.031362873 0.010448162 -0.0070631965 0.19759941 0.1538109 -0.96814084 0.00026793324
-0.028561188 0.010534305 -0.0063805822 0.22969408 0.14366314 -0.96260142 0.00012114253
-0.026366305 0.009215286 -0.0060609812 0.23035954 0.11682432 -0.96606755 7.6055308e-05
-0.037118647 0.013386632 -0.0066142567 -0.54806834 0.085256085 -0.83207721 0.016298711
-0.034734033 0.013545661 -0.0070861224 -0.15920369 0.16467381 -0.97341496 0.018932967
-0.031565234 0.01340139 -0.0065690503 0.18727839 0.18605398 -0.96452624 0.00017909144
-0.029355817 0.012988437 -0.0061652381 0.21261053 0.17936952 -0.96053284 0.00010918541
-0.036799137 0.01614056 -0.0062939129 -0.47366348 0.13341947 -0.87054139 0.015813177
-0.034747176 0.01646788 -0.0064584697 -0.045677442 0.19044131 -0.98063529 0.011333788
-0.032228086 0.015751943 -0.0061988826 0.17274195 0.20119484 -0.9641996 0.0004351628
-0.036489997 0.01823603 -0.0060423124 -0.3707813 0.20658152 -0.90545315 0.020248502
-0.035213143 0.018408729 -0.0060884636 -0.039141707 0.18900798 -0.98119515 0.011825093
-0.040408995 0.044274595 -0.007059352 -0.22046888 -0.78432328 -0.57985395 0.011180155
-0.037465293 0.044353135 -0.0072259009 -0.028854115 -0.82239455 -0.56818539 0.010863527
-0.034681309 0.044506256 -0.0068444563 0.12389556 -0.8051126 -0.58003759 0.0045737145
-0.031826183 0.044749171 -0.0065259677 0.14148498 -0.75817674 -0.63651401 0.0036398349
-0.029592693 0.044856701 -0.0061362442 0.1414824 -0.72347522 -0.67569685 0.0022897113
0.0023967626 0.044850677 -0.0063799974 -0.22980282 -0.78664732 -0.57304156 0.00022668811
0.0046573933 0.044490427 -0.0067608394 -0.21087055 -0.80617785 -0.55282086 0.00020550564
0.0075767213 0.044195026 -0.0073073339 -0.17227733 -0.82193029 -0.54290992 0.00011719234
0.010477926 0.043808404 -0.0075730835 -0.13357124 -0.83678788 -0.53098482 0.00016535009
0.013465255 0.043449532 -0.0076121348 -0.081322975 -0.85479802 -0.51254928 0.00035208822
0.016483005 0.043260396 -0.0076831989 -0.023495793 -0.88137019 -0.4718416 0.001148305
0.019418349 0.043225806 -0.0076425257 0.032151133 -0.9075762 -0.41865477 0.0017767069
0.022450676 0.043522771 -0.0077759163 0.10499308 -0.92829865 -0.35670432 0.0025900481
0.025403101 0.043938864 -0.0076801754 0.15149841 -0.94484663 -0.29036728 0.0025907769
0.028305421 0.044553708 -0.007774835 0.18120132 -0.95532846 -0.23348163 0.0017141051
0.030200226 0.044917744 -0.0070987097 0.26161617 -0.96117353 -0.087763332 0.0040577678
-0.05196172 0.04651463 -0.0075245243 -0.82939607 -0.52640945 -0.18707016 0.063728653
-0.049637664 0.045814242 -0.0076231821 -0.11225914 -0.92282021 -0.36851159 0.035561599
-0.046279594 0.046417966 -0.007602002 0.026167994 -0.70394814 -0.70976919 0.026401054
-0.043539811 0.046302315 -0.0077759698 -0.18487847 -0.67462152 -0.7146368 0.019105
-0.040640239 0.045948982 -0.0080047743 -0.2279509 -0.71505308 -0.66086119 0.016341114
-0.037083335 0.045346152 -0.0085008508 -0.0051547927 -0.67044836 -0.74193829 0.01315681
-0.034326069 0.045684289 -0.0083208634 0.17138825 -0.64526504 -0.7444858 0.0080631701
-0.031371478 0.046184871 -0.0079671089 0.20833126 -0.62917483 -0.74882376 0.0077258884
-0.028477697 0.046379577 -0.0073800771 0.18868963 -0.58815086 -0.78643167 0.0070801573
-0.025529878 0.046686459 -0.0069496217 0.15776798 -0.58899033 -0.7925905 0.0055204919
-0.022497276 0.047055457 -0.0065974258 0.13904506 -0.54386157 -0.82757533 0.0058223889
-0.019562894 0.047503188 -0.0063674124 0.11765404 -0.54405028 -0.83076286 0.003991839
-0.016946718 0.047718108 -0.0061659431 0.077257276 -0.53887343 -0.83883649 0.0045037097
-0.013518707 0.047814403 -0.0060711582 0.0039760899 -0.55465609 -0.83207023 0.0029260032
-0.010288619 0.047778238 -0.0061384193 -0.075109094 -0.57173574 -0.81699258 0.0030438986
-0.0073175076 0.047529135 -0.0063644839 -0.15150608 -0.61606365 -0.77298862 0.0028962258
-0.0043680724 0.047185149 -0.0067820116 -0.20802279 -0.64232397 -0.73766285 0.003190845
-0.0014204374 0.046839979 -0.0074095298 -0.26880455 -0.70190102 -0.65960526 0.0026288647
0.0013968068 0.046087522 -0.007648312 -0.24615441 -0.78019714 -0.57506561 0.00039267252
0.0042855125 0.045595299 -0.0082294745 -0.22424255 -0.79883778 -0.55818772 0.00020478152
0.006898874 0.045260727 -0.0087145632 -0.18306027 -0.81883466 -0.54405761 0.00013678595
0.031204173 0.045328248 -0.0077817636 0.22756915 -0.95715982 -0.17904578 0.0021077346
0.034419447 0.046294216 -0.0075521288 0.33481973 -0.94208598 0.019228222 0.0027818084
0.037083562 0.047282588 -0.0078203762 0.41513866 -0.9079147 0.057886038 0.0028967001
-0.052305315 0.049406245 -0.0075346101 -0.9736703 -0.18517105 -0.13295808 0.05075657
-0.048061483 0.048129864 -0.0089143049 0.31894508 -0.58245152 -0.74767929 0.028754942
-0.046641361 0.048730753 -0.008879168 0.10809599 -0.22190195 -0.96905875 0.045691416
-0.044809077 0.048237853 -0.008955406 -0.050263193 -0.24019086 -0.96942353 0.022640254
-0.030184768 0.048347149 -0.0089320187 0.24398006 -0.32322881 -0.91432863 0.026779383
-0.028149551 0.049042717 -0.0087122191 0.25131294 -0.22821395 -0.94061697 0.0093755769
-0.025448872 0.049460467 -0.0081896232 0.1991104 -0.21253988 -0.95665133 0.007601704
-0.022574726 0.049423244 -0.0076420964 0.16030933 -0.26882285 -0.94975531 0.009644649
-0.01949905 0.049503896 -0.0071504335 0.11499976 -0.28585619 -0.95134705 0.007432207
-0.016479358 0.049410265 -0.0068183485 0.062464632 -0.33754605 -0.9392342 0.005858229
-0.013485186 0.049525067 -0.0067794458 -0.025659781 -0.35108462 -0.935992 0.0059157219
-0.010469363 0.049484078 -0.0069676987 -0.1190737 -0.39742011 -0.90987837 0.0057102698
-0.0074673309 0.049496319 -0.0075277365 -0.23037289 -0.43812451 -0.86889315 0.0067216377
-0.0046989988 0.04920803 -0.0082321865 -0.30338368 -0.51106876 -0.80421835 0.0066848495
-0.0023367486 0.04842056 -0.0086653652 -0.34049043 -0.64382058 -0.68524539 0.0038312443
0.038671073 0.048169706 -0.007275484 0.46933877 -0.88093048 0.060684729 0.0036688568
0.040221583 0.049173068 -0.0079409117 0.54570872 -0.83731294 0.033301577 0.0054345056
-0.052179802 0.052496634 -0.0075298073 -0.98630911 0.15455219 -0.057514355 0.045309044
-0.048295192 0.053103194 -0.0089026485 0.32469812 0.31976354 -0.89012492 0.032979358
-0.046365201 0.052622974 -0.0087317368 0.10212997 0.16708308 -0.98063892 0.038924243
-0.04430883 0.053717118 -0.0087588252 -0.14451505 0.33659869 -0.93049276 0.017643882
-0.030183628 0.053603865 -0.0089318436 0.18052188 0.1612957 -0.97025543 0.0043930518
-0.028360477 0.05287715 -0.008805206 0.19440337 0.12130881 -0.97339171 0.0040822974
-0.025347503 0.052401997 -0.0083104568 0.18241179 0.042893965 -0.98228616 0.0043618274
-0.022661779 0.052711237 -0.0078784302 0.1363329 0.078962676 -0.98751116 0.0062378566
-0.01972241 0.052439608 -0.0075203525 0.1021526 -0.031009614 -0.99428529 0.0065445257
-0.016567579 0.052472517 -0.0073329839 0.015667401 -0.078712352 -0.9967742 0.0065047112
-0.013396913 0.052498505 -0.0074165049 -0.074354194 -0.11457338 -0.9906283 0.0068874788
-0.010399879 0.052476287 -0.0078127654 -0.21846241 -0.15860063 -0.96287066 0.0061872345
-0.0076370835 0.052365083 -0.0085174553 -0.31430614 -0.22043777 -0.9233737 0.0069277398
-0.0057230978 0.051475599 -0.0088170962 -0.38847306 -0.29590032 -0.87265784 0.006853811
0.04335285 0.051873941 -0.0084376186 0.62570852 -0.77333498 -0.10218546 0.0021428114
-0.051812947 0.054829359 -0.0073650475 -0.9362995 0.34504178 -0.065493941 0.048726145
-0.04965616 0.055501573 -0.0078233564 -0.035894532 0.89409739 -0.44643193 0.079257235
-0.046165951 0.054575793 -0.0077286381 0.19981417 0.53433192 -0.82131827 0.02777753
-0.04373432 0.05480016 -0.007942182 -0.18085615 0.65536189 -0.73334289 0.017686736
-0.040289678 0.055900037 -0.0079488158 -0.2567443 0.60374647 -0.75470036 0.023594622
-0.037852518 0.056501433 -0.0076544173 -0.14347063 0.17856437 -0.97341204 0.011539855
-0.034750286 0.056250885 -0.0085779754 0.048851624 0.59294587 -0.8037591 0.017250206
-0.03128238 0.0556878 -0.008406884 0.15490402 0.37943965 -0.91215694 0.0041429023
-0.028502451 0.055514645 -0.0080884304 0.14821206 0.33389142 -0.93088651 0.0035922043
-0.025370508 0.055415791 -0.0076717674 0.12481575 0.31646711 -0.94035602 0.0047810078
-0.02236573 0.055500053 -0.0072943396 0.089355648 0.29923126 -0.94998747 0.0058829961
-0.01937972 0.055380329 -0.0070989612 0.054517683 0.23491263 -0.9704864 0.0044688066
-0.016429989 0.055386327 -0.0070689293 -0.029138833 0.19095777 -0.98116571 0.0044558742
-0.0134286 0.055459943 -0.0072862771 -0.1297123 0.16921128 -0.97700673 0.005516089
-0.01050477 0.055466626 -0.007858377 -0.27205205 0.062734216 -0.96023548 0.00548254
-0.0081401896 0.055476185 -0.00864066 -0.42194611 0.030843455 -0.9060961 0.0060184132
-0.040761128 0.057426952 -0.0066412254 -0.21013397 0.77918476 -0.5905208 0.01490924
-0.03755448 0.057528611 -0.0071248524 -0.11474966 0.78976649 -0.602579 0.0072578508
-0.034547605 0.057624497 -0.0070854397 0.0078777941 0.77889287 -0.6271075 0.0080571715
-0.031579789 0.057805054 -0.0067870747 0.033947498 0.69842142 -0.71488124 0.010100382
-0.028795242 0.057652798 -0.006847722 0.11004869 0.52238691 -0.84557748 0.0049947435
-0.025685834 0.057611369 -0.0066191209 0.072407402 0.53570813 -0.84129298 0.0087884655
-0.022653673 0.057690982 -0.0063667735 0.031731911 0.53345042 -0.84523594 0.0064174375
-0.019482454 0.057528395 -0.0063694366 0.012823932 0.44200873 -0.89691907 0.0054460741
-0.016412599 0.057708848 -0.0063835122 -0.06081542 0.42127225 -0.90489298 0.0051777372
-0.013326173 0.058263998 -0.0065444619 -0.16991654 0.37910801 -0.90961826 0.0060856054
-0.010320968 0.058536634 -0.0072361361 -0.30354875 0.32341185 -0.89624935 0.0068898802
-0.0077200099 0.058580231 -0.0083415546 -0.4599489 0.25035283 -0.85192168 0.0062950463
-0.0059600347 0.059974011 -0.0089013148 -0.62064511 0.25613275 -0.74107742 0.0046191779
-0.0098444251 0.060716022 -0.0063705943 -0.32267055 0.52597475 -0.78691441 0.0044107055
-0.0072737765 0.0612728 -0.0073908102 -0.45536381 0.43259573 -0.77814186 0.0060386835
-0.0053685601 0.061878767 -0.0083944099 -0.57793099 0.39832562 -0.71227276 0.0052022208
-0.0063995305 0.063431054 -0.0063184113 -0.51242852 0.56609499 -0.64571929 0.0011915318
-0.0042683175 0.064276233 -0.0074361786 -0.57402784 0.52883434 -0.62516111 0.001453269
-0.0023483164 0.065359674 -0.0083611384 -0.59533888 0.56138605 -0.57481939 0.0002786674
-0.0033280847 0.06639497 -0.0062920195 -0.56400466 0.57857996 -0.58918917 0.00043856032
-0.0013965378 0.067359291 -0.0073877024 -0.5824362 0.58921826 -0.559991 0.0002784892
0.00061396818 0.068507753 -0.008270408 -0.57120585 0.61510718 -0.54347682 0.00015417964
-0.00015596252 0.069565304 -0.0062422296 -0.56413007 0.62275034 -0.5421617 0.00016420567
0.0016096167 0.070287295 -0.0072091431 -0.55193567 0.64035511 -0.53414649 0.00015615534
0.003670271 0.071081989 -0.0083881663 -0.53734249 0.65567005 -0.53043365 0.00013607001
0.0026369917 0.072188914 -0.0061021466 -0.52437907 0.67073631 -0.52453738 0.00059652462
0.0047328714 0.07288909 -0.0071319034 -0.51653385 0.67708629 -0.52416301 0.00022603797
0.0071575046 0.07417322 -0.0077346615 -0.48052323 0.72220594 -0.49750981 0.00042228037
0.0093253115 0.074720755 -0.0088754278 -0.46193177 0.73931074 -0.48993742 0.00049429084
0.0082488973 0.07541126 -0.0068294094 -0.44734624 0.77021646 -0.45458546 0.0015434957
0.010318706 0.076191761 -0.0075152433 -0.43466032 0.78384697 -0.44345728 0.0010781911
0.013152336 0.077310003 -0.00816839 -0.40732545 0.8166849 -0.40879291 0.0011502252
0.015136989 0.077810183 -0.0089754332 -0.40206236 0.83291131 -0.38026926 0.0029639988
0.01409794 0.078145385 -0.0068367906 -0.36544004 0.87751627 -0.31051359 0.002575045
