# .PCD v0.7 - Point Cloud Data file format
VERSION 0.7
FIELDS x y z normal_x normal_y normal_z curvature
SIZE 4 4 4 4 4 4 4
TYPE F F F F F F F
COUNT 1 1 1 1 1 1 1
WIDTH 677
HEIGHT 1
VIEWPOINT 0 0 0 1 0 0 0
POINTS 677
DATA ascii
-18.89209 11.860633 -1.3909298 0.19885747 0.26448199 0.94366568 0
-18.888721 11.860671 -1.3902289 -0.06918525 -0.3356697 -0.93943566 0
-18.886587 11.860518 -1.3895702 0.25129992 0.3896654 -0.88600749 0
-18.891333 11.863224 -1.390937 -0.058605287 -0.14337616 0.98793155 0
-18.889051 11.863335 -1.3904696 0.096060336 0.12955397 -0.98690838 0
-18.886442 11.863626 -1.3898237 0.068203948 -0.043389942 0.99672741 0
-18.890387 11.86639 -1.3909452 0.038229302 -0.072211035 -0.99665642 0
-18.886557 11.866104 -1.3901273 0.03990363 0.13151084 0.99051124 0
-18.884577 11.866721 -1.3895806 0.15717487 -0.0099198576 -0.98752093 0
-18.889231 11.869477 -1.390946 0.04991433 0.00065557781 -0.99875325 0
-18.885788 11.869422 -1.3902413 0.00073414796 0.060597707 0.99816197 0
-18.8836 11.869521 -1.3895835 0.027614327 -0.076186344 -0.99671113 0
-18.888309 11.872014 -1.3909477 0.15211058 -0.32141852 -0.93464035 0
-18.886875 11.872735 -1.3907124 0.076321036 -0.048078038 -0.99592352 0
-18.88341 11.872494 -1.3898755 0.031807978 -0.043336723 -0.99855405 0
-18.881893 11.873943 -1.3895829 0.050165474 -0.20299965 -0.97789294 0
-18.887049 11.875383 -1.3909484 0.29776794 0.068556741 -0.95217335 0
-18.883423 11.875525 -1.3902403 0.17777909 0.33846202 -0.92403352 0
-18.881222 11.875589 -1.3895817 0.020712087 -0.14485238 -0.98923653 0
-18.885847 11.878452 -1.3909475 -0.10274581 -0.16592601 0.98077101 0
-18.882446 11.878018 -1.3902396 -0.20150007 -0.81548512 -0.54256964 0
-18.880318 11.878742 -1.389739 0.019187311 -0.061555922 -0.99791914 0
-18.885086 11.880408 -1.3909471 -0.018634748 -0.17447515 -0.98448527 0
-18.884563 11.881813 -1.3909475 0.13694894 -0.3525967 -0.92570001 0.00016153183
-18.880463 11.881331 -1.3901331 0.11189458 -0.069089264 -0.99131542 0.0034851313
-18.878326 11.881757 -1.3895658 0.017864229 -0.068236902 -0.99750924 0
-18.88341 11.884576 -1.3909444 0.074496537 0.077250317 -0.99422467 0
-18.879463 11.883858 -1.3902167 -0.057749256 -0.068761021 0.99596035 0.0020559756
-18.877493 11.884725 -1.3897725 -0.13118401 -0.24977127 0.95937747 0.0029901064
-18.882318 11.886388 -1.3909317 -0.12788258 -0.69010621 0.71231979 0
-18.881308 11.887905 -1.3909181 0.11725814 -0.0072225202 -0.99307525 0
-18.877001 11.887496 -1.3900996 -0.10283322 -0.22331813 0.96930611 0
-18.875027 11.887729 -1.3895361 0.058495559 0.11034758 0.99217016 0
-18.879805 11.890178 -1.390898 0.42736247 0.79888523 -0.42325363 0
-18.877882 11.890952 -1.3906492 -0.018457796 -0.7214967 -0.69217181 0
-18.874496 11.890402 -1.3898467 0.046212539 -0.033644993 -0.99836487 0
-18.872757 11.891552 -1.3895125 -0.041184697 -0.037171438 0.99845988 0.0050989236
-18.877211 11.893582 -1.3908571 0.00064824871 -0.094442882 0.99553007 0
-18.873924 11.893057 -1.3901551 0.012168651 -0.0021815002 0.99992353 0
-18.871738 11.893722 -1.3895915 -0.01469552 -0.11669976 -0.99305856 0
-18.874758 11.896375 -1.3908132 0.11786833 -0.02274817 -0.99276865 0
-18.871227 11.896284 -1.3899798 0.20632643 0.025527339 0.97815019 0
-18.869053 11.896953 -1.3894646 -0.15441117 -0.93330753 -0.32418248 0
-18.873299 11.89831 -1.3907906 0.24229187 -0.55444217 -0.79617119 0
-18.871613 11.89969 -1.3906555 -0.039569322 -0.01417999 0.9991163 0.0018471109
-18.868505 11.89937 -1.3898436 -0.038409926 -0.18690757 0.98162627 0.0010941117
-18.866402 11.900223 -1.3894236 -0.036861882 -0.1653228 -0.9855504 0
-18.870377 11.901495 -1.3907366 0.11084891 -0.032774784 -0.99329668 0.0033257206
-18.868422 11.902555 -1.3905197 0.020631863 0.1064919 0.9940995 0
-18.865547 11.902584 -1.389751 -0.015725208 0.014617617 0.99976951 0
-18.863628 11.903406 -1.3893782 0.085841723 0.023022458 0.99604273 0
-18.873604 11.905366 -1.3914826 0.24414648 0.10285012 -0.9642688 0
-18.871918 11.906192 -1.3914375 0.019279826 0.052427202 0.9984386 0
-18.867247 11.904545 -1.3906745 0.073721133 0.12728369 0.98912293 0
-18.865322 11.905597 -1.3904591 -0.031621601 -0.024643485 0.99919605 0
-18.862492 11.905436 -1.3896599 0.072234161 0.055059642 0.99586678 0
-18.860136 11.906517 -1.389311 0.41675928 0.0011901779 0.90901613 0
-18.870546 11.907166 -1.3914046 0.19482535 -0.11889413 -0.97360533 0
-18.86874 11.908242 -1.3913589 -0.22905929 -0.42408615 0.87617511 0
-18.865555 11.908942 -1.3911165 0.37874478 0.25718305 0.88904965 0
-18.862116 11.908338 -1.3904123 0.050928116 -0.086972654 -0.99490803 0
-18.859272 11.908736 -1.389776 0.052607194 0.15024763 0.98724771 0
-18.856951 11.909094 -1.3892467 -0.017515799 -0.1474054 -0.98892099 0
-18.864384 11.910315 -1.3912418 0.53655344 -0.84386551 0.0011577347 0
-18.862465 11.911297 -1.3911912 0.0027473278 0.029387647 0.99956435 0.0049686362
-18.85977 11.91163 -1.390774 0.023755502 -0.078399211 -0.99663895 0
-18.856478 11.911414 -1.3899441 0.034127697 -0.046095565 -0.9983539 0
-18.853828 11.911909 -1.3894035 -0.035004508 -0.018892877 0.99920851 0
-18.851707 11.9128 -1.3891351 0.69106388 0.051462576 -0.72095937 0
-18.858925 11.91338 -1.3911011 -0.060658228 -0.81803972 -0.57195419 0
-18.856304 11.914441 -1.3908837 0.42340061 0.74271888 -0.51874894 0
-18.853262 11.914459 -1.3902245 0.0066641821 -0.085701302 0.99629855 0
-18.850412 11.914621 -1.3895192 -0.14796418 -0.67621338 0.72169381 0
-18.847969 11.915291 -1.3890537 -0.064355113 -0.067996733 0.99560779 0
-18.858055 11.917837 -1.3917124 0.025546635 -0.13601708 -0.99037701 0.0050473269
-18.856148 11.918447 -1.3916554 0.039106652 -0.19146727 -0.98071963 0
-18.853151 11.91682 -1.3909547 0.022095555 -0.39111191 0.92007786 0
-18.85037 11.917506 -1.3906169 -0.056843314 -0.037264198 0.99768746 0.0082400311
-18.847427 11.917197 -1.3897732 0.04779106 -0.052389931 -0.99748254 0
-18.845259 11.917985 -1.3894594 0.067588426 -0.1449797 -0.98712337 0.017335851
-18.853472 11.919607 -1.3915794 0.028452393 -0.048631951 -0.99841142 0
-18.85071 11.920694 -1.3914995 0.16531692 0.043968681 -0.98525995 0
-18.84763 11.920197 -1.390888 -0.01262497 -0.20233975 -0.97923398 0.0091106389
-18.844538 11.920452 -1.390201 -0.21579643 -0.63297975 -0.74348402 0
-18.841953 11.920997 -1.3895887 0.17445117 0.27978468 0.94408011 0
-18.847071 11.922888 -1.391404 0.0078951195 -0.17727804 0.98412913 0
-18.844526 11.923484 -1.3909999 0.27508557 0.16299529 -0.9475022 0
-18.841572 11.923376 -1.3902608 -0.044643704 -0.1484638 0.98790962 0
-18.838718 11.923912 -1.3896124 0.22772613 0.15256637 -0.96169865 0
-18.844549 11.926658 -1.3913672 0.10010824 -0.10931421 0.98895335 0
-18.840675 11.9257 -1.3906565 0.009899538 -0.076722309 0.99700332 0
-18.838655 11.926454 -1.3902472 0.13040207 0.081831999 -0.98807836 0
-18.835794 11.926766 -1.3895125 0.10352188 0.046920612 -0.99351984 0
-18.838831 11.929149 -1.3906391 -0.16650167 -0.46808192 -0.8678574 0
-18.835691 11.929212 -1.3898815 0.038212057 -0.0067193843 -0.99924701 0.010336454
-18.833046 11.929868 -1.3893399 0.3458584 0.37463403 -0.86025071 0
-18.814348 11.93056 -1.3893162 0.012903168 0.079796731 0.99672765 0
-18.811342 11.930491 -1.3894868 0.042160399 0.0030801857 -0.99910611 0
-18.808966 11.930543 -1.3894489 -0.01997596 0.029335426 0.99937004 0
-18.838762 11.931058 -1.3906608 -0.062180482 -0.2105872 0.97559547 0
-18.835711 11.931811 -1.3900067 0.16509336 -0.72631699 -0.66723901 0
-18.8318 11.931684 -1.389323 0.30511034 0.012718335 -0.95223206 0
-18.830259 11.932343 -1.389284 0.057203051 -0.28911641 -0.95558333 0
-18.826609 11.931996 -1.3891687 0.44624937 -0.18598667 -0.87536883 0
-18.822889 11.93179 -1.3892361 0.17395732 0.032102689 -0.98422986 0
-18.819864 11.932407 -1.3896942 0.043874647 -0.24195644 -0.96929461 0
-18.817316 11.932465 -1.389975 0.19996181 -0.65988153 -0.7242732 0
-18.814348 11.931809 -1.390048 -0.066543087 -0.21299951 -0.97478372 0.015354748
-18.810833 11.931869 -1.3906865 -0.14315459 -0.78060359 -0.60841173 0
-18.80822 11.932526 -1.3901014 0.053850722 0.020954493 0.9983291 0
-18.814924 11.934063 -1.390994 -0.0089204088 -0.045953091 0.99890375 0
-18.808222 11.935308 -1.3904141 0.13965461 0.16814169 0.97582012 0
-18.808506 11.938044 -1.3898143 -0.22011618 -0.5434221 -0.8100872 0
-18.889551 11.767853 -1.386524 -0.0021067753 0.038850877 0.99924284 0
-18.887995 11.768817 -1.3863844 0.072917372 0.17895919 -0.98115069 0
-18.889481 11.770552 -1.3871984 0.044297211 0.12109325 0.99165225 0
-18.887051 11.770697 -1.3864577 0.033567436 0.030745326 -0.99896348 0
-18.891699 11.773799 -1.3881947 0.20563605 -0.45123285 -0.86839086 0
-18.889175 11.773623 -1.3877265 -0.0053474563 -0.20850226 -0.97800732 0.0035263817
-18.886505 11.773582 -1.3867326 0.078633502 -0.19620641 -0.97740465 0
-18.892458 11.77726 -1.3888134 0.095086053 0.15778108 -0.98288542 0
-18.889437 11.776466 -1.3881599 0.24247652 0.82506067 0.51037246 0
-18.886435 11.776347 -1.387049 0.045830563 -0.062466845 -0.9969942 0
-18.884861 11.777332 -1.3863871 0.41688773 0.61598152 -0.66840965 0.0028695154
-18.891258 11.778448 -1.3887916 0.042380642 -0.0015296917 -0.99910039 0.0028933226
-18.889307 11.779621 -1.3884385 0.19834039 0.26646739 0.94321591 0
-18.886402 11.779619 -1.387342 0.030327849 0.031273793 0.99905062 0
-18.884546 11.779477 -1.3863994 0.26530671 0.80141896 -0.53604102 0
-18.88925 11.782555 -1.3887787 0.31455866 0.51768309 -0.79564881 0
-18.886589 11.782434 -1.3877741 0.36950263 -0.2420854 -0.89714128 0.007174213
-18.884172 11.782722 -1.3866421 0.17394571 -0.055911154 -0.98316675 0
-18.888346 11.784904 -1.3887787 -0.044439021 -0.16431843 0.9854058 0
-18.886404 11.785511 -1.3881726 0.047635678 0.0073423004 -0.99883777 0
-18.883856 11.785714 -1.3869162 0.11607266 0.39070159 -0.91316992 0
-18.885941 11.78851 -1.3884448 0.42939112 -0.13086562 -0.89358681 0
-18.88323 11.788569 -1.3869746 0.82408696 0.00010291803 -0.56646317 0
-18.885984 11.791458 -1.3887829 -0.052161939 -0.11705311 0.99175489 0.004314451
-18.883331 11.791537 -1.3873305 0.057830758 0.040332563 -0.99751139 0
-18.88558 11.794481 -1.3888047 0.012099939 0.050304048 0.99866068 0.010690762
-18.883471 11.794487 -1.3876635 0.35427052 0.20337805 -0.91275936 0
-18.881968 11.794551 -1.3864769 0.041719675 0.045149684 0.99810869 0
-18.885386 11.797561 -1.3888332 0.50301468 0.15040566 0.85109013 0
-18.883226 11.797565 -1.387555 0.54635799 0.75710768 -0.35816321 0
-18.881983 11.797371 -1.3865035 0.055310085 0.092937499 0.99413449 0
-18.885456 11.800713 -1.3888704 -0.013520744 0.074762762 0.99710965 0
-18.883194 11.80048 -1.3874028 0.059260134 -0.12939031 -0.98982143 0
-18.885765 11.803652 -1.3889123 0.073309317 0.012517937 0.99723071 0
-18.883463 11.803462 -1.3874533 0.061636321 0.034452584 -0.99750382 0
-18.881981 11.804186 -1.3860064 0.016741352 -0.12226106 -0.99235678 0
-18.885715 11.806649 -1.3886931 8.1106555e-05 -0.096024938 0.99537891 0
-18.883101 11.806461 -1.3869231 0.66485822 -0.59012198 0.45795143 0
-18.885748 11.809175 -1.3885685 0.075326577 0.008611571 -0.99712175 0.020438535
-18.883335 11.809546 -1.3869325 -0.0067322599 0.066164076 0.9977861 0
-18.885786 11.812345 -1.3884411 -0.0003435133 0.03057811 0.99953234 0
-18.883606 11.81251 -1.3869675 -0.050673552 -0.10162113 0.99353176 0
-18.885689 11.815681 -1.3882604 0.11960454 -0.10352238 -0.98740971 0
-18.883598 11.815437 -1.3868374 -0.023098374 -0.18553349 0.98236644 0
-18.885815 11.818506 -1.3882221 0.0044633942 -0.01226996 0.99991477 0
-18.883581 11.818588 -1.3867399 0.19119489 -0.21043327 0.95872957 0
-18.886011 11.821513 -1.3882591 0.052612484 0.098656103 0.99372983 0
-18.88369 11.821558 -1.3867701 0.038745727 0.086039886 0.99553794 0
-18.88624 11.824546 -1.388297 0.12131961 -0.025446817 -0.99228728 0.015094129
-18.883793 11.824542 -1.3868003 0.022071041 -0.028801171 -0.99934149 0
-18.886461 11.827597 -1.388335 0.032448575 0.12159982 0.99204874 0
-18.883894 11.827542 -1.3868308 0.12652652 0.18931448 -0.9737305 0
-18.886637 11.830649 -1.3883715 0.23083055 0.17114304 -0.95782429 0.041633382
-18.883936 11.830542 -1.3868599 0.37202606 0.58417284 -0.72134507 0
-18.886662 11.833612 -1.3883455 0.018039208 0.008871709 0.99979788 0
-18.88389 11.833512 -1.386845 0.064475156 -0.41609132 -0.90703416 0
-18.886408 11.83632 -1.3882242 0.097082406 0.38115102 0.91940135 0
-18.883665 11.836722 -1.3867661 0.094893709 0.21723519 0.97149575 0
-18.886761 11.839478 -1.3884674 -0.029985961 -0.0088708857 0.99951088 0
-18.88377 11.839533 -1.3869394 0.14925702 0.098348431 -0.9838953 0.029817738
-18.886635 11.842496 -1.3884956 0.10162352 0.067733496 -0.99251443 0.0067386436
-18.883539 11.842501 -1.3869613 0.024986943 0.058065113 0.99800009 0
-18.88649 11.84552 -1.3885232 0.015708508 0.057907779 0.99819833 0
-18.883327 11.845485 -1.3869838 0.022753654 -0.06518957 0.99761349 0
-18.886251 11.848389 -1.388514 0.075899877 -0.082475863 -0.99369866 0
-18.883348 11.848357 -1.3871565 0.078916907 0.081445977 -0.99354845 0
-18.881901 11.848885 -1.3863989 0.16418667 0.11512692 0.97968799 0
-18.88611 11.851411 -1.3886009 0.20706163 -0.20297624 -0.95704031 0.016011795
-18.883282 11.851522 -1.3873303 0.01794252 0.060946219 0.99797976 0.010121942
-18.881525 11.851523 -1.3864136 0.013663744 -0.082235619 0.99651927 0
-18.886021 11.854457 -1.3887998 -0.083544247 -0.20623025 0.97493041 0
-18.883617 11.85443 -1.3877499 0.2949672 -0.73855782 -0.6062398 0
-18.881216 11.854901 -1.3866032 0.1650441 0.1151282 -0.97954375 0.0098969536
-18.885559 11.857627 -1.3889186 -0.010547345 -0.16811021 -0.98571175 0
-18.883303 11.857601 -1.3879488 0.35636321 -0.33721507 -0.8713733 0
-18.880926 11.857496 -1.3867446 0.58590531 0.29204261 -0.75592732 0
-18.885138 11.859355 -1.3889252 -0.052824039 -0.26530427 0.96271652 0
-18.883623 11.860508 -1.3884146 0.01489242 0.053881086 0.99843633 0
-18.880527 11.860642 -1.386973 0.45913661 0.87916279 -0.1275396 0
-18.88328 11.86338 -1.3886219 0.075251445 0.0016941387 -0.99716312 0.0087591559
-18.880243 11.86338 -1.3872215 0.080213018 0.058215916 -0.9950763 0.016845183
-18.878624 11.864119 -1.3864577 0.24460682 0.14647529 -0.95849496 0.026415011
-18.882856 11.866241 -1.3888508 0.34582645 0.42995441 0.83399236 0
-18.880505 11.86651 -1.3878335 0.033721477 -0.069551498 0.99700826 0
-18.87821 11.866778 -1.3866912 0.06440784 -0.086624965 -0.99415672 0
-18.882229 11.868667 -1.3889433 0.365731 -0.71991163 0.58988816 0
-18.880489 11.869567 -1.3883163 0.025130471 0.080113739 0.9964689 0
-18.877705 11.869627 -1.3869362 0.51469135 0.84440863 -0.14854914 0
-18.880205 11.872451 -1.3886594 -0.10305436 -0.18749884 0.97684389 0
-18.877438 11.872436 -1.3873166 -0.095502988 -0.39576966 0.91337037 0
-18.875683 11.873008 -1.3864682 0.12721927 -0.17381951 -0.97652549 0.029250836
-18.879583 11.875559 -1.388943 0.50232631 0.59499699 -0.62741274 0
-18.877287 11.875346 -1.3878375 -0.01546628 0.0048373314 0.99986869 0
-18.875086 11.87575 -1.3867389 -0.039750505 -0.1633492 -0.98576713 0
-18.877382 11.878425 -1.3885503 0.070888869 0.17225632 0.98249811 0
-18.874521 11.878453 -1.3871176 0.026650568 -0.1013073 -0.99449819 0.014179379
-18.872847 11.879419 -1.3864594 0.12081335 -0.063684821 -0.99063033 0
-18.87673 11.881396 -1.3889256 0.037757538 0.045707304 0.99824101 0
-18.874508 11.881403 -1.3878582 0.62903196 0.13986689 0.76469344 0
-18.872044 11.88172 -1.386656 -0.044902269 -0.13449009 0.98989707 0
-18.874311 11.884304 -1.3884975 0.066231057 -0.0082995845 -0.99776977 0
-18.871429 11.884426 -1.3870952 0.013481674 -0.17813094 -0.98391443 0
-18.869637 11.885652 -1.38644 -0.17777878 -0.55776197 -0.81073809 0
-18.873737 11.887156 -1.3889034 0.38975736 0.28037763 0.8771987 0
-18.871431 11.887411 -1.3879046 0.38579923 0.21895927 -0.89622307 0
-18.868803 11.887832 -1.3866736 0.059025612 -0.070889443 -0.99573624 0.014717367
-18.871393 11.890286 -1.3886367 0.0039189802 -0.52298802 -0.85233104 0.011304127
-18.868498 11.890443 -1.3873523 0.1673363 0.29717022 0.94004697 0
-18.866369 11.891256 -1.3865306 -0.0022489217 -0.34636974 0.93809539 0
-18.870453 11.892756 -1.3888712 -0.020123759 -0.48873833 0.87219828 0
-18.868408 11.89342 -1.3882366 0.093218245 0.1483537 0.98453116 0
-18.865623 11.893478 -1.3869541 0.073345758 0.01862891 -0.9971326 0.027121574
-18.863789 11.894461 -1.3863827 0.022214178 0.029938689 0.99930489 0
-18.867832 11.895946 -1.3887347 0.047384884 -0.089953355 -0.99481809 0.0055524674
-18.865459 11.896432 -1.3879167 0.052755967 0.10591996 0.99297422 0.0086894371
-18.862661 11.896852 -1.3867512 0.31416664 -0.65800381 -0.68434668 0
-18.864965 11.899364 -1.3886427 0.048517182 -0.46192378 0.88559157 0
-18.862368 11.899477 -1.3876008 0.085615665 -0.50330019 -0.85985976 0
-18.859823 11.8997 -1.38653 -0.085204534 -0.97842383 0.18822095 0
-18.862368 11.902262 -1.3885725 0.023528446 -0.10339788 -0.99436176 0.012793601
-18.859488 11.902277 -1.3874379 -0.23927486 -0.53711313 -0.80886155 0
-18.85673 11.902861 -1.3864666 0.010160536 -0.14103937 -0.98995185 0.019583149
-18.859238 11.90522 -1.3885171 0.075740188 0.056639545 0.99551761 0.024409657
-18.856501 11.905313 -1.3874631 0.016023509 -0.28951976 0.95703793 0
-18.853697 11.905963 -1.3865379 0.10712945 0.011516139 0.99417835 0
-18.856068 11.907882 -1.3884387 0.1300756 0.12637839 0.98341691 0
-18.853378 11.908526 -1.3877021 -0.32574287 -0.8086096 -0.48994091 0
-18.850618 11.908813 -1.386662 0.047889274 -0.0047747479 -0.99884123 0
-18.848717 11.9096 -1.3861681 -0.030321773 -0.0066041425 0.99951833 0
-18.852762 11.910458 -1.3884223 0.026753465 -0.040993765 -0.99880117 0
-18.850471 11.911419 -1.3880285 -0.069149815 -0.41596651 -0.90674698 0
-18.84758 11.911551 -1.3868178 -0.00081235601 -0.16235261 0.98673248 0
-18.845516 11.912674 -1.3864045 -0.3636581 -0.70544189 -0.60836208 0.030194685
-18.849401 11.913174 -1.3885006 -0.011700548 -0.091116257 -0.99577147 0.025626441
-18.847301 11.914021 -1.3881409 0.0078657782 -0.075821958 0.99709034 0
-18.844412 11.914522 -1.3870832 0.54875875 0.4207032 0.72240752 0
-18.842272 11.915407 -1.3863928 -0.045815814 -0.96171498 -0.2701948 0
-18.844063 11.917258 -1.3886012 0.044766158 -0.016109528 0.99886757 0
-18.841337 11.917281 -1.3872956 0.24848366 0.20883323 -0.94585651 0
-18.839014 11.91822 -1.3866246 0.00483739 -0.20999113 -0.97769129 0
-18.841074 11.919807 -1.388762 -0.0038588909 -0.024123782 0.9997015 0
-18.83839 11.920412 -1.387928 -0.18526982 -0.40699184 0.89444548 0
-18.835848 11.920966 -1.3869394 0.065723605 -0.071740553 -0.99525559 0
-18.837765 11.922717 -1.3888386 0.11302551 -0.061102111 -0.99171156 0
-18.835299 11.923268 -1.3881217 0.18472752 0.16686712 -0.96852005 0
-18.832661 11.923771 -1.3870035 0.51665962 0.68067706 0.5193665 0
-18.830507 11.924823 -1.3864355 0.14125757 0.15753385 -0.97735834 0
-18.834522 11.925619 -1.3887763 0.2249659 -0.28815901 0.93078178 0
-18.83251 11.926234 -1.3883076 0.12637131 -0.0065989564 -0.99196106 0
-18.829584 11.926208 -1.3872417 0.057448708 0.03687977 -0.99766707 0
-18.826649 11.927355 -1.3868423 0.063298821 0.028907755 -0.99757588 0
-18.831528 11.928307 -1.3887191 -0.32635877 -0.60121733 -0.72940224 0
-18.829409 11.92915 -1.3885745 -0.05162929 -0.086545922 0.99490917 0
-18.826429 11.929125 -1.3881513 -0.09923964 -0.22552331 -0.96917009 0
-18.823532 11.928919 -1.387307 0.20633157 0.36007574 0.90982014 0
-18.820486 11.9295 -1.3874041 -0.091502607 -0.85025805 -0.51835167 0
-18.817383 11.929811 -1.3874224 0.092301443 -0.0616556 -0.99382043 0
-18.81448 11.929984 -1.3873457 -0.21588475 -0.94304419 -0.25310344 0
-18.811642 11.930127 -1.3873168 -0.016429871 -0.17629533 0.98420018 0
-18.808725 11.930391 -1.3876028 0.042979747 -0.11914106 -0.99194664 0
-18.807432 11.932373 -1.3875728 0.0021388398 -0.11474127 0.99339306 0.049002677
-18.806948 11.93361 -1.386826 0.4491643 -0.57886946 0.68055981 0
-18.80723 11.935596 -1.3878924 0.19253713 -0.22588709 0.95493686 0
-18.806904 11.934903 -1.3866966 0.06986364 -0.26522639 -0.96165174 0
-18.807743 11.938414 -1.3874029 0.030140851 0.072425663 0.99691826 0
-18.808187 11.940266 -1.38657 0.16833094 -0.050767615 -0.98442233 0
-18.891695 11.765002 -1.3845927 0.089690827 0.16552851 0.98211807 0
-18.889595 11.765137 -1.3842391 0.046371441 0.062842987 -0.99694556 0
-18.887201 11.765594 -1.3835133 0.00082808698 -0.31107858 -0.95038378 0
-18.888582 11.766592 -1.3856895 -0.0021067753 0.038850877 0.99924284 0
-18.886274 11.767341 -1.3847369 -0.0037267641 0.064519055 0.99790949 0
-18.884378 11.767939 -1.3837206 0.04594449 -0.45896265 0.88726681 0
-18.8857 11.77023 -1.3856556 0.28349677 -0.042694774 -0.95802236 0
-18.883638 11.770681 -1.3842089 0.14625607 0.13730228 0.97967201 0
-18.88509 11.772446 -1.3857981 0.032702506 -0.0390759 -0.99870092 0.0093317423
-18.883196 11.773532 -1.3844332 0.18144837 0.072289094 -0.98073989 0
-18.881805 11.77435 -1.3830079 0.038322866 0.010551931 -0.99920964 0
-18.883024 11.776524 -1.3849999 0.065563798 -0.022042219 -0.99760485 0
-18.881609 11.776494 -1.3832921 0.4594357 0.025201881 -0.88785344 0
-18.882843 11.779549 -1.3852252 0.087739483 0.22137906 -0.97123277 0.0081740478
-18.881435 11.779467 -1.3835833 0.01803102 -0.041372236 -0.99898112 0
-18.882668 11.78244 -1.3855549 -0.025809733 -0.026078632 0.99932665 0
-18.881269 11.782454 -1.3838758 0.11639433 -0.83816004 -0.53286034 0
-18.882298 11.785225 -1.3857545 0.020043535 -0.11198726 -0.99350744 0
-18.881123 11.785505 -1.3841327 0.18726423 -0.020509321 0.98209548 0.051438726
-18.882023 11.78702 -1.3858558 -0.013399723 -0.048862666 0.99871564 0
-18.881033 11.788487 -1.3844674 0.31215063 0.21878798 0.92449653 0
-18.880852 11.791471 -1.3844471 0.018453212 0.16286096 0.98647648 0
-18.88084 11.794532 -1.3845546 0.25970298 -0.19195786 0.94641775 0
-18.880869 11.797458 -1.3844877 0.12444445 0.07388404 0.98947197 0
-18.881042 11.800463 -1.3845241 0.30394101 0.48866796 0.81781626 0
-18.881235 11.803494 -1.3845303 0.060999114 -0.11072998 -0.99197674 0
-18.881325 11.806602 -1.3843313 0.27083132 0.93385679 -0.23358476 0.027113015
-18.882072 11.80966 -1.3854939 0.17644152 0.086794168 0.98047698 0
-18.881376 11.809484 -1.3840725 0.019273199 -0.039118174 0.99904865 0
-18.8822 11.812776 -1.3854285 0.055892952 -0.0083536366 -0.99840182 0
-18.88154 11.812351 -1.3840517 0.15074709 -0.2006088 -0.96800381 0.056205075
-18.88232 11.815518 -1.3855482 0.30000019 0.077612229 -0.9507767 0
-18.881643 11.81534 -1.3841195 -0.043466881 -0.36887372 0.92846256 0
-18.882229 11.818413 -1.3852869 -0.066591382 -0.42759827 -0.9015128 0
-18.881544 11.818433 -1.3838232 0.013227934 -0.090590887 -0.99580038 0.049556844
-18.882248 11.82135 -1.3853112 -0.047414638 -0.14016737 0.98899192 0
-18.88154 11.82163 -1.3839142 0.033167325 -0.048617475 -0.99826664 0
-18.882244 11.824165 -1.3853658 0.27823335 0.50548327 -0.81674528 0
-18.881514 11.82478 -1.3840343 0.027353279 -0.38942704 0.92065108 0
-18.882427 11.827311 -1.3856491 -0.017084448 -0.46907711 0.88299197 0.063047297
-18.881458 11.827619 -1.3842046 0.10752249 -0.076310292 -0.99126977 0
-18.882362 11.830267 -1.3856725 0.039141767 -0.066634424 0.99700946 0
-18.881306 11.830545 -1.384223 0.4053992 0.89471632 -0.18744108 0
-18.882282 11.833233 -1.3856955 0.43751103 0.81079495 -0.3888388 0
-18.881147 11.833482 -1.3842413 0.046294276 -0.0026656848 -0.99892426 0
-18.882177 11.836505 -1.3857206 0.023387486 0.075987592 0.99683446 0
-18.880924 11.836409 -1.3842578 0.54425663 0.83539677 -0.07679189 0
-18.880842 11.83953 -1.3845034 0.24723704 0.34029472 -0.90723389 0
-18.880552 11.842569 -1.3845841 0.048926495 -0.21467023 0.97546035 0
-18.88018 11.845544 -1.3845992 0.22039995 0.13623352 0.96584898 0
-18.880011 11.848457 -1.3849519 0.074286744 -0.47380325 -0.87749183 0
-18.878839 11.848641 -1.3835368 0.0033539829 -0.066553704 -0.99777722 0.02764494
-18.879955 11.851373 -1.3853509 -0.0070511396 -0.023271959 0.99970436 0
-18.878559 11.851541 -1.3839442 -0.19369741 -0.87122917 -0.45104438 0
-18.879709 11.854269 -1.3855975 0.067687593 0.088632993 0.99376184 0
-18.878136 11.854524 -1.384143 0.68994677 0.19815508 -0.69620973 0
-18.879354 11.857541 -1.3858347 0.0059692557 -0.16613871 -0.98608428 0
-18.877666 11.857464 -1.3843347 0.0047705835 -0.87814856 0.47836438 0
-18.877296 11.860435 -1.3847003 0.58769661 0.58556193 0.55832785 0
-18.875912 11.861524 -1.3834745 -0.026994184 -0.18245862 -0.98284286 0
-18.877005 11.863338 -1.3852144 0.64401031 0.65880406 -0.38888037 0.032117546
-18.875448 11.863728 -1.3838195 0.45015904 0.49879616 -0.74064785 0
-18.876753 11.866364 -1.3857059 -0.02070404 -0.011310741 0.99972171 0
-18.874969 11.866661 -1.3842872 0.035786308 -0.0033149126 0.999354 0
-18.876133 11.868784 -1.3858581 0.062168363 0.076685742 -0.99511522 0
-18.874355 11.86956 -1.3845919 0.22327289 -0.95063168 -0.21551946 0
-18.872849 11.870912 -1.3834833 -0.022304542 -0.12449373 0.99196965 0
-18.874046 11.872275 -1.3852216 0.060521975 0.068626255 0.99580497 0
-18.87245 11.872784 -1.3839245 0.053301923 -0.061899744 -0.99665809 0.051345684
-18.8736 11.875149 -1.3857104 0.089227647 0.22836307 0.96947855 0
-18.871653 11.875679 -1.3842691 0.045662899 0.054372076 -0.99747604 0
-18.87121 11.878376 -1.384933 0.040339433 -0.03049417 0.99872065 0
-18.86968 11.87914 -1.3837149 0.023899104 0.10057466 0.99464244 0
-18.870634 11.881322 -1.3856486 0.02705018 0.0030259585 0.9996295 0
-18.86891 11.881569 -1.3842324 0.032076765 0.053930894 0.99802935 0
-18.868204 11.884274 -1.3849027 0.14638326 0.023196939 -0.98895591 0
-18.866657 11.885196 -1.3838331 -0.0037238717 -0.065381773 -0.9978534 0
-18.867651 11.886901 -1.3856581 -0.03105488 -0.16734751 0.98540872 0
-18.865688 11.887635 -1.3843132 -0.089219965 -0.75434905 0.65038246 0
-18.864983 11.890099 -1.3850918 -0.1314449 -0.23974261 0.96189696 0.015208315
-18.863262 11.891001 -1.3840292 0.025783595 -0.18180268 -0.98299694 0
-18.864252 11.892443 -1.3857958 0.49469605 0.79659361 0.34743971 0
-18.862274 11.893324 -1.384721 0.018416569 -0.046614815 -0.99874312 0
-18.860594 11.894432 -1.383812 0.029587248 0.010793374 -0.99950391 0
-18.861685 11.895696 -1.3857669 -0.0054693045 -0.17306966 -0.98489439 0
-18.85955 11.896564 -1.3845168 0.065379284 -0.16501839 -0.9841212 0.061401401
-18.857782 11.897636 -1.3834007 0.033115312 -0.14133367 -0.98940796 0
-18.858713 11.898835 -1.3855362 0.025976891 -0.0031562957 0.99965757 0
-18.856804 11.899653 -1.3842908 -0.015815068 -0.22414929 -0.97442645 0
-18.85582 11.901709 -1.3851678 0.38953289 0.62902153 0.67275262 0
-18.853899 11.902873 -1.3842274 0.79150355 0.53208244 -0.30068335 0.0037659628
-18.85285 11.904729 -1.385078 0.01279669 -0.047381159 -0.99879497 0
-18.850986 11.90595 -1.3842421 -0.030925646 -0.099949524 0.99451172 0
-18.849705 11.907673 -1.3848466 0.17599587 0.22464529 0.95841527 0.04097648
-18.847916 11.908962 -1.3842529 0.060437102 0.066071421 0.99598289 0
-18.846588 11.910553 -1.38484 -0.0083159897 -0.00020417344 0.99996537 0
-18.84477 11.911852 -1.3842934 0.064151019 0.038370594 -0.99720228 0
-18.842983 11.912887 -1.3832479 0.082373023 -0.34138322 -0.93630773 0
-18.843424 11.913342 -1.3848568 0.0094722779 -0.10010916 -0.9949314 0
-18.841564 11.914652 -1.3843062 0.022318106 -0.013811155 -0.99965549 0
-18.839626 11.9158 -1.3832097 0.023760023 -0.08707431 -0.99591839 0
-18.840435 11.916252 -1.3854736 0.062188838 -0.15577696 -0.98583269 0
-18.838411 11.917398 -1.3844243 -0.17856537 -0.77960187 0.60027951 0.042924844
-18.836641 11.918666 -1.383829 0.089355752 -0.012405932 0.99592251 0
-18.837175 11.919183 -1.385986 0.05818601 -0.23484401 -0.97029001 0
-18.835333 11.920212 -1.3846947 -0.12575993 -0.9042058 -0.40816212 0.014998809
-18.833494 11.921559 -1.3840228 0.078788482 0.005441702 -0.99687648 0.042172275
-18.832111 11.922973 -1.3846786 0.26639944 0.1567297 0.95103478 0
-18.830275 11.924463 -1.3842964 0.028800339 0.0037323411 -0.99957818 0
-18.828751 11.925606 -1.3845409 0.1309958 0.093100525 0.98700172 0
-18.826603 11.927127 -1.384501 0.027793646 0.035852827 0.99897057 0
-18.82534 11.928032 -1.3833203 0.43182269 -0.85134113 0.29790497 0
-18.823561 11.92874 -1.3843095 -0.0097183157 -0.13038588 -0.99141568 0.068164393
-18.820568 11.92955 -1.384606 0.80386877 0.40896922 0.43190178 0
-18.817593 11.930187 -1.3845494 0.20193741 0.12472657 -0.97142404 0
-18.814571 11.930591 -1.3846163 -0.0062398813 -0.057471029 -0.99832773 0
-18.811396 11.930694 -1.3850069 -0.029715966 -0.10872444 0.99362773 0
-18.808807 11.930705 -1.385432 -0.24498415 -0.54823631 0.7996372 0.013785272
-18.813745 11.931108 -1.3834049 -0.0247986 -0.15375271 -0.98779809 0
-18.81148 11.931201 -1.3836308 0.12988392 0.074401349 -0.98873383 0
-18.807695 11.932262 -1.3844424 -0.054435093 -0.1900447 -0.9802652 0
-18.806948 11.933816 -1.3854169 -0.43548554 -0.8871457 -0.15272497 0
-18.807022 11.935652 -1.3843083 0.08849474 -0.24616224 -0.96518022 0
-18.806944 11.935247 -1.3847997 -0.05650977 -0.11617249 0.99162018 0.073404431
-18.807344 11.938071 -1.384545 0.28160378 -0.07283327 0.95676261 0
-18.808256 11.940311 -1.3849703 0.037432387 -0.03271164 -0.99876356 0
-18.892736 11.763785 -1.3814611 0.3781527 0.86241585 0.33651066 0
-18.88938 11.764129 -1.3814182 0.0042745881 -0.066187546 0.99779803 0
-18.886475 11.765164 -1.3813508 0.062814258 0.11357464 0.9915418 0
-18.884888 11.765642 -1.3802742 0.10778078 0.098080195 0.98932481 0
-18.885239 11.766232 -1.3824669 0.1116578 0.096195802 -0.98907983 0
-18.883455 11.76743 -1.3814758 0.15325852 0.11545136 0.98141879 0
-18.882399 11.770013 -1.3818376 0.044645574 -0.06095314 -0.99714172 0
-18.881836 11.771227 -1.3808695 0.041510142 0.032882981 -0.99859679 0
-18.881475 11.773482 -1.3813605 0.54957616 0.8321147 -0.074506372 0.044843234
-18.880939 11.776552 -1.3813106 0.10079493 -0.035131708 0.99428672 0
-18.880642 11.779473 -1.3814412 0.076966412 0.052597899 -0.99564534 0.059412792
-18.880371 11.782558 -1.3813922 0.064160198 0.022273356 -0.99769104 0
-18.880159 11.785547 -1.3814049 -0.14543697 -0.98934394 0.006834934 0.022566438
-18.879955 11.788546 -1.3814174 -0.065194555 -0.99704951 0.040521558 0
-18.879826 11.791574 -1.3814309 0.044851702 -0.03347066 -0.99843276 0
-18.879791 11.794423 -1.3814027 0.089996338 0.069398865 -0.99352127 0
-18.879894 11.797515 -1.3815004 0.040162709 -0.0029529335 0.99918884 0
-18.880053 11.800606 -1.3814802 0.037299119 0.023456538 0.9990288 0
-18.880224 11.803481 -1.3814974 0.010028469 0.05396603 0.99849236 0
-18.8804 11.806375 -1.3815144 0.033047605 -0.16607894 -0.98555857 0
-18.880558 11.809405 -1.3814696 -0.001687489 -0.10187371 0.99479592 0
-18.880707 11.812538 -1.3815706 0.14688949 0.12117057 -0.98170328 0
-18.880772 11.815621 -1.38161 0.14584091 0.030624669 0.9888339 0
-18.880781 11.818601 -1.3815821 0.07316909 0.023074877 -0.99705261 0
-18.880733 11.821514 -1.3815963 0.4535659 0.49526367 -0.74093986 0.046109755
-18.880615 11.82442 -1.3816094 0.01690504 -0.10107539 0.99473512 0
-18.880451 11.827391 -1.3815789 0.82650691 0.47058648 -0.30892509 0
-18.880253 11.830467 -1.3816146 0.055767514 -0.034980837 -0.99783081 0
-18.880022 11.833547 -1.38167 0.051211167 -0.073045976 0.99601287 0
-18.879755 11.836572 -1.3817044 0.21845978 0.36508989 0.90497774 0
-18.879459 11.839471 -1.3817708 0.055236369 -0.11250311 -0.9921149 0
-18.87892 11.840278 -1.3805208 0.83748364 -0.46827397 -0.28167495 0
-18.879305 11.842381 -1.3823466 0.11360947 0.19861211 0.97347116 0
-18.87875 11.842484 -1.380959 -0.039711453 -0.52860779 -0.84793681 0
-18.879118 11.844879 -1.3828449 0.08973147 -5.7357429e-05 -0.99596596 0.042273097
-18.878483 11.845501 -1.3814729 0.084715337 0.1152904 -0.98971283 0
-18.87804 11.848524 -1.3817197 0.33661231 0.25267166 0.90711027 0
-18.877495 11.851562 -1.3817508 0.01919361 -0.14022093 -0.98993427 0
-18.876884 11.85448 -1.3817133 0.43536979 0.90002602 -0.020157186 0
-18.876406 11.857141 -1.3820418 0.70409471 0.17784691 -0.68747449 0
-18.875742 11.858026 -1.3808813 -0.0014262332 -0.018758258 0.99982303 0
-18.876179 11.859457 -1.3828866 0.00068502128 0.049518295 0.99877298 0
-18.87537 11.860602 -1.3817019 0.40090662 0.38379323 -0.8318513 0.035405695
-18.8745 11.863535 -1.3816832 0.12739532 -0.12436073 -0.98402482 0
-18.87368 11.866398 -1.381847 0.021145929 -0.0083186813 -0.99974179 0
-18.872869 11.867591 -1.3807617 -0.10382692 -0.32106951 -0.94134712 0
-18.873299 11.868591 -1.3827515 0.59174132 -0.41713306 0.68981314 0
-18.872463 11.869647 -1.3816 0.91693699 0.32159588 -0.23622574 0
-18.871456 11.87248 -1.3816928 0.065067567 0.073178299 0.99519402 0
-18.870499 11.875238 -1.3820237 -0.032166041 -0.11981535 -0.992275 0
-18.869598 11.876304 -1.3809313 -0.013796386 -0.11763114 0.99296153 0
-18.870012 11.877265 -1.3828967 0.067787647 0.11898223 0.99057961 0
-18.868959 11.878565 -1.3817519 0.031995855 -0.061468836 -0.99759603 0
-18.867702 11.881256 -1.3818781 0.050720006 0.044887099 -0.99770367 0
-18.866741 11.882362 -1.380949 0.22413433 0.16135584 0.96110779 0
-18.86726 11.883012 -1.3828878 -0.070528246 -0.22234844 0.97241288 0
-18.865856 11.884544 -1.3816797 0.033123367 -0.016356159 -0.99931741 0
-18.864611 11.886998 -1.3820552 0.51369613 0.26982623 -0.81443852 0.099270284
-18.863514 11.88814 -1.3812625 -0.075107761 -0.26817346 0.96043837 0
-18.862272 11.890436 -1.3817784 0.21374889 0.029095318 -0.97645527 0.10081517
-18.860708 11.891735 -1.3805367 0.048066445 -0.026424553 0.99849451 0
-18.861292 11.892539 -1.382659 0.019452315 -0.028432844 -0.9994064 0
-18.859838 11.893653 -1.3815666 0.084426656 0.19275078 0.97760898 0
-18.858547 11.895728 -1.3821095 -0.19703633 -0.97128433 -0.13335465 0
-18.857176 11.897037 -1.3814489 0.0994436 0.10164378 -0.98983812 0.040881749
-18.85577 11.899032 -1.3818591 0.048768617 0.013696893 -0.99871618 0
-18.854403 11.900313 -1.3812658 0.021901777 -0.020075357 -0.99955857 0
-18.853109 11.90214 -1.3818144 0.0014617153 0.0042476966 0.99998987 0
-18.851538 11.903492 -1.3811183 0.15433596 -0.45063189 -0.87926751 0
-18.850206 11.905234 -1.3817785 -0.073588163 -0.42774674 -0.90089822 0.045784846
-18.848541 11.906502 -1.3809515 -0.015876342 -0.27322704 -0.96181852 0
-18.847231 11.908175 -1.3817085 0.14505263 0.12404653 -0.98161709 0
-18.8456 11.909615 -1.3813645 -0.066198893 -0.1969959 -0.97816688 0
-18.844158 11.911121 -1.3816274 0.070340611 -0.30434537 -0.94996113 0
-18.842495 11.912557 -1.3812124 0.0057866597 -0.10611518 -0.99433696 0
-18.841089 11.914005 -1.3816733 0.11423889 0.11708038 -0.98653007 0
-18.839415 11.915462 -1.381394 0.78940463 -0.32373944 -0.52156794 0
-18.837917 11.916886 -1.3815869 0.020280166 -0.0064079668 0.9997738 0
-18.836323 11.918378 -1.3812878 -0.0071493983 -0.091581032 -0.99577206 0.052128293
-18.834831 11.919913 -1.3815608 -0.046404295 -0.11987618 -0.99170375 0
-18.833324 11.921404 -1.381472 0.22426605 0.29002813 0.93036997 0
-18.831942 11.922817 -1.3814609 -0.20176886 -0.97936356 -0.011679767 0
-18.83041 11.924338 -1.3815402 -0.021794545 -0.13965024 0.98996097 0
-18.828907 11.925767 -1.3812609 0.085599437 0.0075116083 -0.99630135 0
-18.827137 11.92723 -1.3815762 0.0063270619 -0.025111331 -0.9996646 0
-18.825697 11.928496 -1.3811945 0.024314443 -0.009031604 -0.99966353 0
-18.823528 11.9297 -1.3813629 0.23748602 0.081757188 0.96794432 0
-18.820719 11.930478 -1.382008 0.028168004 -0.24048081 -0.97024506 0
-18.818037 11.930827 -1.3825785 0.098029777 -0.011147057 0.99512106 0
-18.819979 11.931368 -1.380567 0.082575902 0.088776059 -0.99262279 0
-18.817297 11.93161 -1.381249 -0.068025857 -0.16483261 -0.98397291 0
-18.814499 11.931934 -1.3814936 -0.1277907 -0.2720747 -0.95375305 0
-18.811552 11.932228 -1.3815155 0.10169745 -0.10423773 -0.98933923 0
-18.808237 11.932827 -1.3816601 0.10200091 -0.045110919 0.99376088 0.072337106
-18.807386 11.935377 -1.3813796 0.025021968 -0.09719234 -0.99495107 0
-18.806986 11.935704 -1.3827834 0.093087591 -0.01948913 -0.99546725 0
-18.80757 11.938057 -1.3820486 0.042494509 0.021003464 0.99887592 0
-18.894426 11.763201 -1.3781428 0.35019901 0.93407285 0.069775037 0
-18.892427 11.763251 -1.3784615 -0.0095735341 -0.15182655 0.98836082 0
-18.889437 11.763636 -1.3783673 0.048477303 0.013988581 -0.99872631 0
-18.886343 11.764594 -1.3783705 0.00070135249 -0.232952 -0.97248799 0
-18.88439 11.765569 -1.3783213 0.15156165 -0.029314796 -0.98801303 0
-18.882992 11.767289 -1.3786645 -0.0055740192 -0.72886193 -0.68463808 0
-18.882164 11.76927 -1.3786266 0.1504418 -0.0057915347 -0.98860192 0
-18.881748 11.770821 -1.378628 -0.052685611 -0.45183748 -0.89054316 0
-18.881186 11.773436 -1.378631 0.32481816 -0.15131776 0.93359315 0.12450677
-18.88059 11.776589 -1.3786354 0.99808705 -0.061682787 -0.0041896235 0
-18.88019 11.779552 -1.378415 0.23779672 -0.083309054 -0.96773571 0.17390853
-18.879913 11.782474 -1.3783734 0.096295014 -0.044196483 -0.99437112 0
-18.879669 11.78545 -1.3783793 0.19197452 -0.98035067 0.045368791 0
-18.879421 11.788438 -1.3783857 0.12504305 -0.081228368 -0.98882061 0
-18.879276 11.791459 -1.378392 0.46439525 0.88407797 -0.052375015 0
-18.879261 11.794521 -1.3784 0.33848554 0.91183305 -0.23235324 0
-18.879337 11.797623 -1.3784082 0.96228528 -0.00049135362 -0.27204186 0
-18.879463 11.80047 -1.3784164 0.023557186 -0.047564294 -0.99859035 0
-18.879622 11.803339 -1.3784248 0.007885226 -0.055172388 0.99844575 0
-18.879768 11.806464 -1.3783939 0.12671542 0.071738712 -0.98934156 0.1013382
-18.879889 11.809628 -1.3784878 0.058144737 0.090538263 -0.99419421 0
-18.87995 11.812576 -1.3784508 -0.0060820128 -0.12044958 -0.99270087 0.043047894
-18.87998 11.815476 -1.3784584 -0.2479988 -0.96417558 0.094138481 0.0052617821
-18.879965 11.818377 -1.3784657 0.55258542 0.79461896 -0.25145599 0
-18.879869 11.821431 -1.3783957 0.0065810103 0.021560222 0.99974591 0
-18.879757 11.824556 -1.3785154 0.054095753 -0.0020755576 -0.99853367 0
-18.879572 11.827596 -1.3785323 -0.031698026 -0.13798918 0.9899264 0
-18.879368 11.830488 -1.3785944 0.28764179 0.10493435 -0.95197213 0
-18.878941 11.831312 -1.3770685 -0.0012016753 -0.069771387 -0.99756229 0
-18.879255 11.833393 -1.3791649 0.01845783 0.021421747 -0.99960017 0
-18.878836 11.833511 -1.3774987 0.091195665 -0.028476352 -0.99542576 0
-18.879143 11.83622 -1.3797203 0.082186364 0.024637053 -0.99631238 0
-18.878651 11.836513 -1.3780032 -0.014809163 -0.1178867 -0.99291658 0
-18.878426 11.839516 -1.3785093 0.081513658 -0.041228011 -0.99581909 0
-18.878008 11.842578 -1.3785862 0.05281527 0.0083356611 -0.99856943 0
-18.877531 11.845554 -1.3785191 0.11722668 0.1220971 -0.98557103 0
-18.877041 11.848422 -1.3785228 -0.054157402 -0.9858548 0.15861043 0
-18.876528 11.85131 -1.3785653 0.91932738 -0.025960801 0.39263624 0
-18.875906 11.852696 -1.3772789 0.0018635647 -0.11157922 -0.99375379 0
-18.876255 11.853973 -1.3795536 0.027582411 -0.093405657 -0.99524605 0
-18.875658 11.854843 -1.3781372 -0.015827304 -0.15193547 -0.98826367 0
-18.87513 11.857525 -1.3785335 -0.23408693 -0.93406469 0.26967832 0
-18.874323 11.860473 -1.3784568 0.70631814 0.70617986 -0.049241636 0
-18.873587 11.86334 -1.3788697 0.038780149 -0.10884243 -0.99330223 0
-18.872869 11.864277 -1.377477 0.02314673 -0.12595744 -0.99176556 0
-18.873163 11.865632 -1.379793 -0.30599278 -0.87131315 -0.38364267 0.027533073
-18.872387 11.866595 -1.378329 0.38242948 0.077781953 -0.92070502 0
-18.871456 11.8695 -1.3786077 0.63370663 0.7087099 -0.31007466 0
-18.87048 11.872237 -1.3788047 0.03762221 -0.2837534 -0.95815897 0
-18.869669 11.87329 -1.3775421 0.24045148 0.20140186 -0.94953692 0
-18.870127 11.874174 -1.379988 0.016663017 -0.20131832 -0.97938406 0
-18.869089 11.875504 -1.3785751 0.11648325 0.17525838 0.97760731 0
-18.867811 11.878401 -1.3786517 0.25913891 0.16910771 -0.9509204 0
-18.866854 11.879475 -1.3772837 -0.0022596591 -0.098160997 -0.99516791 0
-18.867126 11.880641 -1.3797902 -0.027162727 -0.076023065 0.99673599 0
-18.866123 11.881643 -1.3783726 0.057475019 0.032418352 -0.99782044 0
-18.864807 11.884291 -1.3787593 0.058228116 -0.027210256 -0.99793237 0
-18.863743 11.885467 -1.3777366 0.1412973 0.014815981 -0.98985636 0.10315869
-18.864218 11.886076 -1.3799746 0.040025305 -0.012376556 0.99912202 0
-18.862692 11.887547 -1.3784862 0.085130356 -0.12603879 -0.98836589 0
-18.861479 11.889696 -1.3790582 0.046386313 0.10070547 0.99383432 0
-18.860289 11.890929 -1.3782085 0.0072211423 -0.069828466 -0.99753284 0
-18.858873 11.89317 -1.3787233 -0.36853048 -0.92478085 -0.09468697 0
-18.857563 11.894484 -1.3778231 0.085775636 0.16340727 0.98282278 0
-18.856329 11.896492 -1.3785677 0.1088431 0.020866772 -0.99383986 0
-18.854641 11.897999 -1.3770727 -0.005364533 -0.83298177 -0.55327451 0.085428976
-18.855162 11.898415 -1.379504 -0.42624855 -0.90280408 0.057069395 0
-18.853727 11.89964 -1.378387 0.8150655 -0.17055094 -0.55369729 0
-18.852411 11.90145 -1.3788923 -0.049433243 -0.15489879 -0.98669279 0
-18.850985 11.902871 -1.3783319 -0.43292642 -0.85393649 -0.28873378 0
-18.849564 11.904629 -1.3787665 0.081351586 -0.0083088903 -0.99665082 0
-18.848101 11.906091 -1.3783022 0.51730818 0.41770762 -0.74693543 0.070041925
-18.846643 11.907697 -1.3786644 0.009504118 -0.11038996 -0.99384284 0.082742423
-18.845146 11.909226 -1.3784083 0.10726753 0.12519361 0.98631644 0
-18.843712 11.910808 -1.3785331 0.0075347219 0.021274466 0.99974525 0
-18.84227 11.912218 -1.3783916 -0.41646948 -0.90901768 -0.015494548 0
-18.840673 11.913841 -1.3784465 0.044831898 -0.022374127 -0.99874395 0
-18.839272 11.915284 -1.3784405 -0.038954899 -0.1001092 0.99421364 0
-18.837835 11.916696 -1.3784345 -0.00018792579 -0.11644791 -0.99319679 0
-18.836275 11.91831 -1.3784889 0.091772556 -0.029942824 -0.99532974 0
-18.834778 11.919965 -1.3783666 -0.015632572 -0.06895496 -0.99749726 0
-18.833447 11.921438 -1.3784989 0.082220398 -0.0046861651 -0.99660313 0
-18.831972 11.923208 -1.3783023 -0.13704064 -0.98547035 0.10033979 0
-18.83062 11.924609 -1.3788065 -0.10344494 -0.23582035 -0.96627527 0
-18.829315 11.926347 -1.3782998 0.84927374 -0.38844076 0.35755831 0
-18.827618 11.92763 -1.3794051 0.081740849 0.082808979 -0.99320751 0
-18.828274 11.928243 -1.3770187 0.038482148 0.040888585 -0.99842232 0
-18.826513 11.929352 -1.3782567 -0.0069760378 -0.13189125 -0.99123967 0
-18.82416 11.93047 -1.3792008 0.54278034 0.83739215 0.064528041 0
-18.825403 11.931725 -1.3771505 0.16288844 0.011726821 0.98657477 0
-18.823132 11.931906 -1.3783437 0.14342174 0.18345396 -0.97250962 0
-18.820616 11.932286 -1.3791349 0.1004279 0.040741779 -0.99410981 0
-18.817732 11.932867 -1.3794553 -0.035506401 -0.1972174 -0.9797166 0
-18.814472 11.933455 -1.3796668 0.029496208 -0.0010123081 -0.99956441 0
-18.812721 11.933883 -1.3796513 0.02732935 -0.15901178 -0.9868983 0
-18.829584 11.936113 -1.3770344 0.25839832 0.25989991 -0.93042052 0
-18.820198 11.93431 -1.3786345 0.18828782 0.11195014 -0.97571248 0
-18.816982 11.934453 -1.3791531 0.076605029 -0.032518815 0.99653107 0
-18.812401 11.934612 -1.3796508 0.028740935 -0.20564297 -0.97820497 0
-18.830233 11.937493 -1.3775979 0.029870762 -0.21398482 -0.97638017 0
-18.892866 11.762985 -1.3759153 0.16760315 0.81074297 -0.56089658 0.05256575
-18.891909 11.763215 -1.3755463 0.12264006 0.49809453 -0.85840625 0.023949303
-18.889381 11.76364 -1.3753608 0.028615009 -0.12146013 -0.99218374 0
-18.886208 11.764784 -1.3754425 0.10578866 0.012539412 -0.99430966 0
-18.884541 11.765592 -1.3761789 0.031581484 -0.068056136 -0.99718159 0.043027006
-18.885031 11.766202 -1.3742682 0.082485199 0.16481468 0.98286945 0
-18.88357 11.767369 -1.3756716 0.050216991 0.03387703 0.99816352 0
-18.882456 11.770016 -1.3753383 0.12950203 -0.9364652 0.32597882 0
-18.881804 11.77115 -1.3763016 -0.027526716 -0.1989539 0.97962213 0
-18.882002 11.772214 -1.37427 0.089830503 0.098966189 0.99102783 0.081014968
-18.881302 11.773492 -1.375672 0.27778316 0.48341906 -0.83014601 0
-18.880659 11.776601 -1.3756337 -0.093369789 -0.99559748 -0.0082258657 0
-18.880211 11.779475 -1.3754239 0.12032555 0.10831198 -0.98680818 0
-18.879843 11.782459 -1.3753608 0.27906835 0.87704903 0.39103174 0.085298568
-18.879566 11.785427 -1.3753607 0.016277421 0.0052930885 -0.99985343 0
-18.879326 11.78842 -1.3753607 0.69381452 0.69230205 0.19834097 0
-18.879177 11.791438 -1.3753608 0.014549282 -0.033005137 -0.9993493 0
-18.879107 11.794489 -1.3753608 0.024755906 -0.029812887 -0.99924892 0
-18.879131 11.797576 -1.3753607 0.022378927 -0.061359018 -0.99786484 0
-18.879198 11.800407 -1.3753608 0.0011554225 -0.004519748 -0.99998909 0.046233486
-18.879337 11.803503 -1.3753225 0.0088192103 -0.26363277 -0.9645828 0
-18.87945 11.806646 -1.3754039 0.046964593 -0.067704216 -0.99659944 0.043171503
-18.87952 11.809589 -1.3753608 0.15281501 0.1548683 0.97604477 0
-18.879539 11.81247 -1.3753607 0.15208857 0.055376399 0.98681432 0
-18.879534 11.815357 -1.3753608 0.027462395 0.060395647 0.9977966 0
-18.87949 11.818488 -1.3753221 0.013065741 -0.27098006 -0.96249628 0
-18.879372 11.821649 -1.3754045 0.033200998 -0.039114587 -0.99868304 0
-18.87921 11.824601 -1.375361 0.066447467 0.035716709 0.99715048 0
-18.879103 11.827195 -1.3759286 0.4412269 0.40695506 0.79981643 0.095012754
-18.878916 11.827802 -1.3747462 0.65386349 -0.69218284 0.30552495 0
-18.879042 11.829268 -1.3764976 -0.11841583 -0.980528 -0.15666041 0.022011565
-18.878778 11.830422 -1.3753136 0.097271338 -0.040180553 -0.99444646 0
-18.878483 11.833445 -1.3753 0.1009055 -0.0029746562 -0.99489158 0.048503365
-18.87816 11.8366 -1.3754244 0.007885782 -0.036353927 -0.99930787 0
-18.877766 11.839602 -1.375361 0.044251762 -0.03712099 -0.99833053 0
-18.877331 11.842465 -1.3753608 0.012055631 -0.056097399 -0.99835253 0
-18.876881 11.845334 -1.3753612 0.032041062 -0.033016749 -0.99894106 0
-18.876362 11.848379 -1.3754226 -0.093550444 -0.99444747 -0.048192218 0
-18.875942 11.849863 -1.3744996 0.07703457 -0.054007962 -0.99556452 0
-18.876072 11.85072 -1.3763188 -0.028102674 -0.21977508 0.9751457 0
-18.875689 11.85174 -1.3752306 0.059446435 0.021049166 0.99800956 0
-18.875103 11.854445 -1.3753612 0.11200008 0.023939462 -0.99341977 0
-18.874342 11.857485 -1.3753216 0.27219522 0.057620291 0.96051532 0
-18.873537 11.860496 -1.3754535 0.015233538 -0.18747267 -0.98215163 0.032964151
-18.872955 11.861631 -1.3742089 -0.0047798278 -0.35534182 -0.93472415 0.042054009
-18.873123 11.862518 -1.3763219 0.53048086 0.82611156 0.19007844 0
-18.872545 11.863609 -1.3751689 -0.0060419254 -0.35470238 -0.93495977 0
-18.87167 11.866498 -1.3754228 0.029501306 -0.035967011 0.99891752 0
-18.870659 11.869401 -1.3753613 -0.008191511 -0.10501131 -0.99443734 0
-18.869907 11.870962 -1.374496 0.038345266 -0.06324771 -0.99726093 0
-18.870144 11.871213 -1.3760822 -0.0086596161 -0.04645947 0.99888265 0
-18.869413 11.872678 -1.3753129 0.045318823 -0.049579579 -0.99774152 0
-18.868231 11.875568 -1.3753611 0.0395656 -0.13778174 -0.98967206 0
-18.867298 11.877741 -1.3755918 0.12920049 -0.095162816 0.98704165 0
-18.86651 11.879083 -1.3751369 -0.27213979 -0.91709572 0.29133406 0
-18.865294 11.881514 -1.3753612 0.055944487 -0.047131926 0.99732083 0
-18.864321 11.883531 -1.3758726 0.073248953 -0.018675713 -0.9971388 0.12385874
-18.86334 11.884899 -1.3751421 0.11533476 0.24875805 -0.96167421 0.057590179
-18.861923 11.8873 -1.3754677 0.10116456 0.21227884 -0.97195852 0
-18.860806 11.888807 -1.374902 0.94531935 0.31315926 0.091118604 0
-18.86104 11.889043 -1.3765093 0.19501399 -0.078995682 -0.97761405 0
-18.859692 11.890625 -1.3753612 -0.025712108 -0.079634674 0.99649245 0
-18.858366 11.892527 -1.375361 0.29917535 -0.89139396 -0.34045693 0
-18.857359 11.893942 -1.3753607 0.017926147 -0.091029331 -0.99568683 0
-18.855827 11.896048 -1.3753612 0.06271109 0.12000745 -0.99079037 0
-18.854624 11.897673 -1.3753608 0.021559345 -0.083592884 -0.99626678 0
-18.853212 11.899504 -1.3753608 -0.28233248 -0.95854539 -0.038458701 0
-18.852037 11.901135 -1.3764987 0.19810806 0.23190388 -0.95235169 0
-18.850838 11.902484 -1.3753276 0.036463935 -0.00084392767 -0.99933457 0
-18.849258 11.904393 -1.3755735 0.012287204 -0.97286075 -0.23106498 0
-18.84796 11.905876 -1.3752978 0.57380265 0.66307092 -0.48071557 0.091124721
-18.846474 11.907543 -1.3752582 0.11939994 0.085974172 0.98911679 0.13933137
-18.845186 11.909047 -1.3754077 0.10152527 -0.14409871 -0.98434144 0
-18.843653 11.910789 -1.3752904 0.017105456 -0.077513814 -0.99684453 0
-18.842323 11.912257 -1.37542 -0.16196916 -0.92189431 0.35196155 0
