# .PCD v0.7 - Point Cloud Data file format
VERSION 0.7
FIELDS x y z normal_x normal_y normal_z curvature
SIZE 4 4 4 4 4 4 4
TYPE F F F F F F F
COUNT 1 1 1 1 1 1 1
WIDTH 675
HEIGHT 1
VIEWPOINT 0 0 0 1 0 0 0
POINTS 675
DATA ascii
-18.883377 11.794563 -1.3875043 0.016674301 0.029443298 -0.99942738 0
-18.881802 11.794608 -1.3862239 0.19771652 0.97302449 -0.11887634 0
-18.885435 11.797726 -1.3887906 0.04062672 0.032820776 -0.99863523 0.0041474588
-18.883581 11.79754 -1.3876994 -0.006681826 -0.10665186 -0.9942739 0
-18.881784 11.797559 -1.3861979 0.014096746 -0.13282742 -0.99103898 0
-18.885395 11.800668 -1.3887649 -0.013243938 -0.25358456 -0.96722257 0
-18.883394 11.800406 -1.3874923 0.069654733 -0.014596079 -0.99746436 0
-18.881851 11.800383 -1.3860923 -0.02426018 -0.18269925 -0.98286951 0
-18.885729 11.803814 -1.3888086 0.048298176 0.20146184 -0.9783048 0
-18.883549 11.803493 -1.3874444 -0.02371691 -0.079934873 -0.9965179 0
-18.885752 11.806372 -1.3886697 0.73460633 0.047093466 -0.67685729 0
-18.883646 11.806643 -1.3872918 0.089547299 -0.00051862822 -0.99598247 0
-18.885807 11.809562 -1.3885052 -0.13434552 0.29568568 -0.94579136 0
-18.883629 11.809551 -1.3871131 -0.034443423 0.092233315 -0.99514145 0
-18.885923 11.812487 -1.3884315 0.075015895 0.0389085 -0.99642301 0
-18.88345 11.812329 -1.3868085 0.13074221 0.20145999 -0.97073191 0
-18.886005 11.815555 -1.3883678 0.61277837 0.33082053 -0.71767718 0
-18.883816 11.815306 -1.3869718 0.084684581 0.0032685329 -0.99640244 0
-18.886158 11.818575 -1.3883425 0.10742871 0.31597066 -0.94266731 0
-18.883841 11.818457 -1.3868909 0.054150518 -0.021134507 -0.99830914 0
-18.886267 11.821458 -1.3883253 0.046309274 -0.25057 -0.96699023 0
-18.883841 11.821609 -1.3868318 -0.0037726578 -0.12156924 -0.99257576 0
-18.886271 11.824497 -1.3882504 -0.016788917 -0.43790469 -0.89886463 0
-18.883886 11.824659 -1.3868173 0.07108622 -0.086975947 -0.99367094 0.014393556
-18.888029 11.828702 -1.3889971 0.0090582957 -0.027593961 -0.99957818 0
-18.886246 11.827515 -1.3881602 0.065083772 -0.26707 -0.9614768 0
-18.883833 11.82747 -1.3867344 -0.09290643 -0.13500008 -0.9864803 0
-18.88802 11.830632 -1.3889568 -0.18752429 -0.32614267 -0.9265343 0
-18.886263 11.830534 -1.3881205 -0.14349426 -0.21799603 -0.965343 0
-18.883795 11.830406 -1.3867178 -0.0095582027 0.018011943 -0.99979204 0
-18.886488 11.833577 -1.3881986 0.061772119 0.28246972 -0.95728523 0
-18.883688 11.833426 -1.3866807 0.38466746 0.61346346 0.68970537 0
-18.886528 11.836552 -1.3882366 0.03012418 0.78962433 0.61285067 0
-18.88368 11.836446 -1.3867161 0.037651747 0.13738835 -0.98980141 0
-18.886658 11.83952 -1.3883675 0.1211597 0.88004929 0.45916614 0
-18.883831 11.839529 -1.3869298 0.014337865 -0.27996656 -0.95990264 0
-18.886543 11.84248 -1.3884046 0.019907642 -0.033122569 -0.99925303 0
-18.88352 11.842612 -1.3869091 -0.057940498 0.89069772 0.45088854 0
-18.886454 11.845498 -1.3884612 0.06983947 -0.4316707 -0.89932358 0
-18.883511 11.845495 -1.3870428 0.13057022 0.10946634 -0.98537737 0
-18.881945 11.845792 -1.3861603 0.12785698 -0.11770102 -0.98478377 0
-18.88624 11.84844 -1.3884656 0.35053203 -0.76497465 -0.54031581 0
-18.883419 11.848512 -1.3871583 0.84270769 -0.012968899 0.5382151 0
-18.881674 11.848793 -1.3862118 0.070887811 -0.06032129 -0.99565876 0
-18.905331 11.850454 -1.3886882 0.049580798 -0.088343374 -0.99485534 0
-18.886045 11.851418 -1.3885307 -0.0093457913 -0.059528399 -0.99818283 0
-18.883457 11.851523 -1.3873615 -0.089203082 -0.20425355 -0.97484529 0
-18.881365 11.851572 -1.3862826 0.86376131 0.083494224 -0.49693578 0
-18.904692 11.855014 -1.388248 0.081200533 0.13647084 -0.98731065 0
-18.885864 11.854391 -1.388694 0.10643373 0.12256211 -0.98673725 0
-18.883551 11.854462 -1.3876903 0.14663012 -0.11541241 -0.98243552 0
-18.881266 11.854549 -1.3865472 0.1425534 0.29122087 -0.94597524 0
-18.885408 11.857335 -1.3887837 0.96334952 0.1593062 0.21582226 0
-18.883341 11.857534 -1.387915 -0.073837385 -0.080149032 -0.99404436 0
-18.880695 11.857482 -1.386578 0.22167453 0.15876268 -0.96210957 0
-18.903786 11.859776 -1.3880537 0.11870354 -0.037953734 -0.99220413 0
-18.902908 11.859881 -1.3888502 -0.090620682 -0.15208277 -0.98420465 0.0085907755
-18.883593 11.860533 -1.3883768 0.070249222 -0.27813926 -0.95796841 0
-18.880518 11.860498 -1.3869088 -0.0067280009 -0.13837671 -0.9903568 0
-18.902214 11.863687 -1.3885169 -0.082180619 -0.03481476 -0.99600923 0.012312757
-18.883049 11.863534 -1.3885182 -0.018642142 -0.1927308 -0.98107457 0
-18.88044 11.863461 -1.3873012 -0.036566067 0.52390105 -0.85099393 0
-18.878571 11.86348 -1.3862858 -0.0090891114 -0.10487819 -0.99444354 0
-18.901186 11.867413 -1.3885003 -0.14701666 -0.10611038 -0.98342597 0.021195589
-18.882645 11.866421 -1.3887658 0.05737222 -0.0092764441 -0.99830979 0
-18.880596 11.866382 -1.3878255 -0.00568385 0.016878668 -0.99984139 0.0060370588
-18.878113 11.866649 -1.3865794 0.012051806 -0.07116773 -0.99739158 0
-18.901117 11.870238 -1.3876488 0.050901569 -0.340716 -0.93878734 0
-18.899876 11.870665 -1.388772 0.0084739486 -0.032534171 -0.99943471 0
-18.882103 11.868498 -1.3888447 -0.064352974 -0.070633553 -0.99542427 0
-18.880377 11.869435 -1.3882222 0.011043598 -0.19801977 -0.98013586 0
-18.877617 11.86954 -1.3868431 0.025848407 0.043251023 -0.99872983 0
-18.875954 11.870521 -1.3860277 0.12047457 0.086853579 -0.9889096 0
-18.899401 11.873487 -1.3883015 0.11166753 0.018576106 -0.993572 0
-18.880075 11.872373 -1.388574 0.29721114 0.30497128 -0.90479726 0
-18.877533 11.872442 -1.3873414 -0.1438307 -0.2158927 -0.9657656 0.042757388
-18.875513 11.872977 -1.3863277 -0.026097367 -0.15556212 -0.98748136 0.0090770945
-18.898455 11.876371 -1.3882704 -0.42034593 -0.16073976 -0.89301294 0
-18.879414 11.875166 -1.3887821 0.024896029 0.13523494 -0.99050075 0
-18.877476 11.875538 -1.3879471 0.93293929 -0.18590769 0.30832225 0
-18.875002 11.87555 -1.3866165 -0.14925863 -0.50955975 -0.84739053 0
-18.898113 11.87904 -1.3876952 0.2057703 0.4387736 -0.87472069 0
-18.877197 11.878415 -1.3884517 -0.045799058 -0.25030714 -0.96708262 0
-18.874464 11.878452 -1.3870665 0.18326037 0.24924484 -0.95094299 0
-18.872704 11.879139 -1.3862673 -0.13633028 -0.29407999 -0.94600797 0
-18.897978 11.881176 -1.3869542 -0.038664352 -0.228084 -0.97287345 0
-18.896612 11.881694 -1.3881999 0.021309549 -0.088569678 -0.99584198 0
-18.876503 11.881351 -1.3887969 0.10649868 0.0066881911 -0.99429035 0
-18.874458 11.881456 -1.3878351 0.096779883 0.10262855 -0.99000055 0
-18.871977 11.881567 -1.3865484 0.052379832 -0.034372065 -0.99803549 0
-18.897221 11.884338 -1.3863654 0.060106445 0.052255746 -0.99682325 0
-18.895512 11.884646 -1.3880717 -0.10744438 -0.18915202 -0.97605187 0.048799209
-18.874235 11.884392 -1.3884698 0.011732307 0.060245987 -0.99811465 0
-18.871511 11.884461 -1.3871312 0.037199892 -0.11433958 -0.99274492 0
-18.869574 11.885129 -1.3862262 0.087061606 -0.05817068 -0.99450308 0
-18.894711 11.887324 -1.3876848 -0.015153363 0.17624004 -0.98423058 0.12163679
-18.893265 11.888231 -1.3887413 0.050473314 -0.056909967 -0.99710268 0
-18.87364 11.886902 -1.3887857 -0.0065054665 -0.023547892 -0.99970156 0
-18.871477 11.887465 -1.3879279 0.035196677 0.028808853 -0.99896508 0
-18.8689 11.887617 -1.3866394 0.080482975 0.053858843 -0.99529982 0.012220596
-18.894453 11.890286 -1.3865303 0.43002412 -0.0089729456 -0.90277278 0
-18.892527 11.890991 -1.3881788 0.067376629 0.17055072 -0.98304266 0
-18.871185 11.890331 -1.3885487 0.24376079 -0.58844167 -0.77091962 0
-18.868456 11.890471 -1.3873302 0.036739249 -0.22769052 -0.97304016 0
-18.86619 11.891069 -1.386353 0.12953424 0.6231789 -0.77127749 0
-18.891945 11.893604 -1.3874818 0.072973065 -0.043669119 -0.99637735 0
-18.870295 11.892469 -1.3887216 0.048705101 -0.15275966 -0.98706245 0.0016545422
-18.868387 11.893454 -1.3882301 0.013577878 -0.0078579858 -0.99987698 0
-18.865538 11.893558 -1.3869257 -0.056109078 -0.066562273 -0.99620336 0
-18.863541 11.894461 -1.3862466 0.039325368 -0.0057326942 -0.99921 0
-18.891918 11.89525 -1.3866848 -0.14305685 0.86254859 -0.48532945 0
-18.890236 11.896466 -1.3877711 0.0030433212 -0.13822676 -0.99039596 0
-18.867735 11.896084 -1.3887401 -0.32766438 -0.004225655 -0.94478476 0
-18.865452 11.8965 -1.3879362 0.021369506 0.037208356 -0.99907899 0
-18.862621 11.896743 -1.3866816 0.24845274 -0.079369068 -0.96538681 0
-18.860872 11.897982 -1.3863055 -0.1126212 0.090264015 -0.98952961 0
-18.889196 11.899328 -1.3872898 0.14949515 0.16332541 -0.97517997 0
-18.887264 11.900423 -1.388628 0.31585136 0.17793748 -0.93197435 0
-18.86504 11.899292 -1.3886503 0.015141013 0.06242869 -0.99793458 0
-18.862547 11.899473 -1.3876786 -0.040903743 0.004705708 -0.999152 0
-18.859821 11.899824 -1.3865818 -0.11020149 0.084400907 -0.99031919 0
-18.888514 11.901622 -1.3866496 0.49935135 0.86639768 -0.0018095047 0
-18.88657 11.90272 -1.3880103 -0.25290608 -0.40624201 -0.8780694 0
-18.862129 11.902313 -1.3885063 0.060713641 -0.11601418 -0.99139023 0.023043446
-18.859524 11.902478 -1.3875397 -0.01371679 -0.027556755 -0.99952608 0
-18.856945 11.902789 -1.386534 -0.021213157 -0.10934813 -0.99377716 0
-18.885817 11.905324 -1.3870925 0.10194823 0.10226125 -0.98951966 0
-18.88435 11.905214 -1.3886184 -0.10410135 -0.29460955 -0.94993067 0
-18.859255 11.905093 -1.3884784 0.15113184 -0.11463747 -0.98184389 0
-18.856541 11.905537 -1.3875834 -0.036748685 -0.076418437 -0.99639845 0
-18.853945 11.905803 -1.3865894 0.50341475 0.51908392 0.69074273 0
-18.883585 11.908197 -1.3873909 0.06995713 0.035829775 -0.99690628 0
-18.88179 11.908886 -1.3887228 -0.063608393 -0.11885028 -0.99087268 0
-18.858356 11.907289 -1.3889923 -0.054037005 -0.35691875 -0.93257117 0
-18.856173 11.908075 -1.3885763 -0.012326715 -0.12539946 -0.99202985 0
-18.853468 11.908394 -1.3876851 -0.10767366 -0.038811341 -0.99342847 0.060141414
-18.85071 11.908845 -1.3867415 -0.024892747 0.32533202 -0.94527215 0
-18.848566 11.909899 -1.3864186 -0.024082037 0.049836431 -0.99846691 0
-18.882608 11.910768 -1.386518 0.0092776855 -0.12014437 -0.99271309 0
-18.8806 11.91171 -1.3877695 -0.020204959 0.067778103 -0.99749583 0.081983015
-18.852884 11.910913 -1.3886881 0.85407841 0.51922148 -0.030968862 0
-18.850346 11.911419 -1.3879956 -0.04368579 -0.19460271 -0.97990882 0
-18.847694 11.911819 -1.3871123 0.043620385 -0.054094288 -0.99758261 0
-18.845856 11.912309 -1.3863657 -0.037911542 -0.16314141 -0.98587406 0
-18.87966 11.91419 -1.386701 -0.086933613 -0.28898752 -0.95337754 0
-18.877996 11.914481 -1.3880538 -0.084928147 -0.17991233 -0.98000956 0
-18.875591 11.915953 -1.3889884 -0.013459276 0.023791334 -0.99962628 0
-18.849924 11.913424 -1.3888421 -0.029991934 0.034462053 -0.99895591 0
-18.847288 11.914266 -1.3882846 0.048143953 0.020503296 -0.99862999 0
-18.844601 11.914599 -1.3873037 -0.018546753 -0.43379566 -0.90082037 0
-18.842669 11.915256 -1.3866419 -0.050433811 -0.41202998 -0.90977347 0
-18.876928 11.917014 -1.3869263 0.0026533545 -0.14542165 -0.98936623 0
-18.874769 11.917979 -1.3881183 -0.061680239 0.21928144 -0.97371006 0
-18.844185 11.916958 -1.3885056 0.17215607 0.061500803 -0.98314804 0
-18.841558 11.917567 -1.3876851 -0.06378682 -0.019718058 -0.99776876 0
-18.838938 11.918443 -1.386912 0.020737508 -0.082837664 -0.99634731 0.01812426
-18.873772 11.920435 -1.3869174 -0.16811144 0.014511409 -0.98566115 0
-18.87191 11.920843 -1.3881673 0.042964458 -0.0607711 -0.99722666 0
-18.840899 11.919705 -1.3886634 0.011781046 -0.040608484 -0.99910569 0
-18.838573 11.920572 -1.3881563 0.41436899 0.60677123 -0.67832661 0
-18.83605 11.921149 -1.3872455 0.049577657 -0.070496127 -0.99627918 0
-18.870937 11.923026 -1.3870542 0.054110236 -0.0044399947 -0.99852508 0
-18.868586 11.924023 -1.3879986 0.21595788 0.18442166 -0.95882785 0
-18.837664 11.922567 -1.3887658 0.17098662 0.35263598 -0.92000622 0
-18.8353 11.923461 -1.3882617 0.015582866 -0.13698086 -0.9904511 0
-18.832823 11.923828 -1.3871783 -0.14018422 -0.26000035 -0.95537859 0
-18.86805 11.92564 -1.386844 0.011832638 -0.038275316 -0.99919713 0
-18.865597 11.92664 -1.3877017 0.044780653 -0.048206471 -0.99783313 0
-18.8633 11.927485 -1.3884491 0.17738283 0.083945759 -0.98055518 0
-18.834553 11.925577 -1.3887868 -0.24312167 -0.58584368 -0.77309698 0
-18.832445 11.926401 -1.3883862 -0.02254831 -0.037446294 -0.99904424 0
-18.829716 11.92663 -1.3876476 0.21906149 0.79022044 -0.57233185 0
-18.826954 11.927559 -1.3874586 -0.086286463 0.45811155 -0.88469678 0
-18.864685 11.9285 -1.3864644 0.13326129 0.78157794 -0.60940742 0
-18.862259 11.929339 -1.3872334 0.028183725 0.1980906 -0.97977841 0.075407095
-18.859741 11.929993 -1.3881379 0.15504667 0.41961998 -0.89435989 0
-18.857475 11.930677 -1.3887141 0.25429088 -0.57930386 -0.77443093 0
-18.831743 11.928786 -1.3888918 0.075412914 -0.073957607 -0.99440593 0
-18.829546 11.92935 -1.3886588 0.22654271 0.077027112 -0.97095072 0
-18.826681 11.929416 -1.3883419 0.14831088 0.2664077 -0.95238167 0
-18.823748 11.929847 -1.3883631 0.030207608 0.077747442 -0.99651539 0
-18.820772 11.930157 -1.3885967 -0.10402025 -0.22387694 -0.96905053 0
-18.817272 11.9304 -1.3888924 -0.020131143 0.17102952 -0.98506021 0
-18.808311 11.930551 -1.388525 -0.015089856 0.053841092 -0.99843556 0
-18.859148 11.931613 -1.3868126 0.20524582 0.44874048 -0.86977363 0.036991075
-18.856482 11.932387 -1.3874856 0.061974719 -0.088941842 -0.99410689 0
-18.853687 11.933195 -1.3880494 0.048704591 -0.16752312 -0.98466438 0
-18.850988 11.933648 -1.3886682 0.56576478 0.62644327 -0.53617072 0
-18.828136 11.931087 -1.3889207 0.052640926 0.14084265 -0.98863149 0
-18.826214 11.931049 -1.3888996 0.11465427 -0.043376472 -0.99245805 0
-18.823582 11.93108 -1.3889761 0.015993748 0.086365834 -0.99613512 0
-18.807405 11.932581 -1.3877126 0.33349121 0.4151977 -0.84640086 0
-18.806931 11.933865 -1.3865014 0.75234413 -1.0220836e-05 -0.65877032 0
-18.855488 11.934182 -1.3860886 0.002034941 0.021381536 -0.99976933 0
-18.853197 11.934689 -1.3866717 0.03422505 0.50115645 -0.86467969 0
-18.850403 11.935193 -1.3872993 -0.031048711 -0.21050599 -0.97709936 0
-18.847515 11.935685 -1.3877366 0.020219715 -0.019175967 -0.99961168 0.038033817
-18.844519 11.936034 -1.3880985 -0.0086272322 0.0085388925 -0.99992633 0
-18.841393 11.936233 -1.3882829 0.018680451 0.025568947 -0.99949849 0
-18.838478 11.936135 -1.3881437 -0.012376028 -0.03227229 -0.99940252 0
-18.835506 11.935923 -1.3880467 0.03891097 0.056922961 -0.99762005 0
-18.8325 11.935836 -1.3879452 0.076924145 0.10612705 -0.9913727 0
-18.829586 11.935911 -1.3881322 0.035223737 -0.27114114 -0.96189487 0
-18.826826 11.936176 -1.3884673 0.013972399 0.18104483 -0.98337561 0.0047144531
-18.824306 11.936737 -1.3886967 0.11540703 0.074684031 -0.99050677 0
-18.807264 11.935766 -1.3877715 -0.058900695 -0.10346534 -0.99288744 0
-18.806929 11.935021 -1.3866329 0.030579323 0.069035515 -0.99714547 0
-18.847164 11.937203 -1.3862077 0.21631907 0.25404307 -0.94269204 0
-18.844263 11.937461 -1.3866284 0.76009947 0.62375337 -0.18215507 0.021015352
-18.841457 11.937654 -1.3867272 0.89132887 -0.28441462 -0.35304546 0
-18.83857 11.93758 -1.3866365 0.25860927 0.83680516 -0.48257467 0.0036388708
-18.835541 11.937425 -1.3864902 0.31655407 0.48526606 -0.81505239 0.02371748
-18.832558 11.937402 -1.3864042 0.035741866 0.087274566 -0.99554294 0
-18.829367 11.937608 -1.3866305 0.022681033 -0.023298569 -0.99947125 0
-18.826353 11.93787 -1.3870492 -0.09105733 -0.0053936085 -0.99583101 0
-18.823362 11.938335 -1.3874558 0.63273054 0.29037786 -0.71786678 0
-18.820518 11.938803 -1.3878466 0.092366017 -0.022602381 -0.9954685 0
-18.81765 11.939392 -1.3881239 0.002601051 0.015311732 -0.99987936 0
-18.814663 11.939609 -1.3885511 -0.037924714 -0.10163374 -0.99409872 0
-18.811527 11.93978 -1.3887554 0.048626181 -0.018370435 -0.99864811 0
-18.807961 11.938602 -1.3876395 0.10663993 -0.15965363 -0.98139632 0
-18.817299 11.940144 -1.386623 0.0353975 0.0024277929 -0.99937034 0
-18.814533 11.940264 -1.3872051 0.099490516 0.75528908 -0.64779627 0
-18.811563 11.940328 -1.3874866 -0.0056675449 0.012620116 -0.99990427 0
-18.808979 11.940377 -1.3874853 -0.052145656 0.99636775 -0.067320786 0
-18.888721 11.766224 -1.3854257 0.050835747 0.28875658 -0.95605189 0
-18.886524 11.767816 -1.3851639 -0.2581045 0.84910357 -0.46087444 0
-18.883974 11.768233 -1.3835911 0.27839583 0.70492375 -0.65236366 0
-18.885607 11.770054 -1.3854691 0.71258926 0.55480373 -0.42942902 0
-18.883745 11.770761 -1.3842353 0.010851292 0.18229735 -0.98318356 0
-18.885305 11.772474 -1.3858674 0.087981462 0.012438425 -0.99604446 0
-18.883425 11.773682 -1.3846152 0.07878834 -0.044612743 -0.99589258 0
-18.883169 11.776649 -1.3850503 0.080820739 0.10088968 -0.99160945 0.018030679
-18.881702 11.77682 -1.3834296 0.14892985 0.89280367 0.42511356 0.0022506816
-18.882788 11.779645 -1.3851119 0.32296726 0.48263243 -0.81409955 0
-18.881531 11.779924 -1.3837572 0.016511615 -0.040138014 -0.99905771 0.048971169
-18.882633 11.782731 -1.3854822 0.04187078 0.96725124 0.25034353 0
-18.881401 11.782744 -1.3841068 -0.46559727 0.40256029 -0.78813976 0
-18.88225 11.785626 -1.3856997 -0.038509209 -0.080400951 -0.99601841 0
-18.881163 11.785802 -1.3841766 0.1395594 0.040484533 -0.98938572 0
-18.88102 11.788563 -1.3844106 0.72233373 0.55023336 -0.41889992 0
-18.880884 11.791438 -1.3844608 0.034983773 -0.019507194 -0.99919748 0
-18.880869 11.794456 -1.3845406 -0.16460542 0.59562576 -0.7862156 0
-18.880852 11.797525 -1.3843809 0.031105511 -0.11541506 -0.99283022 0
-18.881023 11.80042 -1.3844268 0.023568533 -0.051019952 -0.99841952 0.062827423
-18.881378 11.803509 -1.3847648 0.51067203 0.78917944 -0.34118912 0
-18.882086 11.807078 -1.3857657 0.053506494 0.096024543 -0.99393982 0
-18.881395 11.806476 -1.3844368 0.57226729 0.63147563 0.52320999 0.027325761
-18.882202 11.80978 -1.3856131 0.0030706148 -0.065091275 -0.99787462 0
-18.881464 11.809551 -1.3841701 0.30017099 0.76706696 -0.56701469 0.014664503
-18.882202 11.812878 -1.3853532 0.074533246 0.080701753 -0.99394768 0
-18.881573 11.812459 -1.3840297 0.0046489947 -0.0021096799 -0.99998701 0
-18.882484 11.815336 -1.3856887 0.083573185 -0.34110254 -0.93630368 0
-18.881639 11.815432 -1.3840257 0.25172052 -0.064857446 -0.96562427 0
-18.882368 11.818555 -1.3854016 0.63797122 0.73448652 0.23134892 0
-18.881641 11.818443 -1.3839988 0.080380782 0.01148677 -0.99669808 0
-18.882429 11.821526 -1.385504 0.0047161924 -0.21585169 -0.9764148 0
-18.88162 11.82172 -1.3840145 0.082359642 -0.13592972 -0.98728925 0
-18.88245 11.824462 -1.3855824 -0.071823582 -0.082639083 -0.99398804 0
-18.88154 11.82454 -1.3839993 0.18176533 -0.20927759 -0.96081436 0
-18.882416 11.827225 -1.3855727 0.076446228 -0.19761583 -0.97729415 0
-18.881367 11.827497 -1.3839276 0.2617543 0.73980278 -0.61981976 0
-18.882345 11.8304 -1.3855951 0.083460808 0.00096664554 -0.99651062 0
-18.881287 11.830444 -1.384119 -0.20698428 -0.28849578 -0.93484104 0
-18.882298 11.833387 -1.3856527 -0.0011334894 0.026221616 -0.99965549 0
-18.881226 11.833549 -1.3843212 -0.27691674 -0.31127402 -0.90907949 0
-18.882397 11.836691 -1.3858682 -0.11066086 -0.21481311 -0.97036558 0
-18.881168 11.836641 -1.3845522 0.076092914 0.10471752 -0.99158669 0
-18.882265 11.839475 -1.3859491 -0.13826174 -0.45665446 -0.87883455 0
-18.880762 11.839564 -1.3843291 0.14843546 0.10433304 -0.98340297 0
-18.882191 11.841061 -1.3859979 -0.031775311 -0.057580214 -0.9978351 0
-18.880688 11.842399 -1.3846833 0.054425851 -0.072976984 -0.99584752 0
-18.880245 11.845536 -1.3846027 0.41030106 0.867594 0.28095153 0
-18.880163 11.848457 -1.3850336 -0.11876963 -0.25428316 -0.95980924 0
-18.878809 11.848604 -1.3834056 -0.0076719355 -0.073756263 -0.9972468 0
-18.879818 11.851308 -1.3851908 -0.032040186 -0.041534297 -0.99862325 0
-18.8785 11.851401 -1.3837674 -0.20521085 -0.19021538 -0.96005553 0
-18.879774 11.854319 -1.3856138 -0.025184508 -0.25244695 -0.96728295 0
-18.878172 11.854579 -1.3841631 0.08977402 0.047567189 -0.99482554 0
-18.879377 11.857079 -1.3857133 0.083452411 -0.052847981 -0.9951095 0
-18.877748 11.857602 -1.3843702 0.061869908 0.0047079837 -0.99807316 0
-18.877369 11.860363 -1.3847216 -0.0050503099 -0.017698226 -0.9998306 0
-18.875767 11.861316 -1.3830427 0.032670449 0.48927605 -0.87151682 0.034150988
-18.87701 11.863506 -1.3852279 -0.02032694 -0.26995993 -0.96265703 0.036620028
-18.875422 11.863894 -1.3837792 -0.3405551 -0.44673315 -0.82731599 0
-18.876654 11.86634 -1.3856035 -0.19053389 0.087513678 -0.97777206 0
-18.875011 11.86671 -1.3843054 0.053945266 -0.011702404 -0.99847531 0
-18.876141 11.868939 -1.385856 -0.49884409 -0.036413934 -0.8659265 0
-18.874367 11.869541 -1.3845799 -0.046986703 -0.12735707 -0.99074334 0
-18.872904 11.870751 -1.3834386 0.15281403 -0.00010223339 -0.9882549 0
-18.874149 11.872519 -1.3853474 0.51418424 0.74506956 0.42483646 0
-18.872498 11.872547 -1.3838431 0.11947142 0.9471702 0.29764941 0
-18.873522 11.875214 -1.3856639 0.037061017 0.019830059 -0.9991163 0.013121407
-18.87182 11.875684 -1.3844075 0.060828559 -0.092076704 -0.99389225 0
-18.871155 11.878431 -1.3848838 0.031590167 0.14609765 -0.98876572 0.040936518
-18.869602 11.879161 -1.3835588 0.017902253 -0.27321011 -0.96178782 0
-18.870634 11.881254 -1.385605 0.047765631 0.022435322 -0.99860662 0
-18.869003 11.881531 -1.3842669 0.19148208 -0.78962916 -0.58294117 0.023322681
-18.868273 11.884296 -1.3849866 0.051952701 -0.072572149 -0.99600917 0
-18.866629 11.885201 -1.3837662 0.09316729 0.073360182 -0.99294412 0
-18.89724 11.888474 -1.3842453 0.01487524 0.1490877 -0.98871207 0.033888124
-18.896835 11.887162 -1.3854499 -0.12975939 0.5101732 -0.85022694 0.023155242
-18.867542 11.887115 -1.3856574 0.079228096 -0.039029311 -0.99609214 0
-18.86578 11.887713 -1.3844401 0.032877337 -0.11484123 -0.99283963 0
-18.896048 11.891296 -1.3840945 0.0073941359 -0.21729876 -0.97607714 0
-18.864983 11.890152 -1.3851386 0.014467937 -0.30771327 -0.95136917 0
-18.863224 11.890824 -1.3838141 -0.0085471487 -0.042647123 -0.99905366 0
-18.894699 11.893412 -1.3845156 0.087090865 0.075711407 -0.99331915 0
-18.893267 11.894773 -1.3854325 0.022998611 -0.027321741 -0.99936217 0
-18.864376 11.89222 -1.385769 0.079872012 -0.14135 -0.98673224 0
-18.862434 11.893289 -1.3848821 0.070494361 -0.19266464 -0.97872919 0
-18.860762 11.894409 -1.3840514 0.17041972 -0.48671806 -0.85677457 0.058330689
-18.893122 11.896626 -1.3844818 -0.04981127 -0.10245331 -0.99348986 0
-18.861511 11.895601 -1.3856237 -0.39931679 0.91472095 0.061900675 0
-18.859591 11.89653 -1.3845179 0.51404411 0.73891568 0.43561718 0
-18.857931 11.89724 -1.383148 0.14325713 -0.10265449 -0.98434722 0.049012061
-18.891901 11.899255 -1.3842726 -0.18743448 0.015216715 -0.98215926 0
-18.890829 11.89971 -1.3852738 0.11999224 0.12273952 -0.98515832 0
-18.858915 11.898788 -1.3856359 -0.08932244 -0.13168527 -0.98725903 0
-18.856918 11.899712 -1.3844805 -0.083789445 -0.074062847 -0.99372739 0
-18.891434 11.901786 -1.3831054 -0.033076517 -0.33832544 -0.94044775 0
-18.889545 11.902531 -1.3848823 0.020589439 0.038869031 -0.9990322 0
-18.855772 11.901992 -1.3853872 0.34264302 0.73842728 0.58079332 0
-18.853868 11.903128 -1.3844966 0.0090982364 -0.25382861 -0.96720642 0.060229488
-18.888725 11.90448 -1.3844649 0.018588105 -0.024963021 -0.99951553 0.037683941
-18.887251 11.905996 -1.3850716 0.06132688 0.050485533 -0.99684012 0
-18.852686 11.905248 -1.385434 -0.029782016 0.01462421 -0.99944943 0
-18.851152 11.905774 -1.3842372 -0.0095689436 -0.11820561 -0.99294311 0
-18.886118 11.908551 -1.3844509 0.097242668 0.069031164 -0.99286383 0
-18.849968 11.907577 -1.385051 0.21107002 -0.22567691 -0.95106226 0
-18.847893 11.90917 -1.3845797 0.12529948 0.11739019 -0.9851495 0.062709548
-18.88505 11.910621 -1.3840425 0.14572538 0.028341237 -0.98891902 0
-18.883451 11.911649 -1.3849335 -0.18207049 -0.33421546 -0.92474347 0
-18.846458 11.91095 -1.3852918 -0.14764291 -0.057137463 -0.98738897 0
-18.844891 11.911774 -1.3843552 0.025702357 0.069230825 -0.99726957 0
-18.882595 11.913923 -1.383895 0.082651749 0.0067763026 -0.99655539 0
-18.880957 11.914593 -1.3850361 -0.050155241 -0.16985567 -0.98419178 0
-18.843426 11.913326 -1.3848631 0.0035060383 -0.012481353 -0.99991596 0
-18.841324 11.914917 -1.3844773 0.67598909 0.73597097 0.037220813 0
-18.879747 11.916698 -1.3844272 0.1616438 -0.026579592 -0.9864912 0
-18.878031 11.918175 -1.3848352 0.043959003 -0.10341454 -0.99366647 0
-18.840763 11.916042 -1.3856111 0.014839613 0.17343001 -0.98473442 0
-18.838367 11.917623 -1.3848424 -0.20712799 -0.33136708 -0.92048562 0.050969489
-18.876919 11.920352 -1.3839104 0.10433429 -0.17428333 -0.9791525 0
-18.875027 11.921124 -1.3851037 0.11133317 0.0095520448 -0.99373722 0
-18.83539 11.920069 -1.3844956 -0.024425771 -0.059533138 -0.99792749 0
-18.832817 11.921966 -1.3830705 -0.22803117 0.023822971 -0.97336239 0
-18.874001 11.923368 -1.3838786 0.019682581 0.09400966 -0.99537671 0
-18.871866 11.92429 -1.384995 0.48740321 0.76688123 0.41752994 0
-18.832666 11.9226 -1.3852786 0.1415718 0.26275164 -0.95442075 0
-18.870831 11.926156 -1.3839648 0.45139286 0.80479574 -0.38541976 0
-18.868729 11.926929 -1.3849893 -0.07052917 -0.43003497 -0.90005302 0
-18.866997 11.927717 -1.3855988 0.03715359 0.10396734 -0.99388653 0
-18.829098 11.925427 -1.3859965 0.16376169 0.19960946 -0.96609432 0
-18.867661 11.928862 -1.3837502 0.082751259 0.26042944 -0.96194011 0
-18.865574 11.929596 -1.3846204 0.00018900204 -0.14337979 -0.98966771 0
-18.863377 11.93044 -1.3853079 0.061577402 0.20444913 -0.97693849 0.027491348
-18.864597 11.931124 -1.3836238 0.0022192081 0.020422336 -0.999789 0
-18.862312 11.932028 -1.3842398 -0.33493245 0.059511725 -0.9403609 0
-18.859737 11.933002 -1.3848726 -0.030662751 -0.17487366 -0.98411328 0
-18.857244 11.93364 -1.385716 -0.0032006521 -0.10660734 -0.99429607 0
-18.807278 11.932657 -1.3848329 0.061434451 0.047990989 -0.99695671 0
-18.858835 11.934553 -1.3836086 0.54877442 0.43122774 -0.71616298 0
-18.856346 11.935291 -1.3842866 0.0068817302 -0.019120619 -0.99979347 0
-18.853655 11.936099 -1.3848394 0.035544839 0.11694544 -0.99250203 0
-18.851168 11.936545 -1.3855196 0.14113939 -0.076138362 -0.98705757 0
-18.807047 11.93568 -1.3841699 0.0730047 0.066786788 -0.99509281 0.040565263
-18.806948 11.935294 -1.3851653 0.45983168 0.88424426 -0.0816506 0
-18.852863 11.937433 -1.3835832 -0.030914163 0.025232792 -0.9992035 0
-18.850252 11.937869 -1.3842605 0.06884589 0.1415887 -0.98752868 0
-18.847446 11.938426 -1.3845531 0.21303596 0.73226905 -0.6468367 0
-18.844471 11.939008 -1.384575 -0.011879357 -0.18523462 -0.9826225 0
-18.841423 11.939173 -1.3846893 0.091863066 0.76296574 -0.63987857 0
-18.838423 11.93906 -1.3845862 0.037472293 -0.18256612 -0.98247927 0
-18.835476 11.938766 -1.3846288 -0.01334574 -0.79778451 -0.60279495 0
-18.832537 11.938506 -1.3846515 0.079776399 -0.049453866 -0.99558526 0
-18.82958 11.938564 -1.3847144 0.16457115 -0.011334993 -0.98630005 0
-18.826591 11.938908 -1.3846726 0.045010719 -0.083982103 -0.99545014 0
-18.823702 11.93931 -1.3846776 0.086181708 0.039783977 -0.99548477 0
-18.820618 11.939683 -1.3846692 -0.20918901 -0.23714796 -0.94868374 0
-18.817692 11.939822 -1.3840153 0.52395624 0.80908406 0.26618195 0
-18.814465 11.939885 -1.3835437 -0.13474789 -0.23283222 -0.96313661 0
-18.811493 11.939933 -1.3834538 0.10262726 -0.43818349 -0.89300776 0.03815021
-18.807508 11.93854 -1.3844999 -0.046656612 0.085174747 -0.99527305 0
-18.843052 11.940126 -1.3831029 0.026380869 0.18673399 -0.9820562 0
-18.841387 11.94007 -1.3832182 0.029690012 -0.083003283 -0.99610686 0
-18.838997 11.940048 -1.3831667 0.0099164043 -0.12168448 -0.99251926 0
-18.817165 11.940115 -1.3854802 -0.2007582 0.97769785 -0.061669782 0
-18.814419 11.94016 -1.3850902 -0.0067156106 -0.47246706 -0.88132274 0
-18.811621 11.940198 -1.3849977 0.1076873 -0.15351455 -0.982261 0
-18.808722 11.94033 -1.3847848 -0.15742683 -0.36462131 -0.91775167 0
-18.883022 11.768239 -1.3817762 0.16478588 -0.37994871 -0.91021127 0
-18.882397 11.770188 -1.3819102 -0.051592149 -0.15916365 -0.9859032 0
-18.881804 11.771307 -1.3806547 -0.077829815 -0.18651274 -0.97936481 0
-18.882071 11.772496 -1.3826641 -0.010827577 -0.091168225 -0.99577659 0
-18.881582 11.773493 -1.3816752 0.091953151 0.1422371 -0.98555225 0
-18.881016 11.776348 -1.3813891 0.057958189 0.10848368 -0.99240726 0
-18.88073 11.779485 -1.3816804 0.4509522 0.89081889 0.055533204 0
-18.880449 11.782568 -1.3815757 0.2522715 0.96686316 0.03917589 0.0099183787
-18.880188 11.785396 -1.3813636 0.68123424 0.71300274 -0.16597265 0
-18.879986 11.78852 -1.3814471 0.47057396 0.86859065 -0.15527518 0.10289909
-18.879869 11.791534 -1.3815056 0.042770047 0.0058710501 -0.99906772 0
-18.879837 11.794543 -1.3815176 -0.005302005 0.0032172527 -0.99998075 0
-18.879894 11.79751 -1.3814118 0.06008238 -0.046153408 -0.99712586 0
-18.880056 11.800636 -1.3813879 0.38706604 0.079775572 -0.91859442 0.14293197
-18.880281 11.803501 -1.3816032 0.19150971 0.34382999 -0.91929597 0.13880551
-18.880466 11.806474 -1.3816615 0.93179804 0.33533663 -0.1389308 0
-18.880602 11.809488 -1.3815341 -0.0031560508 -0.17210622 -0.98507333 0
-18.880701 11.812529 -1.3814442 0.011592198 0.050080281 -0.99867791 0
-18.88077 11.815582 -1.3815005 0.016801445 0.026955023 -0.99949539 0
-18.880857 11.818489 -1.3817332 -0.0065714554 -0.18989964 -0.98178148 0
-18.880745 11.821455 -1.381528 0.075258762 0.16363846 -0.98364556 0
-18.880587 11.824615 -1.381458 0.043841347 -0.019438211 -0.99884933 0
-18.880453 11.827596 -1.381538 0.16059816 0.061694868 -0.98508978 0.087827593
-18.880203 11.83052 -1.3813864 0.87700474 0.37416229 -0.30143857 0.00022121111
-18.880013 11.833516 -1.3815447 0.02136991 0.063523129 -0.99775153 0
-18.879776 11.836498 -1.3816618 0.09660551 0.059486508 -0.99354357 0
-18.87945 11.839415 -1.3816537 0.1153386 0.0076850047 -0.99329656 0
-18.87888 11.840261 -1.3803263 -0.061085429 -0.21521521 -0.97465426 0
-18.879333 11.842487 -1.3823838 0.20056079 0.013153668 -0.97959304 0.06162931
-18.878716 11.842658 -1.3808537 0.081873611 -0.058563985 -0.99492067 0
-18.879013 11.844597 -1.382405 0.36033499 0.47852403 0.80073309 0
-18.878443 11.845628 -1.3813478 -0.044649322 -0.084429115 -0.99542862 0
-18.878042 11.848513 -1.3816266 0.013516839 0.17203347 -0.98499835 0
-18.87742 11.851563 -1.3814905 0.11685372 0.98318177 0.1403521 0
-18.876812 11.854561 -1.3815012 0.10513975 -0.030647317 -0.99398506 0
-18.876348 11.8572 -1.3818853 0.0026413328 -0.0014675525 -0.99999547 0
-18.875673 11.858128 -1.3806893 -0.1257402 -0.22139129 -0.96704465 0
-18.876104 11.859536 -1.3827167 0.15871473 0.93140924 0.32754606 0
-18.87528 11.860575 -1.3813845 -0.0017532647 -0.00041985229 -0.99999839 0
-18.874466 11.863461 -1.3814803 0.011237811 -0.046240378 -0.99886715 0
-18.873644 11.86631 -1.3816394 -0.033731252 -0.041396391 -0.99857324 0
-18.872761 11.867514 -1.3803444 -0.10596885 -0.3083899 -0.94533926 0
-18.873333 11.868366 -1.3826078 -0.039347623 0.012833866 -0.99914318 0
-18.872406 11.869627 -1.3813986 0.047896441 -0.11360342 -0.99237096 0
-18.871372 11.872571 -1.3815302 0.014110349 -0.25634968 -0.96648109 0
-18.870478 11.875233 -1.3819431 0.61175525 0.22340128 -0.75884604 0.02037053
-18.869688 11.875998 -1.3807931 0.13008444 0.049321633 -0.99027538 0
-18.868853 11.878551 -1.3814731 0.10757393 -0.40658769 -0.90725654 0.10240491
-18.867722 11.881244 -1.3818926 0.097562551 0.087290227 -0.99139398 0
-18.866724 11.882234 -1.3807279 0.061851323 -0.055865027 -0.99652076 0.041206889
-18.865816 11.884491 -1.3815093 -0.13533601 -0.55055326 -0.82375681 0
-18.864536 11.887065 -1.3819871 0.0021536318 0.92752671 0.37375066 0
-18.863363 11.888221 -1.3810519 0.171946 -0.31840223 -0.93223101 0.040720351
-18.862131 11.890433 -1.3815154 0.47483584 0.03261866 -0.87946975 0.035353225
-18.860985 11.891405 -1.3806385 -0.10632326 0.30711406 -0.94571465 0
-18.897127 11.893846 -1.3810455 0.16654706 -0.080996908 -0.98270118 0
-18.861404 11.892631 -1.3829741 0.15547183 0.29068023 -0.94410461 0
-18.859821 11.893728 -1.3816512 0.075077437 0.026114265 -0.99683571 0
-18.89535 11.896788 -1.3814665 0.11669654 -0.054003667 -0.99169827 0.10379923
-18.85828 11.895709 -1.3815813 0.042070229 -0.11175319 -0.992845 0
-18.857025 11.897158 -1.3813686 0.37653446 -0.092549264 -0.92176807 0.040255472
-18.89518 11.898396 -1.3804117 -0.0036895233 0.014530685 -0.99988765 0.04410731
-18.85582 11.899 -1.3819008 -0.11608922 -0.20765439 -0.97128934 0.060377669
-18.854435 11.900126 -1.3810593 0.273004 0.91837555 0.2864528 0
-18.891273 11.903362 -1.382062 0.29693282 0.72070426 -0.62643135 0
-18.852989 11.902237 -1.3817731 0.15286544 0.10827643 -0.98229742 0
-18.851147 11.903713 -1.3807867 -0.014959266 -0.12127186 -0.99250662 0
-18.891626 11.90452 -1.3805374 0.14766426 0.35507551 -0.9231016 0.039894197
-18.889114 11.906391 -1.3825153 0.12247957 0.27672541 -0.95311165 0
-18.850092 11.905274 -1.3816593 0.12612465 0.16714598 -0.97783172 0
-18.848475 11.906427 -1.3806598 -0.12811172 0.21054827 -0.96915263 0
-18.889051 11.90851 -1.3806124 0.065537274 -0.025574954 -0.99752235 0
-18.887663 11.908833 -1.3823237 0.93159455 0.35009569 -0.097799011 0
-18.847382 11.908097 -1.3819041 0.11937695 0.066099279 -0.99064624 0
-18.845625 11.909484 -1.3811728 0.034788106 -0.017847119 -0.99923533 0
-18.886063 11.911854 -1.3815953 0.211371 0.31010658 -0.92690682 0
-18.884285 11.912961 -1.3828411 0.10011437 -0.17745396 -0.97902358 0
-18.844072 11.911263 -1.3818452 0.49869385 0.83810031 0.22111572 0
-18.842398 11.912333 -1.3802224 0.55107796 0.7957564 -0.25116697 0
-18.885141 11.914163 -1.3804675 0.22616109 0.032364499 -0.97355211 0
-18.883741 11.914648 -1.3818221 0.0070607308 -0.081058532 -0.99668437 0
-18.881771 11.915907 -1.3829651 0.469363 0.88261771 0.026160473 0
-18.841215 11.91394 -1.3819878 0.0088958023 -0.012270845 -0.99988514 0.094499797
-18.839533 11.915259 -1.3812413 -0.0030329945 0.87315053 0.48744118 0
-18.882593 11.916707 -1.3811421 -0.062545843 -0.08259514 -0.99461854 0
-18.880789 11.918019 -1.3819536 0.049478047 -0.085656978 -0.99509543 0
-18.838184 11.916641 -1.3816693 0.50836354 0.73789775 -0.44392943 0
-18.836252 11.918541 -1.3820312 -0.027961925 0.44153959 -0.896806 0
-18.879679 11.920238 -1.3808891 0.038119003 -0.036030255 -0.99862343 0
-18.878101 11.920837 -1.3821136 -0.054609045 -0.2082224 -0.97655582 0
-18.83497 11.919654 -1.3812592 -0.043867536 -0.54708314 -0.83592796 0.025780002
-18.877163 11.922842 -1.3809463 0.22900209 0.93695998 -0.2639395 0
-18.875107 11.924151 -1.3818276 -0.049354065 0.39078462 -0.9191581 0.090356357
-18.873901 11.926064 -1.3808877 0.13452233 0.093113966 -0.98652601 0
-18.871933 11.926794 -1.3821138 0.12738428 0.070632704 -0.9893353 0
-18.870897 11.928609 -1.3809211 0.0026699081 -0.080266759 -0.99676985 0
-18.868643 11.929722 -1.3817694 0.33849889 0.44831437 -0.82730454 0.033170942
-18.866657 11.930527 -1.382628 0.21763533 0.65080082 -0.72738785 0
-18.867443 11.931704 -1.3803527 0.0025234371 0.00070551917 -0.99999654 0
-18.865362 11.932391 -1.3813753 -0.043944158 -0.012920417 -0.99895048 0
-18.862827 11.933366 -1.3822153 0.34299889 0.88841718 -0.30506825 0
-18.807356 11.933166 -1.3825617 -0.077748358 0.0090367198 -0.99693209 0
-18.862089 11.934696 -1.3810022 -0.030377522 -0.023991849 -0.99925053 0
-18.859449 11.935765 -1.3815492 0.022072995 0.90918487 -0.41580737 0
-18.856916 11.936533 -1.3822662 -0.077588752 -0.033926748 -0.99640805 0
-18.807173 11.935513 -1.3820434 0.018250464 0.078737259 -0.9967283 0
-18.856293 11.937617 -1.3810444 0.17289613 0.50548345 -0.84533626 0.025741884
-18.85351 11.938392 -1.3816772 0.18267877 0.011046535 -0.98311055 0.08597973
-18.850689 11.939333 -1.3817949 0.050248194 0.61556995 -0.7864787 0.049651507
-18.84766 11.939737 -1.3824792 0.13048357 -0.0085466141 -0.99141365 0
-18.837486 11.939873 -1.3826351 0.20215915 0.9649393 -0.16740313 0
-18.835421 11.93961 -1.3815491 -0.17385161 -0.008739572 -0.98473305 0
-18.832546 11.938928 -1.3815116 0.019054232 -0.02059206 -0.99960637 0
-18.829617 11.938535 -1.3815936 0.050676424 0.046584282 -0.99762809 0
-18.826534 11.938589 -1.3814667 0.48119724 0.83681554 0.26113015 0.033518419
-18.823225 11.938875 -1.3818297 0.22238354 0.21021602 -0.95202667 0
-18.820095 11.939222 -1.3822476 0.54065156 0.80365223 0.24867426 0
-18.816851 11.939351 -1.3821034 -0.02591273 -0.057707027 -0.99799722 0
-18.813856 11.939611 -1.3824025 0.073109902 -0.180906 -0.98077923 0
-18.81143 11.93966 -1.3825154 0.0180222 -0.040117875 -0.99903238 0
-18.807743 11.938403 -1.3821498 -0.48444825 0.84298295 0.2338582 0
-18.849697 11.94028 -1.3804492 0.46985871 0.65504974 0.59172857 0.014282426
-18.84734 11.940531 -1.3811271 0.18309088 0.92202872 -0.34108761 0.0050054048
-18.844568 11.940681 -1.3816271 0.0034178281 -0.057427227 -0.99834388 0
-18.841547 11.940634 -1.3816242 0.56858379 0.81196254 0.1320204 0
-18.838596 11.940291 -1.3815196 -0.0022301385 0.086089373 -0.99628496 0
-18.836903 11.940057 -1.3810922 0.40369403 0.81428373 -0.41710097 0
-18.808855 11.940021 -1.3829907 -0.069490515 0.025580218 -0.99725461 0
-18.882786 11.767674 -1.3787003 -0.15989211 -0.1800629 -0.97057295 0
-18.882103 11.769549 -1.3783793 -0.029036516 -0.054991059 -0.99806458 0
-18.881687 11.771101 -1.3786592 -0.062867507 -0.1731462 -0.98288769 0
-18.881166 11.773532 -1.3784673 0.099219777 -0.076831348 -0.99209493 0
-18.880581 11.776662 -1.3784232 0.04726509 0.037033889 -0.99819565 0
-18.880222 11.77949 -1.378638 -0.33056873 0.8835395 -0.33178639 0
-18.87994 11.782318 -1.3784143 -0.1851871 -0.31035593 -0.93240821 0
-18.879692 11.785578 -1.3786567 -0.015585959 -0.13953854 -0.99009407 0
-18.879423 11.788508 -1.3783742 0.04959378 -0.076908857 -0.99580389 0
-18.879292 11.791451 -1.3784332 -0.047150068 -0.078431249 -0.99580395 0
-18.879288 11.794454 -1.3785574 -0.0074113254 -0.029941339 -0.99952418 0
-18.879349 11.797531 -1.3784213 -0.10323813 0.94958293 0.29603058 0.073200218
-18.879459 11.800532 -1.378244 0.0056057521 -0.089932323 -0.9959321 0
-18.879654 11.803461 -1.3785485 0.038291775 -0.019618798 -0.99907404 0
-18.879854 11.806524 -1.3788092 0.18508813 -0.014320269 -0.98261756 0
-18.879923 11.809489 -1.3786145 0.20648305 0.9522208 -0.22503395 0
-18.880011 11.812475 -1.3786918 0.42115408 0.89968085 -0.11490739 0
-18.880018 11.815472 -1.3785561 0.1991578 -0.25026673 -0.94747174 0.15512186
-18.880013 11.818506 -1.3786068 -0.0061149197 -0.096556112 -0.99530876 0
-18.879948 11.821466 -1.3786345 0.02878369 -0.0062477924 -0.99956614 0
-18.879827 11.824462 -1.3787118 -0.1521266 -0.20793821 -0.96623975 0
-18.879599 11.827531 -1.3785268 0.47689378 0.7470113 -0.46319148 0
-18.879337 11.830419 -1.3783791 -0.065939955 0.02485919 -0.99751383 0
-18.878975 11.831936 -1.3774205 -0.022601118 -0.13836943 -0.99012285 0
-18.879234 11.833275 -1.3789566 0.03557023 0.051963162 -0.99801534 0
-18.878878 11.833905 -1.3777298 0.10278438 0.036671355 -0.99402738 0
-18.87911 11.836272 -1.3795528 0.14675669 0.96463597 0.21895181 0
-18.878656 11.836692 -1.3780187 0.046600904 0.010254427 -0.99886096 0
-18.878437 11.839474 -1.3784585 -0.08055006 -0.040095959 -0.99594378 0.058756571
-18.878027 11.84257 -1.3785684 0.010156378 -0.11148757 -0.99371392 0
-18.877571 11.845418 -1.3785255 0.48463336 0.84412491 -0.22931136 0
-18.877033 11.848548 -1.3785043 -0.076923802 -0.05843959 -0.99532288 0
-18.876528 11.851507 -1.3786522 -0.063019656 -0.38273013 -0.92170823 0
-18.875957 11.852289 -1.3770763 0.039988555 0.23761146 -0.97053683 0
-18.876217 11.853926 -1.3793218 0.012398535 -0.060525279 -0.99808967 0
-18.875662 11.854831 -1.3780632 0.030172963 -0.086758658 -0.9957723 0
-18.875126 11.85758 -1.3784999 0.040153984 0.081798114 -0.99583972 0
-18.874384 11.860438 -1.3785686 0.71976095 0.63559633 0.27921566 0
-18.873529 11.863323 -1.3786085 -0.030320778 -0.0092407772 -0.99949753 0
-18.87277 11.86463 -1.3774543 0.16283964 0.15149406 -0.97495276 0
-18.87332 11.865173 -1.3797728 -0.064876877 -0.15604812 -0.98561656 0
-18.872414 11.86667 -1.3784899 0.078342199 -0.2089211 -0.9747895 0
-18.871458 11.869464 -1.3785274 0.17358437 0.33780274 -0.92507178 0
-18.870516 11.872158 -1.3787938 0.12262883 0.070152521 -0.98997009 0
-18.869728 11.873334 -1.3777637 0.00059031963 -0.018016789 -0.99983752 0
-18.869007 11.875628 -1.3784721 -0.018360401 0.0033605879 -0.99982578 0
-18.867832 11.878403 -1.3787007 -0.15339331 -0.51903439 -0.84087682 0.035186011
-18.86677 11.879875 -1.3776425 -0.084069163 -0.14325762 -0.98610836 0
-18.86706 11.880763 -1.3797688 0.086886287 -0.00038831661 -0.9962182 0
-18.866167 11.88158 -1.3784127 0.80648124 0.14728168 -0.57262206 0
-18.864836 11.884161 -1.378613 -0.018209197 -0.048442233 -0.99866003 0
-18.863848 11.885665 -1.3783517 0.86411601 0.47777915 -0.1582108 0.083472505
-18.864033 11.886247 -1.3797635 0.020604283 -0.01267269 -0.9997074 0
-18.862522 11.887727 -1.3783551 -0.14473671 0.053333461 -0.9880318 0
-18.86133 11.889657 -1.3786612 0.27184951 -0.0043294155 -0.96233004 0
-18.860394 11.890962 -1.3785759 -0.082562558 -0.28964815 -0.9535656 0.03810861
-18.859051 11.893077 -1.3790133 0.094155587 0.056641929 -0.99394488 0
-18.857794 11.894519 -1.3785273 0.010379823 -0.014755352 -0.99983722 0
-18.856424 11.896426 -1.3787161 0.32771233 0.11972892 -0.93716043 0
-18.854769 11.897842 -1.3771058 -0.066964544 -0.22176023 -0.97279912 0.045691144
-18.895472 11.899134 -1.3793335 0.097587526 -0.019846229 -0.99502903 0.049256779
-18.853825 11.899584 -1.3785677 -0.28152892 0.86896211 0.40699667 0
-18.85231 11.901531 -1.3788807 -0.0037079218 -0.17189072 -0.98510903 0
-18.850874 11.902975 -1.3783267 0.035257332 -0.42275164 -0.90555948 0.054882381
-18.849537 11.90458 -1.3786622 -0.059774984 -0.15865397 -0.98552322 0
-18.848036 11.906133 -1.3784097 -0.014851199 -0.024701737 -0.9995845 0
-18.891325 11.907011 -1.3784504 -0.018502623 0.084824391 -0.99622416 0
-18.889603 11.909665 -1.3785151 0.040913653 -0.011534191 -0.9990961 0
-18.846804 11.907516 -1.3786426 -0.099127665 -0.15387589 -0.98310524 0.090274751
-18.845198 11.909201 -1.3787316 -0.075085744 0.022935884 -0.99691325 0
-18.88929 11.911191 -1.3772469 -0.014554829 -0.22474551 -0.97430873 0
-18.887663 11.911527 -1.3795912 0.0097061154 -0.025121428 -0.99963731 0
-18.843933 11.910557 -1.3784418 -0.012042136 -0.06391596 -0.9978826 0
-18.886492 11.914355 -1.3781279 -0.3247667 -0.44186383 -0.83623141 0
-18.884939 11.915582 -1.3791169 0.064222485 0.075039335 -0.99511033 0
-18.840889 11.913624 -1.3788824 -0.11842404 -0.3812612 -0.91685092 0
-18.883677 11.917678 -1.3784189 -0.0096981544 0.20329005 -0.97907054 0
-18.837029 11.917427 -1.379573 -0.050369717 -0.3127028 -0.94851446 0.028253047
-18.882414 11.919924 -1.3773527 -0.030908521 -0.09524788 -0.9949736 0
-18.880836 11.920952 -1.378399 -0.17991397 -0.032577366 -0.98314279 0
-18.835264 11.919303 -1.3793817 -0.018265404 -0.31682771 -0.94830728 0
-18.879177 11.922615 -1.3786433 0.055802874 0.20963991 -0.97618502 0.031858701
-18.877829 11.923831 -1.3788475 0.031426422 -0.18698609 -0.9818598 0
-18.876921 11.925419 -1.3778611 0.28808394 -0.38478708 -0.8768959 0
-18.874886 11.926873 -1.3785623 0.97794002 -0.11704113 0.17301624 0.051325601
-18.872776 11.927951 -1.3797702 -0.33224395 -0.19837783 -0.92209554 0
-18.8734 11.928534 -1.378015 0.14838184 0.12434349 -0.98108184 0
-18.871586 11.929685 -1.378585 0.056694493 -0.054641936 -0.99689519 0
-18.869637 11.930578 -1.3795981 -0.097442269 -0.097835258 -0.99042082 0
-18.87014 11.931398 -1.3775916 0.050635625 -0.19349934 -0.97979283 0
-18.868275 11.932224 -1.378533 -0.18149991 0.19320174 -0.96422547 0
-18.866041 11.933564 -1.3789552 0.121661 0.021137808 -0.99234658 0
-18.865221 11.934516 -1.3780751 0.031725034 0.083159201 -0.99603122 0
-18.862473 11.935779 -1.3786483 -0.054677635 0.19586647 -0.97910506 0
-18.860083 11.936728 -1.3793169 0.22154541 0.06025558 -0.97328669 0.10952935
-18.858768 11.937675 -1.378381 0.09164843 0.06661462 -0.99356079 0
-18.856312 11.938616 -1.3786013 0.1085261 -0.040592778 -0.9932645 0
-18.853508 11.939579 -1.3789333 -0.11854256 -0.34881234 -0.92966533 0
-18.83523 11.939599 -1.3785458 0.61330909 0.76319927 0.203418 0.025961455
-18.832558 11.938751 -1.3786386 0.018080089 -0.13667467 -0.99045098 0
-18.829992 11.938213 -1.3791077 0.40516013 -0.016233247 -0.9141016 0
-18.827642 11.938136 -1.3796682 0.0025337187 -0.0039643398 -0.99998891 0
-18.852413 11.940159 -1.3777351 0.024658743 0.95883864 -0.28287861 0
-18.850557 11.940519 -1.3784438 -0.03646718 0.15034632 -0.98796058 0
-18.847492 11.941071 -1.3786855 -0.042881295 -0.42218968 -0.90549266 0
-18.84444 11.94121 -1.3785361 0.45869184 0.88844377 -0.016414039 0.17441888
-18.841513 11.940943 -1.3785828 0.012574523 0.052220713 -0.99855644 0
-18.838493 11.940426 -1.3785887 -0.10069138 -0.017833289 -0.99475789 0
-18.836714 11.940042 -1.3787112 0.42649049 0.90346938 0.042998902 0
-18.882345 11.769553 -1.3759823 0.087367922 -0.025092542 -0.99586004 0
-18.881771 11.771363 -1.3760853 0.088446826 0.0337882 -0.99550766 0
-18.881161 11.773795 -1.3757629 -0.065791391 -0.069479033 -0.99541157 0
-18.880644 11.776399 -1.3758129 -0.079632044 0.19222274 -0.97811508 0.061350003
-18.880173 11.779585 -1.3754787 0.056491971 -0.10053946 -0.99332798 0
-18.879787 11.782649 -1.3757492 -0.0092552239 -0.19071205 -0.98160237 0
-18.879536 11.785647 -1.3758183 0.38263291 0.91875625 -0.097359836 0
-18.879314 11.788605 -1.3752227 0.010924279 -0.050658315 -0.99865627 0
-18.879173 11.791511 -1.3754582 -0.071677417 -0.2316983 -0.97014338 0
-18.879105 11.794446 -1.3756132 0.0016334167 -0.0073124873 -0.99997193 0
-18.879137 11.797516 -1.3755032 -0.046440396 -0.090646461 -0.99479973 0
-18.879206 11.800515 -1.3753554 0.09699557 0.18950333 -0.97707748 0
-18.879379 11.80354 -1.3757114 0.071242847 0.96649581 0.24659759 0
-18.879469 11.806458 -1.3755339 0.035599347 -0.00556358 -0.99935067 0
-18.879545 11.80946 -1.3755773 0.89024121 0.42275628 -0.16955157 0
-18.879566 11.812507 -1.3755006 0.072680689 0.98582047 -0.15124631 0
-18.879574 11.815547 -1.3756135 0.58955324 -0.59414274 -0.54719424 0.10036598
-18.87952 11.818515 -1.375515 0.042359043 -0.22416665 -0.97362977 0
-18.879431 11.821436 -1.3757305 -0.012434017 -0.16012226 -0.98701888 0
-18.879288 11.82437 -1.3757532 0.04223948 -0.12589942 -0.99114335 0
-18.879114 11.827032 -1.3758032 0.25770807 0.93204755 0.25470358 0
-18.878912 11.827903 -1.3746042 0.080565594 0.16107687 -0.983648 0.034153607
-18.879045 11.829424 -1.3764918 0.29053852 0.74884349 0.59566838 0.11970305
-18.878788 11.830459 -1.3753093 -0.54364562 0.24165963 -0.80377245 0
-18.878559 11.833434 -1.3757188 0.12548845 -0.15060882 -0.98059654 0.046612091
-18.878176 11.836458 -1.3752589 0.024572525 -0.080750532 -0.99643135 0
-18.877851 11.839412 -1.3756192 0.032549608 -0.078610584 -0.99637389 0.07644745
-18.877361 11.842547 -1.3755118 0.037975416 0.035140961 -0.99866062 0
-18.876913 11.845559 -1.3757011 0.086160347 0.093996003 -0.99183726 0
-18.876385 11.848416 -1.3754885 0.23743095 -0.41318679 -0.87914926 0.11214835
-18.876162 11.850692 -1.3765858 0.041375656 0.039250735 -0.99837238 0
-18.875727 11.851686 -1.3753225 0.03847554 0.99065095 0.13088273 0
-18.875105 11.854548 -1.375434 0.35559246 0.88651258 -0.29605642 0
-18.874393 11.857565 -1.3755991 0.031939927 -0.041374803 -0.99863303 0
-18.87359 11.860483 -1.3756003 -0.007225465 -0.10988498 -0.99391806 0
-18.872913 11.861924 -1.3743869 0.039565075 0.061547592 -0.9973197 0
-18.873129 11.862596 -1.3763881 -0.039263271 0.06852518 -0.99687648 0
-18.872551 11.863785 -1.3753794 -0.00057714258 -0.065715425 -0.99783826 0
-18.871748 11.866434 -1.3756254 0.4187257 0.77101171 -0.47980177 0.029978
-18.87068 11.869452 -1.3755169 0.027593588 -0.22059824 -0.97497439 0
-18.870138 11.871262 -1.3760952 -0.3577463 0.16590449 -0.91896319 0
-18.869486 11.872601 -1.3754728 0.020062579 -0.09970855 -0.99481446 0.072763748
-18.868315 11.875434 -1.3754802 -0.16728227 -0.16513641 -0.97198075 0.1684801
-18.867338 11.877792 -1.3758879 0.14353742 -0.13363437 -0.98058087 0.13782682
-18.86652 11.879176 -1.3753434 -0.68710929 0.41182312 -0.59856707 0
-18.86529 11.881626 -1.3755716 0.22325981 -0.076004408 -0.97179133 0
-18.864277 11.8836 -1.3758569 0.13282408 -0.38178328 -0.91465801 0
