# .PCD v0.7 - Point Cloud Data file format
VERSION 0.7
FIELDS x y z normal_x normal_y normal_z curvature
SIZE 4 4 4 4 4 4 4
TYPE F F F F F F F
COUNT 1 1 1 1 1 1 1
WIDTH 556
HEIGHT 1
VIEWPOINT 0 0 0 1 0 0 0
POINTS 556
DATA ascii
0.0056313761 0.056479737 -0.018308444 -0.5321635 -0.28049898 -0.79882568 0.003069706
0.0075585013 0.055617653 -0.019224405 -0.49698934 -0.32249591 -0.80560416 0.0046745194
0.01015361 0.055023566 -0.020461004 -0.44616324 -0.34716138 -0.8248741 0.0071861846
0.012096553 0.054258667 -0.020993117 -0.35809141 -0.463765 -0.81036574 0.001955888
0.04115013 0.054814287 -0.020136919 0.4948684 -0.68868124 -0.52992785 0.0012385476
0.043431696 0.056111988 -0.019193392 0.63145173 -0.61233521 -0.47572508 0.0017763983
0.0054071574 0.05879847 -0.018441042 -0.58139318 -0.034419797 -0.8128944 0.0031708132
0.0079797916 0.059016652 -0.020256776 -0.55030107 -0.026099412 -0.83455831 0.0070757046
0.0094214007 0.057034772 -0.020851349 -0.46487677 -0.29068682 -0.8362959 0.001593558
0.044332337 0.057965711 -0.020201569 0.71373987 -0.51494402 -0.47477165 0.0022318494
0.04574376 0.058959421 -0.019075722 0.75537729 -0.48010182 -0.44599035 0.0019804984
0.0056379074 0.061528008 -0.01829529 -0.59690744 0.21155421 -0.77391624 0.0034185385
0.0079003423 0.060996342 -0.020102719 -0.064614624 0.97951865 0.19070414 0.0069026784
0.0093767587 0.062419768 -0.020866137 -0.54814816 0.1782981 -0.81715572 0.0041350364
0.046776172 0.061431143 -0.019563407 0.82814795 -0.33247063 -0.45125848 0.0022557848
0.04809868 0.06279213 -0.018260438 0.87577772 -0.30550274 -0.37373996 0.0040872227
0.0080569452 0.064406924 -0.019120503 -0.56210166 0.42462963 -0.70974034 0.0029634852
0.0096698478 0.064903259 -0.02006243 -0.54685056 0.40773097 -0.73123866 0.0029678445
0.047421753 0.064444028 -0.020002032 0.8577947 -0.11227116 -0.50158107 0.0036285322
0.048240528 0.064803243 -0.018503346 0.90368837 -0.11474749 -0.41252923 0.0046137902
0.0086103519 0.066324025 -0.018265903 -0.53294647 0.55625045 -0.6376155 0.0012989477
0.011064808 0.067423217 -0.019362465 -0.51245081 0.53933448 -0.66821581 0.0030590754
0.013220079 0.068241782 -0.020349072 -0.48709029 0.55167377 -0.67705172 0.0025875752
0.047385663 0.067699172 -0.019999282 0.86112183 0.15353213 -0.48466188 0.0051673283
0.048211996 0.067332603 -0.018537462 0.90068197 0.15704894 -0.40510204 0.0058208131
0.01185618 0.069098353 -0.018210309 -0.50480932 0.64566767 -0.57295799 0.00054587692
0.014090802 0.069557495 -0.01958737 -0.46869835 0.64300358 -0.60569644 0.0016924328
0.016228864 0.070789285 -0.019802725 -0.44182625 0.68701774 -0.57688493 0.0008458118
0.018457551 0.071619421 -0.020456756 -0.41711572 0.70534146 -0.57315612 0.0005560742
0.044895455 0.071796507 -0.020811411 0.61254883 0.54805899 -0.56957459 0.0057045761
0.046553511 0.070560984 -0.019565554 0.80544049 0.40831918 -0.42958242 0.0038945235
0.04808164 0.069251865 -0.018045729 0.89449525 0.36790186 -0.25402063 0.0093097873
0.017277068 0.072424263 -0.018496839 -0.42819878 0.71538889 -0.55214548 0.00011219728
0.019961074 0.073228948 -0.019477872 -0.3988761 0.72800756 -0.55758661 0.00013576241
0.022518046 0.074249357 -0.019888815 -0.35886499 0.74518925 -0.56205761 0.00016237726
0.02472592 0.074714772 -0.020622022 -0.3101097 0.74911493 -0.58537072 0.00040556304
0.041572362 0.074688628 -0.020571962 0.44453347 0.73162699 -0.51682872 0.0029771347
0.043695062 0.073765077 -0.019659847 0.55900753 0.71434951 -0.42096958 0.0023488365
0.045533899 0.072628178 -0.018861515 0.66873991 0.60797775 -0.42796019 0.0034152055
0.023166323 0.075511448 -0.01864223 -0.35904258 0.75307584 -0.55133045 0.0001341946
0.025768138 0.076060899 -0.019438488 -0.29523817 0.76694536 -0.56976241 0.00038893128
0.028629424 0.076880403 -0.019560536 -0.17632145 0.80902666 -0.56070197 0.00080455159
0.031530347 0.077254429 -0.0197255 -0.069688201 0.83125061 -0.55151248 0.0010126637
0.034568477 0.077233277 -0.019774532 0.075088352 0.84966356 -0.52195168 0.0016845021
0.037571639 0.076851703 -0.019554295 0.2118921 0.84977764 -0.48267981 0.0016385373
0.040440414 0.075895749 -0.019419972 0.36467451 0.79967391 -0.47700539 0.0021702084
0.042526677 0.075268775 -0.018576384 0.49291611 0.75309223 -0.43575895 0.0020411096
0.029647883 0.078035548 -0.018154945 -0.15130842 0.83105993 -0.53520572 0.0017423076
0.031791303 0.078135356 -0.018336637 -0.039565384 0.8585313 -0.51123244 0.0016403074
0.034336146 0.078140981 -0.018261326 0.094148465 0.8779754 -0.46935621 0.0020037401
0.036150318 0.07807117 -0.018016187 0.16974108 0.8781594 -0.44724047 0.0026359067
0.040270045 -0.077292219 -0.015773628 0.47497976 -0.81146801 -0.34046134 0.0078984946
0.043898299 -0.075277984 -0.015332436 0.60141522 -0.75449729 -0.2627424 0.0044739605
0.043806799 -0.074787341 -0.016940059 0.55168962 -0.77580398 -0.30621383 0.0032378361
0.04588607 -0.073087327 -0.016289115 0.74413818 -0.62692255 -0.2307086 0.0038741336
0.047559541 -0.070229284 -0.017126586 0.91193897 -0.30753684 -0.27164027 0.0076078223
0.048244089 -0.069485262 -0.016130168 0.89778817 -0.38943532 -0.20571005 0.0063589001
0.048670802 -0.067342006 -0.016706007 0.9644776 -0.10588243 -0.24201608 0.0070334673
0.048822667 -0.064312786 -0.016568191 0.97273916 0.08598534 -0.21537195 0.0045281225
0.0023980252 -0.060976613 -0.015483638 -0.65071732 -0.14622569 -0.74510741 0.00033793264
0.0041310363 -0.061593719 -0.016810961 -0.63596952 -0.17096166 -0.75253898 0.00064856344
0.047744304 -0.060667768 -0.01726043 0.89569068 0.3230139 -0.30561441 0.0037832728
0.048411071 -0.061773609 -0.016311755 0.93453968 0.26230165 -0.24048582 0.0040773167
0.0022207927 -0.058338266 -0.015849119 -0.6578424 -0.036497116 -0.75227088 0.0035801041
0.0039774766 -0.058483258 -0.017253434 -0.61811775 -0.018485472 -0.78586811 0.002717532
0.046827868 -0.058401477 -0.016635669 0.8286739 0.46246541 -0.31531769 0.0023254368
0.048103828 -0.059737757 -0.01533993 0.88029915 0.41245773 -0.23441868 0.0036294162
0.0020350576 -0.055433135 -0.015438674 -0.55320203 0.3215791 -0.76847535 0.0020501022
0.0045251013 -0.054919276 -0.017145373 -0.50943065 0.37214363 -0.77587986 0.0024292874
0.044168565 -0.054943636 -0.016847504 0.69421881 0.61509985 -0.37378129 0.0015496559
0.045599435 -0.056153655 -0.016066289 0.75241762 0.56340456 -0.34123757 0.0021152587
0.0027606206 -0.0536974 -0.015417665 -0.52724463 0.39298064 -0.75337863 0.0017826766
0.004697613 -0.052416038 -0.016040692 -0.47428152 0.46976161 -0.74456769 0.0025850234
0.0071735405 -0.052021045 -0.017259056 -0.42395195 0.51735944 -0.74337327 0.0041004573
0.0092700357 -0.051297784 -0.017797386 -0.32367373 0.62727207 -0.70835376 0.0040430552
0.038609091 -0.051218439 -0.017672857 0.39499435 0.77322054 -0.49609414 0.0019346088
0.040825527 -0.05199552 -0.01674909 0.5036509 0.75118661 -0.4266783 0.0015347785
0.042878583 -0.05327313 -0.016179832 0.61978757 0.6734305 -0.40293279 0.0014931378
0.005584171 -0.050770819 -0.01538802 -0.42523053 0.5788402 -0.69578952 0.0040595718
0.0076228133 -0.050148148 -0.01588208 -0.33196995 0.67742014 -0.6564281 0.0033088496
0.010473922 -0.049560428 -0.016406029 -0.22656496 0.75707102 -0.61279011 0.0015810033
0.013388596 -0.048971783 -0.01653056 -0.14888601 0.80931664 -0.56818974 0.00027259576
0.016360288 -0.048775479 -0.016880365 -0.098508485 0.82665223 -0.55402356 0.00023491582
0.01942732 -0.048651237 -0.017089529 -0.054172516 0.83646435 -0.54533726 7.4460171e-05
0.022509582 -0.048554704 -0.01715561 -0.016172051 0.84147084 -0.54006028 9.6030999e-05
0.025506804 -0.048525468 -0.017134711 0.016846687 0.84446037 -0.53535295 9.1852242e-05
0.02850529 -0.048599798 -0.017055996 0.045700785 0.84459656 -0.53344935 9.023201e-05
0.031578224 -0.048690487 -0.016839266 0.093085282 0.83981764 -0.53482842 0.0002755473
0.034588732 -0.049027931 -0.01658939 0.19769417 0.83062959 -0.5205493 0.0010766502
0.037464812 -0.049893346 -0.016404321 0.35934201 0.7954812 -0.48793748 0.0013740115
0.039683033 -0.050640851 -0.015728557 0.47135785 0.76507974 -0.43871933 0.0018804612
0.014095654 -0.047901064 -0.015098952 -0.13557023 0.82121629 -0.55427831 0.00029219434
0.016663587 -0.047760088 -0.015372489 -0.088120319 0.83756715 -0.53918093 0.00013879208
0.019624129 -0.047671482 -0.015592195 -0.048371993 0.84433049 -0.5336349 7.6200966e-05
0.02254658 -0.047597263 -0.015657697 -0.011832328 0.84886175 -0.5284825 0.00011622551
0.025472961 -0.047615308 -0.015618742 0.019917808 0.8512615 -0.52436346 7.9326011e-05
0.028393706 -0.04766804 -0.015531484 0.048494924 0.85370731 -0.51849014 0.00011993241
0.031317126 -0.047793601 -0.015412118 0.10655028 0.85695326 -0.50425994 0.00059634179
0.033469964 -0.047878329 -0.015137865 0.19224603 0.85294491 -0.48531076 0.0020259649
0.018817646 0.047883704 -0.015174557 -0.050322827 -0.8441292 -0.53377295 0.0001535083
0.021468215 0.04782062 -0.015283734 -0.014816194 -0.85282481 -0.5219869 9.6825184e-05
0.024955213 0.047905013 -0.01542381 0.017999467 -0.85305434 -0.52151155 8.195523e-05
0.027914301 0.047861468 -0.015191714 0.050611656 -0.86382985 -0.50123501 0.00028042775
0.0071121459 0.050683215 -0.015759096 -0.4438417 -0.48897952 -0.7509352 0.001410392
0.010759129 0.049205627 -0.015509836 -0.19881919 -0.78224707 -0.59039021 0.0015625547
0.01344521 0.049828216 -0.017155394 -0.16357762 -0.79484195 -0.58435315 0.0032899035
0.016776999 0.048700433 -0.016165953 -0.087256283 -0.83473897 -0.54368854 0.00019902049
0.019744044 0.049091667 -0.017118679 -0.0517359 -0.83789068 -0.5433808 4.6365985e-05
0.022925694 0.048883505 -0.01700766 -0.017404448 -0.84345216 -0.5369224 6.9230686e-05
0.02557593 0.048669823 -0.016677348 0.015553536 -0.84955126 -0.52727669 7.4196134e-05
0.02859669 0.048810668 -0.016697982 0.044282857 -0.84542823 -0.53225017 6.2410196e-05
0.031584483 0.048988655 -0.016648076 0.10073655 -0.84723938 -0.52157217 0.00028733606
0.034623351 0.049431384 -0.016545247 0.22571483 -0.82677609 -0.51526117 0.0014087459
0.037626714 0.0504186 -0.01657217 0.36338109 -0.78426248 -0.50287825 0.0029782639
0.039588742 0.0508959 -0.015684377 0.44977775 -0.75076866 -0.48378348 0.0027293013
0.0046146777 0.052683979 -0.015890785 -0.49344605 -0.43517339 -0.75308371 0.0017312017
0.007286496 0.052537501 -0.017373078 -0.45584801 -0.46988702 -0.75591582 0.0021367243
0.0098577403 0.051157299 -0.017534882 -0.39622518 -0.52043653 -0.75640696 0.00107163
0.038093038 0.051328819 -0.017565817 0.3318142 -0.78680778 -0.52041602 0.0011603025
0.040655173 0.052236836 -0.016771749 0.49731296 -0.73175329 -0.46606532 0.0021304293
0.042660609 0.053304635 -0.015989739 0.59635967 -0.69805491 -0.39632633 0.0020090481
0.002261614 0.055785839 -0.01560369 -0.60227436 -0.2174674 -0.7680974 0.0030444793
0.0043434808 0.055440091 -0.017044118 -0.55531216 -0.26544347 -0.7881422 0.0041013877
0.044176813 0.055387676 -0.016888952 0.71244538 -0.59471452 -0.37247312 0.0019223731
0.045437302 0.056212887 -0.015879627 0.77338403 -0.54651111 -0.3212519 0.0029734746
0.0020594329 0.05860126 -0.015781494 -0.65432519 0.018336153 -0.75599104 0.0037966967
0.0039359652 0.058410313 -0.017290277 -0.62716115 -0.0024622988 -0.7788856 0.002395872
0.046853852 0.058808625 -0.016610207 0.84219098 -0.45359656 -0.29148686 0.0022867625
0.0023135806 0.061336149 -0.015511852 -0.64993173 0.24370244 -0.7198596 0.0028539109
0.0040890882 0.061430193 -0.017024262 -0.62194234 0.22871178 -0.74891829 0.0024152242
0.04766601 0.06081273 -0.017170647 0.89098841 -0.34556204 -0.29449368 0.0030238954
0.048386648 0.062003046 -0.016259795 0.92950064 -0.2717438 -0.24936663 0.0038607412
0.0047251778 0.064520545 -0.016118025 -0.59705436 0.49833336 -0.62864125 0.0017318365
0.0067469683 0.065286383 -0.017433729 -0.57855141 0.49025959 -0.65186173 0.0017383115
0.048797537 0.06456314 -0.016604859 0.97162992 -0.097885415 -0.21529905 0.0044982531
0.0057624485 0.066491619 -0.015435502 -0.55847329 0.60236609 -0.5703181 0.0005071378
0.0079016201 0.067457691 -0.016430072 -0.53258908 0.62026083 -0.5758692 0.0010000304
0.0099623147 0.068412796 -0.017300442 -0.52874291 0.62518275 -0.57408839 0.00076543895
0.048749745 0.067533039 -0.016552852 0.97095108 0.15094082 -0.18566318 0.0055947918
0.0089329537 0.069220647 -0.015322436 -0.52325565 0.65076876 -0.55018502 0.00019820643
0.011020315 0.070381217 -0.015839593 -0.48826292 0.68244141 -0.54394221 0.00027218272
0.012975947 0.071361177 -0.016338982 -0.46587831 0.70262873 -0.53783846 0.00016622322
0.015227549 0.071821421 -0.017602619 -0.45170102 0.70893478 -0.54164356 0.00014907666
0.047493696 0.071039744 -0.016859986 0.86827677 0.44590488 -0.2174038 0.004998852
0.048278879 0.069735438 -0.016213877 0.905303 0.37367347 -0.20197703 0.0064269188
0.013746792 0.072506018 -0.01551881 -0.45551917 0.71584159 -0.52921933 0.0001210167
0.016972899 0.073687114 -0.01658057 -0.42890093 0.73238927 -0.52881938 0.00015661081
0.019747989 0.074639581 -0.01743157 -0.39643648 0.74349934 -0.53855997 0.00014067274
0.044500578 0.07459908 -0.017034255 0.63352442 0.71897525 -0.28586963 0.0045235134
0.046071257 0.073246248 -0.016415957 0.75129074 0.61680567 -0.23476158 0.0054280697
0.017851045 0.075141191 -0.015162428 -0.41858965 0.74779886 -0.51534426 0.00012775666
0.020058731 0.075787447 -0.015991651 -0.39572397 0.75573504 -0.52179211 9.1498805e-05
0.022658871 0.07673315 -0.016534163 -0.36389682 0.7691288 -0.52537602 0.00018265641
0.025340691 0.077468991 -0.017223539 -0.29481804 0.79093814 -0.5361895 0.00079976511
0.027543016 0.077863373 -0.017723583 -0.18516928 0.83173603 -0.52338082 0.0016440265
0.038218666 0.077754624 -0.017447909 0.24448201 0.87928861 -0.40875411 0.0017955191
0.040633574 0.077148326 -0.01666843 0.37940776 0.85319597 -0.35791969 0.0016858672
0.043201789 0.075812824 -0.016367765 0.54489422 0.78116661 -0.30474418 0.0027345156
0.023627512 0.078052506 -0.01525028 -0.34575158 0.78667277 -0.51147026 0.0003970064
0.025772342 0.078576088 -0.01580397 -0.27153504 0.82845742 -0.4898234 0.0014222669
0.028592303 0.078884818 -0.016456975 -0.15653601 0.85512745 -0.49422011 0.00095068681
0.031541321 0.079104371 -0.016561473 -0.032348465 0.89021617 -0.45438835 0.0018076847
0.034540426 0.078971572 -0.016497584 0.13029084 0.90709817 -0.40024638 0.0015745541
0.037331197 0.078534007 -0.016221927 0.24889818 0.89906973 -0.36017126 0.0018532859
0.039427456 0.078175001 -0.015432392 0.36528319 0.86184293 -0.35184518 0.0019294225
0.043694392 -0.075746298 -0.013589815 0.61375374 -0.77925724 -0.1267461 0.011534365
0.044852335 -0.07473217 -0.013076972 0.74051476 -0.67179394 0.01819119 0.0077275769
0.046298679 -0.073111549 -0.013460253 0.80735457 -0.58997387 0.010464721 0.005297658
0.047535989 -0.071158335 -0.013381718 0.86939961 -0.49292359 0.034216646 0.0047107101
0.04826213 -0.069630742 -0.013580106 0.93262279 -0.34793296 0.095694393 0.0058449307
0.048824146 -0.06736052 -0.013561186 0.9799487 -0.19220245 0.052524548 0.0048568295
0.04912613 -0.064314902 -0.013801637 0.99823374 0.054186098 -0.024357008 0.0044633872
-0.00040437985 -0.06053897 -0.012986101 -0.66335166 -0.10658602 -0.74067807 0.0013386263
0.00085222838 -0.061352979 -0.013844095 -0.65972334 -0.16205588 -0.73382765 0.0001591469
0.04868415 -0.061271265 -0.013660882 0.97613311 0.21119048 -0.050623149 0.0043006749
-0.00078242231 -0.058247406 -0.013160116 -0.66854006 -0.061478678 -0.74113059 0.0025919718
0.00081227638 -0.058355734 -0.014566229 -0.67138553 -0.054216459 -0.73912251 0.0025282979
0.047498662 -0.058098853 -0.013668079 0.88668591 0.44228706 -0.13479701 0.0031598567
0.048172157 -0.059500713 -0.013191896 0.93084401 0.35217848 -0.097466782 0.0048266025
-0.00056005351 -0.055270977 -0.013280055 -0.59172612 0.27633643 -0.75729674 0.0019720187
0.00092176854 -0.055049974 -0.014388029 -0.59959352 0.19231097 -0.77685529 0.0050479188
0.044773176 -0.054231104 -0.014342308 0.72820985 0.64618742 -0.22836848 0.0024882117
0.046037659 -0.055579845 -0.013435907 0.8209033 0.54327625 -0.1759793 0.0041935798
-0.00058274291 -0.05276506 -0.012421328 -0.52497554 0.40677273 -0.74762064 0.0023130402
0.0015921484 -0.052334562 -0.013845642 -0.52372146 0.4367981 -0.73138458 0.0024954798
0.0036277939 -0.051385563 -0.014676572 -0.47991419 0.52475238 -0.70307702 0.0054848236
0.04170851 -0.051283736 -0.014349964 0.60797167 0.73103076 -0.30978122 0.0029097889
0.043432236 -0.052497867 -0.013476633 0.69535083 0.68120909 -0.22900093 0.0017639523
0.045085311 -0.053812716 -0.012403667 0.74981034 0.64270186 -0.15722218 0.0051436303
0.0020266201 -0.050264135 -0.01272972 -0.45166722 0.57513118 -0.68207103 0.0028560858
0.0045134579 -0.049441189 -0.013480081 -0.37099057 0.6591351 -0.65414602 0.0026061626
0.0073171668 -0.048706148 -0.014074699 -0.25461018 0.76420289 -0.59259397 0.00097433274
0.010228275 -0.048242629 -0.014545278 -0.19359231 0.7938686 -0.57644993 0.0007754229
0.012510643 -0.048014451 -0.014783482 -0.13888153 0.82223618 -0.55194175 0.00020437175
0.035643432 -0.048135161 -0.014674805 0.25201666 0.85754478 -0.44844678 0.0030141585
0.037803024 -0.048604265 -0.013792622 0.39461276 0.83331603 -0.38712418 0.0020580557
0.040366486 -0.049937863 -0.013417523 0.53882802 0.77756017 -0.32413664 0.0025630975
0.042124402 -0.050774951 -0.012472937 0.62151331 0.73851401 -0.26137766 0.0027918688
0.0055982172 -0.047836978 -0.012183045 -0.28766119 0.75693202 -0.58677506 0.0017806891
0.0078515401 -0.047575038 -0.012720422 -0.22900596 0.78728694 -0.57248181 0.00098020304
0.010736865 -0.047241688 -0.013198241 -0.16827534 0.81820107 -0.54975486 0.00022162031
0.013549033 -0.046932239 -0.013466936 -0.12296645 0.83572394 -0.5352053 0.00012519555
0.016551144 -0.046570461 -0.013467375 -0.078685865 0.84549606 -0.52815235 8.8105073e-05
0.019589825 -0.046382558 -0.013525113 -0.041271299 0.85225725 -0.52149242 9.549097e-05
0.022541216 -0.046305031 -0.013508295 -0.0042969268 0.85726804 -0.51485234 6.6355693e-05
0.025479898 -0.046341743 -0.013489815 0.031072196 0.86608547 -0.49892929 0.0001838625
0.028474038 -0.046468247 -0.01351169 0.056174446 0.87423205 -0.4822475 0.00052330579
0.03145821 -0.046748456 -0.01355688 0.12759866 0.89116073 -0.43537477 0.0016767969
0.034453552 -0.047175292 -0.013433889 0.23091853 0.89008462 -0.39297068 0.0030306296
0.036790118 -0.04761659 -0.012709559 0.35772327 0.85928637 -0.36559665 0.0032723465
0.0092953444 0.047571279 -0.012538105 -0.13881999 -0.83483744 -0.5327059 6.8976711e-05
0.013436554 0.047934961 -0.014322312 -0.1212763 -0.83595812 -0.53522539 0.00015212863
0.016599357 0.047057651 -0.01351448 -0.078032054 -0.84583443 -0.52770746 3.6069494e-05
0.020113556 0.046878219 -0.013629389 -0.043305494 -0.85233212 -0.52120495 0.00010478712
0.022919513 0.046964295 -0.013869275 -0.0071287542 -0.85851467 -0.51273942 9.1807669e-05
0.025494756 0.046726558 -0.013428085 0.038818125 -0.87190157 -0.48814023 0.00032752531
0.028627668 0.046900962 -0.013504339 0.052109707 -0.86690938 -0.49573448 0.00023448668
0.031587083 0.047202706 -0.01358719 0.11855114 -0.88679421 -0.44670096 0.0011973084
0.03462239 0.047497887 -0.013141873 0.2242918 -0.89055032 -0.39574403 0.0034641589
0.00093769911 0.050708726 -0.012029952 -0.46860793 -0.52826625 -0.70805472 0.0021189856
0.0046312846 0.050322492 -0.014053063 -0.45805475 -0.51984578 -0.72107297 0.0023640885
0.035412055 0.048564743 -0.014814268 0.24333374 -0.85463285 -0.45868441 0.0026025656
0.037598856 0.048755188 -0.013442369 0.42895263 -0.83368361 -0.34780931 0.0020204026
0.040240154 0.050259534 -0.013402287 0.50774211 -0.77978051 -0.36625168 0.0023638587
-0.00069829851 0.053338271 -0.01244551 -0.51796955 -0.37848297 -0.76711029 0.0029395595
0.0013530193 0.052629489 -0.013584577 -0.53757989 -0.40346047 -0.74042398 0.0028341587
0.0031970779 0.051032659 -0.01378841 -0.48003912 -0.48829022 -0.72879016 0.0039883698
0.041513603 0.051460713 -0.014133396 0.5757882 -0.75732535 -0.30810112 0.0043721562
0.043297034 0.052793432 -0.013511457 0.67028254 -0.69640601 -0.25639805 0.0027759785
-0.00096800929 0.055656198 -0.012927148 -0.64357316 -0.1546334 -0.74960136 0.0033543024
0.00087937876 0.055637494 -0.014429869 -0.62569362 -0.15579928 -0.76435208 0.0025633536
0.04474286 0.054363262 -0.013705102 0.72614491 -0.6519717 -0.21828091 0.0022018596
0.045901045 0.055857081 -0.01361718 0.81698525 -0.53902161 -0.20491645 0.0046262732
-0.0011409167 0.058633834 -0.012904519 -0.64969075 0.07514587 -0.75647539 0.0037912587
0.00047220424 0.058628809 -0.014366483 -0.648579 0.047854133 -0.75964153 0.0029992745
0.04725264 0.058169678 -0.013998296 0.86281872 -0.46264777 -0.20371795 0.0029904961
0.048114896 0.059794147 -0.013470558 0.92632496 -0.36177388 -0.10507857 0.0053918087
-0.00066903397 0.061080169 -0.012737279 -0.68521672 0.29327366 -0.66668481 0.0028235638
0.00090212817 0.061835226 -0.013963227 -0.65043616 0.31002453 -0.69341016 0.0051480569
0.048660323 0.061599057 -0.013755265 0.9678362 -0.23432632 -0.091565557 0.0044860574
-0.00010040323 0.063292377 -0.012132108 -0.63196355 0.46129909 -0.62275612 0.0017616579
0.0018252267 0.064445265 -0.013306687 -0.6116659 0.52290189 -0.59366524 0.0011808048
0.0038034446 0.065512002 -0.014418431 -0.57834858 0.58398855 -0.56962287 0.00036844757
0.049099367 0.064422719 -0.013770644 0.99635577 -0.077699229 -0.035184167 0.0041385982
0.0026140246 0.066273466 -0.012389414 -0.5926404 0.58122569 -0.55763257 0.00040815349
0.0046630343 0.06728816 -0.01338583 -0.57131898 0.60930818 -0.54985291 0.00045938801
0.006750064 0.068351775 -0.014269693 -0.54490191 0.63287771 -0.5500434 0.00019397083
0.048910458 0.067631505 -0.013725181 0.98469746 0.16611631 0.052691512 0.0055976235
0.0057173036 0.069073468 -0.012340182 -0.54542524 0.6400435 -0.54116142 7.4912416e-05
0.0078342361 0.070068792 -0.013218181 -0.52104902 0.66259664 -0.53802752 0.00011320294
0.010250323 0.071002878 -0.014353248 -0.48175138 0.69635415 -0.53198355 0.00017857191
0.047651481 0.071321748 -0.013349933 0.88554633 0.46286145 0.039585091 0.0041514584
0.048319444 0.069834948 -0.013697906 0.93571383 0.34957543 0.047292467 0.0054777656
0.011043672 0.072602019 -0.012924163 -0.47676575 0.70702583 -0.52231115 0.00012782341
0.013224845 0.073607266 -0.013515524 -0.45116583 0.72706372 -0.51752073 0.00011550732
0.015893791 0.074637249 -0.014318666 -0.42718309 0.74390578 -0.5139249 6.9297967e-05
0.044883098 0.074909903 -0.013762393 0.68586385 0.7266655 -0.039345253 0.0039464002
0.046201486 0.073592849 -0.013607276 0.80349731 0.59530509 -0.0019693498 0.0057617403
0.014489189 0.075136431 -0.012369288 -0.43699199 0.74165773 -0.50890255 6.5182321e-05
0.016856194 0.075905196 -0.01328317 -0.41987911 0.75608033 -0.50203991 0.00013330941
0.019634653 0.077141881 -0.013669688 -0.39659676 0.77667981 -0.48936644 0.00039935447
0.021865683 0.077662401 -0.014546894 -0.35733441 0.78761852 -0.50196534 0.00037332374
0.041380856 0.077660531 -0.013824071 0.50289392 0.85400468 -0.13331804 0.0032317701
0.043488268 0.076283187 -0.013512828 0.61969155 0.78068304 -0.080724239 0.0034791753
0.045108709 0.075017065 -0.01390426 0.73241872 0.67810071 -0.061174113 0.0054239798
0.02027756 0.078289665 -0.012341747 -0.37322819 0.81614637 -0.44114155 0.00094080775
0.022572691 0.078824528 -0.013226445 -0.33529645 0.83157253 -0.44279054 0.0014148917
0.025549939 0.079774775 -0.013592992 -0.2480358 0.87024552 -0.42561829 0.002165539
0.028486608 0.080316633 -0.013702749 -0.10521962 0.91481471 -0.3899267 0.0025181142
0.031492826 0.080481187 -0.013564619 0.054324072 0.94199198 -0.33120984 0.0027701345
0.034532458 0.080159523 -0.013538104 0.17412582 0.94047958 -0.29185337 0.0028887081
0.037545022 0.079401836 -0.013507552 0.31088752 0.92278922 -0.22761586 0.0028122133
0.039978031 0.078459404 -0.013417208 0.42848563 0.88629609 -0.1757254 0.0033471622
0.028844181 0.081033379 -0.012045737 -0.096641943 0.96435595 -0.24632898 0.0034577248
0.031327613 0.081009284 -0.012116084 0.062510431 0.97675544 -0.20503971 0.0031193176
0.044243939 -0.075059727 -0.010200895 0.76960337 -0.6049186 0.20441188 0.012069634
0.045873918 -0.073128894 -0.01075387 0.81323665 -0.55102623 0.18712655 0.0063561369
0.047408827 -0.069935247 -0.010494391 0.91605687 -0.25660831 0.30820781 0.0031419531
0.047643296 -0.068284892 -0.0096170921 0.92399532 -0.18423925 0.33509484 0.0023707636
0.048361167 -0.066883303 -0.010756433 0.94779772 -0.17341927 0.26759151 0.0026590549
0.048780929 -0.06402684 -0.01110901 0.98845607 0.061768197 0.13834405 0.0033418022
-0.0023087868 -0.060296446 -0.011254863 -0.6610775 -0.12826878 -0.73927248 0.0020098286
0.047992326 -0.060353156 -0.0095604388 0.96241772 0.18416826 0.19958486 0.003070412
0.048521828 -0.061388254 -0.010771531 0.97251385 0.18746324 0.13811003 0.00285496
-0.0043195472 -0.058445964 -0.0099602742 -0.61136943 -0.15335725 -0.77634341 0.0056195059
-0.0026232731 -0.058062065 -0.011511599 -0.65230924 -0.064508162 -0.75520289 0.0012947188
0.047575716 -0.058134761 -0.010539663 0.9277944 0.35965851 0.099212669 0.0049067116
0.04815625 -0.059475332 -0.011372975 0.94963294 0.29176489 0.11432695 0.0048975698
-0.038037099 -0.054373525 -0.0093995314 -0.099983178 -0.32238588 -0.94131333 0.019803816
-0.0044723288 -0.054753929 -0.010056259 -0.54027784 0.17366502 -0.82337135 0.0051518288
-0.0026286549 -0.055076018 -0.011475834 -0.63770872 0.099787965 -0.76378661 0.0034661293
0.046210956 -0.055401426 -0.010495638 0.85801071 0.51354748 -0.0093038399 0.0035781625
-0.051812984 -0.051863212 -0.010858348 0.50812113 -0.033857711 -0.86061984 0.022764724
-0.049742058 -0.052187715 -0.0099181579 0.46782741 -0.13469321 -0.87349594 0.013506728
-0.042886894 -0.051532105 -0.0091345664 -0.13306837 -0.10394111 -0.98564148 0.0049605896
-0.040745199 -0.051861919 -0.009264037 -0.18378316 -0.067089915 -0.98067456 0.0072793122
-0.03725177 -0.052271206 -0.010024803 -0.011704005 -0.13503312 -0.99077189 0.011774212
-0.034446079 -0.052188795 -0.0095006144 0.17623033 -0.14926955 -0.9729653 0.0036713507
-0.032342557 -0.051634926 -0.0091809593 0.18342476 -0.10631477 -0.97726786 0.0040669576
-0.0043584392 -0.052429855 -0.0096380124 -0.45314255 0.3428213 -0.82288241 0.0049960632
-0.0019669072 -0.052254785 -0.011169829 -0.50706339 0.40527508 -0.76068318 0.0032940919
0.043904733 -0.052259579 -0.010579878 0.7448622 0.66265482 -0.077904105 0.0020622448
0.045152154 -0.053744052 -0.010415264 0.8020888 0.59608221 -0.036598511 0.0041149259
-0.052013766 -0.049242605 -0.010942315 0.53648686 0.2429579 -0.80817902 0.044994026
-0.049796507 -0.049536023 -0.010237522 0.49257204 0.12984106 -0.86053127 0.026491208
-0.04281738 -0.049317222 -0.0092029413 -0.17454238 0.21444528 -0.96101409 0.012480992
-0.041062292 -0.049232155 -0.0094121071 -0.19870089 0.18217741 -0.96297938 0.015094772
-0.037281871 -0.049382281 -0.010376904 -0.042223848 0.11239172 -0.99276644 0.01325575
-0.034660939 -0.049250618 -0.0097732311 0.19501081 0.13834329 -0.97099537 0.0097536892
-0.032109439 -0.049502034 -0.0092064915 0.20348057 0.10572518 -0.97335392 0.0094678858
-0.0034485424 -0.050334454 -0.0092584761 -0.38873455 0.45639551 -0.80036783 0.0054702726
-0.00120643 -0.049596678 -0.010089635 -0.41723016 0.53261214 -0.7363717 0.003982082
0.0013035502 -0.048921134 -0.011050478 -0.38649827 0.63223088 -0.67149323 0.0035167672
0.0036236106 -0.048304085 -0.011752729 -0.33436623 0.7062937 -0.62397784 0.0021060726
0.03868736 -0.048093367 -0.011372414 0.49214795 0.84694999 -0.20116206 0.0033769624
0.040545758 -0.049169134 -0.010575968 0.59477264 0.79257774 -0.1344101 0.0026436646
0.042388666 -0.050631147 -0.010312938 0.68116498 0.72360069 -0.11142885 0.0030374329
-0.05178225 -0.046975654 -0.0098458566 0.41300768 0.43855503 -0.79818177 0.046450857
-0.049920481 -0.047106203 -0.0096980818 0.37413007 0.48546395 -0.79015911 0.032393288
-0.042654991 -0.047953479 -0.0090617854 -0.20903271 0.36230457 -0.90831751 0.030053239
-0.040749207 -0.047784854 -0.0091211433 -0.20340349 0.30614254 -0.93000197 0.01120009
-0.037483856 -0.046675071 -0.0096659223 -0.057630122 0.43947846 -0.89640248 0.01280095
-0.034812417 -0.047183078 -0.0093161706 0.21141417 0.44491619 -0.87026066 0.009385176
-0.032675724 -0.04782407 -0.009120387 0.24840359 0.35655674 -0.90064585 0.020793803
0.0017419569 -0.047412787 -0.009698472 -0.31949919 0.72495919 -0.61020857 0.0020612313
0.0045602801 -0.046870816 -0.010331913 -0.27461416 0.77125728 -0.574238 0.00098097662
0.0074875155 -0.046224773 -0.010578786 -0.19818294 0.81261557 -0.54806888 0.00010451124
0.01045309 -0.045743 -0.010824909 -0.15477067 0.82733423 -0.53996676 0.00014620523
0.013506412 -0.045514088 -0.011234588 -0.11157461 0.83979064 -0.5313217 0.00011869189
0.016522376 -0.045312643 -0.011437196 -0.072610386 0.85069525 -0.52062011 0.00011216789
0.019594841 -0.04523335 -0.01162276 -0.034062464 0.85741508 -0.51349699 0.00010001074
0.022582404 -0.045202632 -0.011650827 0.0055574635 0.87360257 -0.48660833 0.00034052585
0.025586434 -0.045220938 -0.011598085 0.049091779 0.89655858 -0.44019622 0.0011899808
0.028679794 -0.045313794 -0.011266171 0.10892847 0.92067814 -0.37481502 0.0027155036
0.031573702 -0.045542076 -0.010591246 0.21282865 0.93631995 -0.27930084 0.0038415084
0.034533259 -0.046182718 -0.01054697 0.27667996 0.93477476 -0.22281018 0.0034205609
0.037420493 -0.047211315 -0.010432203 0.40444899 0.89339668 -0.19561052 0.0037793284
0.039189082 -0.047865801 -0.009131806 0.56148428 0.81771427 -0.12680243 0.0047649071
0.0089357831 -0.044977948 -0.0091276765 -0.17893232 0.82287079 -0.53932083 0.00014258355
0.01100856 -0.044735998 -0.0094203986 -0.14475398 0.83347481 -0.53325987 0.00016397606
0.01373215 -0.044551861 -0.0097418455 -0.099978708 0.84764344 -0.52106124 0.0001441113
0.016577709 -0.044414461 -0.0099520544 -0.058304079 0.86000508 -0.50694364 0.00017761008
0.019559948 -0.044355724 -0.010119951 -0.012565315 0.87466478 -0.48456547 0.00050222082
0.02252961 -0.044358838 -0.010168485 0.037097115 0.89223272 -0.45004958 0.0012449397
0.025481446 -0.044485267 -0.010110264 0.092993587 0.91261047 -0.39811331 0.0023061885
0.028337449 -0.044727739 -0.009850041 0.16106337 0.93052113 -0.32892105 0.0028607438
0.030356105 -0.04490421 -0.0093851611 0.1965926 0.9395476 -0.28035992 0.00285993
0.017523354 0.044664234 -0.0097504538 -0.054862585 -0.86579275 -0.49738625 0.00057434739
0.020105533 0.044588074 -0.0098058768 -0.015945408 -0.87900746 -0.47654134 0.00079394778
0.022665245 0.044472292 -0.0095437551 0.047604039 -0.89703476 -0.43938881 0.0023392781
0.025653614 0.044736583 -0.009638615 0.12155952 -0.92949086 -0.3482385 0.003798068
-0.05170159 0.047242995 -0.009732103 0.39603874 -0.17643398 -0.901124 0.0097433813
-0.049626272 0.047383826 -0.0095088966 0.42045522 -0.13328689 -0.89746982 0.016051833
-0.040966284 0.047949195 -0.0090696998 -0.17847329 -0.29805312 -0.93771619 0.016014051
-0.036949176 0.047334839 -0.0096961996 0.0038022394 -0.30880523 -0.95111769 0.012781613
-0.035103187 0.047349643 -0.0092826085 0.1890974 -0.3410646 -0.92082417 0.0068191439
-0.032975614 0.047788803 -0.0090508349 0.202475 -0.22496852 -0.95309657 0.0069776173
0.0088622402 0.046177894 -0.01029954 -0.1384006 -0.83528364 -0.53211516 6.5078304e-05
0.013395505 0.04631304 -0.01175331 -0.1143751 -0.84007823 -0.5302707 0.000311849
0.01578021 0.045569852 -0.010989275 -0.072803989 -0.84839129 -0.52433938 0.00011434656
0.019051932 0.045668047 -0.011555193 -0.034113657 -0.85829103 -0.51202816 0.0001707185
0.022449875 0.045432664 -0.011293434 0.0084446948 -0.8794812 -0.47585875 0.00063797011
0.025604028 0.04544057 -0.011192555 0.050901853 -0.89477092 -0.44361475 0.0022756313
0.028469559 0.045574874 -0.010832249 0.13950166 -0.91510248 -0.37832102 0.0031338539
0.031613015 0.045786638 -0.0098982025 0.18833393 -0.95304507 -0.23714013 0.0035180924
0.035764836 0.047221668 -0.011647741 0.27189872 -0.93019831 -0.24658124 0.0038941372
0.037240244 0.047508661 -0.010279381 0.44756377 -0.88185602 -0.14838012 0.0052161221
-0.052051771 0.049814146 -0.011010555 0.50560349 0.0075655063 -0.86273277 0.017705973
-0.049693819 0.049548417 -0.010136257 0.45889047 -0.066710055 -0.88598496 0.01478266
-0.043455735 0.050057545 -0.0091968775 -0.133359 0.062670805 -0.9890843 0.010238751
-0.041094065 0.049933176 -0.009439067 -0.19162367 0.065390371 -0.97928768 0.012801517
-0.037197161 0.049571332 -0.010309194 -0.029085817 -0.085728131 -0.9958939 0.013872358
-0.034483593 0.049672574 -0.0097600529 0.19136991 -0.096117817 -0.97680032 0.0078380806
-0.032012079 0.049850654 -0.0092193158 0.19379856 -0.096868768 -0.97624713 0.007449402
-0.0036792476 0.050710127 -0.0091035478 -0.35455808 -0.49509022 -0.79320508 0.0047126682
-0.001569589 0.050034527 -0.0099016847 -0.45960763 -0.48695251 -0.74272346 0.0025728254
0.0016240512 0.049780115 -0.011699205 -0.46862131 -0.52821422 -0.70808458 0.0021278446
0.0034204933 0.0485451 -0.011449973 -0.42947924 -0.57862002 -0.69335884 0.00064348988
0.038130488 0.048275519 -0.011574629 0.4612557 -0.85564446 -0.23476733 0.0067066466
0.040576566 0.049626268 -0.010549452 0.58087701 -0.7975139 -0.16295256 0.0018558449
-0.051909167 0.052505251 -0.010739007 0.45103049 0.28279984 -0.84651977 0.040686656
-0.049836617 0.052422911 -0.010072944 0.46238977 0.2221401 -0.85839939 0.02198953
-0.043029327 0.051866468 -0.0091331927 -0.18094657 0.25441656 -0.95001602 0.01201215
-0.040958744 0.052148413 -0.0092933392 -0.23695944 0.24575466 -0.93992281 0.013574666
-0.037375394 0.052587632 -0.010111644 -0.042279422 0.20938846 -0.97691804 0.010876724
-0.034495518 0.052561346 -0.0095648151 0.17774515 0.1982574 -0.96389866 0.0043654554
-0.032201994 0.052068394 -0.0091775851 0.1841054 0.17014328 -0.96806836 0.0051799552
-0.004327639 0.052745685 -0.0096378 -0.4705762 -0.28752112 -0.83420002 0.0062447647
-0.0018459939 0.052290641 -0.011071768 -0.55236137 -0.32405463 -0.76804006 0.0027677703
0.04362106 0.052389923 -0.010498643 0.73089129 -0.67797714 -0.078389689 0.0039562378
0.045039129 0.053991128 -0.010225139 0.79145408 -0.61062849 -0.02708086 0.0028697427
-0.051559325 0.054487094 -0.009425818 0.30397794 0.49685651 -0.81285357 0.035982769
-0.050060481 0.054368775 -0.0094571747 0.3371146 0.54941899 -0.76452106 0.028060457
-0.039055575 0.055317931 -0.0091649015 -0.15185432 0.51642495 -0.84276068 0.017013038
-0.037530418 0.054751303 -0.0093714679 -0.070436098 0.47738561 -0.87586629 0.014540181
-0.035125855 0.054365542 -0.0091702277 0.14292023 0.47218353 -0.86983705 0.0089543574
-0.0060974201 0.055792075 -0.0090982337 -0.54653889 -0.017575916 -0.83724934 0.0074941609
-0.0043849973 0.055493135 -0.010200687 -0.55318511 -0.12842114 -0.82310045 0.0049264999
-0.0022898116 0.055128932 -0.011728054 -0.63357198 -0.11304609 -0.76538044 0.0031431504
0.046218492 0.055901155 -0.010577237 0.88076556 -0.47342891 0.010819153 0.0061201733
-0.0042363941 0.058346368 -0.010203249 -0.58636326 0.15403195 -0.79526877 0.0055471323
-0.002350986 0.058362622 -0.011823602 -0.6767199 0.10036673 -0.72936738 0.003709042
0.047446579 0.058408171 -0.010479519 0.91720933 -0.39225933 0.0697117 0.0027134886
0.048101414 0.05976446 -0.011166462 0.93135929 -0.33715561 0.13746299 0.0051480327
-0.0038339277 0.061173085 -0.0096079512 -0.61819369 0.35550067 -0.70103914 0.0049425759
-0.002252385 0.062242545 -0.010627728 -0.64076078 0.42506582 -0.6393314 0.0014938994
0.047894057 0.06041263 -0.0092612393 0.96181172 -0.18671833 0.20013605 0.0048818649
0.048376717 0.061593514 -0.010620296 0.97008926 -0.14394851 0.19546264 0.0071273828
-0.0010784098 0.064386085 -0.010223224 -0.61538172 0.52705812 -0.58610153 0.00080504577
0.00069180032 0.065441124 -0.011142662 -0.60534406 0.56861955 -0.55698329 0.00031291629
0.048573889 0.064554468 -0.010617195 0.9725095 0.0057683322 0.23279174 0.0028034295
-0.00012053247 0.066290796 -0.009255005 -0.61007094 0.56724775 -0.55321205 0.0002638177
0.0018151518 0.067331463 -0.010328553 -0.58711845 0.60109556 -0.54219568 0.00028262308
0.0038439436 0.068379581 -0.01129977 -0.56067449 0.62397689 -0.54433173 0.00014075097
0.047791511 0.068037912 -0.0096246842 0.92144215 0.20621723 0.32927021 0.0034801178
0.04840342 0.067308597 -0.01091319 0.9509151 0.1679735 0.25989497 0.0043989005
0.0046642218 0.06999065 -0.010211019 -0.53691208 0.65275955 -0.53444409 0.00024474331
0.0070211287 0.07125397 -0.010957243 -0.50486392 0.68160129 -0.52965289 0.00013966447
0.047300588 0.07072138 -0.010536436 0.88270128 0.3857739 0.26835972 0.0026768527
0.048134465 0.069316946 -0.01144396 0.92964548 0.29448426 0.22144562 0.0065213121
0.0080362568 0.072743855 -0.0099558849 -0.48959947 0.69969618 -0.52030528 0.00018844836
0.010875683 0.074158855 -0.01058947 -0.45741013 0.72900605 -0.50924081 0.00020336424
0.012387034 0.074470848 -0.011531863 -0.44644201 0.73396522 -0.51184428 0.0001865604
0.044709235 0.074671708 -0.0096997889 0.73277557 0.65518749 0.18376458 0.0037167324
0.045925919 0.073400952 -0.010748544 0.81469256 0.53384703 0.22645819 0.0033357649
0.011495764 0.07534577 -0.0094755106 -0.44644728 0.74959964 -0.48865658 0.0005284237
0.013198878 0.075899653 -0.010180507 -0.43117833 0.76164234 -0.48372108 0.00040832078
0.016353806 0.07721705 -0.010853251 -0.41038892 0.79390776 -0.44865513 0.0010527517
0.018366516 0.077751637 -0.011657389 -0.36254263 0.83506387 -0.41380093 0.0037234523
0.041635424 0.07771197 -0.010485596 0.59450269 0.80176288 0.061178334 0.0031074167
0.043459337 0.076251052 -0.010622371 0.66750205 0.73581243 0.1141099 0.0053411187
0.045054279 0.075034186 -0.011941746 0.73557025 0.66825712 0.111215 0.0031611002
0.01719355 0.078288049 -0.0095140496 -0.38622731 0.83048093 -0.40140978 0.0015527488
0.019319242 0.078742318 -0.010479455 -0.35288474 0.85207379 -0.38657799 0.0016979541
0.022437191 0.079875559 -0.010556681 -0.30356234 0.91495204 -0.26591861 0.0017747612
0.025239995 0.080636382 -0.011183438 -0.23962027 0.91757035 -0.31724867 0.0036805756
0.02736954 0.080940515 -0.011853509 -0.11498792 0.94763899 -0.29792315 0.0049269907
0.032312736 0.080949299 -0.01168189 0.074325465 0.98016894 -0.18369702 0.0034253097
0.034905661 0.080695294 -0.010691079 0.25839838 0.96087372 -0.099759124 0.0035111045
0.037499096 0.079875387 -0.010563053 0.35690308 0.93267941 -0.052243344 0.0029054182
0.040118806 0.078653485 -0.010607991 0.48905158 0.87216163 0.012753199 0.0036342114
0.026182016 0.081156701 -0.0099250209 -0.19607373 0.96522248 -0.17291804 0.0044013141
0.028583035 0.081345327 -0.010608017 -0.04489515 0.98591954 -0.1610809 0.0040172539
0.031498462 0.081314377 -0.010458042 0.078035921 0.98739487 -0.13770187 0.0024892932
0.03360967 0.081091017 -0.0099531664 0.20752962 0.97012144 -0.12568212 0.0039083972
0.044774003 -0.073408872 -0.0082727633 0.76573235 -0.56759202 0.30247858 0.010576106
0.046595816 -0.06978555 -0.0084256623 0.87975425 -0.2442466 0.40789226 0.0022113249
0.046979576 -0.06706693 -0.0076476587 0.87615395 -0.18094191 0.44678205 0.0014813812
0.047329172 -0.064196825 -0.0074254032 0.89250606 -0.075476676 0.4446753 0.001749485
0.048046216 -0.063567102 -0.0088397693 0.93680257 -0.034794301 0.34812397 0.0047190245
-0.007153919 -0.060916662 -0.0068338444 -0.44571811 -0.26386037 -0.85540235 0.004093823
-0.0054289503 -0.06092976 -0.0080254655 -0.55375737 -0.21407132 -0.80469018 0.0094781816
0.04743211 -0.061118357 -0.0075306543 0.9192245 0.10396331 0.37976041 0.0039698668
0.048071895 -0.061488193 -0.0089075603 0.95027894 0.1797009 0.25431797 0.0042231381
-0.028364128 -0.057465199 -0.0060216705 0.10282908 -0.41460887 -0.90417129 0.0037233899
-0.025913497 -0.057001147 -0.0062514115 0.14329177 -0.34947428 -0.925924 0.0029652314
-0.013041211 -0.05760897 -0.0061513735 -0.16305324 -0.3176493 -0.93408382 0.0052333195
-0.010420391 -0.057997279 -0.006698871 -0.267499 -0.25592995 -0.92894787 0.0044764578
-0.0076395413 -0.058165051 -0.0077891732 -0.44172755 -0.25288242 -0.86077136 0.0047777626
-0.0057935342 -0.058876656 -0.0086973207 -0.55375379 -0.21411057 -0.80468225 0.0094743464
0.046962395 -0.05806379 -0.0077205561 0.9139877 0.30195662 0.2710143 0.0043030158
-0.049053688 -0.054454252 -0.0082027633 0.26872107 -0.23001795 -0.9353506 0.039878249
-0.047417678 -0.054467086 -0.0069225179 -0.013098154 -0.30158216 -0.95335025 0.036595482
-0.040967975 -0.056222875 -0.0060913903 -0.19802557 -0.58422738 -0.78706056 0.0094231749
-0.037308834 -0.05541655 -0.0086040869 -0.043361288 -0.44187489 -0.8960281 0.017885286
-0.034381945 -0.05496835 -0.0085109696 0.17504209 -0.30117446 -0.93736559 0.005314969
-0.031341396 -0.055286828 -0.0078755729 0.14393371 -0.33738032 -0.93029976 0.0035210478
-0.028295338 -0.054995049 -0.0075155622 0.16340448 -0.27975637 -0.9460631 0.0022809182
-0.025492195 -0.055384852 -0.0069845989 0.10964207 -0.32826483 -0.93820083 0.0063056787
-0.022767523 -0.055123556 -0.0067675165 0.10830794 -0.21741603 -0.97005141 0.0021940831
-0.019519651 -0.055044189 -0.0065095741 0.041549504 -0.17545226 -0.98361075 0.0029046026
-0.016022468 -0.054948706 -0.0065075182 -0.030061776 -0.10568611 -0.993945 0.0035919771
-0.013458423 -0.055487037 -0.0066623921 -0.13804762 -0.19250017 -0.97153825 0.0047590723
-0.010643847 -0.055454943 -0.0072275428 -0.25002715 -0.16619515 -0.95386875 0.0059584081
-0.0078126667 -0.055344529 -0.0082251467 -0.36164525 -0.067722388 -0.9298529 0.0071493285
0.044783764 -0.054153215 -0.0063236509 0.84038496 0.48334214 0.24522108 0.0049941558
0.045826156 -0.055423152 -0.0075281169 0.87508571 0.42972976 0.22261469 0.0039261486
-0.048686985 -0.052819442 -0.0085038608 0.29656801 -0.23237525 -0.92630941 0.036217652
-0.047103673 -0.051986169 -0.0081710471 0.12901011 -0.14940992 -0.98032302 0.035498694
-0.043722164 -0.052488934 -0.008666412 -0.15996784 -0.16565341 -0.97312343 0.0039554359
-0.041433893 -0.053465851 -0.0085267369 -0.22556061 -0.32082033 -0.91988957 0.015357893
-0.033115488 -0.053911515 -0.008858351 0.17495877 -0.25528324 -0.95090479 0.0034025509
-0.031188851 -0.052665871 -0.0087377457 0.2034809 -0.14976847 -0.96755612 0.0030695361
-0.028650502 -0.052224416 -0.0083329827 0.20340651 -0.12483056 -0.97110403 0.0026760276
-0.025661325 -0.052594963 -0.0077176779 0.17138165 -0.11169047 -0.97885317 0.0066592791
-0.022668391 -0.052390959 -0.0073030307 0.14272279 0.0026801564 -0.98975909 0.0067743547
-0.01965029 -0.05242927 -0.0069295927 0.081366681 -0.038830858 -0.99592751 0.0044239177
-0.016824348 -0.05238181 -0.0067747156 0.023699509 0.039558757 -0.99893618 0.0055270977
-0.013653514 -0.052473079 -0.0068662218 -0.061344028 0.10683741 -0.99238235 0.0047465884
-0.010694738 -0.052481707 -0.0072598285 -0.21096286 0.17015301 -0.96257085 0.0046468
-0.0076811351 -0.052251216 -0.0080609461 -0.33551168 0.24814926 -0.90876508 0.0058259829
-0.0054449481 -0.051836532 -0.0088721635 -0.40169212 0.3592124 -0.84238338 0.0052824547
0.043827523 -0.052292865 -0.0075762407 0.77280015 0.6211344 0.13027653 0.0025137851
0.045172811 -0.053824142 -0.0083399182 0.81971133 0.55240351 0.15140584 0.0039347727
-0.04847971 -0.049592804 -0.0088285962 0.37384665 0.1096314 -0.92098832 0.040842589
-0.046898205 -0.049303863 -0.0084992182 0.15808363 0.06491024 -0.98528987 0.054526914
-0.044415742 -0.049248438 -0.0089020552 -0.14305599 0.20207837 -0.96886498 0.016464543
-0.030674534 -0.049059689 -0.0088246511 0.27437624 0.13640076 -0.95189947 0.0082604652
-0.02848498 -0.049415484 -0.0083683291 0.23063457 0.14125937 -0.96273226 0.007562466
-0.02558752 -0.04939444 -0.0077322661 0.17668203 0.2193906 -0.95950574 0.0092856092
-0.022481387 -0.049410041 -0.0071663037 0.15894479 0.22609787 -0.96104962 0.0078132572
-0.019540923 -0.049401749 -0.0067044082 0.12815423 0.23218596 -0.96419197 0.0065699313
-0.016565656 -0.049483169 -0.0064399224 0.053431336 0.26347607 -0.96318507 0.0059949756
-0.013557482 -0.049626246 -0.0064236862 -0.040966805 0.30198216 -0.95243293 0.0053611696
-0.010425038 -0.049540538 -0.0066390918 -0.12775642 0.33760121 -0.93257904 0.006750206
-0.0074064001 -0.049396966 -0.0071946732 -0.26159963 0.43825665 -0.85993999 0.006425315
-0.0045270342 -0.049224317 -0.0080764042 -0.32187724 0.47564846 -0.81862909 0.0070648491
-0.0020665012 -0.048365016 -0.0086438358 -0.34343496 0.65437633 -0.67367947 0.0034035768
0.040687785 -0.04908156 -0.0075097927 0.6227833 0.77746361 0.087700099 0.0035897896
0.042372886 -0.050605107 -0.0075195413 0.70579815 0.70049131 0.10564501 0.0035539821
-0.051511955 -0.045538183 -0.0076965517 0.11535478 0.78038752 -0.61456376 0.02856954
-0.049247641 -0.045939431 -0.0078326939 0.27807233 0.71440625 -0.64210546 0.052531019
-0.046566155 -0.046281267 -0.0073902383 0.12506385 0.6105336 -0.78205353 0.044800103
-0.043451082 -0.046186417 -0.0076524094 -0.14174649 0.59386259 -0.79198182 0.020717628
-0.041021567 -0.046325278 -0.0081693912 -0.22814871 0.50930917 -0.82979047 0.0084029911
-0.036937974 -0.04533565 -0.0085929101 -0.00049576722 0.57714975 -0.81663817 0.018180128
-0.034336675 -0.04578435 -0.0082905609 0.19819349 0.54652387 -0.81365287 0.0093576107
-0.031453595 -0.046385035 -0.0079499511 0.22152346 0.50970477 -0.83134139 0.008236778
-0.028518438 -0.046411041 -0.0072308504 0.18509573 0.52455354 -0.83101332 0.009466581
-0.025537198 -0.04675984 -0.0067769936 0.17625323 0.503748 -0.84567887 0.007205239
-0.022601286 -0.047212869 -0.0064614718 0.15286572 0.49291059 -0.85654616 0.0062126056
-0.019725468 -0.047640622 -0.0061632306 0.13709508 0.42096466 -0.89665693 0.01201824
-0.016901989 -0.047963664 -0.0060067535 0.071851648 0.4281126 -0.9008646 0.0014314422
-0.0092226183 -0.047999948 -0.0061328914 -0.1138551 0.58018661 -0.80648655 0.0024381904
-0.007430878 -0.047616426 -0.0062071593 -0.16635539 0.59444469 -0.78674096 0.0031462889
-0.004510141 -0.047218915 -0.006667255 -0.23143017 0.62544131 -0.74515992 0.0035531397
-0.001405171 -0.046690192 -0.0072799437 -0.26965415 0.70756698 -0.65317345 0.0027832817
0.0013864158 -0.045997411 -0.0076599359 -0.26374212 0.77165139 -0.57878679 0.00073638628
0.0042879987 -0.045477968 -0.008230485 -0.23397887 0.79363668 -0.56160021 0.00018897482
0.0069060195 -0.045209058 -0.008839868 -0.18807837 0.81517607 -0.54782712 0.00019838606
0.032342281 -0.045191545 -0.0076272972 0.29396135 0.95444345 -0.051228721 0.0030612741
0.034507751 -0.045858648 -0.007518983 0.32441708 0.94558609 -0.024909802 0.0028341457
0.037570685 -0.047050819 -0.007572718 0.43006516 0.90210778 0.035292666 0.0049572256
0.039172843 -0.047920901 -0.0074136355 0.55611914 0.82886815 0.060901944 0.0048092962
-0.049772926 -0.044937618 -0.006180949 0.059237037 0.88062519 -0.47009605 0.0039201155
-0.047074318 -0.044945035 -0.0060816831 0.017877636 0.88864774 -0.45824188 0.0040391819
-0.043172732 -0.044968691 -0.0061910097 -0.16561708 0.75232232 -0.63763797 0.018419418
-0.039682925 -0.043896511 -0.007256445 -0.19550174 0.73060685 -0.65421158 0.01492541
-0.037664875 -0.044171836 -0.0072538503 0.00083550747 0.79961276 -0.60051537 0.014275004
-0.034682311 -0.044344842 -0.0068083238 0.14114743 0.77885193 -0.61111957 0.0065497253
-0.03171042 -0.044646129 -0.0064723999 0.14919566 0.75407869 -0.63961393 0.0035574101
-0.029156353 -0.044850539 -0.0061666551 0.15338348 0.72603875 -0.67032921 0.0021262413
0.0023154544 -0.044765655 -0.006375154 -0.23543368 0.78253621 -0.57637495 0.00027778489
0.0047041127 -0.044374008 -0.0068042665 -0.21787901 0.80366892 -0.55375552 0.00016747082
0.0075704814 -0.044089377 -0.0074117691 -0.17504855 0.82280087 -0.54070026 0.00018170786
0.01036521 -0.043595538 -0.0074577252 -0.13135649 0.83877295 -0.52839881 7.7111727e-05
0.013442338 -0.043230448 -0.0075143748 -0.085027732 0.85358304 -0.51397109 0.0001915301
0.016545454 -0.043011952 -0.0075530899 -0.027507577 0.87768978 -0.47843906 0.00076036394
0.019515604 -0.042937189 -0.0075062565 0.039662689 0.90915489 -0.41456521 0.0024230161
0.022466982 -0.043130767 -0.007492105 0.10524812 0.93591684 -0.33612877 0.0033293909
0.025485225 -0.043576911 -0.007567557 0.16775231 0.94712722 -0.27351275 0.0038974027
0.02852674 -0.04417723 -0.0075149778 0.20203722 0.96377075 -0.17414647 0.0032973194
0.030898919 -0.044755865 -0.0073849908 0.25533742 0.96066338 -0.10921825 0.003084264
-0.034966588 -0.015204581 -0.0060720267 0.020939253 -0.23363663 -0.97209853 0.011997865
-0.036392488 -0.013567734 -0.0062291538 -0.032780327 -0.17821392 -0.98344558 0.0084299827
-0.03454965 -0.013410681 -0.0062907501 0.10194585 -0.19720155 -0.97504801 0.0043349694
