# .PCD v0.7 - Point Cloud Data file format
VERSION 0.7
FIELDS x y z normal_x normal_y normal_z curvature
SIZE 4 4 4 4 4 4 4
TYPE F F F F F F F
COUNT 1 1 1 1 1 1 1
WIDTH 554
HEIGHT 1
VIEWPOINT 0 0 0 1 0 0 0
POINTS 554
DATA ascii
-0.0021546015 0.0032900129 -0.0086789262 -0.074426204 -0.80822635 -0.58414978 0.0015286783
0.0046252874 0.0032076016 -0.0088609429 -0.0032346898 -0.84416413 -0.536075 0.001997055
0.0066878386 0.0030897122 -0.0086928206 0.011012404 -0.8069225 -0.59055459 0.0012733819
0.011198139 0.0033208665 -0.0087283496 0.052305955 -0.82585275 -0.56145465 0.0010590057
0.013801539 0.0034434656 -0.0085868193 0.081267595 -0.8390016 -0.53802586 0.0015454997
0.016597636 0.0035618395 -0.0082474044 0.10181077 -0.8411575 -0.53112024 0.0010925088
0.019265903 0.0038090209 -0.0079712924 0.11997747 -0.83120036 -0.54287326 0.00080195756
0.022299904 0.0044193245 -0.0080717551 0.16160603 -0.82526326 -0.54113227 0.00071846822
0.025097428 0.0049808556 -0.0079760551 0.1932807 -0.82422853 -0.53224981 0.00072907383
0.027774144 0.0055753374 -0.0077849245 0.21462578 -0.82568336 -0.52171129 0.00056910608
-0.028107697 0.0087186117 -0.0067473617 -0.33044606 -0.82679641 -0.45520669 0.0017097372
-0.025348283 0.0081235422 -0.0075814445 -0.309421 -0.81115073 -0.49627942 0.0018530833
-0.022554874 0.0071253129 -0.0076930532 -0.29719272 -0.8038646 -0.5152458 0.0016063687
-0.019856714 0.0064887861 -0.0082546026 -0.2668491 -0.80068183 -0.53637695 0.0018137709
-0.01774154 0.0061590164 -0.0087600825 -0.23352863 -0.80749565 -0.54167801 0.0014464442
0.028860856 0.006288386 -0.0085742008 0.21719545 -0.80603284 -0.55057901 0.00100763
0.031241003 0.0067679067 -0.0081253592 0.24866067 -0.81248748 -0.52728736 0.00069947349
0.034550674 0.0079038925 -0.0081279706 0.28988883 -0.78279966 -0.55062622 0.00052649702
0.03794552 0.0089349588 -0.007645715 0.31669405 -0.77380848 -0.54856658 0.00029833609
-0.036223929 0.01192364 -0.0062743584 -0.39988089 -0.82186937 -0.40574116 0.001731219
-0.034220003 0.01148774 -0.0071546133 -0.36297446 -0.80773926 -0.46455008 0.0013647585
-0.031531584 0.01065395 -0.0076898937 -0.33677816 -0.80413085 -0.48985106 0.0015826516
-0.028737666 0.0097562745 -0.0080968169 -0.32050878 -0.79895878 -0.50886047 0.0019698213
-0.026710186 0.0092701754 -0.0085795615 -0.30372846 -0.79100889 -0.53108752 0.0018350628
0.03847352 0.0096106278 -0.0084345471 0.32132486 -0.77136201 -0.54931873 0.00035695042
0.040470432 0.010489443 -0.0084818974 0.33168966 -0.75297874 -0.56833529 0.00070649618
0.043040939 0.011566298 -0.008200204 0.36669174 -0.74506974 -0.55714303 0.000252978
-0.040028363 0.014363513 -0.0071616843 -0.43307036 -0.77102715 -0.46686956 0.0013076757
-0.037595928 0.013329927 -0.0075955451 -0.40428463 -0.78579587 -0.46805856 0.0013398533
-0.034810405 0.012510319 -0.0084136222 -0.35177854 -0.77878064 -0.51937717 0.0014904822
0.043932695 0.012343189 -0.0088510998 0.36304635 -0.71106017 -0.60215515 0.00098532951
0.045876704 0.013380729 -0.0087391706 0.40445423 -0.72511411 -0.55733865 0.00040434694
0.048475355 0.014649001 -0.0083877407 0.43368685 -0.6996792 -0.56777185 0.00025200401
-0.045568109 0.017647654 -0.0067134257 -0.50867814 -0.73135298 -0.45427895 0.00087138626
-0.043330029 0.016686507 -0.0075945877 -0.47649771 -0.72428763 -0.49835461 0.0011241556
-0.041135743 0.015540155 -0.008056758 -0.44733131 -0.75651687 -0.4770503 0.0015776363
0.04992513 0.015639553 -0.0085306866 0.44937867 -0.68887705 -0.56877702 0.00016330193
0.051521458 0.01646238 -0.0081967367 0.46927768 -0.67824191 -0.56547898 0.00041821814
-0.048771974 0.020309983 -0.0071906066 -0.53146511 -0.69693857 -0.48147842 0.001159951
-0.046579707 0.019158209 -0.0078659644 -0.49937719 -0.68810779 -0.5264315 0.0013825475
-0.044585936 0.01823996 -0.0086130397 -0.48502567 -0.67846555 -0.55175596 0.0015554668
0.05337533 0.0180346 -0.008617159 0.47642055 -0.65717554 -0.58407515 0.00052196876
0.055712692 0.019585088 -0.0082775876 0.51891375 -0.62493527 -0.58325344 0.0010319774
-0.054260213 0.023786737 -0.0061121159 -0.55645144 -0.71522039 -0.42287317 0.00047471045
-0.052789111 0.02329175 -0.0070702462 -0.53819162 -0.68609852 -0.48950854 0.0011157291
-0.049955755 0.021815397 -0.0080669727 -0.51947272 -0.68627208 -0.50909597 0.0011851157
0.059305046 0.021831473 -0.0071149282 0.57850492 -0.58013815 -0.57338625 0.00046360664
0.060698826 0.023373695 -0.0073654302 0.58692914 -0.53513372 -0.60757399 0.00080149737
-0.057341453 0.026636638 -0.0065907035 -0.59210062 -0.66406888 -0.45654067 0.00098534906
-0.05558477 0.025866518 -0.0075951405 -0.56514293 -0.65958703 -0.4955385 0.0011832558
-0.053317904 0.024494343 -0.0082504824 -0.52568567 -0.66113991 -0.53530234 0.0010898699
0.062134601 0.025719818 -0.0081643835 0.6021204 -0.52585107 -0.60077602 0.00094899442
0.063511096 0.026908675 -0.0077017052 0.66951567 -0.49474999 -0.55404991 0.0013499825
-0.060548309 0.029750509 -0.0064764619 -0.64811867 -0.59340155 -0.47730169 0.0011885947
-0.058434088 0.02849281 -0.007598761 -0.61983764 -0.60777688 -0.49639562 0.0015993705
-0.056648429 0.027583672 -0.0085719805 -0.57830447 -0.60096276 -0.55173153 0.0017027224
-0.00063073303 0.029948594 -0.0089678429 0.079469964 0.79501659 -0.60135949 0.00055036502
0.0020056614 0.029883608 -0.0089267716 0.033697721 0.78969324 -0.61257577 0.00091184798
0.0044989544 0.029922279 -0.0089169461 0.011250819 0.80294877 -0.59594184 0.001790069
0.0073160464 0.029946132 -0.0089104297 -0.032640968 0.7964856 -0.60377586 0.0015316609
0.0098828757 0.029934816 -0.0089562871 -0.075142168 0.8060959 -0.58699495 0.00046802344
0.064368069 0.028485259 -0.0080002686 0.68059987 -0.43627754 -0.5885964 0.0012500861
0.06602782 0.028819656 -0.0060145222 0.69968414 -0.41893232 -0.57873821 0.0012928821
-0.06317991 0.032610375 -0.0063545038 -0.68416166 -0.53286535 -0.49797314 0.0011811896
-0.061412118 0.031598255 -0.0074431822 -0.66303736 -0.52674621 -0.53190207 0.0023344741
-0.059661556 0.030433156 -0.0083462335 -0.62968314 -0.56381154 -0.53443021 0.0013108966
-0.015591331 0.03290163 -0.0089625008 0.24899481 0.75759447 -0.60336739 0.0014466862
-0.013008934 0.032648206 -0.0085242726 0.22681001 0.80078429 -0.55434805 0.0014569219
-0.010319416 0.032369122 -0.0079122363 0.1933579 0.83921677 -0.50825983 0.0020008928
-0.007478727 0.031977642 -0.0075507401 0.16039719 0.85897756 -0.48624095 0.0014745559
-0.004515205 0.031497907 -0.0075696683 0.12140293 0.86149651 -0.4930366 0.0025359478
-0.0014557485 0.031148838 -0.0075189434 0.090045758 0.86139035 -0.49989846 0.0021902693
0.0015138565 0.030923663 -0.0075271591 0.046803251 0.86830884 -0.49381098 0.0021491095
0.004499143 0.030852145 -0.0075016953 0.0089862812 0.87101161 -0.49118021 0.0020765583
0.0075258515 0.03089352 -0.0074835052 -0.039048612 0.87146711 -0.48889697 0.0021277864
0.010511983 0.031064883 -0.0075536445 -0.079066649 0.87222213 -0.48267695 0.0019277413
0.013492756 0.031399675 -0.0075239153 -0.1278915 0.86615241 -0.4831394 0.0022827336
0.016491367 0.031916086 -0.0075478773 -0.18586092 0.86803234 -0.46040815 0.0016231431
0.019309014 0.032386754 -0.0079404265 -0.21942706 0.84860784 -0.48136947 0.0015050638
0.021842318 0.032738741 -0.0085425293 -0.24319834 0.81452829 -0.52668613 0.0010846518
0.024110265 0.032909572 -0.0089692185 -0.25575191 0.77058285 -0.58377481 0.0012823396
0.06579873 0.031643119 -0.0084670112 0.67903614 -0.30838349 -0.66619027 0.00085540826
0.0668336 0.031976163 -0.0074955551 0.7140556 -0.35581154 -0.60292858 0.0018256843
-0.063996457 0.034788541 -0.0073349415 -0.68375015 -0.47938678 -0.55015826 0.0020570187
-0.062411606 0.03389141 -0.008452476 -0.64991027 -0.45867532 -0.60599792 0.0021851822
-0.022007532 0.035655484 -0.0083662299 0.3105616 0.81576133 -0.48793948 0.0017457724
-0.019378031 0.035109829 -0.0076517719 0.30127707 0.83836865 -0.45427972 0.0015682634
-0.016435141 0.034171551 -0.0075962744 0.25813702 0.83666056 -0.48307794 0.001906016
-0.013709337 0.033592667 -0.0072460491 0.22685026 0.85099852 -0.47364601 0.001879865
-0.010955312 0.033263203 -0.0065283515 0.19750702 0.86292517 -0.46513566 0.0017210495
0.019971022 0.033292651 -0.006576871 -0.22528346 0.86973584 -0.43909782 0.0015693275
0.022674002 0.033675507 -0.007275376 -0.24190342 0.8594436 -0.45037699 0.0016947564
0.025514936 0.034384396 -0.0075539607 -0.26288834 0.84904021 -0.45827979 0.0017252071
0.028365513 0.035210844 -0.0077264667 -0.29004234 0.84592456 -0.4475345 0.0014929506
0.030798564 0.03567807 -0.008442767 -0.30624396 0.82087409 -0.48205841 0.0015401804
0.067451559 0.03439622 -0.00807238 0.70041049 -0.23352167 -0.67445737 0.001647771
-0.066612139 0.038080167 -0.0067705871 -0.71413749 -0.42832714 -0.55366379 0.002150405
-0.065100953 0.037310775 -0.0079983138 -0.6904397 -0.39383656 -0.60678321 0.0032468867
-0.03016866 0.038839512 -0.0087533919 0.36369443 0.77629554 -0.51487052 0.0025934733
-0.028223854 0.038416147 -0.0081117516 0.36534116 0.79544491 -0.4835217 0.001982162
-0.025464213 0.037498403 -0.0075644162 0.34855911 0.81530732 -0.46236414 0.0023198281
-0.022749793 0.036625188 -0.0071642818 0.32344899 0.83173978 -0.45120922 0.0017239348
-0.020363754 0.03614895 -0.0062922044 0.31489903 0.84817833 -0.42594862 0.0016186534
0.029328356 0.036183499 -0.0064896899 -0.30451471 0.85939741 -0.41073957 0.0014938611
0.031715691 0.036662761 -0.0072227083 -0.31382409 0.84252214 -0.43780228 0.0017150795
0.034519706 0.037640087 -0.0075365878 -0.36442992 0.81804049 -0.44497254 0.0028144286
0.036929589 0.038466103 -0.0081290184 -0.41672924 0.78379691 -0.46043369 0.0024238979
0.039041914 0.03898238 -0.008947541 -0.39887038 0.70564234 -0.58563763 0.0014766988
0.06843292 0.037376639 -0.0080726007 0.71570355 -0.15912481 -0.68003505 0.0015466097
0.069584504 0.038234334 -0.0069087618 0.74509984 -0.14585838 -0.65080839 0.0016438157
-0.069029562 0.041875809 -0.0062637548 -0.72837973 -0.34415933 -0.59246719 0.0052439547
-0.067300588 0.040805329 -0.0075579686 -0.70548856 -0.29512829 -0.64434862 0.0025081711
-0.065737955 0.03980187 -0.0087367492 -0.6496858 -0.26409677 -0.71285433 0.0023659167
-0.036278438 0.041851778 -0.0087782014 0.38100272 0.7553488 -0.53318399 0.0017954455
-0.034187447 0.041361209 -0.0078964643 0.40080574 0.79215842 -0.46026051 0.0015314884
-0.031530079 0.040247735 -0.0075850426 0.375608 0.7993052 -0.4690733 0.0017550759
-0.028949795 0.039418347 -0.0068788915 0.37820104 0.81458181 -0.43979591 0.0013113472
0.0359044 0.039132304 -0.0061159385 -0.47822866 0.80985022 -0.33976454 0.0030131508
0.037915852 0.039606083 -0.007085809 -0.43624255 0.78569251 -0.43861121 0.001891512
0.040428631 0.040768187 -0.0075861425 -0.45053712 0.7736485 -0.44551578 0.0016668006
0.042673018 0.041566305 -0.0084058726 -0.43876329 0.72594595 -0.52961236 0.001869904
0.068563223 0.040259499 -0.0085137524 0.72182697 -0.064479128 -0.68906331 0.0018641573
0.069824107 0.040896472 -0.0071968012 0.75079936 -0.080425128 -0.65561581 0.0016638855
-0.069442712 0.04390147 -0.0064768465 -0.72877777 -0.22730002 -0.64592391 0.0024300083
-0.067834683 0.043545496 -0.008023439 -0.66201109 -0.16608655 -0.73086017 0.0027034245
-0.042187743 0.044901881 -0.0086846882 0.39015678 0.75097507 -0.53274214 0.0023168456
-0.040116269 0.044341698 -0.0079497853 0.4054324 0.77610373 -0.48299852 0.0018376877
-0.037525244 0.043257233 -0.0075420202 0.38273317 0.79330915 -0.47347218 0.0015643496
-0.035200641 0.042441923 -0.0068935244 0.40552995 0.79960102 -0.4429262 0.0013981442
0.041649118 0.04222244 -0.0063448348 -0.47630405 0.76604778 -0.43163094 0.0011952136
0.043698702 0.04292709 -0.0072709969 -0.45910695 0.7541256 -0.46959069 0.0020190573
0.046254653 0.044113558 -0.0078091077 -0.4309471 0.74199635 -0.51354253 0.0021834541
0.048519164 0.044743612 -0.0087132221 -0.39787966 0.69159812 -0.60281324 0.001660355
0.068412013 0.043368772 -0.0087888176 0.6888144 0.034330118 -0.72412443 0.0023724847
0.069755755 0.043665875 -0.0074338303 0.73112851 0.017355591 -0.682019 0.0023928729
-0.069726355 0.046590399 -0.0068153436 -0.68145162 -0.10399374 -0.72443706 0.0043879817
-0.068041794 0.04650338 -0.0083031384 -0.59438962 -0.041138615 -0.80312419 0.0028902979
-0.048365992 0.04784495 -0.0088156611 0.32185662 0.71428674 -0.62145221 0.002331337
-0.046213366 0.047341719 -0.0081493258 0.36253902 0.7469663 -0.55732113 0.002821225
-0.043538589 0.046392418 -0.0075344886 0.39500487 0.78007025 -0.48524389 0.0014703016
-0.041103862 0.04552386 -0.0068857339 0.41303307 0.78467977 -0.46225685 0.0014969647
0.047270373 0.045481529 -0.0066836271 -0.45905337 0.74774373 -0.47973877 0.0020583088
0.049571171 0.046317566 -0.0074255685 -0.40873209 0.74540138 -0.52660686 0.0017661763
0.052130479 0.047220007 -0.0081299907 -0.36845523 0.69348246 -0.61913067 0.0021553929
0.054446951 0.047875442 -0.0087270178 -0.32618469 0.66827327 -0.66859132 0.0017258262
0.068253294 0.046773009 -0.0086356075 0.47963703 0.19154376 -0.8563056 0.0028479837
0.069982477 0.04645209 -0.0070304628 0.68752676 0.083155014 -0.72138208 0.003347757
-0.070009746 0.049498532 -0.0068417271 -0.61520749 -0.012530839 -0.78826559 0.0087933838
-0.067738198 0.049691368 -0.0083295619 -0.46997362 0.10062699 -0.87692595 0.0060356837
-0.065771632 0.050764307 -0.0088909911 -0.23241575 0.2928381 -0.92748517 0.0074678212
-0.054982916 0.050703455 -0.0087399343 0.20794436 0.67331231 -0.70951366 0.0022618277
-0.05230251 0.050167292 -0.0081599439 0.28475222 0.72793347 -0.6237219 0.0027335398
-0.049581554 0.049413715 -0.0075548845 0.34186649 0.76226795 -0.54961342 0.0017607466
-0.046976928 0.048557982 -0.0069466801 0.39293054 0.77032179 -0.50220513 0.0017784332
0.050788708 0.048135389 -0.0061187376 -0.46183801 0.73052686 -0.50302696 0.0017657054
0.052896243 0.048700396 -0.0069010551 -0.42432603 0.71916401 -0.5502277 0.0026636599
0.055460185 0.049568731 -0.0075742952 -0.34848747 0.69839835 -0.62513703 0.0023641016
0.058279946 0.050236315 -0.0082743708 -0.2655552 0.64637208 -0.71532065 0.0025850097
0.06110483 0.050682407 -0.0087691573 -0.14443968 0.57515442 -0.80519217 0.0043490459
0.065018617 0.050730683 -0.0088715386 0.08743462 0.42729935 -0.89987248 0.01089013
0.067376986 0.049800318 -0.0084705139 0.32568058 0.28880152 -0.90029216 0.0052480204
0.069443263 0.049064469 -0.0073082107 0.48802292 0.20751357 -0.84780407 0.0039961268
-0.070122115 0.052515324 -0.0066958922 -0.47883406 0.099691913 -0.87222672 0.01079071
-0.067487881 0.052531127 -0.0077888821 -0.26833507 0.28882787 -0.91900748 0.014467237
-0.064565234 0.052635461 -0.0082311817 -0.045803145 0.4868784 -0.87226802 0.0087258173
-0.06148224 0.052822754 -0.0080003338 0.078875192 0.62756407 -0.77455926 0.0039366218
-0.05851768 0.052676786 -0.0076455311 0.1652205 0.72620654 -0.66732758 0.0030747838
-0.055696744 0.052087095 -0.0074379728 0.24876815 0.74799895 -0.6153146 0.0024069485
-0.052922633 0.051558375 -0.0067434218 0.3418209 0.76167834 -0.55045849 0.0017413698
-0.050947681 0.051013358 -0.0061869267 0.34856755 0.76600671 -0.54012454 0.0021087553
0.056560885 0.051290348 -0.0062673911 -0.4154219 0.71561754 -0.56153029 0.0025028351
0.058710281 0.051883519 -0.0068643135 -0.34363702 0.69219935 -0.63464457 0.0032579657
0.061459646 0.052533265 -0.0074167405 -0.25503129 0.61833268 -0.74338663 0.0035118808
0.064364485 0.052612517 -0.0079686129 -0.047682937 0.47491241 -0.87874031 0.0072168685
0.067294195 0.052544296 -0.0076341727 0.22919245 0.34617579 -0.90974349 0.008473523
0.069369078 0.052887663 -0.0065976437 0.31882557 0.29068467 -0.90213788 0.0062883031
-0.070033193 0.055197477 -0.0063247066 -0.28426561 0.30798575 -0.90793049 0.013209682
-0.067527927 0.055343401 -0.006688138 -0.08753252 0.43851197 -0.89445251 0.010084195
-0.064625107 0.054991335 -0.0067396569 0.10417857 0.57788068 -0.80944473 0.010002765
-0.061742291 0.054474857 -0.0065048239 0.17965205 0.68556231 -0.70549941 0.006073697
-0.059479646 0.054108024 -0.0062163961 0.23133227 0.74944907 -0.62033165 0.0025777586
0.062416773 0.054365072 -0.0063279686 -0.34103268 0.62502646 -0.70216709 0.0066137142
0.064600207 0.055060212 -0.0065894276 -0.20954622 0.51466584 -0.83139002 0.0099527584
0.067150041 0.05550785 -0.0066019148 -0.0094512664 0.38827616 -0.92149466 0.013196558
0.06943503 0.054608796 -0.0061633815 0.27347824 0.26744139 -0.92395061 0.0092427069
0.067276984 0.057221215 -0.0060508996 -0.12765369 0.36095822 -0.92380399 0.016447593
-0.013356549 0.0027193762 -0.0044234917 -0.20569268 -0.91054678 -0.35860172 0.0026799343
-0.0097399577 0.0024377853 -0.0054811053 -0.16717817 -0.86721009 -0.46903959 0.0016557521
-0.0075433697 0.0018014 -0.0047469758 -0.12916818 -0.93427598 -0.33233115 0.002024207
-0.0044596926 0.0013353599 -0.0044260891 -0.10958096 -0.92284042 -0.36926621 0.0022021104
-0.0015283857 0.0011056584 -0.004451307 -0.063914008 -0.91066569 -0.40817046 0.0010090036
0.0014352378 0.00096061453 -0.0044236146 -0.01992745 -0.91032839 -0.41340676 0.0011849914
0.0048765102 0.001197409 -0.0050092526 0.013891768 -0.89645499 -0.44291699 0.00054860511
0.0068142223 0.0012955806 -0.0052791713 0.024154285 -0.89932656 -0.43661004 0.00079297263
0.010485511 0.00138716 -0.0050159586 0.051200803 -0.9038403 -0.42479542 0.00068170385
0.013580015 0.0018300578 -0.0053667291 0.067122273 -0.88213605 -0.4661873 0.00082599366
0.016750351 0.0020813458 -0.0051366095 0.11668079 -0.87175024 -0.47585419 0.001269673
0.019523107 0.0027399249 -0.0057525896 0.14542483 -0.88120699 -0.44980645 0.00093488779
-0.024232723 0.0058095157 -0.0033838272 -0.34673771 -0.90077263 -0.2614989 0.0024981077
-0.022437776 0.0056160279 -0.0047428533 -0.32027507 -0.86674112 -0.38233989 0.0015450119
-0.019500129 0.0047258236 -0.0050794696 -0.28613049 -0.87543243 -0.38954774 0.0014922008
-0.016611002 0.0038566873 -0.0051869061 -0.2409021 -0.87156302 -0.42701775 0.001325431
-0.013851508 0.0032497894 -0.0054180417 -0.21101299 -0.87022704 -0.44517225 0.0011079286
0.024604077 0.0037867948 -0.0057372833 0.20009229 -0.87299645 -0.44479248 0.00038006596
0.028392505 0.0046319254 -0.0053501353 0.22933868 -0.85040772 -0.47350869 0.00067924004
-0.030892631 0.0087254327 -0.0041316599 -0.35711795 -0.88164568 -0.30849272 0.0019101356
-0.028244723 0.007901323 -0.0047426936 -0.33713764 -0.86477536 -0.37215841 0.0013792164
-0.025567418 0.0068873982 -0.0049274843 -0.34616402 -0.86439329 -0.36468431 0.0012797422
-0.023656668 0.0064200372 -0.0056183338 -0.33327928 -0.84929931 -0.4094089 0.0018510985
-0.037185986 0.011520023 -0.0040424359 -0.41561535 -0.8519125 -0.31860462 0.001473147
-0.034799382 0.010718952 -0.0049203876 -0.38337567 -0.84878349 -0.36412865 0.0014455745
-0.031891041 0.0095070247 -0.0050402521 -0.35554773 -0.85672235 -0.37364772 0.0013080232
-0.042661089 0.014581006 -0.0042935708 -0.49328083 -0.80208981 -0.33663917 0.0015187955
-0.040478162 0.013440707 -0.0046755774 -0.46697071 -0.81903136 -0.33335567 0.001509159
-0.038186323 0.012418746 -0.0052469522 -0.42974019 -0.83684933 -0.33912608 0.0015241848
-0.046238586 0.017146222 -0.0046970844 -0.54308867 -0.77241206 -0.32929379 0.0016275648
-0.044010762 0.015675724 -0.004859684 -0.51342607 -0.79010117 -0.33486384 0.0015772318
-0.051274251 0.020536264 -0.0038304683 -0.58051097 -0.76425868 -0.28091949 0.0014144214
-0.049812905 0.019939337 -0.0049994551 -0.55016422 -0.73126131 -0.40320736 0.00091898337
-0.04759023 0.018380171 -0.0053198757 -0.55703533 -0.76146436 -0.33148718 0.0013307231
-0.054643158 0.023413572 -0.0046140305 -0.57746542 -0.74123889 -0.34219667 0.0013838569
-0.053116471 0.022463245 -0.005105048 -0.56629246 -0.72327304 -0.39520743 0.0011716854
-0.050806534 0.021067737 -0.005877696 -0.56321293 -0.72671342 -0.39329237 0.0013373935
-0.058146048 0.026328895 -0.0047096452 -0.62178779 -0.67382383 -0.39917588 0.0013632573
-0.056268241 0.024898158 -0.0051107849 -0.59623951 -0.70557994 -0.38295624 0.001134605
-0.061178997 0.029167149 -0.00443462 -0.68035066 -0.61843473 -0.39327028 0.0021230513
-0.059393167 0.027666993 -0.0049877721 -0.64655161 -0.64935851 -0.40038052 0.00096604804
-0.06374865 0.032145672 -0.0045019952 -0.71377295 -0.57538742 -0.39932135 0.0014479172
-0.062299199 0.030682035 -0.0048610885 -0.69430155 -0.59629542 -0.40296048 0.0015816755
-0.0068250974 0.03284565 -0.0056140712 0.15885107 0.92153138 -0.35432512 0.0024156591
-0.0043621263 0.032669757 -0.005145561 0.13508771 0.92564917 -0.35344711 0.0024577163
-0.0014521756 0.032506045 -0.0045883125 0.11001801 0.93853939 -0.3271696 0.0024406705
0.0014780929 0.032269057 -0.0046116374 0.056782991 0.94368756 -0.32592869 0.0024317142
0.0044312393 0.032175604 -0.0045999479 0.012720675 0.94600999 -0.32388788 0.0027612429
0.0075173448 0.032200772 -0.0045792265 -0.032656778 0.94884366 -0.31405306 0.0028306982
0.010497442 0.032382309 -0.0046125166 -0.09435121 0.94397831 -0.31623209 0.0023809059
0.013366661 0.032614354 -0.0047848322 -0.1356886 0.93515074 -0.32723349 0.0023860489
0.01602619 0.0328243 -0.0054724733 -0.19365793 0.92429978 -0.32888687 0.0024235148
0.067171134 0.030137591 -0.0054854122 0.7242856 -0.38989908 -0.56867307 0.0010541875
-0.06649597 0.035489392 -0.0041610776 -0.75888568 -0.52709717 -0.38244098 0.0021700202
-0.065075099 0.034138296 -0.0049605407 -0.72941768 -0.5591619 -0.3940655 0.0019779333
-0.018529681 0.035855737 -0.0055226558 0.30069149 0.90240359 -0.30862969 0.0025487435
-0.016360627 0.035416119 -0.0047645089 0.29532084 0.90683717 -0.30071911 0.0020807334
-0.013452176 0.03466589 -0.0045844461 0.24017757 0.91631311 -0.32044497 0.0021423572
-0.010432892 0.033904333 -0.0046668509 0.19891632 0.92437267 -0.3255263 0.0019302053
-0.0076044216 0.033440955 -0.0043664444 0.16355757 0.93573993 -0.31247339 0.0020583691
-0.0047856173 0.033215795 -0.0036813747 0.1305552 0.94775414 -0.29106262 0.0016870975
-0.0027278948 0.033023335 -0.0033998101 0.098963335 0.96274841 -0.25163826 0.0019617672
0.014182419 0.033124924 -0.0035155809 -0.13165987 0.95647204 -0.26043597 0.0017526075
0.016730696 0.033403132 -0.0041787052 -0.19065291 0.93871081 -0.28718209 0.0022244754
0.019522332 0.03395946 -0.0045608119 -0.22483945 0.92886692 -0.29436937 0.0019357819
0.022511996 0.03476065 -0.0045699254 -0.26869622 0.9162674 -0.29707953 0.0016118499
0.025252216 0.035506766 -0.0047931559 -0.30144417 0.90832704 -0.2899541 0.0017338492
0.027416009 0.035866674 -0.0056412909 -0.29341844 0.90023828 -0.32167789 0.0020090966
0.069339328 0.03527648 -0.0059814127 0.76016927 -0.27950606 -0.5865314 0.0028226119
-0.069095269 0.038789045 -0.003404961 -0.80563682 -0.46007788 -0.37319914 0.0029665474
-0.067677461 0.037661351 -0.0046984581 -0.77507842 -0.48342565 -0.4068822 0.002614961
-0.065884113 0.036042131 -0.0058975387 -0.71951914 -0.51243848 -0.46872064 0.0024298499
-0.027065776 0.038881097 -0.0059724064 0.40368614 0.82736081 -0.3905274 0.0017890708
-0.025075922 0.038542192 -0.0048703952 0.3824504 0.87701172 -0.29082999 0.0017239026
-0.02251498 0.037611715 -0.0045934627 0.34851387 0.88788795 -0.30032176 0.0019896138
-0.019637477 0.036598988 -0.0044157775 0.31282803 0.90550208 -0.28671348 0.0022094806
-0.017545838 0.036155526 -0.0036112003 0.2826485 0.9222526 -0.26374251 0.0012521149
0.026388176 0.036178004 -0.0037466465 -0.28428906 0.91920024 -0.27248976 0.0017818428
0.028588429 0.03668512 -0.0044577848 -0.30126706 0.90969336 -0.28582534 0.0020758663
0.03149854 0.037688036 -0.0045236186 -0.34791389 0.89407247 -0.28211758 0.0019959167
0.033939775 0.038562741 -0.0048792711 -0.40218133 0.86630648 -0.29624856 0.0026038922
0.070342705 0.037219167 -0.005293522 0.76490819 -0.16447894 -0.62278587 0.0016402768
-0.069699809 0.040936034 -0.0043360107 -0.81748295 -0.38206348 -0.43098634 0.0032441325
-0.068623088 0.039951902 -0.005397656 -0.7974748 -0.39141744 -0.45915827 0.0036787651
-0.033043385 0.041806929 -0.0057120733 0.43011644 0.82485145 -0.36690602 0.0039124913
-0.031269964 0.041394979 -0.0048126923 0.41765937 0.85900676 -0.29608768 0.0018966313
-0.028447265 0.040129025 -0.0045864703 0.3894566 0.8728714 -0.29397133 0.0020042032
-0.026192728 0.039304543 -0.0040434203 0.37158886 0.88502634 -0.2804462 0.0017626168
0.035205442 0.039376974 -0.0042115469 -0.4004274 0.8668415 -0.29705834 0.0025159549
0.037522692 0.040532812 -0.0044925692 -0.46474361 0.83550525 -0.29316252 0.0025990272
0.03962722 0.041622441 -0.0049487813 -0.50426447 0.81482434 -0.28596976 0.0020464098
0.071136162 0.040724564 -0.005180439 0.80675054 -0.084923506 -0.58475775 0.001699259
-0.07202144 0.044912376 -0.0030500637 -0.87303597 -0.31376058 -0.37331292 0.014248744
-0.070533007 0.043537442 -0.0047042812 -0.82698518 -0.28252828 -0.48607957 0.0034574233
-0.037237495 0.044403769 -0.004868099 0.44609141 0.83797592 -0.31432307 0.0020512238
-0.03454797 0.043113355 -0.0045531029 0.42821336 0.8512854 -0.30322656 0.0019483079
-0.032466501 0.042258702 -0.0039717956 0.41419962 0.86155158 -0.29354292 0.0017929496
0.040954281 0.042664278 -0.0042830179 -0.49506605 0.8182168 -0.29228565 0.0020868052
0.043320436 0.044039439 -0.0046239276 -0.51794016 0.80376673 -0.29274052 0.0020190673
0.045290507 0.044835065 -0.0056852908 -0.48240343 0.78147006 -0.39571652 0.0029425109
0.071218409 0.043173205 -0.0055335034 0.77762938 -0.017293196 -0.62848508 0.0017292654
0.072289675 0.043853551 -0.0035485821 0.81616455 -0.0036776185 -0.57780778 0.00098669762
-0.072280951 0.047052298 -0.0035605547 -0.83466351 -0.26521224 -0.48269999 0.0041668848
-0.071197443 0.046542812 -0.0050169206 -0.80483323 -0.19589224 -0.56024075 0.0055791177
-0.043093178 0.047565851 -0.0048735742 0.44568729 0.82174391 -0.35510537 0.0019399858
-0.040574335 0.046317905 -0.0045428379 0.45062616 0.82894945 -0.33132914 0.0019950515
-0.03844329 0.045354944 -0.0039988672 0.4326508 0.84257883 -0.3207401 0.0018811378
0.044631857 0.045249015 -0.0036696501 -0.51096123 0.80482143 -0.30196214 0.0020572096
0.046565909 0.046162348 -0.0044675642 -0.51081228 0.7971617 -0.32187587 0.0026417871
0.048899531 0.047427893 -0.0049122316 -0.50700724 0.79010248 -0.34450218 0.0029906547
0.071554244 0.046589404 -0.0050641261 0.76741463 0.046975788 -0.6394279 0.0018307719
0.072343744 0.046304356 -0.0035351086 0.82671845 0.018388504 -0.56231534 0.001651053
-0.072711855 0.049734663 -0.0040702587 -0.76240206 -0.221872 -0.60787815 0.0060318545
-0.071446411 0.049380828 -0.0054822885 -0.73164427 -0.12332581 -0.67043829 0.0069940225
-0.048882592 0.050581157 -0.0050773099 0.43031719 0.82110512 -0.37498483 0.0025291757
-0.046530116 0.049552005 -0.0045835013 0.43350434 0.82822102 -0.35513926 0.0025228919
-0.044214729 0.048486955 -0.0040939455 0.43287545 0.83124417 -0.34878653 0.0021219507
0.050084282 0.048552271 -0.0041124071 -0.50687689 0.78639013 -0.35308117 0.0025355518
0.052369524 0.049814578 -0.004614932 -0.50366616 0.7829234 -0.36517295 0.0028225628
0.054543007 0.050718609 -0.0054558986 -0.47506443 0.75624239 -0.44990131 0.0041667251
0.071259178 0.049514953 -0.0052541178 0.70714414 0.11931667 -0.69692945 0.0043216129
0.072259277 0.049457863 -0.0036545517 0.78843957 0.065121435 -0.61165535 0.0029872123
-0.075117767 0.053707372 -0.0030411885 -0.8806144 -0.15462075 -0.44789582 0.018877108
-0.073295541 0.052679863 -0.0044478993 -0.67701697 -0.11688929 -0.72662574 0.0071584843
-0.071661152 0.052385595 -0.0057422887 -0.56274176 -0.026574375 -0.82620549 0.007773485
-0.057601042 0.053879511 -0.0058391066 0.2422262 0.79056865 -0.56243014 0.0029406769
-0.055176042 0.053507987 -0.0050802897 0.31081942 0.84256393 -0.43986052 0.0035714125
-0.052562181 0.052608922 -0.0046792547 0.37185237 0.8303737 -0.41497633 0.0028401273
-0.050063197 0.051497556 -0.0043874676 0.41372633 0.82602823 -0.38276356 0.0028056793
0.053651899 0.051216427 -0.0034414355 -0.49193496 0.79044509 -0.36496115 0.0022978815
0.05569363 0.052014951 -0.0043449025 -0.45933637 0.79272431 -0.40074697 0.003657422
0.058188424 0.053165421 -0.0048952894 -0.43690273 0.75434285 -0.48998249 0.0067260768
0.060433846 0.053811353 -0.0057017365 -0.38231641 0.65841407 -0.64832485 0.003435916
0.070874877 0.052616969 -0.0052762465 0.6527012 0.13824093 -0.74489635 0.0082922587
0.072376572 0.052982967 -0.0033631381 0.72362667 0.076340973 -0.68595654 0.0027836887
-0.07512033 0.055441946 -0.0032327273 -0.83509725 0.13261943 -0.53387707 0.037292153
-0.073550053 0.055566911 -0.0045897248 -0.63213205 0.19919766 -0.7488187 0.022491328
-0.071208604 0.05601183 -0.0057702926 -0.35149246 0.22083652 -0.9097715 0.016069077
-0.067105666 0.056811702 -0.0058531803 0.034931827 0.5594992 -0.82809442 0.0078503862
-0.064266503 0.05643994 -0.0054820995 0.23338386 0.67695606 -0.69804192 0.0068522613
-0.061433718 0.055783257 -0.0048013516 0.30179036 0.76237434 -0.57245785 0.007227255
-0.058583736 0.054859776 -0.0046145348 0.25254443 0.82797652 -0.50067586 0.0034669924
-0.056037128 0.054378178 -0.0039613363 0.31212845 0.86399013 -0.39509091 0.0025342321
0.059188399 0.054476988 -0.0038203963 -0.48495463 0.74245989 -0.46213877 0.0044995951
0.061476082 0.055515233 -0.0045543988 -0.4404743 0.69406521 -0.56943458 0.0067732497
0.064034157 0.056358594 -0.0055102692 -0.32397032 0.54949099 -0.77013177 0.0074487333
0.068406336 0.056660432 -0.0059524863 0.056062423 0.35231566 -0.93420058 0.012288998
0.070316017 0.05559323 -0.0053442242 0.33886895 0.23588465 -0.91078335 0.010755954
0.072226562 0.05529644 -0.0034859795 0.67332196 0.074036218 -0.73563313 0.0046087173
-0.075049259 0.057173412 -0.0030133091 -0.73909742 0.44352925 -0.5069682 0.043092109
-0.073139302 0.057918932 -0.0040722336 -0.52543938 0.64971757 -0.54934561 0.019210586
-0.070545487 0.058671962 -0.0046539884 -0.23554753 0.67162234 -0.70245337 0.02867274
-0.067565925 0.058448058 -0.0047314945 0.13330394 0.67641121 -0.72436035 0.010595709
-0.064742155 0.05796285 -0.0041497382 0.32113245 0.7171858 -0.61848074 0.0054932032
-0.062465195 0.0573171 -0.0034248352 0.40816507 0.75881708 -0.50754112 0.0073819878
0.062603079 0.057381243 -0.0034731382 -0.53937304 0.6071021 -0.58352703 0.0091542481
0.06457483 0.058405731 -0.0043063425 -0.53602344 0.47583622 -0.69732261 0.016861165
0.067282356 0.058695745 -0.0053696129 -0.20125459 0.37508541 -0.90487981 0.011802175
0.069876172 0.058481537 -0.0051532504 0.063099906 0.2530444 -0.96539474 0.014903942
0.072292544 0.058761168 -0.0033243764 0.46386129 0.054874718 -0.88420665 0.011036482
-0.069450222 0.0601216 -0.0032478645 -0.15634087 0.90219098 -0.40200615 0.025777372
-0.068277381 0.060159162 -0.0033239892 0.052227784 0.87675744 -0.47808862 0.035070412
0.065441623 0.061067659 -0.0034519376 -0.644862 0.31264138 -0.69742984 0.021553019
0.067277431 0.061539765 -0.0043908251 -0.39903697 0.27388033 -0.87507659 0.023037516
0.069957137 0.061581392 -0.0046558864 -0.15245107 0.23396406 -0.96021855 0.012071076
0.072308391 0.061444003 -0.0033562004 0.31943527 0.04454169 -0.94656068 0.020680621
0.065856054 0.063538119 -0.003072761 -0.72291589 0.32594618 -0.60922217 0.044771757
0.067480825 0.06443239 -0.0037832891 -0.46691683 0.18533261 -0.86466211 0.016830472
0.070012011 0.064490311 -0.0044045881 -0.27172598 0.14809138 -0.95091212 0.017276542
0.072313882 0.065039128 -0.0036700487 0.00079140515 0.01056074 -0.99994391 0.015339295
0.067988209 0.067425735 -0.0035786813 -0.5872277 0.12136336 -0.80027157 0.015476398
0.070133574 0.067543142 -0.0042730416 -0.27846619 0.057316024 -0.95873427 0.016839065
0.07246758 0.067981198 -0.0039417595 -0.0016660168 -0.048137352 -0.99883932 0.010302772
0.068342827 0.070426695 -0.0034571982 -0.6672889 0.090043962 -0.73933601 0.026623482
0.070212789 0.070596449 -0.0043447926 -0.41840643 0.026560798 -0.90787143 0.021940688
0.072850965 0.070711702 -0.0042797341 -0.049724631 -0.065642439 -0.99660349 0.011874538
0.075205095 0.071777359 -0.0031218301 0.72302049 -0.074614026 -0.6867854 0.043098349
0.06854815 0.073410951 -0.0033487065 -0.70804447 0.15635839 -0.68864006 0.02990552
0.07022956 0.0735512 -0.0044520688 -0.40480044 0.077164009 -0.91114342 0.028672203
0.073088609 0.073714755 -0.0048998361 0.035260819 0.22064218 -0.97471732 0.059727177
0.075565755 0.074313879 -0.0037172718 0.43348676 0.70365989 -0.56298482 0.0815285
0.068736263 0.075893112 -0.0032836255 -0.56317925 0.59929794 -0.56892103 0.084518097
0.070345543 0.075987853 -0.0042437902 -0.34498486 0.540133 -0.76762074 0.081603654
0.073133558 0.075679317 -0.0044221194 0.08011546 0.74036801 -0.66741043 0.056403257
0.0753759 0.075194985 -0.0034475634 0.41665849 0.74686909 -0.51824921 0.084182158
-0.016173348 0.0027670418 -0.0015393915 -0.26638088 -0.94540757 -0.18773851 0.0019397261
-0.013219474 0.0020987154 -0.001986664 -0.21673959 -0.95027083 -0.22362784 0.0027974991
-0.010571755 0.0015755048 -0.0019757866 -0.19037582 -0.96490449 -0.18087697 0.0020970774
-0.0067605898 0.00091978098 -0.0014878998 -0.15052778 -0.9634949 -0.22140248 0.0023422542
-0.0052636503 0.00091466255 -0.0026731752 -0.12322965 -0.94533211 -0.30192986 0.00075103028
0.0055782823 0.00046168087 -0.0026174798 0.026415434 -0.92363173 -0.38236994 0.00083668303
0.010502822 0.00075999094 -0.0029256155 0.050529268 -0.92359602 -0.38002262 0.00090362062
-0.024774039 0.005763182 -0.0019375616 -0.34352642 -0.91764045 -0.19981399 0.0014431478
-0.022189304 0.0047391267 -0.0016807326 -0.32686153 -0.92401779 -0.19837525 0.00083302398
-0.019751392 0.0039326358 -0.0018805841 -0.30389169 -0.93729681 -0.17065945 0.00092077191
-0.017672172 0.0032608658 -0.0017217547 -0.27701843 -0.94745272 -0.15998165 0.0010594905
-0.031147659 0.008257756 -0.0014478827 -0.37283781 -0.90200281 -0.21767618 0.00071648741
-0.028521543 0.0072535421 -0.0019799198 -0.35200292 -0.9110682 -0.21458952 0.00072504574
-0.026365047 0.006379196 -0.0018100446 -0.36570612 -0.90797812 -0.2045355 0.0015701321
-0.03910841 0.011825357 -0.00094833388 -0.46288458 -0.85359216 -0.23899449 0.0014054701
-0.037495613 0.011135709 -0.0018312288 -0.41804874 -0.87965226 -0.2268199 0.00086536212
-0.034557804 0.00973632 -0.0016301357 -0.39476201 -0.88996899 -0.22829393 0.00057580578
-0.032926783 0.0091744922 -0.0025528751 -0.38882637 -0.89212549 -0.23005687 0.00028985957
-0.043235909 0.014270116 -0.0015032702 -0.50803161 -0.8314665 -0.22487219 0.001725595
-0.040780809 0.01282968 -0.0015738234 -0.47200137 -0.85003597 -0.2337808 0.0011083535
-0.048217248 0.017706977 -0.0014545004 -0.58627129 -0.77751774 -0.22749093 0.0011147776
-0.046530396 0.01650974 -0.0016234951 -0.55853295 -0.79237401 -0.24532509 0.0017580552
-0.044745088 0.015345454 -0.0020820324 -0.55753154 -0.79567724 -0.23676212 0.0017880676
-0.051729012 0.020340689 -0.0015314785 -0.59482282 -0.77774101 -0.20323583 0.001484924
-0.04977588 0.018884096 -0.0015867663 -0.57995361 -0.78064233 -0.23291905 0.0011700401
-0.055249278 0.023008853 -0.0016087024 -0.60079193 -0.77707452 -0.1876279 0.0011123569
-0.053210765 0.021479944 -0.0017075402 -0.59447616 -0.7735067 -0.2197396 0.0018798726
-0.058533099 0.025688162 -0.0016132029 -0.64710903 -0.73775053 -0.19228666 0.00078564015
-0.056833047 0.024201959 -0.0013301222 -0.61528796 -0.75805402 -0.21627454 0.0021150799
-0.06174475 0.028759554 -0.0015723599 -0.71764654 -0.67164236 -0.18406521 0.0013576418
-0.059915967 0.027115513 -0.0028760775 -0.66789085 -0.70506871 -0.23832768 0.0021767062
-0.064319469 0.031784128 -0.0018824562 -0.76329345 -0.62434733 -0.16605261 0.0017637193
-0.062999018 0.030374024 -0.0026639234 -0.74495238 -0.63869196 -0.19266191 0.003062766
-0.00080500037 0.032933146 -0.0028161155 0.10267679 0.97891337 -0.17659582 0.0015059685
0.0017794031 0.032886248 -0.0021167027 0.065106772 0.98542702 -0.15714572 0.0023843357
0.0044853273 0.032857995 -0.001718348 0.016350096 0.98971128 -0.14214189 0.0025672468
0.0074083195 0.032856341 -0.0017399486 -0.035041194 0.9909873 -0.12929139 0.0030143403
0.010144536 0.032917611 -0.0025068761 -0.081670225 0.98452479 -0.15505153 0.0022906584
0.012282875 0.032973994 -0.002846464 -0.09716171 0.9867053 -0.13027732 0.0026585218
-0.066793963 0.034837194 -0.0016743353 -0.789648 -0.59141678 -0.16334668 0.0027990765
-0.065690637 0.033468507 -0.0020396754 -0.77329224 -0.61394173 -0.15841293 0.003020064
-0.015543884 0.035861921 -0.0016768873 0.30471069 0.94584018 -0.11197229 0.0025426827
-0.013500748 0.035340168 -0.0015519118 0.25352165 0.96015227 -0.11761986 0.0023797737
-0.010473607 0.034604933 -0.0015668431 0.21539424 0.96460843 -0.15210482 0.0035966604
-0.0074106082 0.033990074 -0.0016877931 0.16913882 0.97382593 -0.15183935 0.0028829128
-0.0044779005 0.03355515 -0.0015677351 0.12908563 0.98459107 -0.1179719 0.0027178237
-0.0016522729 0.03323029 -0.0015279447 0.094149224 0.98664737 -0.13290153 0.0026418893
0.001018003 0.033078 -0.00092299021 0.042751394 0.99702549 -0.064128898 0.0028482312
0.004353764 0.033017654 -0.0002270862 0.016383022 0.99986565 -0.00052748009 0.0009946262
0.0084684985 0.033031575 -0.00052871759 -0.031045325 0.99913925 -0.027513485 0.0020496729
0.010685862 0.033122953 -0.0011917953 -0.066841736 0.99488485 -0.075738497 0.0040863845
0.01358007 0.033377126 -0.0015365464 -0.12220222 0.98638242 -0.11007437 0.0027855707
0.016501697 0.033884529 -0.0015639212 -0.19699337 0.97279811 -0.12189121 0.0029466373
0.019492574 0.034603264 -0.0015627801 -0.24842501 0.96152401 -0.11728828 0.0026052054
0.022493204 0.03540187 -0.0015961396 -0.27015835 0.95800138 -0.096165545 0.0022869275
0.024351703 0.035864282 -0.0022376103 -0.30631712 0.94713271 -0.09544383 0.0026651302
-0.069310315 0.038525604 -0.0017249533 -0.84398526 -0.48220304 -0.2348811 0.0029226677
-0.068363994 0.037175193 -0.0020921705 -0.82197648 -0.51383233 -0.24562354 0.0030173541
-0.024303351 0.038883992 -0.002203922 0.39331886 0.91038549 -0.12844646 0.0020914283
-0.022508366 0.038259674 -0.0016638571 0.36091107 0.92464161 -0.12157749 0.0020704083
-0.019498825 0.037150301 -0.0015927382 0.32140881 0.93605798 -0.14314952 0.002676195
-0.016977565 0.036338631 -0.0014628088 0.28398705 0.95264417 -0.10872162 0.0026140194
0.02567663 0.036359388 -0.0014524441 -0.28739753 0.95447361 -0.079892769 0.0027620227
0.028499005 0.037259255 -0.0015528261 -0.31191999 0.94422692 -0.10555346 0.0023967202
0.031524267 0.038329341 -0.0015187775 -0.35520875 0.9303543 -0.090926178 0.0026910827
0.033237979 0.038881972 -0.002258399 -0.43705648 0.89375943 -0.10087428 0.0030984259
-0.070384189 0.04050263 -0.001892902 -0.87458843 -0.42328736 -0.23648007 0.0038698036
-0.030590152 0.041772399 -0.0018831199 0.45311502 0.8836633 -0.11758326 0.0019735214
-0.028498018 0.040811546 -0.0016266532 0.41760281 0.90105718 -0.11706369 0.0018900685
-0.02577069 0.039600901 -0.0016213937 0.38062766 0.91694248 -0.11974542 0.0020513777
0.032883525 0.039061416 -0.00075921929 -0.38805488 0.91819185 -0.0796066 0.0040597264
0.034625743 0.039659236 -0.0015133152 -0.4329547 0.89672416 -0.091846965 0.0032783486
0.037437834 0.041163079 -0.0015801146 -0.49891949 0.85859329 -0.11788486 0.002613649
0.039080542 0.041956533 -0.0025679739 -0.49857336 0.85690641 -0.1309045 0.0029429139
-0.072196476 0.044426911 -0.0012265155 -0.92107946 -0.32017365 -0.22158864 0.0057367277
-0.071575746 0.043163396 -0.0018769975 -0.9010396 -0.35793149 -0.24497508 0.0043503963
-0.036483299 0.044763599 -0.0019424013 0.49156821 0.86499286 -0.10073735 0.0022068133
-0.034483626 0.043765813 -0.0015527747 0.46054819 0.88272333 -0.093245752 0.0021774652
-0.03198085 0.042492192 -0.001512119 0.42670903 0.8992579 -0.096201681 0.0022253399
0.038854036 0.04211453 -0.00093808421 -0.51691908 0.85115999 -0.091221832 0.0034966499
0.040520851 0.04305334 -0.0015246919 -0.51158357 0.85191846 -0.11187969 0.0027513029
0.042784989 0.044494107 -0.001640729 -0.55559987 0.82602692 -0.094806887 0.0021643715
-0.072769038 0.04652888 -0.0017699644 -0.91326791 -0.28899258 -0.28709751 0.0060184035
-0.04232594 0.047922157 -0.0023376173 0.4898234 0.86369854 -0.1187342 0.0023881344
-0.04049978 0.047027651 -0.0015660945 0.48137408 0.86923248 -0.11275598 0.0023190493
-0.037892643 0.045585394 -0.001503917 0.46430776 0.87923574 -0.1065965 0.0023607819
0.044275481 0.045501154 -0.001418013 -0.54070455 0.83241069 -0.12137207 0.003497442
0.046493661 0.046923656 -0.0015618027 -0.53659135 0.83708143 -0.10660379 0.0035111627
0.048225794 0.047868855 -0.0024084349 -0.5618239 0.81596464 -0.13621944 0.0034356811
-0.075018682 0.050985299 -0.00058125734 -0.89176202 -0.43437549 -0.12680081 0.018915838
-0.073821336 0.049448419 -0.0018094269 -0.86473274 -0.33762282 -0.37181711 0.011968087
-0.048088498 0.050978735 -0.0029072654 0.47473317 0.85608155 -0.20433517 0.0066925599
-0.046342764 0.050288454 -0.0016789236 0.48745 0.86162049 -0.1414303 0.0032247014
-0.043681048 0.048817739 -0.0014909564 0.47676978 0.87119699 -0.11707444 0.0030130018
0.047908809 0.048080958 -0.0005282191 -0.52700996 0.84546828 -0.086278006 0.005153738
0.049586762 0.048972055 -0.0014879638 -0.54015321 0.83212006 -0.12574045 0.0041169128
0.051795755 0.050462198 -0.0016527586 -0.56600118 0.81578267 -0.1189174 0.0031742968
0.072754726 0.048864923 -0.0025915978 0.8263036 0.020260656 -0.56286049 0.0015117625
-0.075499944 0.052977342 -0.0014995306 -0.91635746 -0.19818459 -0.3478677 0.016947133
-0.074679241 0.051784575 -0.0023380625 -0.86098689 -0.29290238 -0.41582417 0.012688683
-0.052342989 0.053465217 -0.0018952044 0.4185991 0.88649607 -0.19722925 0.0034014832
-0.049380761 0.05194778 -0.0017025504 0.44457012 0.87636024 -0.18533793 0.002894989
-0.047693655 0.051133253 -0.0010889821 0.46204874 0.87691659 -0.13239396 0.0049644955
0.053271111 0.051508296 -0.001405971 -0.54146677 0.8254925 -0.15929842 0.0057621081
0.055469576 0.052892938 -0.0015943606 -0.53838831 0.82828677 -0.15517445 0.005765338
0.057243604 0.05385511 -0.0023100683 -0.57197106 0.79538596 -0.20052497 0.0086666849
0.072759204 0.05209465 -0.0026199147 0.75266224 0.071595088 -0.65450269 0.0027184277
-0.075843848 0.055802714 -0.0016699632 -0.90767938 0.25917411 -0.33007127 0.041161686
-0.074982777 0.056932904 -0.0028312362 -0.61667919 0.75880975 -0.2095582 0.026877163
-0.060419522 0.056710511 -0.0020937263 0.49162975 0.83769995 -0.23782155 0.0082937907
-0.058472712 0.055942446 -0.0016250532 0.37849095 0.90201497 -0.20763792 0.0085006738
-0.055522829 0.054868717 -0.0016071897 0.32702377 0.92288196 -0.20333295 0.0042223176
-0.053573709 0.054168463 -0.0010852215 0.38594529 0.90706199 -0.16818082 0.0043119756
0.056887869 0.054058991 -0.0006816258 -0.54968113 0.82959896 -0.098062605 0.0093149124
0.058636654 0.055034671 -0.0014990228 -0.54264021 0.82153463 -0.17499265 0.0097776912
0.060642373 0.056498613 -0.0017497852 -0.68081582 0.70952725 -0.18182652 0.011572515
0.072882928 0.055672906 -0.0022291003 0.72306311 0.04043147 -0.68959779 0.0034858671
-0.075322218 0.05730975 -0.0013077826 -0.80788434 0.52752906 -0.26274729 0.042661015
-0.073576234 0.058322068 -0.001583475 -0.57114875 0.79379863 -0.2089805 0.023308398
-0.071117558 0.059555072 -0.0014698167 -0.40542969 0.90452671 -0.1321287 0.0054688789
-0.066277668 0.059823282 -0.0027954509 0.25719881 0.87214863 -0.41617963 0.018149525
-0.064326942 0.059209667 -0.0018429734 0.46626368 0.83417386 -0.29453722 0.0080608325
-0.061821096 0.057702769 -0.0016336096 0.46340686 0.84344733 -0.27175483 0.0092075001
0.062105525 0.05805634 -0.001437775 -0.77045339 0.60068023 -0.21350634 0.019317707
0.063447058 0.059441525 -0.0019913986 -0.75792289 0.60928839 -0.23306778 0.020566935
0.072918311 0.058792025 -0.002467264 0.63388085 0.00038385246 -0.77343065 0.0037833462
-0.069616735 0.060267787 -0.0015435619 -0.26423547 0.95290393 -0.14884096 0.018203186
-0.067782149 0.060687181 -0.0015549972 -0.028988028 0.98941928 -0.14215897 0.021376083
-0.065660015 0.060267437 -0.0010685459 0.3167699 0.92018813 -0.23002301 0.020758431
0.064404942 0.061492879 -0.0015947801 -0.82699561 0.42392999 -0.36927179 0.032736003
0.073030151 0.061645795 -0.002595095 0.47027692 -0.0045358967 -0.88250732 0.0076244357
0.065315798 0.064385086 -0.0014499752 -0.92296755 0.24640934 -0.29565734 0.027449526
0.066267543 0.065225922 -0.002664082 -0.80859143 0.20769927 -0.55049151 0.032747034
0.073431484 0.064318359 -0.0025358519 0.3784726 -0.043335523 -0.9245975 0.008515303
0.065740652 0.067006588 -0.0008348914 -0.9405942 0.23742011 -0.24272263 0.028532609
0.066551946 0.067770146 -0.0020852888 -0.88940728 0.23311125 -0.39320976 0.025189891
0.074093699 0.067547612 -0.0026048459 0.31714827 -0.11354685 -0.94155407 0.0089264056
0.066931598 0.070495985 -0.0016065788 -0.89464772 0.1994404 -0.39978614 0.016670242
0.07462202 0.070030056 -0.0028725741 0.45443884 -0.18211469 -0.87196308 0.017204754
0.075161383 0.070522368 -0.0024947089 0.67590302 -0.19237746 -0.71143943 0.0096734939
0.067459449 0.073445044 -0.0016256323 -0.90260941 0.16806996 -0.3962937 0.023992501
0.076497793 0.074715778 -0.0012575489 0.4275164 0.87297773 -0.23481806 0.053635184
0.067949466 0.07626994 -0.0015490117 -0.80683988 0.4980858 -0.3176789 0.076202229
0.070309892 0.076804861 -0.0016354056 -0.17790619 0.89576411 -0.40737706 0.074717529
0.073371656 0.075872429 -0.0013756191 0.28362408 0.95486009 -0.088314928 0.0098207826
0.075539976 0.075205475 -0.0014246459 0.2975097 0.94084525 -0.16216724 0.033411279
-0.016547892 0.0026214053 0.0014984673 -0.26922521 -0.95534855 -0.12176589 0.0005927583
-0.013810828 0.0020154053 0.0015511508 -0.228403 -0.96919596 -0.092148103 0.00065095781
-0.010562885 0.0014333287 0.0010211319 -0.18959382 -0.97430289 -0.12160619 0.00071810262
-0.02749607 0.0057996041 0.0020247211 -0.34314078 -0.91672117 -0.20463803 0.0013440643
-0.025636928 0.0055451044 0.0012342016 -0.34420198 -0.9206686 -0.18410398 0.00099027087
-0.022263406 0.004443537 0.0010221697 -0.3111352 -0.93706369 -0.15845011 0.00093656068
-0.019803256 0.0034438674 0.0016285283 -0.29351991 -0.94488001 -0.14507864 0.00076990755
-0.017771328 0.0031525344 0.00077794876 -0.27863485 -0.95574504 -0.094414592 0.00049747596
-0.0340994 0.0085648214 0.0014808035 -0.38880163 -0.90305865 -0.18253353 0.0026132606
-0.031303588 0.0075953119 0.0012897012 -0.37176916 -0.91115373 -0.17772578 0.0021812979
-0.028626816 0.0066950247 0.0010837136 -0.35291073 -0.91349858 -0.2024211 0.00066856248
-0.026707126 0.0061811362 0.00080017059 -0.34706569 -0.91869807 -0.18851885 0.0012873865
-0.040487289 0.011474069 0.0016638613 -0.47983685 -0.84564233 -0.2337641 0.0020095981
-0.037488345 0.010241434 0.0013223081 -0.43211177 -0.87074053 -0.23471309 0.0020294103
-0.034861345 0.0094114812 0.00087239716 -0.39608544 -0.89741647 -0.19431917 0.0030045903
-0.045650758 0.014430793 0.00193379 -0.53725863 -0.81148791 -0.22987086 0.0044571622
-0.043520801 0.013419175 0.0014469008 -0.51572365 -0.8227154 -0.2390992 0.0032417881
-0.041082054 0.01252582 0.00082530663 -0.48900452 -0.84163505 -0.22918341 0.003121281
-0.049181193 0.017131293 0.0017616623 -0.58416718 -0.77442557 -0.24292752 0.0022746504
-0.046859246 0.015859868 0.0012655337 -0.56528795 -0.78669161 -0.24812481 0.0026148944
-0.044720508 0.015048726 0.00073773833 -0.52812374 -0.81088918 -0.25207973 0.0051628612
-0.05444891 0.020656751 0.0025700761 -0.5906294 -0.76234061 -0.26456335 0.003468229
-0.052375581 0.019643167 0.0017632158 -0.57844901 -0.77236032 -0.26240477 0.0041593262
-0.050342847 0.018665697 0.0011235587 -0.59055001 -0.7667594 -0.25165603 0.0023991815
-0.057746373 0.0236491 0.0023840594 -0.67884594 -0.69699097 -0.23102318 0.0014311237
-0.055946674 0.022312073 0.0020718267 -0.63144767 -0.72967517 -0.26238891 0.0028881212
-0.053517353 0.02139839 0.00082741189 -0.57842505 -0.76985627 -0.26971442 0.0039124046
-0.060454052 0.026495405 0.0022814604 -0.73249602 -0.6560781 -0.18168941 0.00091414893
-0.05899021 0.025165852 0.0020017724 -0.68999493 -0.69131255 -0.21446182 0.0014805588
-0.056919828 0.024152741 0.00045913865 -0.63497531 -0.7398501 -0.22232451 0.0036284588
-0.063203871 0.029720707 0.0024573316 -0.77732939 -0.61690807 -0.12322083 0.0013772327
-0.061987966 0.028387928 0.0020303892 -0.75582314 -0.64318305 -0.1226659 0.0022120934
-0.064513199 0.031539351 0.0019730802 -0.79780805 -0.59891695 -0.06928806 0.0013364608
-0.00080684753 0.032925792 0.0027189713 0.10179284 0.98102152 0.16503057 0.001673864
0.0019782493 0.032889135 0.0017405299 0.060514234 0.99089468 0.12027329 0.0024410735
0.0046900734 0.032850496 0.0015453055 0.013634503 0.99446803 0.10415135 0.0027492091
0.0074747945 0.032857563 0.0015798714 -0.033097718 0.99384004 0.10576621 0.0027254096
