# .PCD v0.7 - Point Cloud Data file format
VERSION 0.7
FIELDS x y z normal_x normal_y normal_z curvature
SIZE 4 4 4 4 4 4 4
TYPE F F F F F F F
COUNT 1 1 1 1 1 1 1
WIDTH 552
HEIGHT 1
VIEWPOINT 0 0 0 1 0 0 0
POINTS 552
DATA ascii
-0.054604314 0.026449744 -0.0093946168 -0.53504241 -0.61092454 -0.58352453 0.0013412207
-0.052359413 0.025600256 -0.010290632 -0.48980129 -0.59480482 -0.63741815 0.0017436408
-0.049822949 0.024663305 -0.011294993 -0.45438975 -0.5817886 -0.67457539 0.001560259
0.056589328 0.024331197 -0.011750557 0.49384972 -0.46666434 -0.73371446 0.0015350255
0.058759764 0.025231201 -0.010676532 0.5429973 -0.48728645 -0.68389016 0.0011565214
0.060725175 0.026162975 -0.0097414143 0.58924884 -0.51650268 -0.6212976 0.001642662
-0.057606567 0.02926318 -0.0094354404 -0.57128155 -0.55719697 -0.60263503 0.0017292507
-0.055543028 0.028440015 -0.010321042 -0.52261162 -0.5395115 -0.66015488 0.0014901239
-0.053298477 0.027702481 -0.011362693 -0.4842881 -0.54050303 -0.68798369 0.001172066
0.059568532 0.027716387 -0.01172842 0.53884846 -0.39957213 -0.74160933 0.0016716596
0.061769485 0.028256858 -0.010194752 0.60490406 -0.43302271 -0.66826826 0.0018270576
0.063443214 0.02931376 -0.0093827685 0.64884716 -0.42598236 -0.63050479 0.0016499893
-0.060435385 0.03257858 -0.0093506472 -0.61351359 -0.53154439 -0.58400476 0.0018753085
-0.058483806 0.031391583 -0.010141104 -0.5639466 -0.49488205 -0.661102 0.0012499308
-0.05569144 0.030655079 -0.011770817 -0.51866931 -0.48517871 -0.70397705 0.0013376692
0.06218347 0.031128284 -0.011327559 0.56867039 -0.31011924 -0.76186609 0.0013574037
0.064172789 0.031551041 -0.0099022416 0.65346754 -0.35577664 -0.66813415 0.0014594415
-0.063223541 0.035701841 -0.0091998465 -0.63035065 -0.4071804 -0.66095549 0.0020819595
-0.061458893 0.034629609 -0.0099451002 -0.61617589 -0.43257931 -0.65818113 0.0021191575
-0.05915571 0.033980686 -0.011317885 -0.53605598 -0.35880205 -0.76413679 0.0014836024
0.06283991 0.033526674 -0.011792569 0.52843404 -0.18602979 -0.82834196 0.0022253974
0.064848572 0.034174614 -0.010371181 0.63751525 -0.25712106 -0.72626662 0.0015516663
0.06633985 0.034875825 -0.0092769293 0.70483088 -0.2664412 -0.65743625 0.0017661357
-0.063860908 0.037385684 -0.0093872333 -0.64216959 -0.38417608 -0.66334528 0.0017798627
-0.061687589 0.037023369 -0.010811564 -0.57076389 -0.33909091 -0.74782747 0.0018629495
-0.059741158 0.037009094 -0.011903305 -0.51573896 -0.28040615 -0.80955893 0.003159601
0.064715102 0.037291389 -0.011258665 0.57704854 -0.1144172 -0.80865544 0.0019229457
0.066789031 0.036997419 -0.0094419653 0.69859213 -0.19412205 -0.68868399 0.0020241863
-0.066305391 0.04105391 -0.0091578895 -0.68257922 -0.29819858 -0.66720551 0.0011098408
-0.064545654 0.04020068 -0.0099125048 -0.62277079 -0.29990962 -0.72264159 0.0018210333
-0.062054496 0.039659251 -0.011501479 -0.5384444 -0.2376653 -0.80845094 0.0031883419
0.064959817 0.040401038 -0.011329548 0.51720077 0.015331551 -0.85572678 0.0028913594
0.067139283 0.040318996 -0.0097363694 0.64944559 -0.062709443 -0.75781792 0.002221257
-0.066394292 0.043467492 -0.0093544833 -0.61713564 -0.13957182 -0.77437937 0.0030696497
-0.06454169 0.043366004 -0.010568301 -0.50978756 -0.086465336 -0.85594422 0.0034964285
-0.062546432 0.043347083 -0.011621073 -0.45253396 -0.02606944 -0.89136606 0.0023633691
0.062792361 0.043980744 -0.011587109 0.41182023 0.13983235 -0.90047264 0.0022786972
0.065123595 0.043234013 -0.010989748 0.51518214 0.061317816 -0.85488451 0.0026156232
0.067211263 0.0432823 -0.0097216619 0.60944986 0.033787869 -0.7921043 0.0025777379
-0.066545315 0.046343397 -0.00940926 -0.60485321 -0.057697397 -0.79424411 0.0039170329
-0.064616218 0.046303414 -0.010475648 -0.47420987 0.029005636 -0.87993395 0.00050659402
-0.061831605 0.045508087 -0.011797875 -0.43941981 0.0061651277 -0.89826071 0.0012526819
0.065131038 0.045950577 -0.010255659 0.48782897 0.13700017 -0.86212176 0.0022658682
0.066868663 0.045830481 -0.0095899347 0.59251034 0.081038371 -0.8014763 0.0028060761
-0.066474929 0.04933631 -0.0091707977 -0.55278146 0.011000808 -0.83325368 0.00092012645
0.06547793 0.048541572 -0.0094350781 0.4444299 0.20668539 -0.87164402 0.0010285076
-0.0097471662 0.0028650609 -0.0062378971 -0.15893935 -0.86541319 -0.47518235 0.0012502949
-0.0073542972 0.0027158624 -0.0066090445 -0.12151672 -0.87077463 -0.47642955 0.0016566723
-0.0043871007 0.0024579589 -0.0068988469 -0.087661512 -0.87358403 -0.4787133 0.0017891267
-0.0014853198 0.0022986138 -0.0069741602 -0.048289966 -0.87419736 -0.48316354 0.001937393
0.0014931547 0.0022793536 -0.007184865 -0.031081157 -0.87281805 -0.48705494 0.0017091241
0.0045365035 0.0021973897 -0.0071775583 0.0019060681 -0.8766402 -0.48114279 0.0016815658
0.0074915159 0.0022763663 -0.0071481369 0.031170079 -0.87872976 -0.47630075 0.0016982775
0.010485373 0.0023548806 -0.0070787319 0.056200061 -0.8835178 -0.46501389 0.0015954642
0.013416474 0.0025519228 -0.0069220238 0.093123667 -0.88389653 -0.45831755 0.0016862634
0.016329939 0.0027270913 -0.0065577268 0.11922652 -0.89488655 -0.43007335 0.0010436353
0.01871142 0.0028835358 -0.0062594814 0.16427769 -0.89420378 -0.41642824 0.0013456387
-0.021371461 0.005810054 -0.0061596809 -0.31619 -0.8382889 -0.44417971 0.0015247246
-0.019306526 0.0054881438 -0.0068132579 -0.26414338 -0.84068573 -0.47273231 0.0015866804
-0.016547728 0.0050287531 -0.007269897 -0.22806105 -0.84258991 -0.48788348 0.0016058505
-0.013550927 0.0043104817 -0.0073978119 -0.20257938 -0.84722042 -0.49110001 0.0016456497
-0.010553609 0.0037764814 -0.0076049026 -0.15606007 -0.84998113 -0.50316727 0.0011190108
-0.0075941519 0.0036016377 -0.0080420515 -0.11800878 -0.83639932 -0.5352664 0.0015846591
-0.0045218491 0.0034337936 -0.0084082661 -0.086547561 -0.82952529 -0.55172211 0.0014862772
-0.0015224386 0.0032879172 -0.0085439123 -0.051475171 -0.81005675 -0.58408761 0.001000975
0.0014963509 0.0032378896 -0.0087048709 -0.032002445 -0.80459744 -0.59295768 0.00087992492
0.0045194859 0.0031973622 -0.0087779965 -0.0028528541 -0.81675935 -0.57697135 0.0011227425
0.0075745764 0.0032371504 -0.0087062931 0.024343565 -0.82603282 -0.56309593 0.0011637757
0.010629302 0.0032494657 -0.008580666 0.052785251 -0.82649791 -0.56045949 0.0011715631
0.013690074 0.0033805443 -0.0083535388 0.086533852 -0.85289824 -0.51485574 0.0017203776
0.016608732 0.0035043859 -0.007988126 0.11019998 -0.85945946 -0.49918488 0.0017123079
0.019611191 0.00373937 -0.0075687417 0.15804522 -0.86607099 -0.47428125 0.0011121888
0.0225276 0.0042831735 -0.0074870293 0.1808611 -0.8733573 -0.45225671 0.0017017549
0.0255045 0.0049164239 -0.0074713831 0.20510288 -0.86601353 -0.45601916 0.0013058978
0.028313169 0.0054761996 -0.0070476518 0.24213937 -0.86661702 -0.43628377 0.0016383961
0.030640557 0.0058325515 -0.0064291782 0.28625497 -0.86650282 -0.40893883 0.0015362115
-0.027902251 0.0085965395 -0.0066954833 -0.33545807 -0.8239246 -0.45674518 0.001403457
-0.025374597 0.0080311587 -0.0073553906 -0.30094597 -0.81184942 -0.50033188 0.0014301143
-0.022583533 0.0071049286 -0.0075303372 -0.30724743 -0.82034564 -0.48231947 0.0012754244
-0.019743146 0.0065235109 -0.0082294652 -0.25082159 -0.80532259 -0.53716296 0.0016581885
-0.017248025 0.0061915927 -0.0087294029 -0.21837829 -0.77060932 -0.59872538 0.00072796136
0.026820805 0.0061199167 -0.0088887671 0.22450612 -0.80009997 -0.55627066 0.0012579507
0.028988443 0.0063523725 -0.0083585074 0.235523 -0.84458691 -0.48083463 0.0015165833
0.031647876 0.0067605725 -0.0076428559 0.28660023 -0.85131127 -0.4394649 0.0012743184
0.034514308 0.0077142599 -0.0075012608 0.30586681 -0.83878744 -0.45042315 0.0015979949
0.037223514 0.0084675439 -0.0070027057 0.33580363 -0.8436507 -0.41891471 0.0014617927
0.03927983 0.0088597229 -0.0062729269 0.38394517 -0.83649772 -0.39097008 0.0016372984
-0.036255676 0.011907635 -0.0062310039 -0.40625334 -0.80284148 -0.43635285 0.0013823248
-0.034174621 0.011387477 -0.0070041553 -0.36709982 -0.80572045 -0.46481425 0.0014611899
-0.03143299 0.010531576 -0.0074663465 -0.33361611 -0.8111248 -0.48039234 0.0018041845
-0.028766412 0.0096863369 -0.0078965947 -0.32220715 -0.80501771 -0.49812558 0.0016702119
-0.026523797 0.0092843538 -0.0086430376 -0.29530728 -0.76576984 -0.57130563 0.0010386533
0.035919927 0.0090926941 -0.0088776201 0.32421386 -0.79780143 -0.50832886 0.0016708607
0.037990224 0.0094167525 -0.008235191 0.32750016 -0.81640345 -0.47563541 0.0014466575
0.040543184 0.0101784 -0.0075075421 0.37887317 -0.81951076 -0.42995012 0.0014912501
0.043236319 0.011257042 -0.0071634655 0.39729095 -0.8116017 -0.42832536 0.0014904208
0.04534965 0.011829155 -0.0063538114 0.43767998 -0.80225188 -0.40599027 0.0017010191
-0.0421995 0.014875579 -0.0063333195 -0.46756399 -0.76677591 -0.43981662 0.0012386721
-0.040086646 0.014398837 -0.0070144758 -0.42996302 -0.77583063 -0.46175605 0.0014043256
-0.037557352 0.013360667 -0.0074610575 -0.40410548 -0.78847069 -0.46369478 0.0013605858
-0.034979016 0.012533864 -0.0082374848 -0.3624652 -0.77673233 -0.51507849 0.0017908901
-0.032727197 0.01201345 -0.008754693 -0.34037778 -0.73880583 -0.58164334 0.0017612333
0.044210989 0.012370446 -0.0083308518 0.39226604 -0.77939105 -0.48854584 0.0012589508
0.046566848 0.013247728 -0.0075375754 0.44971865 -0.7852031 -0.42568669 0.0013151468
0.049077813 0.01439844 -0.0070001017 0.47210068 -0.77120274 -0.42704484 0.0013257522
0.051137708 0.014967785 -0.0062128049 0.48967922 -0.76589048 -0.41668463 0.0015192458
-0.045619827 0.01768513 -0.0066708112 -0.51167125 -0.73996884 -0.4366219 0.0011970877
-0.043325368 0.016523534 -0.0072934967 -0.48188552 -0.74943519 -0.45401889 0.0010359118
-0.040910766 0.015532496 -0.0081271641 -0.42556614 -0.75320238 -0.5015772 0.0017399401
0.050051097 0.015567525 -0.007996005 0.47507825 -0.75807232 -0.44679639 0.0016822143
0.052375335 0.016764691 -0.0073449388 0.51705694 -0.73292363 -0.44212586 0.001350474
0.05442008 0.017647449 -0.0064287246 0.53606427 -0.72730482 -0.42855898 0.0014936315
-0.048987109 0.020384736 -0.0071735466 -0.5370298 -0.71452838 -0.44838402 0.0012218503
-0.046609994 0.01889167 -0.0074391365 -0.50492305 -0.72478175 -0.46876857 0.0022248947
-0.044670016 0.018367058 -0.0086410893 -0.49543956 -0.69201338 -0.52503067 0.0014131456
0.053522538 0.018298265 -0.0084313033 0.51299852 -0.68779308 -0.51358849 0.0014364943
0.055598557 0.019256562 -0.0075564827 0.55722421 -0.69639212 -0.45226017 0.0013997572
0.05764588 0.020401374 -0.006750606 0.58380133 -0.66420674 -0.46691051 0.001155733
-0.054276798 0.023694746 -0.0063939183 -0.55965286 -0.6996063 -0.44422942 0.001073326
-0.052308932 0.022934521 -0.0072389981 -0.54923177 -0.69761205 -0.46008891 0.0015392757
-0.050262135 0.021768004 -0.0077626416 -0.52621037 -0.71537918 -0.45971224 0.0017813353
0.056825746 0.021216605 -0.0087019783 0.55720496 -0.62692213 -0.54451013 0.0011378012
0.058768954 0.022130817 -0.0076261126 0.60100377 -0.63793141 -0.48149559 0.001735991
0.060664501 0.023356544 -0.0069451481 0.61865067 -0.61375254 -0.49048886 0.0013801771
-0.057296045 0.026520392 -0.0064908261 -0.58765405 -0.67144966 -0.45146206 0.0014819198
-0.055277642 0.025455123 -0.0073766932 -0.56626219 -0.67767745 -0.46914861 0.0019641905
-0.053194389 0.024588462 -0.0085235052 -0.52436817 -0.63899672 -0.5627799 0.0011801061
0.059855018 0.024162272 -0.0087758014 0.5931614 -0.56095833 -0.57748193 0.0011498987
0.061880451 0.025224885 -0.0075971303 0.65613854 -0.57086974 -0.4935483 0.0023028783
0.063543595 0.026370808 -0.0067379475 0.68079668 -0.54109436 -0.4936929 0.0018654031
-0.060378302 0.029564517 -0.0064891963 -0.64291316 -0.58775771 -0.49112469 0.0014757498
-0.05841871 0.02824419 -0.0074037048 -0.61103922 -0.62187397 -0.48979968 0.0018973371
-0.056656063 0.027390461 -0.008357089 -0.57076478 -0.62599552 -0.5313729 0.001996398
0.062710904 0.027283715 -0.0085885217 0.6279704 -0.51269388 -0.58548969 0.0021417823
0.064573362 0.028461428 -0.0073585212 0.71171302 -0.47076148 -0.52139068 0.0019661475
0.066183664 0.029741418 -0.006459306 0.72844607 -0.45448062 -0.51265371 0.0017825911
-0.063260071 0.032604698 -0.0063273958 -0.67855245 -0.54979306 -0.48712847 0.0010780101
-0.061321139 0.03126039 -0.0072187632 -0.66242731 -0.56307894 -0.49409741 0.0020336399
-0.059699267 0.030809762 -0.0086042713 -0.61476094 -0.55042517 -0.56489033 0.0015311653
0.065395549 0.030875405 -0.0082708718 0.69502532 -0.38200381 -0.60910827 0.0014941586
0.066767462 0.031559821 -0.0069305957 0.74496752 -0.39969394 -0.53410488 0.002245327
-0.066075966 0.035990711 -0.0065090368 -0.69788969 -0.47466987 -0.53631943 0.0019729293
-0.06454549 0.035082322 -0.0068890802 -0.71465433 -0.51677495 -0.47139454 0.0021745381
-0.062368359 0.033608928 -0.0081921807 -0.65981156 -0.49656624 -0.56397754 0.0021166194
0.065774329 0.033039525 -0.0087645445 0.73606616 -0.36085677 -0.57270324 0.0010687753
0.06771823 0.034360241 -0.0074379686 0.76134765 -0.29909211 -0.57523358 0.0016288197
0.069181092 0.035492148 -0.0063089528 0.79343897 -0.30770963 -0.52513754 0.0025652433
-0.066699892 0.037943695 -0.0066465321 -0.7133677 -0.43667158 -0.54810995 0.0026572936
-0.065116309 0.03691427 -0.0077431193 -0.67535883 -0.42325169 -0.60394412 0.0036204248
0.068151586 0.037174579 -0.0080715828 0.76688254 -0.21612772 -0.60430127 0.0021350896
0.069399498 0.03750933 -0.0066166343 0.80377132 -0.2228041 -0.55164295 0.0021312726
-0.069254994 0.041173324 -0.0061325533 -0.74613434 -0.34571674 -0.56900221 0.0029161479
-0.067302264 0.040363565 -0.0074442104 -0.71594638 -0.32979664 -0.61534947 0.001850952
-0.065653183 0.039738722 -0.0088288262 -0.671067 -0.27047834 -0.69029748 0.0025992582
0.068282619 0.040057465 -0.0085515361 0.74636245 -0.12685417 -0.65333837 0.0017684636
0.069761582 0.040270228 -0.0069095297 0.80113274 -0.13507384 -0.58304501 0.0023033149
-0.069500923 0.043585218 -0.0065855179 -0.75123566 -0.2612586 -0.60612619 0.0023190458
-0.067489274 0.042893082 -0.0082808034 -0.70997351 -0.28153756 -0.64550316 0.0026845932
0.06852518 0.043247983 -0.0086050937 0.67456204 0.011647251 -0.73812628 0.0023801285
0.070092291 0.043063499 -0.0067738146 0.81041628 -0.047228683 -0.5839476 0.0031023705
-0.070185989 0.046254992 -0.0066363672 -0.73302466 -0.19339865 -0.6521287 0.0023601765
-0.068278894 0.045805745 -0.0082802288 -0.67117208 -0.14971596 -0.72602558 0.0023592706
0.068224125 0.046282779 -0.0085219843 0.61972696 0.085376866 -0.78015983 0.0030311493
0.069861293 0.046761334 -0.0070211701 0.759745 0.044910152 -0.64866823 0.0024951107
-0.070636719 0.048954852 -0.0065655624 -0.72504425 -0.14647323 -0.6729461 0.0023936322
-0.068172917 0.048620433 -0.0083576124 -0.56847602 0.0085080331 -0.82265586 0.0013309502
0.068042047 0.049336031 -0.0079364758 0.59182352 0.13887581 -0.79401416 0.0023778998
0.069877289 0.049280338 -0.0067373984 0.72607696 0.082818769 -0.68260777 0.002770527
-0.070364818 0.05271244 -0.0066742026 -0.62661177 -0.06653478 -0.77648628 0.0043390621
-0.068366081 0.05156333 -0.0078725629 -0.57055229 0.0030389996 -0.82125562 0.0011819084
0.068256766 0.052447893 -0.0070013967 0.62080795 0.1254651 -0.77385789 0.0019877127
0.06945084 0.052087273 -0.006579672 0.70661718 0.091375537 -0.70167136 0.0028653799
-0.070990875 0.055064537 -0.0061279628 -0.60112566 -0.031264387 -0.79854274 0.0018993176
0.068712637 0.054861289 -0.0062422277 0.64430237 0.11738373 -0.75570863 0.00379322
0.0694075 0.055291936 -0.0060866093 0.63400894 0.12317625 -0.76345289 0.0054303207
-0.015349128 0.0029346249 -0.0033121037 -0.26106974 -0.93383855 -0.24451606 0.0016388076
-0.013306177 0.0026398094 -0.0040442441 -0.21477933 -0.92644137 -0.30915412 0.0021057141
-0.01048031 0.0022220269 -0.004463464 -0.15918855 -0.93338692 -0.32163322 0.0016763987
-0.0075036176 0.0017944352 -0.0044596898 -0.12941788 -0.93565762 -0.32832283 0.0023513352
-0.0045101251 0.0013751779 -0.0044540986 -0.093746707 -0.93527836 -0.34127092 0.0023932352
-0.0015137043 0.0011545849 -0.0044164951 -0.048372868 -0.93914747 -0.34009114 0.0026682301
0.0014926298 0.0010567651 -0.0044903299 -0.030076327 -0.93671173 -0.34880742 0.0025542115
0.004548375 0.00099299534 -0.0045055253 0.0072589549 -0.93772781 -0.34729505 0.0026362548
0.0075294785 0.0010902635 -0.0044362997 0.039472748 -0.93915027 -0.34123102 0.0025616905
0.01049349 0.001240142 -0.0044783205 0.064695239 -0.94165581 -0.33030111 0.0022613283
0.013492539 0.0015435823 -0.0044938093 0.10388759 -0.94281912 -0.31670108 0.0019752227
0.016494233 0.0019133267 -0.0044477093 0.12748794 -0.94500828 -0.30117482 0.0017269599
0.019478956 0.0023637367 -0.0044450262 0.16569784 -0.94432855 -0.28423187 0.0016463557
0.022117445 0.0027367969 -0.0038708213 0.20043719 -0.94118392 -0.27202541 0.0017713084
0.024303984 0.0029266246 -0.0031672604 0.2060412 -0.96753573 -0.14636131 0.002300676
-0.024439158 0.0059030158 -0.0033702508 -0.34672004 -0.90321511 -0.25295776 0.001530783
-0.0223596 0.0054174257 -0.0042462298 -0.32426444 -0.89256883 -0.31332648 0.0019686639
-0.019373639 0.0044278456 -0.0043652877 -0.28102693 -0.90316099 -0.32453662 0.0020476722
-0.016600013 0.0037131312 -0.0045208461 -0.25678581 -0.90904558 -0.3281725 0.0020598043
-0.013898727 0.0032853084 -0.0053157341 -0.21812502 -0.90507084 -0.36505929 0.001970703
-0.011709161 0.0030230707 -0.0057334793 -0.15869552 -0.90849864 -0.38658252 0.0022287876
0.02058918 0.0030807026 -0.0057673305 0.1748869 -0.91134763 -0.37263945 0.0011074302
0.022876767 0.0032668272 -0.0050719031 0.2082741 -0.92683834 -0.31239796 0.0020398712
0.025538376 0.0036816907 -0.004515097 0.24127567 -0.92455661 -0.29492572 0.0015076115
0.028511921 0.0045168917 -0.0045148339 0.26304662 -0.91748637 -0.29837096 0.0017760517
0.031434212 0.0053495928 -0.0044184318 0.28504664 -0.91810864 -0.27536333 0.0018274342
0.033489637 0.005793035 -0.0036422461 0.3211717 -0.90893382 -0.26587212 0.0017035628
-0.030779125 0.0086271483 -0.0039741141 -0.36592528 -0.88115048 -0.29945379 0.0020133681
-0.028442996 0.0078377984 -0.0044877492 -0.34533122 -0.88117361 -0.32292321 0.0019497756
-0.025503583 0.0067015239 -0.0044686003 -0.34510198 -0.88675749 -0.30751553 0.0017485357
-0.023325706 0.0062536853 -0.0054601044 -0.33488828 -0.87587881 -0.34739903 0.0022098299
0.032685153 0.0061843274 -0.0056899353 0.30881208 -0.88691688 -0.34353101 0.0020202366
0.034678798 0.0065675532 -0.0046593142 0.34000474 -0.89631456 -0.28463492 0.0016989991
0.037492182 0.0075769071 -0.0044751535 0.34632856 -0.89347941 -0.28592154 0.0015064346
0.040026929 0.0085450169 -0.0041938345 0.38583523 -0.88480788 -0.26123965 0.0017592171
0.042002715 0.0089295385 -0.0030321786 0.36901584 -0.91834897 -0.14304729 0.0031089776
-0.036930684 0.011436171 -0.0041759633 -0.41885284 -0.85349536 -0.31001279 0.0023129343
-0.034447547 0.010344877 -0.0044467188 -0.38730446 -0.86905712 -0.30779055 0.0016695771
-0.031943548 0.0094448933 -0.0048685218 -0.38288558 -0.87109816 -0.30754936 0.0021280739
-0.029790536 0.0090925256 -0.0059045516 -0.36343345 -0.82536423 -0.43207633 0.0013457779
0.041222904 0.0093715852 -0.0049866042 0.41625959 -0.86837143 -0.26955357 0.0015051191
0.043524563 0.010291797 -0.0044855513 0.4243198 -0.86653394 -0.26281485 0.0014238869
0.04599807 0.011450515 -0.0042164233 0.44854739 -0.85215181 -0.26952258 0.0016797978
-0.042648442 0.014451231 -0.0041332198 -0.48859331 -0.81550848 -0.31019747 0.0019619835
-0.040511705 0.01343953 -0.0044955853 -0.46328241 -0.82745498 -0.31731319 0.0017205944
-0.038226876 0.012374121 -0.0048759882 -0.44105247 -0.84224933 -0.30998182 0.0018814201
0.047304858 0.012433078 -0.0048767966 0.48292005 -0.83262467 -0.27115384 0.0015230342
0.049521968 0.013574035 -0.0044768467 0.49912578 -0.81768513 -0.28681788 0.0015714393
0.051604573 0.014622779 -0.0039257132 0.51419222 -0.80903608 -0.2847226 0.0018885609
-0.048163131 0.01779088 -0.0035609948 -0.55112678 -0.78989035 -0.26894701 0.0011842786
-0.046164867 0.016963189 -0.0043587773 -0.54173928 -0.78420854 -0.30254832 0.0017293993
-0.044110529 0.015645809 -0.0046023782 -0.52966124 -0.79402184 -0.29830915 0.001571529
0.050948128 0.015044464 -0.0057969503 0.52426511 -0.77483529 -0.35323697 0.0040801894
0.052883524 0.015794108 -0.0046605617 0.54380888 -0.79159588 -0.27865374 0.0015420375
0.055113595 0.01721824 -0.0042855931 0.5570491 -0.77917218 -0.28737962 0.0018612792
0.05702715 0.017877324 -0.0032651913 0.57840568 -0.79524904 -0.18173014 0.0027197946
-0.051542692 0.020643495 -0.0038492386 -0.56186342 -0.76679438 -0.31038025 0.0017477102
-0.049509339 0.019410854 -0.0045350352 -0.5668124 -0.76592678 -0.30344662 0.0018336943
-0.047490731 0.018248389 -0.0053143324 -0.53954321 -0.77375102 -0.33196753 0.0027635375
0.056415036 0.018403104 -0.0049471147 0.5837515 -0.75633597 -0.29527983 0.0020805288
0.058316793 0.019727504 -0.0043796054 0.62221593 -0.71957695 -0.308312 0.0018968233
0.060181856 0.020784833 -0.0033207643 0.64378083 -0.71226001 -0.27969956 0.0018701761
-0.054913484 0.023329239 -0.0040910756 -0.5937106 -0.74667615 -0.29997066 0.0017598439
-0.052824337 0.021959174 -0.0047239307 -0.58254415 -0.75334668 -0.30514124 0.0017855424
0.059631098 0.021364093 -0.0052877464 0.63798952 -0.69068187 -0.34048188 0.0018760362
0.061422199 0.022601189 -0.0044278866 0.67399931 -0.6756829 -0.29862607 0.0017817368
0.063209757 0.023839889 -0.0033895771 0.70846629 -0.64523935 -0.28590509 0.0024811071
-0.060032692 0.026969669 -0.0034006762 -0.65856373 -0.69893253 -0.27890342 0.0020381298
-0.058026142 0.025958639 -0.0041518998 -0.62293828 -0.71774811 -0.3111037 0.0023201299
-0.056159139 0.024602273 -0.0046262634 -0.60769266 -0.73764294 -0.29426613 0.0016636433
0.06271553 0.024370918 -0.005362168 0.68891972 -0.63242745 -0.35415426 0.002126433
0.064205408 0.02558089 -0.0043672877 0.73518139 -0.60072392 -0.31406873 0.0022486981
0.066060595 0.026848553 -0.0030388958 0.7828635 -0.58085442 -0.22300872 0.0050880006
-0.061173864 0.029044913 -0.0042532496 -0.68367696 -0.65409654 -0.32364094 0.0020296311
-0.059419803 0.027524024 -0.0049142912 -0.65392458 -0.6862101 -0.31858811 0.0023192181
0.065538935 0.027687317 -0.0049812049 0.76113492 -0.55297011 -0.33896586 0.002231204
0.066710286 0.028931221 -0.0042844974 0.79005396 -0.51996189 -0.32473725 0.0023801473
-0.063785195 0.031785328 -0.003970339 -0.72217131 -0.60796022 -0.32992873 0.002726675
-0.062311001 0.030721031 -0.0050279135 -0.70389593 -0.61922276 -0.34798497 0.0026125731
0.067971013 0.031266008 -0.0045870175 0.82414663 -0.44140568 -0.35488489 0.0030100092
0.069232561 0.032646097 -0.0034807879 0.83960849 -0.41396388 -0.35169801 0.0031316837
-0.066590562 0.035282958 -0.0039024462 -0.77818024 -0.55516994 -0.29363555 0.0029360785
-0.065369129 0.034370352 -0.0048685274 -0.74279141 -0.57048088 -0.35044619 0.0025652249
0.068806551 0.033679888 -0.0054132245 0.83869654 -0.33713272 -0.42770284 0.0026438092
0.069688231 0.034601521 -0.0042890641 0.86850512 -0.3397204 -0.36095554 0.0030529229
-0.069202706 0.038636025 -0.0036420291 -0.81176233 -0.49007794 -0.31759337 0.0015377968
-0.06785246 0.037223227 -0.003886601 -0.79289311 -0.5290637 -0.3023445 0.0036149786
0.070612393 0.037402906 -0.0043949056 0.88695604 -0.25118285 -0.38757721 0.0026657162
-0.069673046 0.040189788 -0.0039478568 -0.82840604 -0.42555538 -0.36420614 0.0031091562
-0.06860131 0.03963507 -0.0053592795 -0.79741961 -0.42230529 -0.43102229 0.0046277721
0.07121522 0.040282447 -0.0045152698 0.89368117 -0.16384351 -0.41771922 0.0027367948
0.07206963 0.041203484 -0.0032896418 0.9315235 -0.15869719 -0.32722956 0.004039966
-0.072145641 0.044670951 -0.0035053247 -0.84792209 -0.27628729 -0.45243067 0.0047522448
-0.070957996 0.043400254 -0.0040510232 -0.85791659 -0.35320818 -0.37312615 0.0067699663
0.071450979 0.043224998 -0.0047582393 0.89848167 -0.064641744 -0.43422595 0.0028770082
0.072193816 0.043551337 -0.003393881 0.9203974 -0.083305426 -0.38200644 0.0032848995
-0.072580293 0.046951968 -0.0035408388 -0.85227996 -0.28461063 -0.43887997 0.0052647037
-0.071493506 0.046156697 -0.0049557108 -0.83918023 -0.24811593 -0.48395768 0.0055296924
0.071617894 0.04643866 -0.0044572107 0.91972148 -0.024965979 -0.39177683 0.0038386974
0.072207332 0.046196505 -0.0034429338 0.91363537 -0.013067444 -0.40632454 0.0041230391
-0.072925605 0.049656421 -0.0041567511 -0.81300789 -0.26558816 -0.51815152 0.0054220208
-0.071455181 0.049451668 -0.0056762695 -0.70772511 -0.13498957 -0.69347173 0.0042005158
0.071367815 0.049154628 -0.0048830989 0.85222435 0.029972749 -0.52231711 0.0039505116
0.072198138 0.049202885 -0.0035129606 0.92614681 -0.0055942815 -0.37712187 0.0041104434
-0.075062729 0.052570429 -0.0030276841 -0.86556828 -0.34002751 -0.36765864 0.0088775828
-0.073789313 0.052292597 -0.0041132015 -0.80435169 -0.26274005 -0.53290337 0.0076105874
-0.071694106 0.05282687 -0.0058312938 -0.65653449 -0.091728836 -0.74869782 0.007078107
0.07127142 0.052640434 -0.0046840259 0.78362632 0.05919379 -0.61840594 0.0047603599
0.072195016 0.05235019 -0.003527744 0.87607032 0.014079486 -0.48197773 0.0047466448
-0.075157985 0.054909945 -0.0034721321 -0.82632321 -0.3875795 -0.40862215 0.029580414
-0.073320076 0.055088259 -0.0048507606 -0.67916644 -0.16444504 -0.71532571 0.0090024164
0.071139053 0.055379875 -0.0045902175 0.747823 0.057690784 -0.66138685 0.0046029896
0.072210371 0.055863548 -0.003397394 0.83675468 0.040441468 -0.54608244 0.0075949258
0.068815969 0.059363455 -0.0052609444 0.48046762 0.13346595 -0.86679739 0.0065760259
0.071066678 0.058776252 -0.0042414321 0.76719493 0.014787288 -0.64124346 0.0074066087
0.072231039 0.058856238 -0.0034140116 0.7817241 0.014421526 -0.62345761 0.015048746
0.071025252 0.061348021 -0.0042102034 0.67569995 -0.0053734691 -0.73715711 0.01906826
0.072461218 0.061417766 -0.0033226116 0.7888726 -0.045833938 -0.61284518 0.020029046
0.068626642 0.06421712 -0.0042989822 0.32203916 0.045842282 -0.94561577 0.012472191
0.070886008 0.064539641 -0.0041164802 0.52810854 -0.037604906 -0.84834385 0.014180058
0.072593071 0.064762868 -0.0033822965 0.55874532 -0.077063762 -0.82575107 0.013214367
0.068300903 0.067734465 -0.0038972802 -0.04340066 0.10113205 -0.99392593 0.022742422
0.070892878 0.067316279 -0.0042566867 0.43592566 -0.11614116 -0.89245731 0.013395036
0.072895974 0.067561731 -0.0036281841 0.57888329 -0.14624636 -0.80218834 0.014695256
0.068352059 0.070501491 -0.003562703 -0.2930401 0.072887786 -0.95331788 0.025065931
0.071103603 0.07019598 -0.0043320688 0.2630555 -0.13703047 -0.95499974 0.011839191
0.073553644 0.070659459 -0.0036035334 0.73824471 -0.25119084 -0.62601757 0.018256314
0.075320587 0.071323976 -0.0030054029 0.84616011 -0.2328912 -0.47934833 0.02946298
0.068457283 0.073380098 -0.0034201175 -0.40059203 0.058260404 -0.91440243 0.017607056
0.071178719 0.073191151 -0.004633653 0.29900894 -0.16322187 -0.94018734 0.017366664
0.073886544 0.073219724 -0.0041996217 0.72868782 -0.18845376 -0.65840662 0.028649656
0.075357087 0.073262654 -0.0033510858 0.83076298 -0.23711582 -0.50359601 0.043377221
0.068490267 0.07567694 -0.0032023797 -0.31846201 -0.066171661 -0.94562322 0.028894737
0.07043612 0.075392604 -0.0045897355 0.063970149 -0.080982082 -0.99466062 0.026458779
0.073162496 0.075172573 -0.0049130023 0.52695489 -0.20240378 -0.82544005 0.015275273
-0.015990291 0.0027444588 -0.0012947029 -0.24626037 -0.95578319 -0.16073036 0.00099587569
-0.013503333 0.0020941806 -0.0014908781 -0.21799563 -0.96051449 -0.17288665 0.0013940389
-0.010510965 0.0014883321 -0.0015214807 -0.15421203 -0.97237992 -0.17520253 0.0026019083
-0.0075149406 0.0010531516 -0.0014738181 -0.13428071 -0.97390383 -0.18297569 0.0036787167
-0.0044859187 0.00063926878 -0.0014973677 -0.098296873 -0.97813678 -0.1832653 0.0043084309
-0.0014730999 0.00044144539 -0.0014638203 -0.051087145 -0.98324972 -0.17495717 0.0041085021
0.001508622 0.00032865294 -0.0014866666 -0.026055437 -0.99222785 -0.12167621 0.0033800963
0.0045385067 0.00027378194 -0.0015080286 0.0086944839 -0.99105239 -0.13318996 0.0028456049
0.0074965344 0.00040023887 -0.0014734206 0.043883815 -0.98842114 -0.1452511 0.0038058043
0.010493853 0.00055442634 -0.0014795141 0.075804099 -0.9843002 -0.15939526 0.0035876313
0.013505033 0.00086667499 -0.0015308363 0.11444226 -0.97909087 -0.16817814 0.0040736129
0.016475661 0.0012573826 -0.0014759315 0.14002801 -0.97799021 -0.15468462 0.0032526844
0.019511228 0.001727935 -0.0015047751 0.17488742 -0.97588277 -0.13064177 0.0022286503
0.022493144 0.0023569816 -0.001481779 0.19532242 -0.97318023 -0.12152898 0.0019682765
0.024775488 0.0028296288 -0.0012921259 0.21743859 -0.9705354 -0.10383385 0.0019413925
-0.024894603 0.0056926333 -0.0013403142 -0.34756666 -0.91835064 -0.18928707 0.00062443293
-0.022510797 0.0047946577 -0.0014763777 -0.32550943 -0.92504603 -0.19578908 0.00053196744
-0.019482536 0.0037315318 -0.0014714641 -0.29249072 -0.93979901 -0.17671135 0.00061351166
-0.017400986 0.0031940499 -0.0017660409 -0.2760886 -0.94532365 -0.17360409 0.00080955448
0.026177315 0.0032089446 -0.001728166 0.26461232 -0.95792341 -0.11118942 0.0019248944
0.028508829 0.0038697021 -0.0015091099 0.28220209 -0.95346612 -0.10613319 0.0015731324
0.031483267 0.0047552637 -0.0014982662 0.29134789 -0.95126957 -0.10100806 0.0012424213
0.034009852 0.0056053116 -0.0013858249 0.32460108 -0.94090551 -0.096597061 0.0018242371
-0.033125069 0.0089259474 -0.00069686677 -0.3819412 -0.89536154 -0.22901645 0.0022847382
-0.03137764 0.0083126277 -0.0014393706 -0.38605306 -0.89969474 -0.20374599 0.00082520704
-0.02847342 0.0071004047 -0.0015007179 -0.35846883 -0.90853637 -0.21461998 0.00080561824
-0.026307991 0.0062794904 -0.0016890861 -0.36104652 -0.91090834 -0.19972833 0.00059604837
0.035495069 0.006211428 -0.0017390008 0.36713463 -0.92491114 -0.098749854 0.0016486705
0.037502743 0.0069492981 -0.001477934 0.37357461 -0.92202461 -0.10155087 0.0015727367
0.040472746 0.0082016801 -0.0014940603 0.39153838 -0.91304022 -0.11425947 0.0016867183
0.042218577 0.0089034112 -0.00082001055 0.41832051 -0.90091354 -0.11559715 0.0019515484
-0.03927454 0.011892417 -0.00091820728 -0.4485006 -0.85868162 -0.24801821 0.0022834379
-0.037502814 0.011080805 -0.001523505 -0.43298602 -0.87537932 -0.2150211 0.0018629204
-0.034567174 0.0096680978 -0.0015107953 -0.39509991 -0.88810837 -0.2348606 0.001868409
-0.032781225 0.0090488717 -0.0021093811 -0.38570464 -0.89541119 -0.22242023 0.0015860681
0.041860901 0.0090861907 -0.0025747474 0.42276666 -0.89913732 -0.11322704 0.0021782434
0.043601245 0.0096849594 -0.0015489481 0.44301954 -0.88916379 -0.11454917 0.0017148672
0.046429548 0.011113663 -0.0014785208 0.45914599 -0.88108051 -0.11349901 0.0016766214
0.048138939 0.011933409 -0.0006074605 0.48328102 -0.869362 -0.1031945 0.0021836467
-0.043101255 0.014120699 -0.0015580866 -0.51107585 -0.83212161 -0.21534877 0.0021041506
-0.040686309 0.012764338 -0.0015267931 -0.45843759 -0.85481805 -0.24314809 0.0018234521
-0.03888984 0.012140913 -0.0027544177 -0.457306 -0.8590644 -0.22995567 0.0015708341
0.047840912 0.01210189 -0.0023652611 0.48780608 -0.86432391 -0.12243133 0.0022358315
0.049563099 0.012916834 -0.0015446426 0.5090872 -0.8534261 -0.11177803 0.001756441
0.051981952 0.014348622 -0.0013803351 0.52986252 -0.84224766 -0.099320255 0.0018493865
-0.048368998 0.017700557 -0.0012716723 -0.57066387 -0.79094189 -0.22080222 0.0015002342
-0.046533979 0.016451364 -0.0014844693 -0.55447465 -0.80088341 -0.22614934 0.0013731293
-0.044726241 0.015241665 -0.0018249154 -0.55416685 -0.80411148 -0.21518318 0.0015655458
0.053447768 0.015388362 -0.0016241329 0.56034231 -0.82218403 -0.10015035 0.0018184833
0.055472765 0.016778173 -0.001488021 0.56669003 -0.81632566 -0.11169038 0.002166481
0.05722031 0.017860848 -0.00081159221 0.595213 -0.79475778 -0.11866604 0.0023738903
-0.051919162 0.020362776 -0.0015142465 -0.58893001 -0.78342938 -0.19849417 0.0011843874
-0.049866233 0.018825889 -0.0015133327 -0.57755387 -0.7827397 -0.23184083 0.0014633617
0.056844164 0.018065894 -0.0027201443 0.59545058 -0.78559792 -0.16815047 0.0026452786
0.058619242 0.019140679 -0.0015442083 0.62891364 -0.76952541 -0.11089756 0.0020092879
0.060409848 0.020608978 -0.0012412873 0.66336995 -0.73759365 -0.12607886 0.0032381995
-0.057127744 0.02396268 -0.00033875028 -0.6079098 -0.76831645 -0.20033865 0.0015408166
-0.055250544 0.022895359 -0.0013791338 -0.61110401 -0.76927245 -0.18647225 0.00091321662
-0.053397845 0.021480488 -0.0015657407 -0.60332787 -0.76950336 -0.20942783 0.0014694375
0.061874975 0.022051781 -0.0015615666 0.69957709 -0.70496666 -0.11667834 0.002438416
0.063411184 0.023571081 -0.0012472139 0.72866708 -0.67349082 -0.12431558 0.0031221046
-0.060187638 0.026862932 -0.0010702031 -0.68069577 -0.71010333 -0.18001837 0.00095922407
-0.058439739 0.025551314 -0.0015590725 -0.64281315 -0.74350828 -0.18435481 0.00089390425
-0.056755133 0.024150334 -0.0016492425 -0.62925398 -0.75272983 -0.19348705 0.00096582226
0.064849459 0.025267029 -0.0015151725 0.76764858 -0.62870705 -0.12426991 0.0024697573
0.066186458 0.026762744 -0.0011416083 0.79449868 -0.59384233 -0.12697718 0.0030145375
-0.063272551 0.029854728 -0.00059418887 -0.73302728 -0.66105467 -0.16024302 0.00097781071
-0.06154789 0.028503278 -0.0014679737 -0.70770758 -0.68325555 -0.17975493 0.00095071323
-0.059937697 0.027260303 -0.0026242121 -0.67906237 -0.6964395 -0.232048 0.0022053893
0.065882027 0.027175618 -0.0027385657 0.79767042 -0.58271074 -0.1554675 0.0024453844
0.067207187 0.028421961 -0.0015225852 0.82611829 -0.55026555 -0.1213932 0.0026972613
-0.06428358 0.031411156 -0.0013834884 -0.75070506 -0.63849491 -0.16960591 0.0015116144
-0.062890075 0.030285884 -0.0025143228 -0.72672433 -0.66292471 -0.18000677 0.0016669475
0.06858936 0.030674249 -0.0016106957 0.85496312 -0.50459623 -0.12008601 0.0037619052
0.069415443 0.032036588 -0.0013170176 0.88787466 -0.44251448 -0.12593456 0.0035246708
-0.066849448 0.034596223 -0.0012624407 -0.80196387 -0.57993275 -0.14328955 0.0016198242
-0.065673068 0.033330772 -0.0021520399 -0.7804563 -0.60279536 -0.16590872 0.0018441976
0.070438035 0.034374226 -0.0014566164 0.91661751 -0.37094077 -0.14904772 0.0041123088
-0.069311403 0.0381491 -0.0010697133 -0.83433831 -0.53462315 -0.13437933 0.0026696643
-0.068407193 0.036994584 -0.0017765942 -0.82269919 -0.55330801 -0.13044615 0.0018944066
0.071498863 0.037402563 -0.0015227761 0.94342595 -0.28365976 -0.17171051 0.0038154603
0.072089002 0.038703654 -0.00053342304 0.96542138 -0.23041958 -0.12193622 0.008661692
-0.070179291 0.039749127 -0.0015252405 -0.86175197 -0.49029729 -0.13035382 0.0030890384
0.071886383 0.039790064 -0.0024548604 0.96072233 -0.18814331 -0.2039966 0.0044106813
0.07230363 0.040566016 -0.0012281821 0.97642136 -0.16183065 -0.14287105 0.0042084143
-0.072248906 0.04365731 -0.00098927342 -0.93607306 -0.35029897 -0.032525845 0.0059641637
-0.071586311 0.042498451 -0.0018092329 -0.90237588 -0.4069044 -0.14193814 0.0040104925
0.071984462 0.042390905 -0.0029276886 0.95118868 -0.088374302 -0.29568586 0.0011624757
0.072656952 0.043270905 -0.0013575361 0.97794229 -0.093574271 -0.18674244 0.0048312335
-0.073342092 0.046759479 -0.0012249149 -0.94117296 -0.33672437 -0.028463639 0.0064013074
0.072786078 0.046587821 -0.001459829 0.98693967 -0.038880229 -0.15632762 0.0063478407
-0.075224049 0.050710365 -0.00050806196 -0.94072396 -0.33917308 -0.0002744458 0.015924895
-0.074236006 0.049329311 -0.0013294043 -0.92392576 -0.35951498 -0.13080567 0.0098687401
0.072890989 0.049535409 -0.0013839076 0.98778021 -0.048656829 -0.14806329 0.006823509
-0.075682417 0.05247952 -0.0011594674 -0.92976755 -0.33709109 -0.14799267 0.015761325
-0.074863575 0.051345158 -0.0021719278 -0.90977263 -0.3715339 -0.1851387 0.0084717795
0.072978221 0.052314926 -0.0014214924 0.99220163 -0.048442822 -0.11484423 0.0085329041
-0.075882986 0.054445725 -0.0021482026 -0.88940728 -0.30606467 -0.33952785 0.022696536
0.073106498 0.055225588 -0.0012735265 0.99453461 -0.038174137 -0.097178757 0.0088293124
0.073259957 0.05855988 -0.0013359023 0.99293935 -0.01802717 -0.11724553 0.017019846
0.073577315 0.061509456 -0.0013947124 0.98957229 -0.11214479 -0.090389676 0.016532978
0.07397446 0.064687692 -0.0014606083 0.97209543 -0.21125345 -0.10199227 0.025046011
0.07440827 0.067164145 -0.0017769398 0.89794219 -0.23179118 -0.37412906 0.025558051
0.075224385 0.068286553 -0.0006370442 0.96510601 -0.21872441 -0.14397906 0.032029983
0.067462996 0.071367957 -0.0024348446 -0.55173498 0.025582135 -0.83362705 0.0059270808
0.074658968 0.070081852 -0.0024897025 0.79867065 -0.27340183 -0.53607523 0.020049842
0.075741559 0.070746236 -0.0012412131 0.91910207 -0.27919772 -0.27802888 0.021542285
0.067756303 0.073747456 -0.0024594716 -0.40057209 0.058234144 -0.9144128 0.017613478
0.076597959 0.073005386 -0.0014638591 0.94850391 -0.23539537 -0.21196529 0.046385303
-0.018447297 0.0028447623 0.0024240362 -0.24827585 -0.96867269 -0.0056834351 0.0073633092
-0.01639301 0.0024969939 0.0015971991 -0.22788166 -0.97362423 -0.011217692 0.0063946135
-0.013479394 0.001830813 0.0015062256 -0.20060824 -0.97964823 0.0067550046 0.0018244752
-0.01046567 0.0013190341 0.0014899253 -0.15169907 -0.9845131 0.087871239 0.0050920192
-0.0074924547 0.0009453122 0.0015009559 -0.12325366 -0.98567367 0.11513449 0.0056559597
-0.004512581 0.00055505824 0.0014920089 -0.088208281 -0.99432093 0.059542328 0.0033279285
-0.0015126577 0.00037806793 0.0015265531 -0.045302514 -0.99572349 0.080513574 0.0032748189
0.0014994368 0.00027265455 0.0015064104 -0.013392477 -0.99596936 0.088689215 0.0034832552
0.0045183138 0.00022879922 0.0015078243 0.017187079 -0.99317306 0.11537694 0.0031476375
0.0075091454 0.00035341782 0.0015073217 0.048699673 -0.98276538 0.17832713 0.0063259169
0.010509643 0.00050164771 0.0014934037 0.075333729 -0.97980601 0.18521623 0.00676753
0.013481908 0.00080623868 0.0015149475 0.11090154 -0.97770733 0.1782954 0.0067335144
0.016495064 0.0012078149 0.0014968285 0.13356537 -0.97781652 0.16135421 0.0055668782
0.019516157 0.0016785174 0.0015163133 0.1745877 -0.97549361 0.13390782 0.004046049
0.022496192 0.0023060569 0.0014873402 0.19352335 -0.97410399 0.11691934 0.003470184
0.024889693 0.0028027946 0.001293121 0.21838857 -0.97268248 0.078709491 0.0029131295
-0.027729722 0.0057221199 0.0024308292 -0.33087707 -0.94151288 -0.063825823 0.011235849
-0.025362194 0.0052421144 0.0016722124 -0.30278051 -0.94731963 -0.10444895 0.0056562754
-0.022455307 0.0043167751 0.0014598347 -0.32447767 -0.94397312 -0.060241327 0.002125825
-0.019639077 0.0034218857 0.0013613943 -0.29743141 -0.95232815 -0.067864843 0.0026291742
-0.017731287 0.0030723466 0.00055810821 -0.23610064 -0.96811366 -0.08374016 0.0020671426
0.026277199 0.0031898422 0.0017442777 0.2740064 -0.95698518 0.095393322 0.0026940329
0.028485702 0.0038100739 0.0014892748 0.28476188 -0.95351827 0.098556846 0.0024883889
0.031495839 0.004709899 0.0014947561 0.29074582 -0.95192802 0.096435964 0.0020776237
0.034081057 0.0055872896 0.001410298 0.32125673 -0.94305342 0.086280592 0.0026961279
-0.036314532 0.008902872 0.0025300642 -0.39593944 -0.90931004 -0.12801278 0.0145934
-0.034294482 0.0083937738 0.002085295 -0.37278143 -0.92041129 -0.11780082 0.0093090963
-0.031627879 0.0076452135 0.0015903101 -0.367376 -0.91880882 -0.14430954 0.0045668348
-0.028730266 0.0066625327 0.0012306644 -0.3718828 -0.91634154 -0.14839619 0.0041393382
-0.026659749 0.0061817113 0.00054148026 -0.32163334 -0.93596095 -0.14327979 0.0040897671
0.035546463 0.006176176 0.0017050402 0.37062728 -0.92453426 0.088723607 0.0024762845
0.037505012 0.0069050496 0.0015008861 0.37490153 -0.92254674 0.091412723 0.0023514298
0.04046366 0.0081506344 0.0014873995 0.38869298 -0.91581678 0.10098257 0.0024957999
0.042200137 0.008905624 0.00086453737 0.41817757 -0.90344071 0.094458058 0.0031829339
-0.042273734 0.011888247 0.0026361458 -0.46692362 -0.87541687 -0.1250107 0.016576523
-0.040218439 0.0112704 0.0019854223 -0.42584264 -0.88880074 -0.16938521 0.011234774
-0.037521832 0.010214005 0.0015445381 -0.44633076 -0.87408251 -0.19175167 0.0059923124
-0.034803566 0.0095085576 0.00062526856 -0.39431772 -0.89469236 -0.2098552 0.0037031614
0.041951422 0.0090648215 0.0021500683 0.43064433 -0.89746523 0.095402747 0.0035198841
0.043647986 0.0096626785 0.0015464569 0.44553149 -0.88869864 0.10824299 0.002407671
0.046439294 0.011076301 0.0014663466 0.4593266 -0.88306534 0.095993638 0.0024999774
0.048129633 0.011903004 0.00073957018 0.48203477 -0.87124074 0.092639431 0.0030160686
-0.045851205 0.014343023 0.0023483213 -0.57360858 -0.80884457 -0.12939744 0.010521003
-0.043363523 0.013327459 0.0015291498 -0.51920295 -0.82669497 -0.21680324 0.01019114
-0.040920425 0.012586289 0.00066395669 -0.44665259 -0.85898697 -0.25028539 0.0055316356
0.047837395 0.012096369 0.0024954558 0.4684656 -0.87242365 0.13934529 0.0025136028
0.049558852 0.01287219 0.00153127 0.51468307 -0.85122073 0.10258967 0.0021600071
0.051990103 0.014321431 0.0014309251 0.52852565 -0.84409618 0.090344928 0.0022846211
-0.051215291 0.017730707 0.0027604487 -0.55377424 -0.81186128 -0.18497354 0.010778449
-0.049062409 0.017043959 0.0018024273 -0.55253267 -0.80576617 -0.21318693 0.0074817627
-0.046890534 0.016136199 0.0010799282 -0.54747778 -0.80873084 -0.21499386 0.004439625
-0.044825736 0.015139188 0.00075792061 -0.56279254 -0.79606158 -0.22259933 0.0056586824
0.053461462 0.01536232 0.0016615161 0.55824822 -0.8247205 0.090525836 0.0022837564
0.055472225 0.016738005 0.0014838664 0.56258589 -0.82018942 0.10385731 0.0023706302
0.05721182 0.017838847 0.00084643735 0.59622246 -0.79724455 0.09444572 0.0030660285
-0.054480635 0.020565499 0.0024573135 -0.61925381 -0.76113379 -0.19287314 0.0078734783
-0.052272089 0.019775983 0.0014134946 -0.59422505 -0.76487494 -0.24872257 0.0047254926
-0.050172839 0.01871847 0.00074648386 -0.59204763 -0.7687183 -0.24197477 0.0043744976
0.056842707 0.018032905 0.0022328133 0.59716314 -0.7898066 0.1400062 0.0038396493
0.058646262 0.019127345 0.001558147 0.62721032 -0.76999438 0.11711472 0.0026373572
0.060455739 0.020618917 0.0012907992 0.66277182 -0.74196851 0.10107553 0.0030015176
-0.057625134 0.02358681 0.0024401741 -0.66822129 -0.72922289 -0.14735787 0.007228069
-0.055540774 0.0224905 0.001299861 -0.62357491 -0.74681455 -0.23113267 0.0037086739
-0.053636048 0.021365456 0.00081977749 -0.59958899 -0.76418424 -0.23773004 0.0031932218
0.061904401 0.022039508 0.0015581981 0.69823724 -0.70918918 0.097547218 0.0024432517
0.063406415 0.023528494 0.0012911087 0.73360378 -0.67175406 0.10281992 0.0031667182
-0.06049512 0.026677037 0.0017840257 -0.71089566 -0.68938357 -0.13920407 0.0013021294
-0.05871585 0.025322799 0.0010998088 -0.6565668 -0.7294234 -0.1919933 0.0022769566
-0.056890804 0.024151251 0.00063654757 -0.62061596 -0.75479859 -0.21240257 0.0025406161
0.064892076 0.025273979 0.0015318951 0.76628691 -0.63223094 0.11440483 0.0027988998
0.066206306 0.026744975 0.0012042248 0.79747766 -0.59137928 0.11958288 0.0038056837
-0.063195311 0.029661927 0.0017846331 -0.76351929 -0.64197642 -0.070032269 0.0023483725
-0.061838455 0.028382586 0.0014133946 -0.72435826 -0.67647469 -0.13299234 0.0011574748
0.065867461 0.027064202 0.0026686322 0.78188968 -0.59806818 0.17596319 0.0042069587
0.067253642 0.028413698 0.0014592878 0.82934105 -0.5474292 0.11186966 0.0034565369
-0.066086955 0.032928579 0.0013062439 -0.80567205 -0.59236181 0.00040505404 0.0023192307
-0.064563386 0.031436559 0.0013658389 -0.77996051 -0.62269515 -0.062548026 0.00081607699
0.068607979 0.030637288 0.0016269517 0.85881823 -0.49875313 0.11694635 0.0033369616
0.069474764 0.032090023 0.0013745022 0.89179546 -0.43736809 0.1158011 0.0039550434
-0.067003928 0.034605574 0.0013898421 -0.82170111 -0.56987685 -0.0069113718 0.0017546159
-0.065800294 0.033164728 0.0014896127 -0.8020826 -0.59573692 -0.041966718 0.00085144321
0.070511788 0.034439109 0.0014985559 0.92577928 -0.35850412 0.12003101 0.003054885
-0.069527976 0.038315441 0.0014689415 -0.84631991 -0.53142226 0.036510427 0.0028567314
-0.068488576 0.036749143 0.0014000072 -0.83699375 -0.54668152 0.024097633 0.0017330854
0.07152874 0.037403997 0.0015304434 0.95037806 -0.27668589 0.14221996 0.0054312046
0.072080486 0.038636375 0.00085796218 0.97196299 -0.21799216 0.088132083 0.008036131
-0.070473045 0.040038522 0.0014684828 -0.8680355 -0.49009296 0.079519793 0.0081523107
0.071770608 0.039193004 0.0027943403 0.95914078 -0.17657875 0.22106303 0.0046634465
0.072340518 0.040544048 0.0014006523 0.97877192 -0.15422648 0.13498053 0.0039876597
-0.072483152 0.044231132 0.00076151866 -0.92924827 -0.35712874 0.09464024 0.0072849854
-0.07182394 0.042941421 0.0018593853 -0.90852761 -0.38760534 0.15601149 0.0044000917
0.072680861 0.043244414 0.0014021936 0.98612964 -0.08797612 0.14074306 0.0041392804
-0.073128007 0.046619169 0.0016351835 -0.929672 -0.31453162 0.19178081 0.0053420719
0.072802037 0.046514921 0.0015969356 0.98663348 -0.0370683 0.15868337 0.0050097983
-0.075147383 0.050673138 0.00058500568 -0.91153407 -0.36428955 0.19078419 0.0083558364
-0.074197203 0.049472868 0.0015290793 -0.90830183 -0.36251959 0.20872819 0.0097743915
0.072998106 0.049554847 0.0014770117 0.99035549 -0.034311384 0.13423385 0.0070707016
-0.075646944 0.052536011 0.0014073796 -0.9064976 -0.35032785 0.23565327 0.011875279
-0.07477612 0.051341951 0.0022902021 -0.8886531 -0.35704419 0.28777617 0.0092002638
0.073005371 0.052411757 0.0016885406 0.98170948 -0.024711756 0.18877448 0.0074707302
-0.076230429 0.054605257 0.0020004769 -0.84460765 -0.24373066 0.47669002 0.026046192
0.073123105 0.055344582 0.0015500765 0.97471088 -0.027458373 0.22177601 0.0093272338
0.073225215 0.058587085 0.0015163975 0.93511701 -0.014567028 0.35403952 0.019788107
0.064382777 0.061693504 0.0024853593 -0.40262544 0.34428352 0.84815186 0.0064679864
0.073487446 0.061509229 0.0015852259 0.9361636 -0.086062945 0.34086776 0.0214603
0.065237463 0.06477461 0.0020262299 -0.33627927 0.22506294 0.91447419 0.018114878
0.066292882 0.065791637 0.002856924 -0.30386904 0.18677285 0.93422669 0.014429584
0.073959269 0.064563096 0.0015319886 0.89374542 -0.15716872 0.42013949 0.034529917
0.065660477 0.067387678 0.0016266042 -0.38887012 0.14970021 0.90904891 0.0073890453
0.066672578 0.068086103 0.0025248472 -0.30739301 0.12044699 0.94392902 0.0065363985
0.074320808 0.067302033 0.0020807488 0.84135622 -0.26427126 0.47146627 0.044643998
0.075191878 0.06816759 0.00078392646 0.91676992 -0.25716367 0.30561367 0.032686889
0.067718394 0.070904888 0.0026379463 -0.42697307 -0.01435433 0.90415037 0.0076632374
0.074727789 0.069719985 0.0025983185 0.7925446 -0.34503809 0.50281382 0.01804373
0.075761519 0.07067059 0.0013540911 0.89732426 -0.3090885 0.31507695 0.023551775
0.068383463 0.072872259 0.0027495252 -0.20010903 -0.050719164 0.97845995 0.023640962
0.076650836 0.07287547 0.0015313639 0.92908651 -0.20947324 0.30482653 0.045092773
0.067626618 0.075676605 0.0021600507 -0.40534973 -0.039925024 0.91328949 0.019612679
-0.018428976 0.0029061649 0.0034676434 -0.24048321 -0.96210152 0.12856331 0.0070189144
-0.016290793 0.0026036797 0.0041610878 -0.19589847 -0.95424217 0.22593284 0.0064305696
-0.013487462 0.0021801449 0.0045211106 -0.17066656 -0.95249778 0.2522321 0.004377008
-0.010523542 0.0016916161 0.0045019002 -0.12861192 -0.95442194 0.26932821 0.0042098099
-0.0075308294 0.001353915 0.0045094187 -0.099806242 -0.95046216 0.29438144 0.0041207625
-0.0045160148 0.0010826343 0.0045113792 -0.069639996 -0.94675982 0.3143186 0.0038973643
-0.0014986387 0.00094421627 0.0045147496 -0.029093273 -0.94220924 0.33375928 0.0035097261
0.0015013068 0.00091587094 0.0044913022 -0.0021161889 -0.93884796 0.34432539 0.0028309154
0.00453396 0.00098508084 0.0044976105 0.032270372 -0.93451703 0.35445243 0.0023140861
0.0075037703 0.0011791335 0.0045035775 0.051767234 -0.92917359 0.3660008 0.0023033058
0.010499795 0.0013349132 0.004540469 0.072327726 -0.9270159 0.36798128 0.0022819212
0.013517559 0.0016186233 0.0045174356 0.10090576 -0.9252069 0.36580089 0.0028250983
0.01651435 0.0019687454 0.0045142421 0.11846095 -0.9260599 0.35830155 0.0033577022
0.01945688 0.0023516167 0.0043896767 0.15727758 -0.92572999 0.34392977 0.0038682641
0.022258744 0.002713552 0.0038298063 0.2008204 -0.92439646 0.32428733 0.0042257751
