# .PCD v0.7 - Point Cloud Data file format
VERSION 0.7
FIELDS x y z normal_x normal_y normal_z curvature
SIZE 4 4 4 4 4 4 4
TYPE F F F F F F F
COUNT 1 1 1 1 1 1 1
WIDTH 560
HEIGHT 1
VIEWPOINT 0 0 0 1 0 0 0
POINTS 560
DATA ascii
0.02540664 0.080706425 -0.0042543439 -0.090872034 0.96783972 0.23458169 0.0034575707
0.02843952 0.080686681 -0.0037273245 0.050369695 0.92476016 0.37720239 0.0033363488
0.031676956 0.080528297 -0.0040948037 0.18821481 0.9036181 0.384772 0.0034035665
0.034539834 0.079785511 -0.0043797838 0.33435759 0.85876763 0.38823089 0.003397831
0.037179161 0.078691103 -0.0047693835 0.4759779 0.77507138 0.41558316 0.004336759
0.039032638 0.078127913 -0.0058172578 0.57290268 0.70968491 0.41003641 0.0036578514
0.026313452 0.081118442 -0.0055483375 -0.090273395 0.97673923 0.19450249 0.0029008212
0.028562576 0.08116933 -0.0051714866 -0.0036277766 0.95996368 0.28010118 0.00374368
0.030993784 0.081134625 -0.0054386836 0.16055581 0.94526213 0.28407982 0.0038713934
0.020773256 -0.078961916 -0.00055843854 0.055488504 -0.89780718 0.43687913 0.0013853641
0.022623273 -0.079237685 -0.0012300849 0.066586457 -0.8986963 0.43348736 0.0011049245
0.025569715 -0.078971401 -0.00083908712 0.13073726 -0.83060646 0.54129541 0.0011247963
0.028663542 -0.078641936 -0.00072799181 0.19083282 -0.76304394 0.61753285 0.0015894935
0.031516537 -0.078637578 -0.0015000622 0.25952348 -0.72948188 0.63285369 0.0030368296
0.034047991 -0.078270964 -0.0020791104 0.38038322 -0.71133322 0.59102762 0.0025426231
0.032162938 -0.077733383 -0.0006187234 0.34516105 -0.61925721 0.70525479 0.0036255626
0.035080086 -0.076249003 -0.00071047776 0.43943584 -0.53719944 0.71993947 0.0034009737
0.037162617 -0.07583081 -0.0017374436 0.52560389 -0.48003069 0.70236117 0.0027840664
0.039211147 -0.075413845 -0.0029775053 0.62532687 -0.55531645 0.54826081 0.00560848
0.037872612 -0.073584169 -0.00082881615 0.5618546 -0.34567654 0.75154978 0.0025910898
0.039737701 -0.073080398 -0.0020938539 0.62463945 -0.35013786 0.6980179 0.0017257687
0.038616613 -0.070790358 -0.00037164474 0.59237599 -0.22781208 0.77278221 0.00071843062
0.040377028 -0.070376702 -0.0016791284 0.63752806 -0.24582769 0.73015535 0.00085589424
0.042223096 -0.069408238 -0.0028703166 0.69392622 -0.25911507 0.67180783 0.0014182419
0.038948022 -0.068544514 -8.3536404e-05 0.59619856 -0.17810155 0.78283274 0.00034297508
0.040572572 -0.067550607 -0.0010698787 0.62257898 -0.18480995 0.76042151 0.00045266311
0.042347319 -0.067222126 -0.002503118 0.67794824 -0.19699037 0.70822382 0.0007281666
0.040996052 -0.064547651 -0.00077068998 0.62347865 -0.14330679 0.76859456 0.0005423429
0.042776864 -0.064421147 -0.0022566682 0.68018419 -0.14383362 0.71879166 0.00074435491
0.041341905 -0.061506227 -0.00055880699 0.6498161 -0.08878468 0.7548883 0.00059791229
0.04296929 -0.061519194 -0.0019695405 0.70033288 -0.073112853 0.71006227 0.0012198525
0.041507814 -0.058459368 -0.0004298086 0.66891372 0.043732427 0.74205244 0.0024348029
0.043021444 -0.058484174 -0.0018786673 0.72772253 0.069627151 0.6823284 0.0031547658
0.041179553 -0.055239722 -0.00081414101 0.67405444 0.24921627 0.69537169 0.0034525082
0.042679574 -0.055700008 -0.0022077253 0.73130232 0.28790456 0.61831045 0.0037077928
-0.052223228 -0.05201054 -0.0023976061 -0.99822927 -0.047142319 0.03627526 0.0017948144
0.038483247 -0.051568326 -0.00048342123 0.5787248 0.48302293 0.65708941 0.0038259958
0.040360693 -0.052563071 -0.0015475936 0.66148734 0.44078535 0.60674769 0.0032102279
0.042227279 -0.053641114 -0.0027452125 0.7038554 0.43238077 0.56359071 0.0032786918
-0.052453589 -0.049291447 -0.0010607042 -0.99209225 0.038474478 -0.11946882 0.0028978856
0.035312835 -0.048539851 -0.00079796294 0.51332188 0.72425121 0.46039206 0.0026744946
0.037428241 -0.049579892 -0.001589119 0.53461307 0.66335088 0.52359766 0.0044376757
0.039449628 -0.050541975 -0.0024082931 0.59341949 0.60050279 0.53595692 0.0033953877
-0.052337624 -0.046475299 -0.00090285949 -0.90475446 0.39360219 -0.16277812 0.048986007
0.029654806 -0.04517955 -0.00059041474 0.45355871 0.85355711 0.25636834 0.0039375373
0.031602342 -0.04596512 -0.0013695102 0.44790033 0.84330803 0.29701319 0.0019453666
0.034205813 -0.047253415 -0.0017612037 0.47653607 0.78155917 0.40259001 0.0040387968
0.036224782 -0.047864277 -0.0027674648 0.49974719 0.75518698 0.4241997 0.0035605696
-0.05160572 -0.043528527 -0.0019239611 -0.75470102 0.63131517 -0.17851467 0.023960019
-0.049925618 -0.043030523 -0.0011795403 -0.41136643 0.84668303 -0.33749899 0.032641888
-0.047356222 -0.043539803 -0.0026499508 -0.21065685 0.87138659 -0.44306782 0.014408494
-0.006479355 -0.044092752 -0.0016890698 -0.19530801 0.76832086 -0.60953903 0.0096074585
-0.0040787254 -0.042851206 -0.0016333825 -0.20292377 0.77652752 -0.59651238 0.010279836
-0.0012071994 -0.042496063 -0.0023616219 -0.16363868 0.76960272 -0.61719859 0.004466624
0.00043190882 -0.042393677 -0.0025325781 -0.15126894 0.75789642 -0.63459498 0.0018775145
0.023229238 -0.042270701 -0.0014876919 0.34690511 0.93700546 0.040958337 0.0025627974
0.025641738 -0.043159243 -0.0014505577 0.36523739 0.9249298 0.10538771 0.0025739972
0.028421976 -0.04431795 -0.001558882 0.40210387 0.89282852 0.20290293 0.0023786856
0.030176017 -0.044890337 -0.0024634141 0.40826833 0.89096576 0.1987381 0.0036738056
-0.045534398 -0.040924896 -0.0010832668 -0.33705941 0.80031836 -0.49586445 0.003819678
-0.043973573 -0.040636797 -0.0011113428 -0.29477343 0.85193479 -0.43279994 0.0096086795
-0.0038640769 -0.04199684 -0.0016761275 -0.20292301 0.77652776 -0.59651232 0.010282354
-0.0012000757 -0.040917706 -0.0009669782 -0.083857954 0.60662597 -0.79055226 0.033480473
0.0018194313 -0.040839776 -0.0012144691 -0.16427907 0.77556348 -0.60951918 0.0026400315
0.0046080807 -0.040498972 -0.0014588244 -0.11452068 0.82798022 -0.54893875 0.001129837
0.007739543 -0.039941072 -0.0013108305 -0.054785773 0.86469918 -0.49929336 0.0027237847
0.011022289 -0.039629128 -0.00096949592 0.10389545 0.94786823 -0.30124986 0.0025857568
0.013681673 -0.039953422 -0.0012188599 0.16223651 0.94927198 -0.26937345 0.0032641273
0.016610887 -0.040475056 -0.0014359833 0.20060679 0.9623512 -0.18340443 0.0033096164
0.019726973 -0.041181017 -0.0013565001 0.25635225 0.96360308 -0.075846165 0.0026460732
0.021772083 -0.041782346 -0.0013324288 0.31161657 0.95006073 -0.016723124 0.00247761
-0.0036631902 -0.0015631886 -0.00011306981 0.48288423 -0.0018084184 -0.87568235 0.0096687013
-0.0040578204 0.0014365007 -0.00025672428 -0.48056915 0.032891281 0.87633979 0.0094526689
0.020293783 0.04177738 -0.0003880829 0.38854349 -0.91106731 0.13780551 0.0013143615
0.020881044 0.042080805 -0.0021280849 0.36210927 -0.92784911 0.089290932 0.000731748
0.023037788 0.042700589 -0.00080591254 0.38875276 -0.90636736 0.16543762 0.0014989509
0.02558182 0.043633513 -0.001295603 0.40834773 -0.8940528 0.18417831 0.001696947
0.027596548 0.044396009 -0.0017085666 0.42268977 -0.87564749 0.23361257 0.0016398793
-0.052136451 0.046189591 -0.0020720002 -0.99878281 0.018017484 -0.045915872 0.0029582002
0.029297963 0.045297693 -0.0011076563 0.44289857 -0.85145015 0.2808443 0.0023185825
0.031761531 0.046656713 -0.0010601166 0.48420602 -0.77581483 0.404544 0.002307497
0.034226127 0.047632515 -0.0018998511 0.49323797 -0.75106204 0.43888727 0.0022483866
-0.052362949 0.049189702 -0.0018571127 -0.99982822 -0.014367029 -0.011712626 0.0028083618
0.034772143 0.048663523 -0.00068816531 0.52649689 -0.66673255 0.52751178 0.0017445777
0.037379898 0.050166056 -0.0013048123 0.55605972 -0.61778945 0.55599797 0.0022714389
0.039432947 0.050815385 -0.0024662118 0.60751349 -0.60035652 0.52009547 0.0028514855
-0.052163422 0.052657362 -0.0024080896 -0.96338475 0.22315444 -0.14863355 0.021382762
0.038403898 0.051901024 -0.00045283145 0.60295665 -0.47955164 0.63755274 0.0035499488
0.040144309 0.052911699 -0.0013874647 0.63875031 -0.4407579 0.63065875 0.0026455254
0.042154793 0.053792037 -0.0028811523 0.71003723 -0.47931436 0.51585352 0.0034048562
-0.051421143 0.056659956 -0.0019305332 -0.32146975 0.90075099 -0.29206979 0.015368013
-0.049854435 0.056837093 -0.0024330076 -0.21233651 0.93403441 -0.28721583 0.0071464428
-0.047278743 0.056812622 -0.002453668 -0.21657622 0.88859957 -0.40433341 0.010018949
0.041084189 0.055428382 -0.00080706482 0.67039222 -0.25290439 0.697577 0.0033057814
0.042689119 0.055971287 -0.0022459007 0.72606742 -0.28054214 0.62779152 0.0035918327
-0.051229917 0.057206944 -0.00082234642 -0.16938239 0.94998646 -0.26236477 0.010514411
-0.049494233 0.057186518 -0.00091661757 -0.25971782 0.91492456 -0.30896538 0.012422721
-0.045983013 0.05870064 -0.00059663644 -0.30179939 0.87127835 -0.38702866 0.0031482233
-0.043255623 0.059065834 -0.0017354232 -0.20730352 0.90534598 -0.37063989 0.00089793821
-0.040673625 0.059378192 -0.0020856825 -0.1790036 0.91094208 -0.37167484 0.00051430799
-0.037622832 0.059695825 -0.0024066637 -0.12400651 0.89916402 -0.41967428 0.00028755542
-0.034196377 0.05987189 -0.0028159134 -0.10238045 0.87660694 -0.47018999 0.00042271568
-0.032395191 0.059932739 -0.0029103924 -0.075550318 0.85139978 -0.51904774 0.00049545465
0.04145252 0.058543976 -0.00038395703 0.65832168 -0.060667306 0.75028795 0.0024031454
0.042941853 0.058577482 -0.0018042298 0.71980608 -0.087136127 0.68868464 0.0031938946
-0.039961919 0.060205489 -0.00040460276 -0.17656995 0.90743816 -0.38128603 0.00031475251
-0.037500314 0.06046138 -0.00078182726 -0.16323785 0.89899635 -0.40639755 0.00036455208
-0.034559388 0.060644649 -0.0013747733 -0.1384092 0.88222218 -0.45002994 0.00049073389
-0.031936705 0.060887009 -0.0016082894 -0.1245864 0.86584371 -0.48455426 0.0005074474
-0.02851654 0.061479419 -0.0013028736 -0.11067472 0.83080143 -0.54545408 0.00048453323
-0.025378289 0.061517626 -0.0018021291 -0.11311013 0.80258238 -0.58571982 0.00043167107
-0.022937438 0.062015861 -0.001565896 -0.12023194 0.77633131 -0.61875194 0.0003519945
-0.019942148 0.062162001 -0.0019983295 -0.14048673 0.75322419 -0.64258593 0.000692742
-0.016918048 0.062605605 -0.0021943252 -0.19657682 0.70651001 -0.6798538 0.0004808864
-0.014998576 0.06281592 -0.0026328526 -0.21524639 0.69172549 -0.68933654 0.0011187709
0.041349892 0.061621409 -0.00047492053 0.64556086 0.077498525 0.75976652 0.00069531659
0.04301551 0.061491672 -0.0019206639 0.7077536 0.058212832 0.70405686 0.0014946684
-0.022305436 0.063315205 -0.00011902332 -0.15186457 0.77935082 -0.60790581 0.00055522617
-0.019687679 0.063603669 -0.00038748025 -0.1755054 0.74046016 -0.64878094 0.00039847233
-0.016953826 0.063822016 -0.00092763297 -0.20354284 0.71177197 -0.67227304 0.00047789785
-0.014178846 0.064424567 -0.0012533671 -0.23393428 0.69306314 -0.68186378 0.00062165322
-0.010826164 0.065284185 -0.0020583838 -0.36213461 0.64540964 -0.67253619 0.00050297973
-0.0085462984 0.065822706 -0.0028199076 -0.41470116 0.61742973 -0.66843361 0.00088300864
0.041065272 0.064601138 -0.00072956196 0.62172675 0.13598557 0.77133894 0.0004723944
0.042864963 0.064431429 -0.0022263031 0.69015104 0.14055373 0.70988464 0.00073667074
-0.012475451 0.066072568 -0.00052182423 -0.31886935 0.66824377 -0.67214036 0.00061759766
-0.010211658 0.066953056 -0.0008043453 -0.36785498 0.66363686 -0.65135926 0.00046418695
-0.007451125 0.067839198 -0.001631977 -0.42997596 0.63614571 -0.64065546 0.00055989239
-0.0054444629 0.068556055 -0.0023949423 -0.49397519 0.61508203 -0.61454254 0.00028399818
0.040667254 0.067588754 -0.0010241569 0.61540896 0.17850354 0.76772928 0.00036210098
0.042478547 0.067198373 -0.0024932984 0.67725629 0.18923073 0.71099615 0.00073372497
-0.0065925512 0.069643155 -0.00042390643 -0.44944862 0.64352113 -0.61957771 0.001005612
-0.0041943225 0.070523165 -0.0014344916 -0.51038873 0.65335071 -0.55913883 0.00073374814
-0.0023420136 0.071221448 -0.0023500253 -0.52918953 0.63439631 -0.56347126 0.0003404239
0.03862888 0.07108184 -0.00032631669 0.59523857 0.21986841 0.77288353 0.00059701648
0.040445518 0.070472009 -0.0016059572 0.63182306 0.23890319 0.73737699 0.00082503771
0.042169098 0.069650218 -0.0027908578 0.68672425 0.25008091 0.68254632 0.0010442958
-0.0032159146 0.072372206 -0.00017278679 -0.45747536 0.71609688 -0.52718276 0.0014427375
-0.00094936253 0.073313683 -0.0011184266 -0.44437408 0.79337335 -0.41604146 0.0010798807
0.0013008534 0.074432135 -0.0015113321 -0.4118413 0.83730459 -0.35959393 0.00097311032
0.003073764 0.074843615 -0.0025294733 -0.42062992 0.83574718 -0.35298309 0.001857071
0.037959393 0.07379844 -0.00074042514 0.55886203 0.34462923 0.7542572 0.0023710458
0.039905541 0.073401369 -0.0021777542 0.63337785 0.36917105 0.68010688 0.0027776614
0.0026395547 0.075555123 -0.00057479501 -0.34210464 0.91173899 -0.22736859 0.0019519385
0.0047036102 0.076246724 -0.00098635419 -0.30163115 0.93636751 -0.17953983 0.0020075897
0.0076325219 0.077223115 -0.0013137172 -0.25773245 0.961734 -0.092960417 0.0022349323
0.0097422991 0.077818364 -0.0015032566 -0.25496393 0.96373433 -0.078800321 0.0024193611
0.032453302 0.077701144 -0.00023829199 0.28460309 0.66469204 0.6907863 0.0028557701
0.034815792 0.077080138 -0.0008483688 0.39132935 0.61228341 0.68700111 0.0044861301
0.037261311 0.076275818 -0.0018167984 0.50679594 0.56263947 0.65314215 0.0040892363
0.03923253 0.075455233 -0.0027515111 0.58758372 0.53947163 0.6030885 0.0045814174
0.011114743 0.078194059 -0.001146375 -0.20789111 0.97805625 -0.013686915 0.002581706
0.013647944 0.078726515 -0.0014180153 -0.15800911 0.98575443 0.057629794 0.0027882156
0.016617747 0.07921426 -0.001352573 -0.12259709 0.98047006 0.15378028 0.0033895066
0.019549733 0.079535007 -0.0014096921 -0.066647306 0.96772528 0.2430349 0.0048162765
0.022541741 0.07969702 -0.0013644079 -0.019393101 0.93916607 0.34291562 0.0040338314
0.025558375 0.079730757 -0.0014271667 0.021230463 0.91360468 0.40604892 0.0040690685
0.028525447 0.079505272 -0.0013896801 0.1139987 0.86077672 0.49605221 0.003133988
0.03145761 0.0790888 -0.0015236154 0.21432559 0.80065596 0.55947703 0.0039274748
0.034208678 0.078635573 -0.002170448 0.35714436 0.74024922 0.56963068 0.0035894664
0.036245894 0.078183949 -0.0028914998 0.45165393 0.685251 0.57134914 0.0032969508
0.0175444 -0.078291088 0.0013364981 0.051954385 -0.91075414 0.40966779 0.00045627842
0.01920549 -0.07808546 0.0019565371 0.084282912 -0.88833129 0.45140222 0.0019852105
0.023237687 -0.078516483 0.00047216655 0.13102385 -0.83219826 0.53877527 0.0014522995
0.025577448 -0.078392997 0.00035027362 0.1543818 -0.81394416 0.5600546 0.0023457045
0.020703252 -0.077972934 0.0020709606 0.077978663 -0.88537818 0.45828456 0.0020262676
0.023100223 -0.077358715 0.0024961212 0.1678392 -0.80205882 0.57317674 0.0029978435
0.025942694 -0.077081271 0.0021527314 0.21803552 -0.73238796 0.64503372 0.0027069871
0.02887876 -0.076242462 0.0020845849 0.2873382 -0.63342667 0.7184757 0.0035073403
0.031580292 -0.076066151 0.00121296 0.34902546 -0.56714952 0.7460044 0.0022729386
0.034129914 -0.075443491 0.00048448954 0.4118515 -0.51706171 0.75035024 0.0036347797
0.029720474 -0.0748308 0.0028763155 0.31942722 -0.5728305 0.75487185 0.00091914239
0.03196457 -0.073980905 0.0024195851 0.42126888 -0.40380433 0.81208038 0.0035296064
0.034496639 -0.073200077 0.0015042358 0.46917307 -0.34271377 0.81389421 0.0017110846
0.036540672 -0.072964638 0.00041607005 0.5173077 -0.33211413 0.78872871 0.0020692258
0.034701888 -0.070478566 0.0022699926 0.49087045 -0.23285048 0.83953959 0.00089015352
0.037149623 -0.070399635 0.00076406501 0.54200572 -0.22312117 0.8102141 0.00066978729
0.035304595 -0.067629933 0.0025171828 0.51159918 -0.16585104 0.84306568 7.3155512e-05
0.03756392 -0.067424461 0.0011470802 0.54782599 -0.17078432 0.81897467 0.00021775854
0.039373018 -0.066685304 0.00020306555 0.59246218 -0.17361394 0.78666812 0.00048885908
0.035621982 -0.065070428 0.0027978376 0.51870155 -0.13564828 0.84412569 8.664382e-05
0.03751741 -0.064453676 0.0017040839 0.538315 -0.13471109 0.83190739 0.00015449781
0.039593577 -0.06428203 0.00036259284 0.58745611 -0.13876384 0.7972703 0.00039914969
0.035833694 -0.062631257 0.0029416846 0.51709276 -0.10991778 0.84884226 0.00017525791
0.037553076 -0.061465088 0.0021150806 0.53923863 -0.098168954 0.83641171 0.00015317845
0.039835654 -0.061427828 0.00061336096 0.58554715 -0.095759414 0.80496258 0.00041656606
0.037822127 -0.058451042 0.0022237757 0.56064588 0.0033505003 0.82804888 0.001092069
0.040073141 -0.058432754 0.0006877571 0.5974983 0.02384495 0.80151558 0.0021007168
0.035911445 -0.054131605 0.0028847579 0.58052289 0.25501871 0.77327782 0.00614618
0.037663933 -0.055369042 0.0020174929 0.57152736 0.1920912 0.79778284 0.0026316566
0.039712213 -0.055629436 0.00057540496 0.60934162 0.22093685 0.76150477 0.0033909874
0.035289139 -0.051991783 0.0023879716 0.56691295 0.3711797 0.7354151 0.0032674051
0.037312802 -0.052607056 0.0011477494 0.57773215 0.41559926 0.70249754 0.0038338655
0.0392664 -0.053696036 0.00022083148 0.60383523 0.39451981 0.69263047 0.0021709311
0.032289296 -0.048698559 0.0023322385 0.54193145 0.60050803 0.58796293 0.0022724189
0.034350906 -0.049609765 0.0013388323 0.5476895 0.58413363 0.59901929 0.004802932
0.036479212 -0.050523303 0.00036703117 0.54981947 0.55226409 0.62666017 0.0022324382
0.026841173 -0.045095343 0.0029358431 0.51281238 0.73574036 0.44239083 0.0022049386
0.028891778 -0.045774426 0.0017968267 0.48795393 0.78117853 0.38943693 0.0018633072
0.031219162 -0.047058228 0.0012954605 0.5125767 0.71609509 0.47378576 0.0033180111
0.033210117 -0.047801115 0.0003866397 0.51210815 0.69057184 0.51074046 0.0033743349
-0.051837884 -0.042650498 0.0012550008 -0.80860472 0.54774612 -0.21478513 0.021782676
-0.04958513 -0.042349704 0.0007718805 -0.36418545 0.85869455 -0.36057258 0.01124291
0.022916811 -0.042480558 0.001673178 0.41721484 0.89030862 0.1824345 0.0027546685
0.025565643 -0.043749545 0.001518947 0.43462026 0.85961449 0.26864141 0.0041883532
0.027676333 -0.044667739 0.0010052159 0.46356162 0.82066107 0.33410469 0.003532219
-0.051561683 -0.041784525 0.002455458 -0.7605297 0.62079346 -0.19028945 0.015564891
-0.049747761 -0.041142613 0.0026263844 -0.55664337 0.78329325 -0.27676687 0.011760116
-0.046615258 -0.040159866 0.0015417086 -0.2830635 0.90030354 -0.33064872 0.0057168752
-0.044683754 -0.040099189 0.0015138852 -0.23814026 0.91918421 -0.31367123 0.0083744861
-0.0015130264 -0.040186062 0.00091401627 -0.038129587 0.58697975 -0.80870324 0.031036191
0.0019951507 -0.039302681 0.00037075693 0.031421848 0.72527832 -0.68773842 0.044400804
0.0047333711 -0.039306436 0.00023012409 -0.04539685 0.84765881 -0.52859592 0.0049939919
0.0075605684 -0.039136168 0.00023023407 -0.007828258 0.87639713 -0.48152551 0.0030504772
0.011253238 -0.039135847 0.00045604401 0.17820504 0.95044667 -0.2547431 0.0056327595
0.013746179 -0.039348222 0.00143969 0.2294708 0.96058679 -0.15689525 0.0034231159
0.016630732 -0.040097184 0.0015910474 0.31004941 0.9506135 -0.014263883 0.0032819931
0.019583037 -0.041092403 0.0015974566 0.34133235 0.93613994 0.084464572 0.0033231191
0.021468252 -0.041783724 0.0012949081 0.38560417 0.91340023 0.13042031 0.0030850563
-0.00076739764 -0.037276492 0.00066787261 0.3968403 0.62526 -0.67198789 0.021741308
0.0021693455 -0.037300356 0.0018739265 0.27677539 0.7899906 -0.5470925 0.023418279
0.0048193098 -0.038070533 0.0019156343 0.11537788 0.87870151 -0.46321884 0.025413653
0.0078981025 -0.038399789 0.0018541375 0.11281417 0.94192868 -0.31629628 0.0032610309
0.011249617 -0.038784593 0.0017704008 0.19193746 0.95733452 -0.21603382 0.0031772263
0.012516335 -0.038874336 0.0024663066 0.22312437 0.96154797 -0.16012815 0.0031248084
-0.0016170185 -0.03459033 0.00067673519 0.54498261 0.020335399 -0.83820075 0.012859247
0.0029476015 -0.034854956 0.0026209 0.54895544 0.31443763 -0.77445263 0.045815866
-0.0015785183 -0.031492628 0.00065927609 0.60898149 0.021032501 -0.79290551 0.0084965397
-0.0014378817 -0.028740196 0.00066486868 0.64268005 -0.049789473 -0.76451516 0.0081249876
-0.0011965076 -0.025344372 0.00068768184 0.6015299 -0.026199218 -0.79842055 0.011533282
0.0017259226 -0.024826683 0.0015352418 0.72081894 -0.0092817927 -0.69306129 0.022918353
-0.00070912251 -0.022074942 0.00075314572 0.78786278 0.19649202 0.58366352 0.021053437
0.0023076925 -0.022476505 0.0022859902 0.7660315 -0.13055728 0.6294049 0.025020974
-0.00082028564 -0.019588068 0.00072716374 -0.45787257 0.84495193 -0.2764219 0.020398637
0.0024255121 -0.019769918 0.0024615349 0.67833698 0.019398671 -0.73449486 0.027394455
0.0030222626 -0.018545419 0.0026022485 0.70206684 0.13069573 -0.70001489 0.036265273
-0.00095294649 -0.016606022 0.00069491356 0.6133427 -0.0093076192 -0.78976202 0.022848846
0.0016926044 -0.016195558 0.0018968037 0.68468744 -0.019170212 -0.72858471 0.029692329
0.0030617875 -0.017033616 0.0026485051 0.79275131 0.11202944 -0.59916174 0.038538106
-0.0011165845 -0.013454995 0.0006497904 0.61304951 0.029697344 -0.78948611 0.016441077
0.0019450465 -0.013389085 0.0017373404 0.70958573 0.001570998 -0.70461732 0.031165693
-0.0013090691 -0.010365032 0.00058792066 0.63752687 0.0344777 -0.76965636 0.014321093
0.0019554677 -0.010455186 0.0017732142 0.85146099 -0.0034151706 -0.52440679 0.016363943
-0.0012475585 -0.0074377125 0.00057125802 0.78635484 0.075195074 0.61318171 0.0092007788
0.0019625302 -0.0075518065 0.0018087581 0.88631833 -0.011971244 -0.46292168 0.013285672
-0.0031719042 -0.0044613108 8.1914382e-05 -0.47387505 0.0041603968 0.88058233 0.0084563522
-0.00078090804 -0.0047909208 0.00066123053 0.7813375 0.075954452 0.61946964 0.014384114
0.0019718637 -0.0045192773 0.0018474187 0.76657391 0.009916041 -0.64207953 0.028559923
-0.00079101155 -0.0016686525 0.00062720967 0.63233507 0.042082068 -0.77355123 0.011408431
0.0019667412 -0.00197289 0.001869122 0.76254481 0.049668491 -0.64502597 0.021468854
-0.00098575756 0.0014891814 0.00056345639 0.66175658 -0.049253706 -0.74809909 0.011074065
0.00091594068 0.0016062499 0.0011075438 0.7700932 0.003665226 -0.63792092 0.010000595
-0.0010926696 0.0045036175 0.0005478664 0.76436669 0.084888317 0.63916945 0.012208696
0.0013303179 0.0048207738 0.0013242058 0.72605073 -0.022383159 -0.68727666 0.017934661
-0.0011282166 0.0074386164 0.00057099189 0.66345423 0.022726908 -0.74787164 0.01542115
0.0013886681 0.0072570471 0.001379149 0.74921131 0.015641611 -0.66214633 0.022747574
-0.0011992694 0.01052147 0.00057849305 0.65080589 0.0020407378 -0.7592414 0.010095397
0.0013214755 0.010404516 0.0015919793 0.70878977 -0.018100632 -0.70518756 0.01773876
-0.0012644539 0.013004055 0.00058497628 0.67380482 0.016293366 -0.73872972 0.010199158
0.0012905411 0.01337575 0.0017608334 0.70804328 0.0035310588 -0.70616019 0.012416406
-0.0021322384 0.016455764 0.00040237745 0.5577262 -0.028836457 -0.82952398 0.01326362
0.0021555414 0.016568454 0.002599499 0.62201267 0.017251756 -0.78281718 0.027736718
-0.0020732228 0.018194316 0.00046805554 0.52754313 -0.017603343 -0.84934592 0.016746437
0.0027726053 0.019552309 0.0023693298 0.94731081 -0.065627486 -0.31352094 0.01292075
0.0028709713 0.022560352 0.0024843889 0.93860543 -0.045328628 -0.34200186 0.019037263
0.002926647 0.024264697 0.0025495349 0.94870824 -0.059607361 -0.31048301 0.01724893
-0.00073769875 0.029683964 0.00076025538 0.74059743 0.028204767 -0.67135686 0.0066478108
0.00037426149 0.028782301 0.00093521253 0.74059743 0.028204767 -0.67135686 0.0066478108
-0.00076171278 0.03165726 0.00075914775 0.74059749 0.028204549 -0.6713568 0.0066479719
0.00031620311 0.031590816 0.0009157341 0.74059749 0.028204549 -0.6713568 0.0066479719
-0.00078400376 0.033626877 0.00075939868 0.7405979 0.028203109 -0.67135638 0.0066478569
0.00026437212 0.034111124 0.00089848525 0.74059832 0.028201204 -0.67135596 0.0066477419
0.016271338 0.040475573 0.0019579115 0.37561139 -0.91939294 0.11675917 0.00077903573
0.019132141 0.041424043 0.0019035888 0.38799277 -0.91326433 0.12413646 0.00089392974
0.022724489 0.042888314 0.0017934485 0.4278886 -0.87810719 0.21410048 0.0016156208
0.025690276 0.044355623 0.0017893717 0.47515774 -0.80755633 0.34939641 0.002419115
0.027307678 0.044784751 0.00063489808 0.451823 -0.84439975 0.28782821 0.0044614072
0.026799439 0.045230493 0.0025795898 0.52105546 -0.72729456 0.44670317 0.00074375712
0.029192373 0.046546511 0.0020100924 0.52113295 -0.69070959 0.50133896 0.0020281505
0.031064285 0.047346685 0.0012329174 0.53403819 -0.6518302 0.53844273 0.0019693074
-0.052773375 0.050578967 0.0012399316 -0.99406207 0.040472645 -0.10100785 0.0014923267
0.032152161 0.048841078 0.0021371553 0.54641503 -0.60438538 0.57978356 0.0031474354
0.034287099 0.050117329 0.0014769468 0.55270004 -0.52263701 0.64913267 0.002454493
0.036350247 0.050813038 0.0003729458 0.54566687 -0.55006617 0.63219839 0.0039273584
-0.052557871 0.052783549 0.00097778009 -0.97939736 0.14622967 -0.1392757 0.0015611062
0.035168458 0.052160826 0.0023331633 0.57292926 -0.37012285 0.73127365 0.0024005582
0.037241139 0.052854553 0.0011204797 0.56567639 -0.4036189 0.71909803 0.002880814
0.039250523 0.053825282 0.00018449833 0.59826845 -0.43166259 0.67508686 0.0024365115
-0.05213502 0.056039199 0.0014878125 -0.82115823 0.54087961 -0.18206716 0.044956163
0.035878573 0.054612648 0.0028762994 0.56347543 -0.23268355 0.79268771 0.0040907152
0.037657544 0.055559278 0.0019718998 0.57601935 -0.2141528 0.78888541 0.0027781755
0.03963029 0.055861697 0.00059470022 0.60488296 -0.22965004 0.76248115 0.0028045941
-0.051309127 0.057817273 0.0017808998 -0.45761618 0.85916114 -0.22897489 0.01154087
-0.050293881 0.057751339 0.00095673121 -0.34071517 0.89981151 -0.27249297 0.0039170641
-0.046425492 0.059495792 0.001525995 -0.29580194 0.89671326 -0.32925135 0.0011309024
-0.044034954 0.059769802 0.00068193855 -0.21896932 0.91398329 -0.34159473 0.00047122804
-0.041833755 0.059993193 0.00018958592 -0.18703447 0.91541785 -0.35641024 0.00022142619
0.037818309 0.058559865 0.0022497319 0.56240433 -0.017248508 0.82668245 0.0013380038
0.04000118 0.058531057 0.00074896665 0.59740293 -0.041110072 0.80088687 0.0022355441
-0.045392808 0.060106348 0.0025291939 -0.2614893 0.9085173 -0.32591346 0.00048678493
-0.043638241 0.060416359 0.0021751153 -0.22863768 0.91507155 -0.3322182 0.00020303807
-0.040818308 0.060781799 0.0014586225 -0.20059308 0.9080798 -0.36763224 0.00034196992
-0.037548106 0.061461389 0.0014320521 -0.19147305 0.89616174 -0.40029025 0.00047923089
-0.034398004 0.062073804 0.0013545153 -0.18075144 0.87951386 -0.44020945 0.00037370127
-0.031529944 0.062395871 0.00094014406 -0.16064157 0.86210269 -0.48059663 0.0004170654
-0.028897852 0.062664144 0.00068313332 -0.15161867 0.83571309 -0.5278213 0.00037632973
-0.025974423 0.062823236 0.00011156745 -0.14106923 0.8040455 -0.57759005 0.00041333854
0.035825644 0.062654294 0.0029429104 0.52405602 0.095434129 0.84632009 9.273988e-05
0.037583049 0.061540619 0.0021553659 0.54089129 0.0895437 0.83631241 0.00017295511
0.039840914 0.06141131 0.00068278471 0.58660567 0.086581193 0.80523127 0.0004893096
-0.033236135 0.063131839 0.0028091979 -0.20209217 0.8694796 -0.450737 0.00036361217
-0.031057583 0.063369296 0.0024579477 -0.19764651 0.85664648 -0.47654241 0.00036285684
-0.028501118 0.063648492 0.0020705739 -0.17974535 0.83309704 -0.52310705 0.0004275137
-0.025495371 0.063951842 0.0015902291 -0.16665278 0.81059498 -0.56139344 0.00042888659
-0.022483723 0.064676046 0.0016717318 -0.19347602 0.78131706 -0.59338915 0.00043660248
-0.019504769 0.065212235 0.0013964664 -0.21522234 0.75060755 -0.62471408 0.00052090379
-0.016916282 0.065304428 0.0006743797 -0.22922727 0.72226274 -0.65252697 0.00039746411
-0.014939494 0.065793648 0.00057603919 -0.21844012 0.72691524 -0.65105933 0.00034943043
0.03570516 0.065022528 0.0028491458 0.51957226 0.13003154 0.84447414 8.7959488e-05
0.037474584 0.064491592 0.001817727 0.5365895 0.12955411 0.833839 0.00012103027
0.039594699 0.064356498 0.0004448909 0.58307791 0.13271438 0.80150306 0.00043090084
-0.018820167 0.066502437 0.0027271288 -0.24173588 0.75430262 -0.61040258 0.00055030256
-0.016432438 0.066723004 0.002045298 -0.25243986 0.72956288 -0.63561952 0.00044640765
-0.013748365 0.067364886 0.0014324267 -0.31199393 0.68761784 -0.65562302 0.0003791916
-0.010820257 0.068225846 0.00081094587 -0.37865084 0.65423173 -0.65467882 0.0003826438
0.035326108 0.067719676 0.0026011243 0.51170355 0.16158144 0.84383112 7.8813806e-05
0.037510302 0.067504704 0.0012710296 0.54337293 0.16667086 0.82277983 0.00022354897
0.039266404 0.066806674 0.00024182175 0.5852682 0.17148402 0.79249883 0.00043264506
-0.012431925 0.069042124 0.002516323 -0.31752059 0.70852339 -0.63021851 0.00082633895
-0.01065529 0.06996689 0.0024944879 -0.36267856 0.78189617 -0.50705284 0.0019257278
-0.0074992366 0.071035579 0.001666981 -0.40755758 0.77506775 -0.48287353 0.0029345711
-0.0053430144 0.071617782 0.00068638753 -0.44722828 0.74107498 -0.50079405 0.0010890492
0.03291231 0.071686514 0.002976768 0.47334149 0.23333862 0.84941214 0.00092959625
0.034821507 0.070677325 0.0022824744 0.49257946 0.22053389 0.84186119 0.00061420788
0.037246507 0.070388928 0.00083164888 0.54422873 0.21218996 0.81165904 0.00053371134
0.039061133 0.069237784 1.9134297e-06 0.59966838 0.21828839 0.76990134 0.00050062593
-0.0062744748 0.072470814 0.0026290037 -0.3814061 0.84285772 -0.3796317 0.002616944
-0.0042398139 0.073204771 0.0020805197 -0.39995506 0.84638137 -0.35167399 0.002177462
-0.0015579399 0.074300885 0.0014487592 -0.3857151 0.87029862 -0.30627468 0.0016206617
0.00083504588 0.074921228 0.00026383533 -0.39063683 0.87831002 -0.27563453 0.0027222489
0.03206395 0.074145682 0.0025696538 0.39871201 0.41127077 0.81968606 0.0046891002
0.03448426 0.07353159 0.0015892925 0.45654064 0.35975021 0.81372625 0.0030867078
0.036695663 0.073088378 0.00045622606 0.51404703 0.35657299 0.78013545 0.0025395846
-0.00032487875 0.075238585 0.0024208107 -0.32640609 0.92481196 -0.19540195 0.00233588
0.0018840984 0.075869322 0.0016562495 -0.30141732 0.93847638 -0.16855124 0.0025394261
0.0046748491 0.076810114 0.0019991132 -0.22966923 0.97234684 -0.042351596 0.0030870163
0.0076242709 0.077490404 0.0016513553 -0.19129945 0.98137748 0.017399691 0.0033914843
0.0098099653 0.077870771 0.0020137834 -0.1550394 0.98531669 0.071511589 0.0027732914
0.01241363 0.07798256 0.0025623734 -0.051883645 0.98161572 0.18368091 0.0038329458
0.020471621 0.077924892 0.00284702 0.07495176 0.87212843 0.48350209 0.0041128909
0.022922464 0.077763461 0.0027111138 0.13745534 0.82570088 0.54710519 0.0035617368
0.025708148 0.077451684 0.0023352301 0.18719502 0.78036594 0.59664655 0.0028133092
0.028657129 0.076919653 0.0019236311 0.23697662 0.69946373 0.67423475 0.0040665171
0.031429011 0.076418683 0.0013071824 0.29668644 0.60617983 0.7379182 0.0032415239
0.03407437 0.075789958 0.00058462983 0.41015959 0.5406934 0.73445201 0.0030262584
0.036170334 0.075191364 4.6177469e-05 0.48521098 0.49515411 0.72068906 0.0040065525
0.011224044 0.07816077 0.0012931471 -0.12416765 0.98364639 0.13046934 0.0029701712
0.013748071 0.078401096 0.0016613073 -0.072222903 0.97629482 0.2040401 0.0022291329
0.016610762 0.07863982 0.0014641195 -0.029439993 0.95956171 0.27995452 0.0037828719
0.019523138 0.078641154 0.0015452764 0.01693267 0.93447375 0.35562915 0.0027972432
0.022481032 0.078606986 0.0012962912 0.06435626 0.88936204 0.45265165 0.0035395736
0.025420642 0.07851398 0.00090054655 0.11365106 0.83715999 0.53502029 0.0040010689
0.028308176 0.078322865 0.00044824311 0.17219172 0.7726891 0.61098397 0.0034601418
0.030544845 0.078126803 0.00012691387 0.24720378 0.72514623 0.64269215 0.0031862848
0.011188619 -0.076914087 0.005335032 0.081380665 -0.89863634 0.43108001 0.00056239654
0.013557023 -0.076854341 0.0053785425 0.12762469 -0.8771888 0.46287334 0.0014056205
0.016555952 -0.076882675 0.0047894814 0.15403275 -0.81777382 0.55454481 0.0013780523
0.019862046 -0.076104298 0.0052845166 0.20849751 -0.7481184 0.62995851 0.0012155457
0.022715861 -0.075730607 0.0048623504 0.28206798 -0.65127647 0.70446897 0.0014360782
0.025382642 -0.075727724 0.0039101732 0.26818833 -0.66640723 0.69568413 0.0027544275
0.027831804 -0.07524842 0.0034493115 0.31261864 -0.60246426 0.73437488 0.0021539917
0.02371688 -0.074511431 0.0056995661 0.30271953 -0.59989119 0.74060214 0.0031986523
0.025978904 -0.073602483 0.0054037725 0.38140151 -0.44699654 0.80915195 0.0020698565
0.02858513 -0.0732015 0.0044579059 0.40900373 -0.39382178 0.82317698 0.0017047083
0.030924739 -0.072802104 0.0035584832 0.43160421 -0.34977391 0.83149028 0.0017038971
0.026849858 -0.071918726 0.0059198537 0.40636647 -0.38758597 0.8274318 0.0051478031
0.028983824 -0.07052283 0.0054357061 0.4525547 -0.27872899 0.84705633 0.0016335249
0.0314903 -0.070485674 0.0040886234 0.46444502 -0.25964388 0.84668523 0.001077652
0.033298593 -0.070104614 0.0032064659 0.47806433 -0.24461946 0.84357321 0.00093826203
0.029632457 -0.067820244 0.0057601109 0.48357898 -0.18379234 0.85578722 0.00014014206
0.031513885 -0.067503236 0.0047561061 0.48795459 -0.17586632 0.85496855 0.00014643617
0.03377863 -0.067355879 0.0034690709 0.49903601 -0.16881955 0.84997827 8.3163024e-05
0.031690385 -0.064647555 0.0051793782 0.50129974 -0.14254066 0.85345221 7.3546478e-05
0.034226809 -0.064394444 0.0037280379 0.50606298 -0.13676208 0.85158461 6.1936888e-05
0.032013599 -0.061655793 0.0054355594 0.51152533 -0.10402811 0.85294777 7.3431329e-05
0.034417283 -0.061451379 0.004023477 0.51292044 -0.10123569 0.8524459 6.9048307e-05
0.036192149 -0.060894512 0.0031355589 0.52324802 -0.10085883 0.84619087 9.7847485e-05
0.032262608 -0.058597013 0.0056015756 0.52290666 -0.046191525 0.8511374 0.00038505337
0.034493264 -0.058493648 0.0042624758 0.51898724 -0.035011772 0.85406458 0.00054654316
0.036364235 -0.058270089 0.0031904925 0.53529435 -0.013654945 0.8445552 0.0015511862
-0.052480854 -0.055948913 0.0051613459 -0.99436253 -0.08685609 -0.060821336 0.0018516441
0.032373697 -0.055430125 0.0055847378 0.54745787 0.08857695 0.83213216 0.0023505939
0.034524731 -0.055456877 0.0041786907 0.53710061 0.13689978 0.83233482 0.0037882535
0.03627136 -0.056159139 0.0031831572 0.55152714 0.17464665 0.81566918 0.0036980857
-0.053105097 -0.052738219 0.0051950784 -0.99919486 0.019672388 -0.03496661 0.0028106025
0.031892832 -0.052277073 0.0051484182 0.56541592 0.29579091 0.76994324 0.0027191988
0.034026846 -0.05269599 0.0037318801 0.56361842 0.33741969 0.75397754 0.00385696
-0.053316236 -0.049197454 0.0052143387 -0.98871338 0.12376509 0.084427401 0.012248848
0.029155238 -0.048857544 0.0053400081 0.57074797 0.47781911 0.66778415 0.002893527
0.031206779 -0.049681745 0.0041853026 0.56751949 0.50017941 0.65401995 0.0044595976
0.033316124 -0.050728388 0.0032278211 0.55010724 0.49510336 0.67249882 0.0019392716
-0.053226948 -0.04638562 0.0050937654 -0.95672464 0.21742363 0.19340372 0.010044567
0.026037641 -0.045743179 0.0050046318 0.52286327 0.70775801 0.47507107 0.0026279697
0.028205156 -0.046885762 0.0042301882 0.54176146 0.65320414 0.52897906 0.0042339973
0.030164871 -0.047701091 0.0033085947 0.5314095 0.65415019 0.53823 0.0022634896
-0.052630428 -0.043142047 0.0052912692 -0.93235654 0.33801436 0.12828705 0.02956724
0.020543942 -0.042320095 0.0053782952 0.47272334 0.83597976 0.27869406 0.0034261413
0.022576001 -0.043206282 0.0045729978 0.47273871 0.82447141 0.31107068 0.0019386106
0.024994658 -0.044443492 0.0040810364 0.49611422 0.76510698 0.41046563 0.0034017486
-0.052030139 -0.041204594 0.0049933274 -0.85036641 0.52089518 -0.074465752 0.02934134
-0.050020643 -0.040742628 0.0045707976 -0.6449787 0.73824549 -0.19747408 0.010914406
-0.046290599 -0.039632354 0.0044246051 -0.2789616 0.91883999 -0.27912977 0.012582588
-0.044135049 -0.039111894 0.0046777837 -0.1502402 0.96755546 -0.2031365 0.0067530922
0.014276613 -0.0392849 0.0045878594 0.34681371 0.93725914 0.035575483 0.0024471548
0.016750412 -0.040286258 0.0046650483 0.38776615 0.91201979 0.13363177 0.0028201058
0.019276787 -0.041377861 0.0044497899 0.43651637 0.86968017 0.23045556 0.0024639051
0.02113767 -0.041951802 0.0032846332 0.45577484 0.8670125 0.2013918 0.0030434076
-0.045558758 -0.038889088 0.0053915386 -0.14280948 0.9554835 -0.25817975 0.003884532
-0.044359464 -0.038394399 0.0050225593 -0.15026668 0.96755236 -0.20313135 0.0067349584
0.0026387665 -0.036924586 0.0039225402 0.40680784 0.58865643 -0.69856352 0.047937624
0.0046865717 -0.03693933 0.0041593565 0.30922943 0.831038 -0.46233431 0.033443097
0.0077606607 -0.037509102 0.0044611818 0.19543289 0.94915783 -0.24679017 0.0065332293
0.011221038 -0.038360294 0.004053052 0.23808816 0.96809548 -0.078135125 0.004941694
0.012790022 -0.038776901 0.0045702141 0.31846133 0.94792712 -0.0040681362 0.0028110582
0.0021542569 -0.034766365 0.0035469143 0.54895288 0.31444526 -0.77445143 0.045815058
0.003034303 -0.034532983 0.0046615032 0.44041446 0.32957101 -0.83511567 0.052501887
0.0022280009 -0.0316904 0.0036372051 0.6637761 0.067917213 -0.7448414 0.011500937
0.0030922659 -0.031974137 0.0047320719 0.68173015 0.086480603 -0.72647452 0.013105181
0.0023007598 -0.028646067 0.0037264347 0.71073925 -0.0370299 -0.70248026 0.013198015
0.0033856072 -0.028500825 0.0051001804 0.86663032 -0.020037159 -0.4985483 0.0027522186
0.0023725776 -0.025632834 0.0038146528 0.76235974 -0.051923975 -0.64506716 0.018608801
0.0034414171 -0.025992744 0.0051685483 0.860807 -0.027158197 -0.50820643 0.0040243054
0.0024441304 -0.022649243 0.0039022367 0.8640461 0.015615097 -0.50317055 0.0042325486
0.0032953247 -0.022939702 0.0049803951 0.86165905 0.018514305 -0.50714988 0.0042913137
0.0022164132 -0.019363467 0.003575345 0.77844268 0.061269771 -0.62471831 0.019546797
0.0033718708 -0.019501498 0.005074528 0.81407547 -0.00706835 -0.58071613 0.0016822987
0.0022827999 -0.016691359 0.0036538574 0.83003157 0.034705255 -0.55663562 0.023636071
0.0035073035 -0.016083281 0.0051946323 0.83770382 0.053349894 -0.5435127 0.013142097
0.0021227407 -0.013690199 0.0034602713 0.86382717 0.012021017 -0.50364488 0.016344305
0.0035641487 -0.013296982 0.0052648028 0.84729296 0.018710895 -0.53079605 0.010539749
0.0022401204 -0.010618398 0.0035953736 0.86729896 -0.0070093749 -0.49773836 0.013585918
0.0036230767 -0.010381471 0.0053377086 0.84615487 0.010934915 -0.53282493 0.006121065
0.0022543045 -0.0074841809 0.003608753 0.86742806 -0.0035450626 -0.49755001 0.013556837
0.0036819992 -0.0074856039 0.0054103383 0.84487015 -0.004622865 -0.53495151 0.0063356627
0.0023577502 -0.0044652885 0.0037325136 0.86650968 0.0013200043 -0.49915853 0.01420988
0.003740164 -0.0046101352 0.0054822746 0.85772711 -0.0077954684 -0.51404613 0.0098931827
0.0024216808 -0.0015981175 0.0038106884 0.84493268 0.033530749 -0.53382069 0.010717117
0.003802821 -0.0015250425 0.0055597778 0.83659762 0.0089185564 -0.54774529 0.0060766046
0.0023789282 0.001172073 0.0037548332 0.83837199 0.02170101 -0.54466635 0.0072599482
0.0036614407 0.0016137069 0.0053787744 0.8088389 -0.00033128052 -0.58803022 0.0003065716
0.0023508235 0.0045227399 0.0037169927 0.82915807 -0.019766072 -0.55866462 0.0062386789
0.0037200176 0.0044274456 0.0054508755 0.82868016 -0.003043087 -0.55971426 0.0029204439
0.0024216231 0.0076967087 0.0038046606 0.83777386 0.013430152 -0.54585218 0.0063956515
0.0037374678 0.0072931871 0.0054713842 0.84232897 0.029115278 -0.53817672 0.0041355225
0.0024837393 0.010480337 0.0038813842 0.75972164 0.053853273 -0.64801449 0.017687453
0.0036337976 0.010143831 0.0053382777 0.85061234 0.020794882 -0.52538192 0.0022682722
0.0025392501 0.012885518 0.0039500818 0.73435676 0.016852539 -0.67855448 0.010495046
0.0025749968 0.016487418 0.004031382 0.66075587 0.0073998459 -0.7505644 0.025496062
0.0034119161 0.017891867 0.005090029 0.91489071 -0.026424073 -0.40283599 0.0074293842
0.0022794285 0.019413596 0.0036739074 0.94731045 -0.065628052 -0.31352183 0.012920842
0.0034525178 0.019601457 0.0051400266 0.94731069 -0.065628365 -0.31352094 0.01292087
0.0022550335 0.022392994 0.0036310169 0.93860555 -0.045330558 -0.34200123 0.019037215
0.0035236515 0.022569403 0.0052271336 0.93860584 -0.045329798 -0.34200045 0.019037284
0.0025853366 0.024860702 0.0040390128 0.91380918 -0.05010533 -0.4030413 0.012735273
0.0035939484 0.02550672 0.0053132833 0.92500806 -0.10304591 -0.3657071 0.01075337
0.0036338938 0.027171563 0.0053621656 0.92500991 -0.10305253 -0.3657006 0.01075339
0.0029708489 0.032555878 0.0044511193 0.7405979 0.028203113 -0.67135632 0.0066477186
0.0029927203 0.033678375 0.0044783498 0.74059826 0.028201938 -0.67135602 0.0066477652
0.0030085947 0.034518961 0.0044983281 0.7405979 0.028203133 -0.67135632 0.006647788
0.011192448 0.038791735 0.0050532115 0.42860758 -0.89617842 0.1147164 0.0045645465
-0.051939964 0.041828357 0.0058961571 -0.99179626 -0.11096582 -0.063457258 0.0029666023
0.013990222 0.039689451 0.0049241995 0.41097328 -0.89795786 0.15739311 0.00095940608
0.016792879 0.040736452 0.0045402981 0.42124233 -0.88501459 0.19825238 0.0023862426
0.018863529 0.041706037 0.0047623464 0.45609632 -0.84680641 0.27366969 0.0022526535
-0.052667141 0.04345483 0.0050223116 -0.19092059 0.94372666 0.27005431 0.010199786
0.020283399 0.042400945 0.0046882904 0.47390094 -0.82766294 0.30065253 0.0020566371
0.022686673 0.043923866 0.0050546792 0.52341068 -0.7047103 0.4789829 0.0014056626
0.024591159 0.044596609 0.0040157232 0.49731609 -0.76056391 0.4173958 0.0023697424
-0.053123988 0.046668902 0.0051866951 -0.9993183 -0.013611451 0.034317572 0.003930375
0.023911403 0.04515741 0.005915036 0.51520365 -0.71831596 0.46753335 0.0031844096
0.02586445 0.04605915 0.0050038723 0.53535849 -0.66251326 0.52389646 0.0018422907
0.028139664 0.04723233 0.0042050849 0.54040301 -0.63786274 0.54872197 0.0023840109
0.030035695 0.047955196 0.0032695972 0.48060337 -0.68719304 0.54478085 0.003237403
-0.053280439 0.049450435 0.0052373242 -0.97643906 0.020386932 0.21482794 0.0054506538
0.029110486 0.04922612 0.0053052315 0.57085115 -0.47820222 0.66742164 0.0031921254
0.031154806 0.049908899 0.004070851 0.56563926 -0.47000918 0.67760134 0.0030393621
0.033109814 0.050719209 0.0031114288 0.5175997 -0.54698348 0.65795112 0.0026830512
-0.053039897 0.052735623 0.0054921699 -0.93179357 0.27949676 0.23160817 0.015020553
0.029945523 0.051452797 0.0059891935 0.58372653 -0.32470098 0.7441994 0.0025466753
0.031831514 0.052364603 0.0050546005 0.56498587 -0.31997713 0.76052988 0.0026562074
0.033905432 0.052947346 0.0037564866 0.57288474 -0.3506138 0.74085963 0.002642828
-0.052719481 0.055581301 0.005148212 -0.90793204 0.35478267 0.22313391 0.019923922
0.032322906 0.055440892 0.0055795088 0.5499748 -0.10537998 0.82850629 0.0022603308
0.03448128 0.055603523 0.0041684881 0.53782678 -0.15003555 0.82959735 0.0033431631
0.03627276 0.056271754 0.0031262406 0.55050796 -0.15553401 0.82021344 0.0031706444
-0.05174724 0.058281064 0.004451585 -0.56621373 0.81281251 -0.13688648 0.011232795
-0.04910735 0.059347752 0.0042041494 -0.36902031 0.89322096 -0.2568664 0.0041160462
-0.047571816 0.059887111 0.0037264994 -0.30648288 0.89836186 -0.31466511 0.0013780615
0.032354798 0.058607627 0.0055986145 0.52425963 0.033517271 0.85089862 0.00052741595
0.034514252 0.058524933 0.0042974995 0.51795113 0.021161821 0.85514843 0.00073925097
0.036348488 0.058499787 0.0031949433 0.53552955 -0.0011288717 0.84451568 0.0014471438
-0.04849555 0.060206402 0.0056860079 -0.46768841 0.85069197 -0.23998058 0.0090849018
-0.046378154 0.060586285 0.0048665921 -0.28446791 0.90968907 -0.30256218 0.001012916
-0.043031137 0.061232422 0.0040223682 -0.2434693 0.91130441 -0.33203474 0.0001989696
-0.040504832 0.062141486 0.0046334104 -0.24890637 0.9060607 -0.34219825 0.00021825606
-0.037518986 0.062571004 0.0038786056 -0.21949039 0.89504719 -0.38821965 0.00041104914
-0.035094563 0.062915303 0.0033051334 -0.19961561 0.87792349 -0.43520564 0.00047982717
0.032091189 0.061562419 0.0054730135 0.50865823 0.099592812 0.85518891 7.2780305e-05
0.034518834 0.061520282 0.0040263208 0.51150006 0.096413612 0.8538571 8.0113161e-05
0.036171895 0.060864568 0.003175349 0.52432996 0.084571183 0.84730512 0.00039115423
-0.037040859 0.063315995 0.0052924878 -0.24104175 0.89002973 -0.38697016 0.00018564943
-0.034417886 0.063785933 0.0047664754 -0.2236319 0.88082838 -0.41728908 0.00031913706
-0.031513792 0.064409494 0.0045489455 -0.21498297 0.86766136 -0.4482702 0.00046589362
-0.028781844 0.0651315 0.0045426684 -0.23372161 0.85961127 -0.45435959 0.00059196452
-0.025828652 0.06532374 0.0037069789 -0.21068314 0.82335007 -0.52697933 0.00086145266
-0.023181826 0.065793574 0.0034209904 -0.22874741 0.79852664 -0.55680329 0.00080699637
0.031728975 0.064606927 0.0052562864 0.49945879 0.13795274 0.85528356 8.5713626e-05
0.034281749 0.064428858 0.0037820123 0.50589669 0.13085774 0.85261053 7.9141035e-05
-0.02765278 0.066113599 0.0058277496 -0.24887989 0.86059302 -0.4443405 0.00045936889
-0.025534604 0.066395991 0.0052015139 -0.2407338 0.8453514 -0.47689447 0.00079965621
-0.022479748 0.06697455 0.0047623427 -0.24513108 0.81575185 -0.52388906 0.0015895069
-0.019521803 0.068096854 0.0049766335 -0.27762944 0.83294517 -0.4786692 0.0019868801
-0.016834745 0.068532437 0.0042680404 -0.30878875 0.77385902 -0.5529843 0.0017865878
-0.01486217 0.068804845 0.0034771147 -0.29748142 0.79064363 -0.53515184 0.0031478563
0.029581174 0.068201184 0.0058144573 0.48242232 0.18053894 0.85713148 0.00021250655
0.031492639 0.067514785 0.0048658713 0.48923728 0.17170112 0.85508221 0.00011563856
0.033869855 0.067403115 0.0035138559 0.49852028 0.1655407 0.85092527 8.1792823e-05
-0.018240293 0.069012001 0.0057144463 -0.31684998 0.8102687 -0.49302202 0.0013979428
-0.016510388 0.069474563 0.0053961994 -0.30150372 0.85075778 -0.43047264 0.0011018893
-0.013410297 0.070418961 0.004940372 -0.33910212 0.85948426 -0.38248736 0.0015640017
-0.010876757 0.07142286 0.0047668125 -0.34900823 0.86723661 -0.35509706 0.0026795776
-0.0084267259 0.071633875 0.0032768054 -0.3924374 0.80440676 -0.44600749 0.0014572594
0.029042469 0.070738181 0.005490744 0.45844522 0.26777732 0.84742159 0.0014233388
0.031477954 0.070476472 0.0042164768 0.46713838 0.25024608 0.84803224 0.00089446612
0.033463445 0.070034154 0.0032051234 0.4776139 0.23341857 0.84699512 0.00068095833
-0.0095841987 0.072272502 0.0053053722 -0.34337461 0.88274336 -0.3207148 0.004518894
-0.0073756231 0.073197588 0.0052471971 -0.32449815 0.93065697 -0.16905181 0.0027129154
-0.0041507143 0.074380681 0.004889783 -0.32001981 0.93650723 -0.14332311 0.0031612802
-0.002271625 0.074801005 0.0036162108 -0.33066988 0.93416494 -0.134139 0.0028692943
0.023739636 0.074786335 0.0058157719 0.2869848 0.65527123 0.69875562 0.0034375796
0.025854776 0.074170843 0.0054193325 0.32874548 0.53625488 0.77740407 0.0043278593
0.028502913 0.073518872 0.0046031717 0.37387297 0.45861754 0.80615693 0.0037819792
0.031110222 0.073094785 0.0035457315 0.42362067 0.38180071 0.82144612 0.0031462666
0.033094853 0.072299063 0.0030887951 0.43548176 0.36193115 0.82423389 0.0032454375
-0.0010943559 0.075500503 0.0049693845 -0.26161435 0.96494818 -0.020809013 0.002376297
0.001605056 0.076225363 0.0046133497 -0.22522761 0.97430599 -0.00061648292 0.0027802293
0.0046587936 0.076854035 0.0047150217 -0.16925041 0.98383766 0.058461916 0.004758955
0.0075272466 0.07726448 0.0046587503 -0.1012435 0.97808599 0.18192722 0.003482271
0.010647442 0.077534549 0.0045805727 -0.054271765 0.96177721 0.26840138 0.0031258436
0.013515461 0.077499308 0.0048433621 0.024003357 0.93102258 0.36417139 0.0041425382
0.016546283 0.077371188 0.0047611953 0.078523658 0.89317161 0.44280741 0.0034591455
0.019549334 0.077078946 0.0046071913 0.12167882 0.84848297 0.51504457 0.0027024841
0.02248922 0.076471962 0.0045511923 0.21884757 0.75519162 0.61789268 0.0027889127
0.025374249 0.076040298 0.0040252805 0.26216021 0.68107176 0.68367636 0.0034943363
0.028031535 0.075555429 0.0034495888 0.31725541 0.6088087 0.72711831 0.0028730084
0.030001463 0.075109795 0.0031505332 0.33186617 0.59722835 0.73019397 0.0028313778
0.011977337 0.078037456 0.0030602049 -0.082432441 0.98642188 0.14204533 0.002734923
0.013659613 0.078061305 0.0032510436 -0.042539164 0.96890867 0.24373429 0.0026205722
0.016472641 0.078070521 0.0033034082 0.032250464 0.92434806 0.38018477 0.0031780913
0.018854981 0.078067303 0.0031493744 0.070786476 0.88836402 0.45365036 0.0038582222
