# .PCD v0.7 - Point Cloud Data file format
VERSION 0.7
FIELDS x y z normal_x normal_y normal_z curvature
SIZE 4 4 4 4 4 4 4
TYPE F F F F F F F
COUNT 1 1 1 1 1 1 1
WIDTH 567
HEIGHT 1
VIEWPOINT 0 0 0 1 0 0 0
POINTS 567
DATA ascii
0.031440068 0.0049383775 0.0017739317 0.28844532 -0.91861719 0.27007753 0.0010879106
0.033769988 0.0056561255 0.0010683775 0.32169968 -0.91744298 0.23411044 0.00027335467
0.035238083 0.006331569 0.0021140974 0.33839291 -0.90530646 0.25673038 0.00064968155
0.037780654 0.0072468459 0.0016156128 0.37342557 -0.89718133 0.23583698 0.0010590904
0.040438265 0.0084124235 0.0017378888 0.38656232 -0.87441647 0.2931987 0.0019234028
0.043827709 0.0099866027 0.001499839 0.43261003 -0.86505568 0.25402224 0.00063336076
0.046564341 0.011434599 0.0016617884 0.48401138 -0.85040629 0.20625757 0.00085645186
0.047975533 0.012351826 0.0025395409 0.48716184 -0.84809113 0.20836246 0.00099170534
0.049528893 0.013106823 0.0014000708 0.50304431 -0.84413326 0.18543343 0.00048555716
0.051786788 0.014510928 0.0017626605 0.53883922 -0.82046771 0.19101056 0.00047688838
0.053172786 0.015449586 0.0015911628 0.55476391 -0.81573254 0.16376036 0.00056504586
0.055425208 0.017008135 0.001533532 0.58922935 -0.79501766 0.14406845 0.0020908904
0.056614865 0.018014027 0.0027842827 0.59484512 -0.78531158 0.17159526 0.0033972554
0.058699548 0.019493988 0.0015386676 0.63037252 -0.76081336 0.15425192 0.0021387397
0.060251493 0.020778887 0.0012822167 0.66908771 -0.73645759 0.099759683 0.0032882327
0.06181097 0.022299167 0.001450606 0.70928586 -0.69060892 0.141326 0.0036558651
0.063168794 0.023552921 0.00070163287 0.73881096 -0.66595608 0.10325172 0.0032632868
0.064579524 0.025333961 0.0015526018 0.77497673 -0.61650264 0.13905251 0.0029125097
0.065937474 0.027250342 0.0025261533 0.78612328 -0.58814847 0.18997778 0.0064548673
0.067096785 0.028679585 0.0014973353 0.83174449 -0.53619146 0.14387438 0.002878818
-0.00053732528 0.032947708 0.0026282009 0.091877878 0.97692013 0.19283554 0.0020804435
0.0016543511 0.032900598 0.0020233802 0.055716231 0.97545481 0.21303408 0.002900027
0.0045501213 0.032880474 0.0016824201 0.0075856224 0.97523785 0.22102845 0.0026395253
0.0073903683 0.032873549 0.0018643648 -0.056067765 0.9768818 0.20629677 0.0038257979
0.010175527 0.032928612 0.0026602477 -0.099638388 0.96664149 0.23595853 0.0024067592
0.068574324 0.031115528 0.0016288689 0.86683446 -0.47981498 0.13555671 0.0034601898
0.069312297 0.032437928 0.0013536564 0.88857096 -0.43202943 0.15424737 0.0041503324
-0.01559383 0.035878047 0.0018828161 0.30205911 0.93794107 0.17037266 0.0022063265
-0.013503607 0.035283837 0.0017058281 0.25709888 0.94994831 0.17747797 0.0027446535
-0.010458183 0.034541901 0.0015912525 0.20126818 0.95835447 0.20260288 0.0037342375
-0.0074469601 0.034006041 0.0018739281 0.1615966 0.96652871 0.19927043 0.003841805
-0.0043522469 0.033503484 0.0018178556 0.1221783 0.98010081 0.15644449 0.0035577917
-0.002065459 0.033279631 0.0011319673 0.098924749 0.98102111 0.16676779 0.002907658
0.00085182226 0.033063307 0.00098604313 0.03981211 0.99513733 0.090093017 0.0017239887
0.0051755589 0.033021808 0.00010120383 0.0032016197 0.99866933 -0.051472124 0.0025682959
0.008187593 0.033049531 0.00056396949 -0.037493646 0.99561077 0.08575251 0.0056747426
0.010656798 0.033169765 0.0011484835 -0.079538338 0.99413127 0.073326297 0.0060042981
0.013478936 0.033441767 0.0018672626 -0.13530852 0.9691962 0.20579176 0.0027495634
0.016429303 0.033946555 0.0019511039 -0.19777611 0.95751542 0.20987821 0.0031400414
0.019695191 0.034760267 0.0018606195 -0.25342077 0.94773805 0.19383086 0.0019421739
0.022526614 0.035547569 0.001748244 -0.27531382 0.95251513 0.13006623 0.0037954533
0.024483802 0.035935294 0.0029838039 -0.2843293 0.93195289 0.22499052 0.0016369604
0.070132084 0.034691032 0.0021600465 0.89643568 -0.33239943 0.29311031 0.0034585013
-0.024382584 0.038887676 0.0019756218 0.38585567 0.9137792 0.1269765 0.0031897749
-0.022521744 0.038164221 0.0016854905 0.37298909 0.91534579 0.15172786 0.0031923831
-0.01957793 0.037077907 0.0016267025 0.30476856 0.93936092 0.15721728 0.0039072162
-0.017078849 0.036349323 0.0015624519 0.26579031 0.95411903 0.13788541 0.0024476938
0.02394671 0.03610466 0.00030855293 -0.23590238 0.97176874 -0.0039449451 0.0034124942
0.025612494 0.036443539 0.0019034833 -0.29116833 0.93810958 0.18754053 0.0034683431
0.028462198 0.037405908 0.0015877842 -0.31063557 0.94378722 0.11300988 0.0029142071
0.030952737 0.038280226 0.0018373908 -0.36451218 0.90984339 0.19828239 0.002947567
0.07122907 0.037549775 0.0014631031 0.93277246 -0.25794795 0.25179037 0.0021891496
-0.070752092 0.040895175 0.0027315198 -0.85851061 -0.32944909 0.39296669 0.00054208213
-0.030630777 0.041643742 0.0017628676 0.45814005 0.88330442 0.099403471 0.0037905166
-0.028545072 0.040657245 0.001690927 0.41283721 0.90327984 0.11683723 0.003009716
-0.025843054 0.039561998 0.0014751107 0.37149417 0.919572 0.12798239 0.0031636229
0.032768123 0.039119996 0.0011618785 -0.36235476 0.92426878 0.12010955 0.0039702062
0.034571279 0.039897092 0.0016237568 -0.41995203 0.89893067 0.12475551 0.0032898216
0.037204172 0.041270912 0.0016066788 -0.49583289 0.85875046 0.12921858 0.0032062386
0.071786605 0.040372699 0.0021639145 0.95216084 -0.18822791 0.24074881 0.0041881306
0.072123691 0.041200422 0.00098038977 0.96322173 -0.16124626 0.21495007 0.0038699806
-0.07218425 0.04377079 0.0015315224 -0.88880867 -0.28004143 0.36276156 0.0016303186
-0.071642525 0.042736601 0.0022444658 -0.86204046 -0.29193011 0.41432247 0.00078937138
-0.036513384 0.044619873 0.0017719758 0.48123786 0.87271005 0.082385838 0.0034773697
-0.034437075 0.043585297 0.0016451193 0.45265374 0.88290262 0.12485016 0.0024199579
-0.032078769 0.042418879 0.0013837194 0.43742567 0.89449435 0.092405163 0.0033269559
0.038660638 0.042166457 0.0013319666 -0.53102201 0.83923841 0.11702333 0.0036839538
0.04053317 0.043304332 0.0014709048 -0.53202462 0.83816695 0.12010822 0.0033847718
0.042616297 0.044639021 0.0016015158 -0.56200832 0.81979895 0.10989241 0.0025340612
0.071942754 0.042773571 0.0028918241 0.95358914 -0.076382533 0.29126191 0.0019737736
0.072319888 0.043595217 0.0016487639 0.97212815 -0.074457407 0.22231267 0.0028122417
-0.072976984 0.046448711 0.0019903874 -0.88773668 -0.27668795 0.36792293 0.0023384963
-0.042299155 0.047729809 0.0020770836 0.49010691 0.85970271 0.14389791 0.0040057306
-0.040557493 0.046835069 0.001622417 0.47856954 0.87227416 0.10054327 0.003137979
-0.038056791 0.04546861 0.0014755089 0.44300902 0.88898677 0.1159547 0.0034366709
0.04410854 0.045619257 0.0015963129 -0.53089082 0.83912528 0.1184218 0.0029598407
0.046335325 0.04711099 0.0015665825 -0.54752219 0.82244378 0.15429094 0.0036240248
0.072441965 0.046444125 0.001697178 0.96917039 -0.049404755 0.24138737 0.002907241
-0.075015433 0.050483264 4.5621691e-05 -0.86316544 -0.31234559 0.39671877 0.0044380357
-0.073967189 0.049519069 0.0022497675 -0.83681536 -0.31977147 0.44439432 0.0072966693
-0.048242144 0.050873913 0.0027395808 0.44102696 0.88117886 0.17034982 0.0050516869
-0.046454713 0.050144706 0.0015872511 0.4700394 0.87345135 0.12706596 0.0037446704
-0.043767765 0.048639487 0.0015859468 0.47351304 0.87450629 0.10499585 0.0040972973
0.047758285 0.048171908 0.00088956906 -0.54733181 0.82418203 0.14543709 0.0050122933
0.049496222 0.049146235 0.0020668011 -0.52534252 0.80956864 0.26194251 0.0026664666
0.051615573 0.050564449 0.0019571495 -0.54335666 0.82290739 0.16609327 0.0042785639
0.07244245 0.049873307 0.0021254783 0.92163271 0.0014577953 0.3880606 0.0033482832
-0.075651504 0.053069897 0.001844609 -0.84472877 -0.1884591 0.50091577 0.013670656
-0.074664935 0.051441986 0.0026747868 -0.73599213 -0.20776831 0.64431971 0.0068217497
-0.05426418 0.053887278 0.0026257639 0.33136749 0.91976231 0.21031612 0.0074060797
-0.052407872 0.053307358 0.001753205 0.41915989 0.88465309 0.20419058 0.0047415947
-0.049545858 0.05183873 0.0015854215 0.45993215 0.87448609 0.15406638 0.003232915
0.052939791 0.051499415 0.0018246385 -0.51430798 0.81611031 0.26353604 0.0034697817
0.05517498 0.052922204 0.0018654368 -0.5268603 0.80271047 0.27941748 0.0046866722
0.057090752 0.05395408 0.0027106656 -0.49792606 0.76986933 0.39921284 0.0055375635
0.072646499 0.052533086 0.0016864643 0.93663269 -0.016538909 0.34992251 0.004713438
-0.075906575 0.05550814 0.0023079414 -0.71411699 0.24961028 0.65401185 0.043110784
-0.060772974 0.056703735 0.0020744142 0.47856641 0.84934533 0.22268072 0.0074450579
-0.058559701 0.055799767 0.0016597089 0.39194763 0.89596099 0.20888042 0.0068937042
-0.055560991 0.054622341 0.0016106566 0.33376265 0.91951859 0.20757662 0.0039698347
-0.053734291 0.05403512 0.00075855304 0.38109955 0.91090453 0.15816487 0.0065736505
0.056770235 0.05417645 0.00092152867 -0.53587407 0.81566101 0.2180277 0.005889154
0.058533292 0.055271324 0.0017945975 -0.52519327 0.7920751 0.3111093 0.0054580509
0.060633555 0.056618616 0.0023838177 -0.63920456 0.68074149 0.35778302 0.0083658509
0.072682217 0.055484951 0.0018265819 0.9119997 0.022503912 0.40957308 0.0087266713
-0.075514451 0.057504967 0.0011574358 -0.62290955 0.72373796 0.29696304 0.042127669
-0.073589221 0.058580782 0.0015676364 -0.53226691 0.83014643 0.16597858 0.011748768
-0.071371481 0.059688646 0.0014269154 -0.41360468 0.89561808 0.16370523 0.008750163
-0.06643039 0.059644669 0.0028173688 0.32125339 0.83292145 0.45059755 0.01283645
-0.064399995 0.059017647 0.0017351937 0.49363974 0.81659448 0.29915431 0.0061989813
-0.062071178 0.057610314 0.0014991238 0.48044246 0.83591205 0.26537928 0.0099408822
0.061957106 0.058166564 0.0019266169 -0.70779461 0.55103147 0.44203082 0.011785646
0.06342309 0.05954868 0.0025808725 -0.67603606 0.5402928 0.50105786 0.012305344
0.072708175 0.058723856 0.0019231377 0.74254769 0.053164843 0.66767997 0.017380945
-0.069772422 0.060391821 0.0017550178 -0.20484322 0.96110129 0.18526596 0.023244716
-0.06742081 0.060555268 0.00171051 0.241886 0.89580095 0.3728697 0.020196375
-0.06574969 0.060155306 0.00079063262 0.40889958 0.85666436 0.31452689 0.01157032
0.062887825 0.060147867 0.00016553096 -0.76616955 0.53803355 0.35143155 0.016165497
0.064164385 0.061540544 0.0019457933 -0.69357717 0.38218942 0.61064065 0.012166676
0.072853796 0.061595142 0.0019853755 0.62507838 -0.0041452916 0.78055102 0.013155256
0.065195538 0.06439995 0.0018656509 -0.67491668 0.24294721 0.69675255 0.0087738046
0.066273592 0.06505508 0.002817669 -0.47083277 0.25974175 0.84311962 0.018380435
0.073108546 0.064556748 0.0021269508 0.50686455 -0.061579566 0.85982341 0.016008483
0.065635882 0.067259789 0.001339079 -0.53185183 0.1808058 0.82731062 0.014906292
0.066935599 0.067800336 0.002533288 -0.49136171 0.20250174 0.84708714 0.014475812
0.069340467 0.068536073 0.0029722929 -0.32908532 0.020843409 0.94407016 0.027576551
0.073869124 0.067449696 0.0020399319 0.50230986 -0.14418992 0.85258085 0.011670821
0.075158156 0.068804912 0.00023566179 0.8181383 -0.23314987 0.52563381 0.0072294413
0.065888137 0.06940712 0.00077949138 -0.55781084 0.19854234 0.80587095 0.018935472
0.067584634 0.070482232 0.0022785615 -0.50960803 0.055191204 0.85863471 0.017079322
0.069181599 0.070051819 0.0029221284 -0.33601877 0.06234489 0.93978953 0.015344163
0.074447334 0.070007578 0.002425672 0.48721859 -0.26771227 0.83123291 0.0218859
0.075287931 0.071015455 0.0017458214 0.82488072 -0.24139181 0.51117694 0.021892406
0.067699142 0.073394015 0.0020277593 -0.64154607 0.037152696 0.76618421 0.020725645
0.069159403 0.072695993 0.0029489365 -0.57944274 -0.047727555 0.81361425 0.0086224619
0.076115951 0.073652834 0.0019518443 0.77562928 -0.031162726 0.6304189 0.06507545
0.067987919 0.076344989 0.0018664809 -0.52040666 0.56507409 0.64020938 0.079714149
0.069936343 0.076776512 0.0018353401 -0.21576557 0.71382487 0.66625768 0.060607884
0.073400572 0.075735733 0.0016013348 0.40158203 0.88336062 0.24167326 0.029351758
0.075409949 0.075114578 0.00083802576 -0.15252969 -0.10620563 0.98257571 0.086339891
-0.015752552 0.0027887442 0.004828142 -0.18071975 -0.88581669 0.42739815 0.00028082452
-0.013828576 0.0025196848 0.0049296897 -0.17543088 -0.86382377 0.4722631 0.00061699888
-0.010520917 0.0019995968 0.005036674 -0.099704705 -0.91045785 0.40140438 0.0016819958
-0.0074730879 0.0016606858 0.0050791875 -0.082680106 -0.88568026 0.45687467 0.0011462918
-0.0043800771 0.0014678983 0.0051575704 -0.032719843 -0.88601893 0.46249309 0.0018667706
-0.0021678119 0.0013304958 0.0050986055 -0.036015991 -0.88887161 0.45673856 0.0016184204
0.0014772841 0.0009435945 0.0041312333 0.0011534505 -0.90947169 0.4157643 0.0013981616
0.0044359458 0.00098683767 0.0040487638 0.023634277 -0.9098559 0.41425076 0.0014680376
0.0075614438 0.0015798885 0.004961805 0.069218308 -0.87353218 0.48181987 0.00072403881
0.011023588 0.0018387715 0.0051084934 0.083793484 -0.88763952 0.45285174 0.00097234698
0.013880409 0.0021480264 0.005047231 0.11702804 -0.87082326 0.47746336 0.0011724441
0.016699862 0.0025265943 0.0051913299 0.12141434 -0.86252445 0.49123329 0.0013324608
0.019375637 0.0024277312 0.0041606054 0.1424728 -0.90630013 0.3978965 0.0036825137
0.021238891 0.0025228523 0.0032632402 0.19788969 -0.94016367 0.2773661 0.00066620432
-0.027074516 0.0059822667 0.004609955 -0.28808084 -0.86152375 0.41807449 0.00032355031
-0.024815723 0.0054336903 0.0048875306 -0.2731325 -0.8685028 0.41364428 6.8420071e-05
-0.022364721 0.0046525486 0.0048606908 -0.26231733 -0.86904812 0.41945797 0.00017425096
-0.020025909 0.003809846 0.0045965621 -0.23895179 -0.87165928 0.42791608 0.00031257499
-0.017535262 0.0033859264 0.0051074736 -0.20967244 -0.87141842 0.443472 0.00043219741
0.019429233 0.0031562794 0.0056305807 0.15288478 -0.8497085 0.50460064 0.0019607272
0.022305936 0.003582763 0.0053096362 0.17712405 -0.84731531 0.50068331 0.0016206255
0.025754109 0.0042984039 0.0052668741 0.1973379 -0.83390641 0.51542002 0.0027384378
0.028599204 0.0048644906 0.004774624 0.25171378 -0.89547133 0.3671121 0.0030959728
0.031225085 0.0054403562 0.0042764661 0.30209616 -0.89850867 0.31846526 0.0026934289
-0.033736482 0.0086531369 0.0050847093 -0.33638275 -0.84092021 0.42391017 0.00056590937
-0.031359382 0.0077114785 0.0049318178 -0.31318119 -0.85767496 0.40781268 0.00013341155
-0.028788026 0.0067827483 0.0050052106 -0.29609057 -0.8552475 0.42530239 0.00034280741
-0.02639683 0.0060682977 0.0052333847 -0.28128511 -0.85602903 0.4336969 0.00034643832
0.032279976 0.006255521 0.0055243257 0.28998843 -0.87956327 0.37719378 0.0033046836
0.034539234 0.0067688418 0.0047087679 0.32249543 -0.8906852 0.3204318 0.0030850426
0.037346512 0.008041162 0.005154823 0.3195231 -0.82181036 0.47173384 0.0016425126
0.039439496 0.0084641408 0.00407233 0.35834906 -0.87258893 0.33192557 0.0021609513
-0.039875273 0.011423567 0.0050948942 -0.40226093 -0.81476063 0.41755387 0.00044671894
-0.037671912 0.010279332 0.0048772804 -0.37817228 -0.82681119 0.41637596 0.00034165266
-0.035388909 0.0092884377 0.0051080398 -0.35340509 -0.83629376 0.41918689 0.000496138
0.040794488 0.0093792304 0.0048618098 0.39505082 -0.85577333 0.33404619 0.0024556492
0.04355396 0.010525256 0.0044489391 0.41418418 -0.85153437 0.32146648 0.0029399903
0.045895956 0.011640711 0.0042011426 0.44667342 -0.84296745 0.29981479 0.0021951606
-0.04514936 0.014632272 0.0055812085 -0.48251227 -0.7672388 0.42252398 0.00054633472
-0.043663539 0.013355562 0.004945518 -0.45125628 -0.78632474 0.4219729 0.00066071964
-0.041473623 0.012239994 0.0052265711 -0.42302272 -0.80712032 0.41183552 0.00043572497
0.04732614 0.012704052 0.0048585227 0.48528391 -0.82112646 0.30041778 0.0020906839
0.049557336 0.013878187 0.0045543583 0.50076079 -0.80681783 0.31350237 0.0020387296
0.051318973 0.014597178 0.0036995157 0.5250923 -0.80634916 0.27217498 0.0027727408
-0.049225055 0.017035261 0.0052116467 -0.50818455 -0.74176115 0.43765166 0.00067108049
-0.046936464 0.015512217 0.0051356284 -0.48952517 -0.76058882 0.42646185 0.00041480886
0.05275207 0.015996113 0.0046755536 0.54445964 -0.78967053 0.28281465 0.001588847
0.054813433 0.017249368 0.0042312462 0.54238594 -0.77869207 0.31536672 0.0023963882
-0.052259363 0.019293718 0.0053104553 -0.53808188 -0.72063845 0.43720481 0.00050728064
0.056164335 0.018480482 0.0048593907 0.58487236 -0.75039828 0.3079395 0.0021045345
0.058250599 0.019942498 0.0043812506 0.61543918 -0.71517968 0.33128956 0.0024639042
-0.057731818 0.023459967 0.0049717077 -0.60853881 -0.65688026 0.44518411 0.00046197209
-0.055819742 0.022009064 0.0053309314 -0.57263368 -0.69709218 0.43145475 0.00048986939
0.059642576 0.021484148 0.0050830655 0.64023304 -0.70336473 0.30883616 0.0021441581
0.06128398 0.022633584 0.0042249616 0.66783667 -0.68155974 0.29911634 0.0023987063
-0.060649533 0.026405923 0.005129172 -0.66019285 -0.61619395 0.42947701 0.00060776668
-0.058797613 0.024735563 0.0055323667 -0.62194502 -0.63850141 0.45332155 0.00090495078
0.062567279 0.024317976 0.004869333 0.70515651 -0.63703859 0.3113457 0.0024718316
0.064192772 0.026206389 0.0047181458 0.68981636 -0.52373695 0.49985296 0.0016034367
-0.063515507 0.029715594 0.0049543167 -0.69413078 -0.53812814 0.47812188 0.00045424167
-0.062204033 0.028275136 0.005300092 -0.68764782 -0.56359285 0.45771563 0.00059055066
0.065244719 0.027690444 0.0049027158 0.7438435 -0.52181363 0.41762117 0.0018513885
0.066480324 0.029222284 0.004560614 0.76613653 -0.48528701 0.4213447 0.0018526209
-0.064314112 0.031273376 0.0056594005 -0.70866686 -0.48466709 0.51272714 0.00057588966
-0.0094268564 0.032957084 0.0059434813 0.19661579 0.89131683 0.40852976 0.00012700018
-0.0073481663 0.032819699 0.0054335357 0.16277164 0.91442323 0.370588 0.0011591259
-0.0044012778 0.032602511 0.0049226042 0.13241678 0.92170405 0.36459208 0.0013343565
-0.0015337599 0.032397624 0.0045685037 0.098335296 0.93242896 0.347716 0.0016257478
0.0014738288 0.032197561 0.0045345426 0.048011944 0.934744 0.35206309 0.0018893672
0.0044958591 0.032126341 0.0045178696 0.014023651 0.94290066 0.33277884 0.0022915378
0.0075511448 0.032131288 0.0045896624 -0.050163146 0.9385581 0.34145629 0.0021893829
0.010557842 0.03230894 0.0046492475 -0.10038892 0.92735815 0.36045656 0.0018259175
0.013345131 0.032513347 0.0049808682 -0.14197825 0.91620135 0.37472308 0.0017579444
0.016187567 0.032834623 0.0054021967 -0.19427769 0.9047848 0.37897298 0.0020739357
0.067605823 0.031603307 0.0050253188 0.7766369 -0.40555239 0.48203984 0.0024368821
-0.066759445 0.034902301 0.0053456752 -0.7629199 -0.41204143 0.49817178 0.0011912053
-0.065691113 0.033527244 0.0058177747 -0.7108897 -0.44775468 0.54235756 0.0014242484
-0.018840214 0.035767641 0.0054315976 0.29691342 0.89442617 0.33443123 0.0020283684
-0.016392708 0.035354152 0.0047043799 0.28850979 0.90329081 0.31753403 0.0015398426
-0.013484172 0.034511454 0.0046533644 0.24747376 0.90912145 0.33504465 0.0017383894
-0.010554157 0.033809569 0.0045864396 0.19196413 0.92509729 0.32763517 0.0015609637
-0.007666023 0.033466462 0.0040301518 0.15427268 0.9316926 0.32885996 0.001600895
-0.0051144972 0.03326178 0.0034815036 0.13968337 0.9328686 0.3320311 0.0022580067
0.014054541 0.033223461 0.003482949 -0.14538956 0.9266482 0.34667704 0.0022241629
0.016726805 0.03342985 0.0042474824 -0.19405214 0.92095089 0.33792478 0.0019894794
0.019517049 0.033989813 0.0045925374 -0.2299723 0.90714103 0.35243136 0.0020052039
0.022553295 0.034829829 0.0046205041 -0.26511499 0.89266813 0.36449629 0.0018698201
0.025250046 0.035498425 0.0048617828 -0.28572094 0.88650405 0.36396983 0.0021428198
0.027590817 0.035882775 0.0056764809 -0.29596663 0.87229002 0.38924769 0.0015433278
0.068665884 0.034260374 0.0054686605 0.80366457 -0.32601655 0.49783188 0.0018962743
0.069553241 0.034947518 0.0042208303 0.85872948 -0.31975338 0.40042672 0.0036005788
-0.069290847 0.038821857 0.004194987 -0.80625463 -0.33895972 0.48482969 0.0012841116
-0.068235554 0.03744673 0.0049845986 -0.77387494 -0.34539312 0.53086835 0.00057328941
-0.027211234 0.038878813 0.0057220403 0.37141261 0.86316121 0.34206069 0.0018356912
-0.025203094 0.038423609 0.004893526 0.37724042 0.87324524 0.30843541 0.0016685609
-0.022470912 0.037415922 0.0045700432 0.33579579 0.88624263 0.31908494 0.0017928142
-0.019733652 0.036509946 0.0043253135 0.29718471 0.90411592 0.30701077 0.0018386799
-0.017665863 0.036121659 0.0036274511 0.27732024 0.90995812 0.30833375 0.0018888949
0.026226901 0.036206316 0.0038087766 -0.28616196 0.91191971 0.29413238 0.0017940894
0.028573101 0.036743429 0.0044627674 -0.29449138 0.89396626 0.33778563 0.0018841908
0.031548124 0.037751041 0.0046370267 -0.35433486 0.87579662 0.32776067 0.0022168159
0.033867631 0.03864944 0.0049800384 -0.41476634 0.84822756 0.32936126 0.001923842
0.070156664 0.037584174 0.0047972202 0.8457644 -0.22799402 0.48239115 0.0019726404
-0.069818191 0.040610936 0.0046308693 -0.82583171 -0.29734993 0.47915041 0.0019707636
-0.068849377 0.039455533 0.0056209732 -0.8089602 -0.30747867 0.50103921 0.0015366656
-0.033289362 0.041849222 0.0055342563 0.40212682 0.85642868 0.32376537 0.0024182666
-0.031319972 0.041213229 0.0046895859 0.43029422 0.85370803 0.29330778 0.0017952059
-0.028535629 0.039963115 0.0045272638 0.37116209 0.87565988 0.30896348 0.0018044808
-0.026356993 0.039310168 0.003862137 0.3677969 0.88118458 0.2970508 0.00162207
0.035026018 0.039474558 0.0042514675 -0.41925094 0.84438312 0.33353531 0.0018603886
0.037476305 0.040624689 0.0046280543 -0.45387852 0.82452446 0.3378664 0.0017564046
0.039619654 0.041664172 0.0052329972 -0.50003171 0.78874642 0.35755754 0.0017972462
0.070835613 0.040500522 0.0047734571 0.87664825 -0.14637396 0.45832586 0.002398557
-0.072164826 0.044905595 0.0030152649 -0.87325537 -0.26973328 0.40579438 0.0034128092
-0.070567697 0.043239616 0.0051403027 -0.79447687 -0.1962295 0.57471764 0.0025411467
-0.039395127 0.044883955 0.0056486749 0.42873088 0.8262046 0.36548018 0.0031489457
-0.037357394 0.044237923 0.0047231107 0.44443858 0.84296 0.30313805 0.0016840118
-0.034580544 0.042925764 0.0045274436 0.42785609 0.85452336 0.29449812 0.0019032568
-0.032694086 0.042302702 0.0036778811 0.43760309 0.85744274 0.2707316 0.0027235772
0.040805683 0.042764142 0.0043113721 -0.48345235 0.80197763 0.35086441 0.0018203784
0.043328494 0.044190928 0.0047552446 -0.49506438 0.78608978 0.37010014 0.0023222149
0.071253166 0.043582562 0.0047342917 0.86172426 -0.048694596 0.50503469 0.0019335874
0.072073154 0.044095218 0.0030361554 0.96924609 -0.067168921 0.2367496 0.0040544923
-0.072659329 0.047426995 0.003624138 -0.78978282 -0.21146019 0.57578439 0.0026173587
-0.071308933 0.046208866 0.0052774809 -0.76663119 -0.16528507 0.62044948 0.0031594026
-0.045057334 0.047874715 0.0058972361 0.43795133 0.78954536 0.4299033 0.0022391682
-0.043203305 0.047335893 0.0048196386 0.46090662 0.82528216 0.32630417 0.0017859046
-0.040613789 0.046066392 0.0044884388 0.45070779 0.83265752 0.32178265 0.0018543553
-0.038607597 0.045359034 0.0035537917 0.44883326 0.85864598 0.24753924 0.0031801329
0.044595242 0.04544406 0.0036887545 -0.48977339 0.78888071 0.37119964 0.0018765543
0.046622247 0.046362389 0.0046292469 -0.49766245 0.76870918 0.40176898 0.0024945636
0.048880864 0.047507387 0.0052676178 -0.50151139 0.76515466 0.40376318 0.0029794623
0.07126116 0.046495628 0.0048603774 0.85500664 0.0022389661 0.51861233 0.0020926173
0.072083853 0.046748549 0.0031476091 0.95231819 -0.020316603 0.30442959 0.002016779
-0.072649397 0.049918581 0.0047272583 -0.67811614 -0.11869325 0.72530711 0.0042449608
-0.071690328 0.04952858 0.0056854957 -0.6437977 -0.065883383 0.76235414 0.0060031558
-0.051219169 0.050978027 0.00597039 0.41041306 0.76028526 0.50351506 0.0037222283
-0.049007114 0.0504237 0.0049209357 0.43415904 0.81802601 0.37727895 0.0025099742
-0.04650845 0.049270924 0.0045088679 0.45184761 0.81855094 0.35469437 0.0022482791
-0.044257369 0.048338845 0.0038440162 0.44811803 0.83150417 0.32831553 0.0016962207
0.050057709 0.048701998 0.0043610428 -0.49809468 0.77012497 0.3985087 0.0026773482
0.052430451 0.049970139 0.0048388131 -0.4721486 0.76420176 0.43939891 0.0033750071
0.054409955 0.050738283 0.005554257 -0.48409596 0.73023194 0.48209178 0.0050817598
0.071184762 0.049480576 0.0049235863 0.82736653 0.039706472 0.56025708 0.0033981474
0.072114944 0.049454525 0.0032292479 0.94127125 -0.0071981144 0.33757478 0.0029544309
-0.073174678 0.05278353 0.0049300143 -0.61204606 -0.071937956 0.7875433 0.0062023439
-0.071804777 0.052081846 0.0058859223 -0.54680479 -0.00020169976 0.83726013 0.0070705381
-0.057571936 0.053710103 0.0056554549 0.27173096 0.79541403 0.54173684 0.0045179711
-0.055244222 0.053334057 0.0048963819 0.33671331 0.8487609 0.40771195 0.0027224536
-0.052500267 0.052385855 0.0045268689 0.38002786 0.82887369 0.41054499 0.0024643277
-0.050140399 0.0514034 0.0040343534 0.41869131 0.83465832 0.35783106 0.0031365138
0.053599134 0.051321689 0.0036705893 -0.47069287 0.77981091 0.41272661 0.0018704986
0.055647731 0.052104492 0.0045509744 -0.45479056 0.77256715 0.44306388 0.0035865083
0.058131296 0.053260919 0.0050958698 -0.45380598 0.73588133 0.50253248 0.0053672437
0.060250942 0.053957574 0.0058477987 -0.42379341 0.67247009 0.60678095 0.0066869259
0.071093969 0.05263048 0.0048635174 0.78169513 0.084334835 0.61793232 0.0082240552
0.072096504 0.052001849 0.0032663897 0.85316658 0.041671861 0.51997131 0.0059704441
-0.075261556 0.055785131 0.0034635786 -0.68706518 0.25890589 0.67890286 0.040747121
-0.073370345 0.055582196 0.0050363964 -0.53665006 0.19314991 0.82140106 0.020269508
-0.071246736 0.056403935 0.0058465619 -0.17702422 0.36020157 0.91592431 0.016157001
-0.067262307 0.056800038 0.0058657355 0.098720476 0.5871613 0.80342758 0.0069544041
-0.064227238 0.056362975 0.0053147078 0.26361737 0.69934273 0.66439873 0.0072108353
-0.061508235 0.055761043 0.0046182456 0.34331116 0.77539444 0.53000081 0.0079614772
-0.058645442 0.054768477 0.0044299825 0.29684022 0.83597636 0.46155107 0.0038913209
-0.056242604 0.054236803 0.0037656107 0.3356294 0.86168081 0.3806037 0.0025518872
0.059124667 0.054628745 0.0040383041 -0.49420547 0.71962678 0.48774797 0.0048464905
0.06147268 0.055620294 0.0047586784 -0.44547772 0.65583777 0.60944766 0.0068937787
0.064007312 0.056486752 0.005563641 -0.27597308 0.59068424 0.75824213 0.011808661
0.068296529 0.056730278 0.0059177624 0.25045261 0.36844757 0.89527643 0.020859674
0.07068684 0.055573773 0.0048679286 0.65280437 0.14710042 0.74310696 0.014649988
0.072120875 0.055916838 0.0031648469 0.85804576 0.046083808 0.51150137 0.0098085105
-0.073101379 0.057901371 0.0044726362 -0.48149207 0.58988661 0.64822763 0.025746182
-0.070433497 0.058541011 0.0049169268 -0.14165513 0.62948287 0.76399285 0.020983001
-0.06751699 0.058465645 0.0045840549 0.19576468 0.67742437 0.70906442 0.0071568922
-0.064777367 0.057866629 0.0040138867 0.3574321 0.72795206 0.58508801 0.0067916443
-0.062786557 0.057310957 0.0032889589 0.4791311 0.77119207 0.41916126 0.012001877
0.062473681 0.057487797 0.0035706179 -0.53280336 0.61201143 0.58443356 0.0088874148
0.064573757 0.05838741 0.004545067 -0.44544879 0.50066721 0.74223161 0.015563552
0.067503035 0.058547944 0.0053927866 0.017173877 0.35239056 0.93569541 0.018888937
0.070459627 0.058533445 0.0044687288 0.49969664 0.1934344 0.84432602 0.01576842
0.072066084 0.057947941 0.0031420193 0.83303016 0.012161704 0.55309391 0.022348871
-0.069653444 0.060126569 0.0033650084 -0.090252601 0.84405953 0.5286001 0.023015874
-0.068390884 0.060142651 0.0032651562 0.10697707 0.89893836 0.4248125 0.02384007
0.065348476 0.061146785 0.0035689671 -0.60104156 0.30534732 0.73858792 0.017222619
0.067481659 0.061493773 0.004356706 -0.16982858 0.26665023 0.94871271 0.02779627
0.070382603 0.061478924 0.0039221109 0.38290057 0.12633547 0.91511011 0.019420594
0.072057396 0.061798695 0.0030754183 0.62901837 0.010716134 0.77731657 0.020221865
0.067659825 0.064410649 0.0035724991 -0.20982035 0.19611496 0.95786971 0.017672146
0.0704761 0.06445127 0.0034752309 0.19666709 0.027008865 0.98009825 0.018624963
0.072129138 0.065092452 0.0031021796 0.38922605 -0.0027204298 0.92113823 0.021174112
0.068212271 0.067038916 0.0031880492 -0.31574309 0.13726515 0.93886346 0.01774965
0.070537515 0.067421146 0.0033410869 0.049028616 -0.024990967 0.99848473 0.023364305
0.072514869 0.067699857 0.003242641 0.31418821 -0.079862535 0.94599557 0.023227632
0.06860631 0.069236293 0.0030230056 -0.22813658 0.043205857 0.97267002 0.010848985
0.070669286 0.070428766 0.003581553 -0.050049651 -0.093480609 0.99436229 0.027395478
0.073112972 0.070576869 0.0035910669 0.27967548 -0.20806041 0.93727928 0.022352822
0.068915129 0.074591264 0.0032122992 -0.52709478 0.17218319 0.83218032 0.035568565
0.070565432 0.07345736 0.0041089924 -0.3369872 -0.061139055 0.93952197 0.025625532
0.073474668 0.073522031 0.0043024099 0.38091052 -0.037258852 0.92386091 0.05752619
0.075367495 0.074001335 0.003417372 0.72331029 -0.013877816 0.69038367 0.069671877
0.068840802 0.075892262 0.0032895349 -0.41889662 0.44847471 0.7895543 0.058501963
0.070486002 0.075844131 0.0042172205 -0.16020307 0.37179163 0.9143883 0.078913487
0.07309372 0.075500019 0.0043965899 0.1859923 0.54717594 0.81609154 0.063289694
0.075002164 0.075202972 0.0031602539 0.6431722 0.67422909 0.36296654 0.10663804
-0.012949854 0.0029583164 0.0062326659 -0.15324718 -0.86518955 0.47745398 0.00075711752
-0.010313702 0.0026285434 0.0064712008 -0.12102176 -0.86598986 0.48519617 0.00087296177
-0.0071961847 0.0024080437 0.0067464211 -0.076734625 -0.90937173 0.40884587 0.001611325
-0.0045535103 0.0024280054 0.0071743652 -0.045903139 -0.86258388 0.50382733 0.0012127598
-0.0012927738 0.0025403935 0.007465912 -0.011650721 -0.8493827 0.52764887 0.001834204
0.0014994368 0.0022853112 0.0070062988 0.011542359 -0.8490063 0.52825671 0.0018478208
0.0045194891 0.0023358543 0.0069119334 0.049851634 -0.85287076 0.51973671 0.0015116814
0.0075774509 0.0026526379 0.0070785489 0.078278869 -0.84010363 0.53674793 0.0010323235
0.010074081 0.0026493552 0.0067821424 0.08513584 -0.84988362 0.5200479 0.00074674876
0.012613786 0.0025863806 0.0060574333 0.093485981 -0.85436916 0.51118845 0.0011884681
-0.021839507 0.0055295387 0.0071742139 -0.24592538 -0.84753954 0.47031638 0.0011143676
-0.019482985 0.0051512644 0.0077117104 -0.21448497 -0.84522331 0.48948327 0.0010961867
-0.016529489 0.0044650733 0.0077450685 -0.18158515 -0.84271854 0.50680596 0.00082833279
-0.013398612 0.0040600542 0.0080951992 -0.15109049 -0.83444196 0.52997947 0.0011012743
-0.010539419 0.0034792118 0.0079598688 -0.11334575 -0.84233093 0.52690727 0.0012668425
-0.0074728439 0.0033984464 0.0083652046 -0.074957542 -0.83392853 0.54675823 0.00136727
-0.0045012357 0.0032115679 0.0084306374 -0.039519057 -0.82942438 0.55721939 0.0017234157
-0.002043932 0.0031685634 0.0084773563 -0.018788408 -0.83418608 0.55116296 0.0013796882
0.0014271192 0.003441971 0.0088878553 0.015341459 -0.81885648 0.57379335 0.0019366137
0.0039818538 0.0033117901 0.008674575 0.049716115 -0.81958801 0.57079226 0.0011335013
0.0074468874 0.0033891858 0.0082747359 0.064651884 -0.83110595 0.55234325 0.001275368
0.010744052 0.0035947741 0.0081820004 0.089700215 -0.82613611 0.5562849 0.00060637336
0.013645561 0.0037442781 0.0077426862 0.11614437 -0.82954746 0.54622471 0.00031418129
0.016604554 0.0039371997 0.0074184751 0.12173512 -0.82336825 0.55429703 0.00051140517
0.019547582 0.0046184547 0.0076793777 0.14833337 -0.79588735 0.5869928 0.00087103638
0.022867059 0.0051417048 0.0075802417 0.16758072 -0.75822568 0.63008767 0.00069532433
0.025277957 0.0053207325 0.0071540517 0.17755611 -0.78252769 0.59676147 0.0015081755
0.027665442 0.0055827065 0.0066700885 0.20934169 -0.78123802 0.5880844 0.0013226165
-0.031259213 0.0086946804 0.0072834436 -0.30237821 -0.83791965 0.45437661 0.00091768149
-0.028370786 0.0079783117 0.0078719212 -0.27995414 -0.84556735 0.45457852 0.0006333536
-0.025477193 0.0070303297 0.007837425 -0.2618739 -0.83921862 0.47658598 0.0010920834
-0.022839716 0.0064395247 0.0082094036 -0.24961098 -0.83513975 0.49013871 0.0011663567
-0.020815447 0.0063022207 0.0089853471 -0.22199424 -0.79075706 0.57045764 0.00059880776
0.022778168 0.0061268169 0.0087503148 0.162755 -0.74465126 0.6473062 0.00033568346
0.025604067 0.0064963331 0.0084512578 0.1796786 -0.71957785 0.67076331 0.00057769002
0.028212136 0.0070684906 0.0083591333 0.19007318 -0.72850209 0.6581465 0.0016654591
0.031522788 0.0074503855 0.0077407239 0.2238676 -0.75773025 0.61296666 0.0014606225
0.034802023 0.0084578376 0.0076196739 0.25811845 -0.73012692 0.63268441 0.0017044224
0.036885064 0.0084928256 0.0065884232 0.33459771 -0.81141609 0.47921631 0.0017297055
-0.037245791 0.011357456 0.0076285414 -0.37155458 -0.80878764 0.45586163 0.0010331257
-0.034614578 0.01031187 0.0079148142 -0.33827075 -0.81863582 0.46412098 0.00079021265
-0.031614527 0.0094872024 0.0084180404 -0.30129081 -0.82279086 0.48191187 0.0012690781
-0.029916963 0.0092262691 0.0088516669 -0.30119467 -0.81085926 0.50178587 0.0014841256
0.034912586 0.0092776688 0.0086191036 0.24344397 -0.68344736 0.6882112 0.0017704141
0.037620224 0.0097207287 0.0079093371 0.29553306 -0.75375998 0.58694643 0.0026884079
0.040436227 0.01105277 0.0080314493 0.30149037 -0.72714293 0.61673874 0.0021474215
0.043358937 0.011422115 0.0065838299 0.36960441 -0.75038129 0.54801512 0.001762738
0.045147654 0.011980481 0.0061279875 0.45481437 -0.78890139 0.41325366 0.0030729005
-0.043141134 0.014274585 0.0074786064 -0.44911698 -0.77042896 0.45247456 0.0010784054
-0.040512886 0.013145582 0.0080660433 -0.40585369 -0.78930861 0.46073267 0.00087490061
-0.038114287 0.012362709 0.0086188056 -0.37675855 -0.80331194 0.46124065 0.0010279331
0.041349813 0.012122968 0.0089130113 0.31859532 -0.683061 0.65720981 0.0023790344
0.043694854 0.012843848 0.0084799565 0.33831948 -0.69436395 0.63513666 0.0019788605
0.046288695 0.01402199 0.0080866134 0.38023052 -0.69793445 0.60688728 0.0013508933
0.048934028 0.014491716 0.0065949326 0.44404334 -0.73489499 0.51259619 0.0016106335
-0.048790917 0.017551739 0.0068820799 -0.51079303 -0.73809677 0.44079885 0.00079094258
-0.046429887 0.016657518 0.008038383 -0.48197985 -0.74325645 0.46396697 0.00096178299
-0.044192772 0.015461 0.0083331633 -0.46798906 -0.7508288 0.46609271 0.001148569
0.047854342 0.015315266 0.0087390933 0.38937825 -0.68034267 0.62090141 0.0040060985
0.049746227 0.016018322 0.0080973944 0.44097733 -0.6750294 0.59150183 0.0011806358
0.051919252 0.01727985 0.0077778678 0.46371183 -0.65524781 0.59634012 0.0017496351
0.054139413 0.017678216 0.0061661364 0.50686902 -0.6975401 0.50647962 0.0013107748
-0.052140631 0.020196712 0.0072124237 -0.53409719 -0.70168692 0.47156733 0.00084516947
-0.04977531 0.019054038 0.0082037551 -0.51427335 -0.71452129 0.47432303 0.0011312047
-0.047892008 0.018190049 0.0089867087 -0.48693624 -0.72379905 0.48888442 0.00086990214
0.053063069 0.018547995 0.0083827814 0.46972305 -0.64700139 0.60062426 0.0016325669
0.055511761 0.019670479 0.0075038481 0.51313341 -0.64592487 0.56522143 0.0010258326
0.057601582 0.020596471 0.0066460557 0.56215453 -0.66642535 0.48975462 0.0014340468
-0.057143822 0.023548074 0.0061053522 -0.60030735 -0.65074044 0.46493861 0.0005968652
-0.055173561 0.0229779 0.0078569539 -0.56558061 -0.66068298 0.4935753 0.0011628412
-0.053105831 0.021566868 0.0083115911 -0.53672689 -0.6967206 0.47592509 0.0010443222
0.056284193 0.021217437 0.0086205341 0.49358582 -0.58763885 0.64113462 0.0019939425
0.058505308 0.022357443 0.0076498236 0.55544466 -0.58836317 0.58763075 0.0010119436
0.060477313 0.023497179 0.0068383352 0.6001699 -0.57106739 0.56006974 0.0013406399
-0.06023116 0.026745029 0.0062617189 -0.63748199 -0.6029312 0.47967777 0.00095397828
-0.058251351 0.025913399 0.0080565121 -0.61104578 -0.60694063 0.50817919 0.0015238719
-0.056309931 0.0245266 0.008671632 -0.57908273 -0.65361005 0.48729575 0.0011647611
0.059882432 0.024428757 0.0084384596 0.56656647 -0.52879828 0.63196105 0.0017949227
0.06155771 0.025545066 0.0076735951 0.60586739 -0.52377552 0.59881878 0.0019704013
0.063382305 0.026539484 0.0065449029 0.66356313 -0.50102764 0.5555675 0.0019223491
-0.06135153 0.028755276 0.0072592488 -0.66816318 -0.52626747 0.52592826 0.00078001816
-0.059672758 0.02765283 0.0082695968 -0.64268452 -0.57044452 0.51141918 0.0012429741
-0.00040584826 0.029993495 0.0089831771 0.075364165 0.80192232 0.59265572 0.0010492215
0.0013771014 0.029905019 0.0089139976 0.047938947 0.79258871 0.60786927 0.0010656775
0.0038420877 0.029815752 0.0089170747 0.01596269 0.82286286 0.56801575 0.0018098773
0.0074735237 0.02992365 0.0087884404 -0.024469016 0.77592176 0.63035446 0.0013844062
0.0098439902 0.029920477 0.0089618973 -0.070794068 0.77287996 0.63059074 0.00093109137
0.062569223 0.027765118 0.0086040571 0.62637001 -0.45407626 0.63362086 0.001449923
0.064314 0.028860895 0.0074235708 0.68122464 -0.44386238 0.58216769 0.0016227207
0.066287018 0.029990034 0.0060093156 0.72722077 -0.47986063 0.4907991 0.0040992927
-0.063729614 0.032174025 0.0074708303 -0.69403428 -0.45824951 0.55526912 0.0010160878
-0.062305316 0.030914966 0.0082423072 -0.67684621 -0.46901172 0.56736869 0.0017253784
-0.015167858 0.032884758 0.0089472495 0.26377961 0.79009849 0.55332154 0.0019226134
-0.013124474 0.032666441 0.008385404 0.22271305 0.84445179 0.48713458 0.0016921641
-0.010365724 0.032345891 0.0077242278 0.19570805 0.85711908 0.4764927 0.0012749067
-0.007461505 0.031807628 0.0076002865 0.15331003 0.86705548 0.47403678 0.0015397737
-0.0044576447 0.031342436 0.0076005138 0.12129679 0.86147153 0.49310637 0.0020954555
-0.0015116008 0.030998595 0.0075834407 0.085455053 0.86562872 0.49334002 0.0022515354
0.0014930544 0.030836387 0.0074488851 0.051617093 0.86513084 0.49888304 0.0024631375
0.0044741062 0.03074185 0.0074752686 0.013389571 0.86578542 0.50023627 0.0021869969
0.0074814209 0.030787954 0.0074577392 -0.032602828 0.86304682 0.50407076 0.0023464104
0.010473703 0.030908987 0.0076131132 -0.082175091 0.8578791 0.50723821 0.00225983
0.013475821 0.031199783 0.0076733022 -0.1230712 0.84614408 0.51854962 0.0024982609
0.016472405 0.031751178 0.0076417234 -0.18350276 0.84909296 0.49534628 0.0017654821
0.019340016 0.032250207 0.0079614306 -0.21482499 0.82645196 0.52041078 0.0017238223
0.022157809 0.032630689 0.0084976014 -0.22934151 0.77862489 0.58407682 0.0015274802
0.024077805 0.032884546 0.0089019956 -0.2458995 0.733567 0.63357157 0.0014398021
0.065094702 0.03132854 0.008328517 0.67388064 -0.36371809 0.64311272 0.001761937
0.066663288 0.031823788 0.0067246761 0.71846288 -0.37598106 0.58519173 0.0017253268
-0.066501066 0.035281066 0.0062544374 -0.72828525 -0.39301249 0.5613749 0.0016645411
-0.064651214 0.034390926 0.0080655459 -0.69927716 -0.40698159 0.58768815 0.0015479417
-0.024240907 0.035984892 0.008948192 0.33989239 0.77611506 0.53114843 0.001412992
-0.022099102 0.035624292 0.0081846239 0.31720796 0.83108079 0.45681924 0.0011817276
-0.01944639 0.034950163 0.0076218345 0.28600004 0.84830236 0.44563115 0.0010776019
-0.016522279 0.03405967 0.0075330422 0.24726245 0.84916013 0.4666779 0.0013823472
-0.013767105 0.033520814 0.0070234598 0.23154271 0.85773969 0.45898867 0.0015823367
-0.01147358 0.033283602 0.0062414692 0.19190052 0.88476789 0.42468816 0.0010877465
0.019890539 0.033271637 0.0064780619 -0.22543982 0.86244595 0.45317098 0.0015988186
0.02263741 0.033671189 0.0071520451 -0.23709381 0.83569902 0.49537209 0.0020560136
0.025483856 0.034214679 0.0076411716 -0.24957883 0.8271445 0.50352991 0.0026223415
0.028366553 0.035085235 0.007762508 -0.2953392 0.82707304 0.47825202 0.001595277
0.031006863 0.035567645 0.0084503172 -0.30387306 0.76243007 0.5712806 0.0018612035
0.065752029 0.033435039 0.0087475153 0.70434433 -0.31502822 0.63612598 0.0015248697
0.067233413 0.034544364 0.0076270415 0.72486937 -0.30051151 0.61988479 0.0015086537
0.069054484 0.035878506 0.006011812 0.76653963 -0.31047496 0.56215858 0.002883259
-0.066926673 0.037803229 0.0074008293 -0.72629011 -0.30734751 0.61484975 0.001779635
-0.065661378 0.037030179 0.0084949099 -0.69759864 -0.29899105 0.65112245 0.0025127539
-0.030387966 0.038838767 0.0087383594 0.37283742 0.77144885 0.51561505 0.001873575
-0.028261272 0.038350035 0.0078319022 0.37494218 0.82109183 0.43037969 0.00087459321
-0.02553089 0.037276473 0.0076140831 0.33561799 0.82108134 0.46172071 0.0011887531
-0.022903206 0.03651556 0.0069891796 0.32404339 0.8433308 0.42870623 0.00075437484
-0.020786041 0.036092378 0.0060072057 0.29435214 0.89089894 0.34591326 0.0018766948
0.029291866 0.036184985 0.0064811776 -0.30461019 0.83756703 0.45353511 0.0015544756
0.031724706 0.036628116 0.0072342847 -0.32285267 0.81421649 0.48251176 0.0023583937
0.034511443 0.037572045 0.0076764636 -0.36692202 0.79314131 0.48610193 0.0026251131
0.037005369 0.038406964 0.0082036993 -0.38536969 0.74688101 0.54190302 0.0038595991
0.068012737 0.037412807 0.0079166181 0.75271147 -0.20572978 0.6253804 0.0020785027
0.069286339 0.03775461 0.0064129732 0.79260999 -0.22650942 0.5660944 0.0013521629
-0.069113284 0.041151207 0.0063338378 -0.74976128 -0.24899621 0.61307335 0.0023571702
-0.067497782 0.040744502 0.008037989 -0.6808005 -0.17501053 0.71125388 0.0012495966
-0.036358584 0.041746821 0.0086767962 0.39036879 0.76990819 0.5048303 0.001810046
-0.034298647 0.041229118 0.0078015723 0.40263486 0.800883 0.44325119 0.0010530644
-0.031582747 0.040068608 0.0074654608 0.38039449 0.80785263 0.45019361 0.0014275499
-0.029189637 0.03935184 0.0065817484 0.3839066 0.82497591 0.4147656 0.00054421899
0.035777453 0.03909038 0.0060620187 -0.44129232 0.80746061 0.39149526 0.0039356258
0.037950709 0.039623443 0.0072006173 -0.42677149 0.76510936 0.48215535 0.0023036303
0.040361237 0.04073146 0.0076370235 -0.44565287 0.75913441 0.47445601 0.0016694168
0.042834803 0.0415718 0.0085493783 -0.40917531 0.68472439 0.60309869 0.0017212931
0.068300188 0.040395293 0.0083542578 0.74753177 -0.11043904 0.65498048 0.002412552
0.069585033 0.040608373 0.0068978891 0.78845143 -0.128093 0.60161161 0.0021885606
-0.069477104 0.043734297 0.0068091881 -0.67032886 -0.11736728 0.73272377 0.0027783073
-0.068020575 0.043711167 0.008279983 -0.65452242 -0.093913339 0.7501871 0.002921816
-0.04255363 0.044771601 0.0086756824 0.39578933 0.73823333 0.54622561 0.0013183076
-0.040295541 0.04418591 0.0078782393 0.39673233 0.78209668 0.48055002 0.0017953521
-0.037585605 0.043042984 0.0075218049 0.3789444 0.79238874 0.47803891 0.001448582
-0.035436478 0.042448808 0.0065748338 0.41563711 0.80188119 0.42922306 0.0010394218
0.041445669 0.042226177 0.0063783764 -0.45514259 0.75689995 0.46898577 0.0012657767
0.043689892 0.04297648 0.0073014623 -0.44272235 0.73697299 0.51075226 0.0026761147
0.046250492 0.044092689 0.0078997826 -0.41595894 0.72232848 0.55246687 0.0027382157
0.048399623 0.04469521 0.0086840615 -0.39090303 0.6777792 0.62274414 0.0037944147
0.068433218 0.043516427 0.0085200621 0.66764015 -0.013867574 0.74435502 0.0033344596
0.069789015 0.043587849 0.0070403237 0.77952397 -0.040128369 0.62508577 0.002419492
-0.069888867 0.046673536 0.0069766738 -0.64389575 -0.068277858 0.76206064 0.0039976258
-0.068029262 0.046541009 0.0084712617 -0.56909966 -0.013828846 0.82215232 0.0028753197
-0.048562676 0.047833532 0.0086084008 0.34216443 0.72476625 0.59802783 0.0015253169
-0.046267152 0.04722723 0.0078893974 0.37207314 0.7606793 0.53191036 0.0023741743
-0.04363757 0.04616712 0.0074981204 0.38686329 0.76845247 0.50972301 0.001530286
-0.041278627 0.045430657 0.0066728503 0.42993832 0.77956563 0.45544532 0.0015698764
0.047170997 0.045517217 0.0067436784 -0.45090717 0.73253977 0.50996882 0.0024594972
0.049587578 0.046335239 0.0075691342 -0.40119562 0.71543646 0.57200766 0.0021527645
0.052183915 0.047269296 0.0082172742 -0.36498326 0.68726307 0.62805784 0.0024442195
0.054411378 0.047862031 0.0088032391 -0.32894498 0.66187996 0.67358011 0.0014700657
0.068276338 0.046587542 0.0085406201 0.58351499 0.086286113 0.80750543 0.0044359001
0.06974417 0.046526801 0.0070735328 0.74316275 0.043331955 0.66770613 0.0039864583
-0.070185013 0.049701378 0.0069725364 -0.56396294 0.019644694 0.82556641 0.0071553965
-0.067760095 0.049634632 0.0084261419 -0.43855545 0.10314564 0.8927654 0.0060893907
-0.065646693 0.050715968 0.0089304131 -0.24330924 0.28964898 0.92569113 0.010827888
-0.057289608 0.050905541 0.0088940803 0.1075649 0.70045692 0.70554233 0.0035201286
-0.054975364 0.050500307 0.0086637456 0.21568422 0.69334221 0.68757319 0.0015573088
-0.05229735 0.050044328 0.0079829209 0.29858997 0.73498613 0.6088016 0.0020276804
-0.049605984 0.049246263 0.0073936158 0.34427491 0.77388 0.53158677 0.0018152654
-0.047199845 0.048543796 0.0067344024 0.39636579 0.77228606 0.49645576 0.0014194594
0.05283362 0.048758924 0.0069752564 -0.41185185 0.70967996 0.57160515 0.0021168536
0.05544297 0.049569104 0.0076996535 -0.34270704 0.67330784 0.65514004 0.0024738323
0.058277488 0.050295133 0.0083476072 -0.26482952 0.60857487 0.7479986 0.002861887
0.061005015 0.050776761 0.0088207275 -0.13577101 0.55180961 0.82284409 0.0045344094
0.064925261 0.050750043 0.0089158826 0.086472385 0.41204062 0.90705299 0.0080201086
0.067752324 0.04964615 0.0083071981 0.4692485 0.19480443 0.86131126 0.0081988825
0.069770552 0.04945223 0.0067757275 0.67744011 0.095819965 0.72931015 0.0057722945
-0.070264734 0.052652355 0.0068302802 -0.44369173 0.090129919 0.89163572 0.01150579
-0.067438647 0.052520599 0.0078557981 -0.24130775 0.31337669 0.91845834 0.013240263
-0.064527392 0.052678317 0.008149269 -0.036205329 0.48386195 0.87439513 0.0092628784
-0.061445709 0.052727226 0.0079263011 0.085915692 0.6382975 0.76498026 0.004752195
-0.05850793 0.052464124 0.0075786221 0.1660585 0.73340869 0.65919363 0.0025489444
-0.055630814 0.051927686 0.0072887023 0.26278481 0.75967216 0.59484643 0.0020786112
-0.052958664 0.051381607 0.0066107227 0.34697536 0.77005911 0.5353663 0.0017399136
0.056479275 0.051337391 0.006388498 -0.40995216 0.69378835 0.5921123 0.0034177434
0.058777999 0.05201311 0.0069807861 -0.35529846 0.66256422 0.65937221 0.0027797557
0.061506491 0.052544653 0.0076461472 -0.23601677 0.58758742 0.77397484 0.0037669709
0.064552322 0.052576702 0.0081596905 0.033620797 0.44312263 0.89583027 0.0097510042
0.067518435 0.05252694 0.007658659 0.3095718 0.30434147 0.90085602 0.012122204
0.069624908 0.052483719 0.0064917956 0.66333765 0.14736362 0.73366702 0.010043935
-0.070177235 0.055400182 0.0063883807 -0.23684058 0.28496644 0.9288168 0.017456857
-0.067537136 0.055392545 0.006691108 -0.033638943 0.45710719 0.88877529 0.010927681
-0.064641573 0.054915685 0.0066675656 0.12881076 0.5958699 0.7926833 0.0098363338
-0.061769858 0.054412354 0.0064064097 0.20071961 0.6891216 0.6962924 0.004801474
-0.059512664 0.054206967 0.0060373861 0.26825792 0.74768484 0.607458 0.002274856
0.062130377 0.054402802 0.0063825673 -0.33020607 0.61440837 0.71656555 0.0057395711
0.064645842 0.05518939 0.0066963285 -0.13973127 0.50186682 0.85358351 0.010563564
0.067443006 0.055482615 0.0066265152 0.18220149 0.36465403 0.91314298 0.019932849
0.069333635 0.054833565 0.0061845197 0.47993052 0.24492647 0.8424238 0.01219158
0.067462198 0.057207752 0.0060998183 0.091119096 0.31761488 0.94383162 0.025442407
-0.018882535 0.005861952 0.0091664046 -0.21342906 -0.80903614 0.54763913 0.00028772283
-0.016018003 0.005547476 0.0095456215 -0.16641825 -0.79493713 0.58342087 0.0010401862
-0.01349088 0.0053379321 0.0099089909 -0.13499509 -0.78060359 0.61027408 0.00091968355
-0.010448681 0.0050130486 0.010083264 -0.099182956 -0.76958632 0.63079286 0.00088336912
-0.0073931683 0.0051945834 0.010707439 -0.054486401 -0.72119105 0.69059008 0.0011316441
-0.0041561346 0.0050723157 0.01079201 -0.016369479 -0.70745283 0.70657098 0.0010191993
-0.0015491594 0.0047941254 0.010461878 -0.0075114416 -0.74300253 0.66924649 0.0011409018
0.0014987197 0.00522759 0.010969047 0.015484995 -0.69508517 0.71876061 0.0017250631
0.0048693535 0.0046543521 0.010176904 0.048965923 -0.72057241 0.69164854 0.0011959155
0.0078614485 0.0048740027 0.010181352 0.061893992 -0.73161495 0.67890257 0.0016037446
0.010075253 0.0052227792 0.010378905 0.07921695 -0.73859161 0.66948271 0.00093932176
