# .PCD v0.7 - Point Cloud Data file format
VERSION 0.7
FIELDS x y z normal_x normal_y normal_z curvature
SIZE 4 4 4 4 4 4 4
TYPE F F F F F F F
COUNT 1 1 1 1 1 1 1
WIDTH 547
HEIGHT 1
VIEWPOINT 0 0 0 1 0 0 0
POINTS 547
DATA ascii
-0.067540236 0.022278717 -0.030493297 -0.77422291 -0.37937525 -0.50660962 0.0031369969
-0.066252626 0.021192081 -0.031404421 -0.64319199 -0.46859863 -0.60557359 0.0005816241
-0.037238844 0.022088354 -0.030443519 0.94976467 -0.13638555 -0.28168449 0.00037844043
-0.068482004 0.024903396 -0.030863289 -0.84633189 -0.32416326 -0.42265892 0.0031653058
-0.036988091 0.025114896 -0.030840892 0.95604503 -0.1043719 -0.27401555 0.00011196076
-0.036384061 0.026242675 -0.029163081 0.96280396 -0.091272362 -0.25431839 0.00012382727
-0.069779351 0.027472423 -0.029696766 -0.8962214 -0.24541941 -0.36953554 0.0015883337
-0.069381252 0.027989632 -0.031257879 -0.87710357 -0.22833142 -0.42255664 0.0018606648
-0.036787707 0.027950747 -0.031057991 0.95865208 -0.062249169 -0.27768913 0.00014394826
-0.036349073 0.028243525 -0.029545467 0.96341795 -0.063856259 -0.26028511 0.00011912096
-0.070121482 0.031448245 -0.030634865 -0.9168452 -0.080520578 -0.39103884 0.0029176916
-0.036699772 0.030137384 -0.031229932 0.9625085 -0.038790204 -0.26846364 0.00016954402
-0.036460705 0.031406075 -0.0305316 0.95943075 -0.011348829 -0.28171578 0.00024456019
-0.070178881 0.032993618 -0.030307744 -0.92152959 0.018019043 -0.38788995 0.005641982
-0.069454446 0.0354071 -0.031561825 -0.90066409 0.14742108 -0.40874347 0.0022986815
-0.03670828 0.03494158 -0.031138193 0.95198262 0.081196666 -0.29518852 0.00095237809
-0.036437377 0.033996399 -0.030418944 0.95796025 0.041652359 -0.28386122 0.00072474079
-0.069075167 0.037495408 -0.030838404 -0.90588927 0.22142348 -0.36102122 0.0028773777
-0.036973041 0.03736626 -0.030756298 0.93470198 0.21613282 -0.28216812 0.0016538911
-0.036370639 0.036630604 -0.029309791 0.94356549 0.2146302 -0.25222614 0.0016377233
-0.037850916 0.04029718 -0.030622635 0.90047735 0.35084909 -0.25699323 0.0012819197
-0.04000451 0.044046588 -0.030995663 0.78674597 0.58979219 -0.18214232 0.003139447
-0.038967885 0.042680684 -0.030404974 0.82537311 0.52615416 -0.20474604 0.0029231091
-0.043090694 0.047391932 -0.030487571 0.65178281 0.72768646 -0.21366252 0.0045424062
-0.041492939 0.045783643 -0.031252135 0.7477358 0.63181055 -0.20422186 0.0016798468
-0.055526167 0.0054512657 -0.026493005 -0.4381924 -0.67375326 -0.59501606 0.00031283553
-0.05302107 0.0048084985 -0.027363323 -0.32076728 -0.71644819 -0.6195243 0.0021343774
-0.050133761 0.004140493 -0.027457457 -0.083971687 -0.78135228 -0.61841512 0.0040901965
-0.04716808 0.0043749893 -0.027509224 0.19616807 -0.75468767 -0.62607068 0.0035629701
-0.044388674 0.0050828196 -0.027057122 0.39534119 -0.71230531 -0.57993656 0.0034447054
-0.042290952 0.0057512387 -0.026071105 0.62040204 -0.62068903 -0.47942305 0.0028941471
-0.058617242 0.0078945067 -0.026700553 -0.49873975 -0.62395811 -0.6016103 0.00018633326
-0.056354146 0.0071363868 -0.027715672 -0.45464325 -0.65128487 -0.60755867 0.00059580925
-0.053822909 0.0063364296 -0.028714243 -0.32066146 -0.70103621 -0.63696498 0.0019704809
-0.043799203 0.0064986534 -0.028373573 0.37586537 -0.70927882 -0.59636307 0.0026204034
-0.041649271 0.0074334615 -0.027316172 0.63354731 -0.58944601 -0.5011698 0.0042398376
-0.061829623 0.010768317 -0.026784375 -0.54294086 -0.57778168 -0.60941243 0.00013302788
-0.05938977 0.0096787894 -0.027849648 -0.51903653 -0.60049599 -0.60828084 0.00022317855
-0.040361192 0.0094915498 -0.027876858 0.75565702 -0.49215862 -0.43216011 0.0017018976
-0.039268557 0.010555293 -0.027027015 0.79930979 -0.44246885 -0.40660208 0.0043662526
-0.064551868 0.013548977 -0.02680283 -0.610219 -0.52459836 -0.59365761 0.00079562061
-0.06259311 0.012716574 -0.027851012 -0.5663203 -0.55533636 -0.60900158 0.00017008391
-0.038440619 0.013092085 -0.027632263 0.88667715 -0.3279748 -0.32593885 0.0019298722
-0.067268603 0.016876088 -0.026519921 -0.72782862 -0.44849741 -0.51876348 0.0030925188
-0.065574713 0.015924467 -0.027827963 -0.66408408 -0.48119321 -0.57222849 0.0014497367
-0.037513342 0.016148265 -0.027521342 0.93000132 -0.23980206 -0.27855438 0.00052355079
-0.067813128 0.019206498 -0.027535155 -0.80218261 -0.38777164 -0.4540222 0.0036257615
-0.066418462 0.01789959 -0.028571162 -0.66940832 -0.48561004 -0.56220579 0.0011723683
-0.037112098 0.018937139 -0.028152928 0.9471876 -0.18197805 -0.26404488 0.00027298246
-0.036614429 0.01952482 -0.02664512 0.95583647 -0.1664878 -0.24219495 0.00011530035
-0.069865234 0.023633288 -0.026270363 -0.91074222 -0.25179657 -0.32733321 0.00030232727
-0.068786167 0.0220017 -0.027934026 -0.87398773 -0.31459498 -0.37037206 0.0018583962
-0.036925875 0.021189833 -0.028791968 0.95850873 -0.13256788 -0.25236228 7.7229946e-05
-0.036328141 0.022413617 -0.02723711 0.96153677 -0.12699866 -0.24355339 4.9189908e-05
-0.069968119 0.025363149 -0.02714989 -0.91020441 -0.26153734 -0.32113248 0.00027112255
-0.069496609 0.024770381 -0.028401706 -0.88901949 -0.29918098 -0.34660509 0.00096070184
-0.036099818 0.025331981 -0.027622335 0.96362561 -0.10063734 -0.24758397 0.00011487492
-0.069965884 0.027042167 -0.028626028 -0.92297256 -0.22942325 -0.30900908 0.00088985451
-0.035787415 0.028409237 -0.027322609 0.97039884 -0.057452887 -0.23457456 4.2148571e-05
-0.035746496 0.031430088 -0.027779218 0.97310263 -0.020208845 -0.22948393 0.00042326184
-0.035759047 0.034358799 -0.027897641 0.97203785 0.074846298 -0.2225768 0.0010209355
-0.036038484 0.037211832 -0.027363647 0.95772749 0.24067196 -0.15759124 0.0026608827
-0.037206005 0.040321324 -0.0279672 0.91105497 0.36029747 -0.20041095 0.0015895513
-0.03655903 0.039120879 -0.027250621 0.91733766 0.34914938 -0.19127546 0.0016515697
-0.038413674 0.042624362 -0.02783766 0.84452796 0.5205127 -0.12585349 0.0018061523
-0.040850341 0.045699831 -0.027660836 0.7857275 0.59665787 -0.16319242 0.0024847419
-0.055097837 0.0025423034 -0.02337632 -0.40560797 -0.70430094 -0.58261681 0.00029493732
-0.052993838 0.0020712297 -0.024032488 -0.28887686 -0.74917674 -0.59605742 0.00236967
-0.05010784 0.001750084 -0.024415657 -0.04968546 -0.77837378 -0.62583196 0.0036906286
-0.04728464 0.0019646324 -0.024423949 0.19934635 -0.79015958 -0.57957649 0.0035561819
-0.044823449 0.0023353682 -0.023767181 0.41305077 -0.73544133 -0.53713602 0.0023010275
-0.058485825 0.0049879272 -0.023676712 -0.45743513 -0.66623122 -0.58897299 0.00013949837
-0.056301709 0.0041680466 -0.024414331 -0.42861211 -0.68554717 -0.58848685 0.00059344206
-0.053618275 0.0034866808 -0.025476627 -0.28550017 -0.73939639 -0.60973972 0.0020218045
-0.046165116 0.0031991987 -0.025725085 0.1864201 -0.77479577 -0.6041019 0.0028138268
-0.043850489 0.0037531625 -0.024948597 0.38871136 -0.73170114 -0.55992579 0.0021721274
-0.041829839 0.0045915321 -0.023936339 0.59877646 -0.65006483 -0.46784872 0.0033362699
-0.061754849 0.0077736243 -0.02392165 -0.52680165 -0.60166085 -0.60040337 0.00011342704
-0.059431236 0.0066790679 -0.024744242 -0.49164924 -0.63306981 -0.59791619 0.00031370393
-0.05743384 0.0060150712 -0.025646556 -0.45321554 -0.66706061 -0.59129173 0.00030623149
-0.040531982 0.0067038881 -0.024811216 0.74905854 -0.51817745 -0.41279951 0.0015672374
-0.039279245 0.0077655693 -0.023744352 0.7900784 -0.45946667 -0.40579119 0.0047709444
-0.064768292 0.010755357 -0.024056152 -0.5996601 -0.54600394 -0.58505344 0.00097252312
-0.062563293 0.0094827861 -0.024896953 -0.53903985 -0.58665878 -0.60437369 0.00015297285
-0.038518704 0.010022678 -0.024522427 0.87348986 -0.3717778 -0.3143194 0.0019286077
-0.067285776 0.013726478 -0.023772746 -0.73388559 -0.44687009 -0.511585 0.0026524269
-0.065759689 0.012915232 -0.025002323 -0.6666497 -0.49367711 -0.55844527 0.0016589549
-0.037482027 0.013124588 -0.024490219 0.92329895 -0.2753526 -0.26776868 0.00053949736
-0.067933612 0.016038248 -0.024664365 -0.78081864 -0.40785518 -0.47326148 0.0014863375
-0.03689041 0.016021997 -0.025027193 0.94248813 -0.21979815 -0.25180346 0.0002413895
-0.036373481 0.016853554 -0.0236574 0.95039529 -0.20552145 -0.23347335 9.1898699e-05
-0.069760486 0.020183655 -0.023904178 -0.88751131 -0.2883122 -0.35944372 0.00086923345
-0.069097944 0.01902492 -0.02477663 -0.87661564 -0.30289367 -0.37389886 0.0014044761
-0.036120947 0.019378688 -0.024553817 0.95934093 -0.16117358 -0.23170681 8.9866197e-05
-0.070086159 0.023200722 -0.024992976 -0.8960923 -0.27926666 -0.34500524 0.00096850685
-0.069503583 0.021127256 -0.025400434 -0.89605904 -0.27929929 -0.34506524 0.00094442448
-0.035652172 0.022350207 -0.024402909 0.96484083 -0.12322284 -0.23216003 3.8738592e-05
-0.035450269 0.025007915 -0.024789199 0.97320223 -0.07814604 -0.21626519 0.00023429345
-0.035046224 0.028133735 -0.024128135 0.98447388 -0.025541235 -0.17366272 0.0014763961
-0.035057981 0.030973848 -0.024581131 0.98474485 -0.015302015 -0.17333043 0.001236376
-0.03524369 0.034239478 -0.024810884 0.98210233 0.12480369 -0.1410636 0.0020416193
-0.035710759 0.037266288 -0.025325362 0.95772862 0.24067372 -0.15758184 0.0026613052
-0.037003364 0.040609103 -0.02519526 0.91184562 0.36568528 -0.18657948 0.0014526476
-0.036286462 0.039129291 -0.024621699 0.94417518 0.28485185 -0.16550715 0.0050374451
-0.052815665 -0.00072645687 -0.020595141 -0.276537 -0.70736456 -0.65050954 0.0035609424
-0.050250746 -0.00085274549 -0.021028906 -0.038307514 -0.78975916 -0.61221963 0.0033756036
-0.04740243 -0.00077891396 -0.020804279 0.19079931 -0.72777551 -0.6587401 0.0042009722
-0.04522248 -0.00036265541 -0.020382989 0.39989421 -0.73236525 -0.55111331 0.0025913469
-0.058447093 0.0024191379 -0.020801451 -0.44768789 -0.67437541 -0.58719105 0.00026365681
-0.056165531 0.0015367274 -0.021341745 -0.39663547 -0.71043795 -0.58134174 0.00047067349
-0.053422958 0.00069526734 -0.022088647 -0.24957104 -0.74962074 -0.61301148 0.0023752158
-0.050407793 0.00027414752 -0.022461262 -0.046470884 -0.77086514 -0.63530111 0.0032702188
-0.046974089 0.00046340816 -0.022301674 0.17307891 -0.76833177 -0.61620611 0.0034880016
-0.044014126 0.0012041633 -0.021565732 0.43221462 -0.73498136 -0.52248716 0.0043840194
-0.041964129 0.0023379605 -0.020973817 0.59254092 -0.64917862 -0.47693008 0.0037536884
-0.061692897 0.0048559639 -0.020885706 -0.49117583 -0.63568717 -0.59552354 0.00023198391
-0.059478853 0.003994273 -0.021767478 -0.47525001 -0.65254974 -0.59018332 0.00010970856
-0.057360403 0.0032391488 -0.022538681 -0.44933513 -0.67747408 -0.58234596 0.00017101747
-0.040763617 0.0040592388 -0.021542232 0.74235976 -0.54699725 -0.38690561 0.00098090933
-0.039478496 0.0053323074 -0.02080879 0.78156978 -0.51522523 -0.35169825 0.0038174812
-0.064695776 0.0077376864 -0.021268547 -0.57879901 -0.56842023 -0.58471382 0.0013166694
-0.062618576 0.0065073147 -0.021882694 -0.51308668 -0.62047577 -0.5930869 8.7878856e-05
-0.060673743 0.0058127656 -0.022797469 -0.4837088 -0.64840955 -0.58786982 0.00011601405
-0.04005402 0.0058118864 -0.022844825 0.72380728 -0.55265856 -0.41312411 0.0012076581
-0.038813364 0.0070908815 -0.021572489 0.84419656 -0.43131444 -0.31827676 0.0016425472
-0.067395084 0.010736711 -0.020930458 -0.74815959 -0.4487918 -0.48871571 0.004043214
-0.065725915 0.0096617108 -0.022060666 -0.64900386 -0.52183336 -0.55360997 0.0026658596
-0.037593912 0.010228909 -0.021583844 0.91319305 -0.31641674 -0.25682461 0.00035927529
-0.068240575 0.013229229 -0.021647308 -0.83234847 -0.36002746 -0.42139807 0.0031480668
-0.037009545 0.012786532 -0.022326488 0.93492949 -0.25629827 -0.24539366 0.00025089685
-0.036481157 0.013609185 -0.021028318 0.94230378 -0.24176486 -0.23154534 0.00015610406
-0.069832504 0.016222553 -0.020466123 -0.8715198 -0.3116785 -0.37856257 0.0010307411
-0.069288388 0.016406586 -0.022144504 -0.87265718 -0.31480449 -0.37331969 0.0010088299
-0.03595902 0.01643311 -0.021560099 0.95313197 -0.20076093 -0.22635055 9.5562697e-05
-0.070029452 0.01949382 -0.022337694 -0.87455791 -0.29587981 -0.38419217 0.0010441574
-0.035385463 0.019283539 -0.021419007 0.96079779 -0.1595695 -0.22672716 9.425381e-05
-0.034975346 0.022150939 -0.021431796 0.97345036 -0.10599533 -0.20287786 0.00034358361
-0.034736317 0.025207555 -0.021754019 0.98652679 -0.027229343 -0.1613179 0.0018225398
-0.034537014 0.028358869 -0.021067448 0.99034619 -0.019227149 -0.1372757 0.0011568014
-0.034910977 0.032360587 -0.022727761 0.98817337 0.028934734 -0.15058611 0.0011589694
-0.05283045 -0.0037743587 -0.017432291 -0.26941684 -0.66058451 -0.70074439 0.0045214291
-0.050214153 -0.00400521 -0.01771621 -0.031404603 -0.58313578 -0.81176746 0.0060977461
-0.047369335 -0.003894303 -0.017498787 0.22679847 -0.62446362 -0.74740058 0.0055013723
-0.045320146 -0.0034852312 -0.01714823 0.39777976 -0.6250903 -0.67159015 0.0043068584
-0.058422279 -0.0005258107 -0.017477361 -0.41793036 -0.64843023 -0.63629591 0.00018230194
-0.055925716 -0.0013753237 -0.01817042 -0.37507239 -0.67783678 -0.63234329 0.00041700259
-0.053325698 -0.0020997305 -0.01882194 -0.25848559 -0.69739699 -0.66844791 0.005759147
-0.050114758 -0.002468843 -0.019154187 -0.028994929 -0.69071215 -0.72254825 0.0054933559
-0.047057055 -0.0022902091 -0.018914439 0.17768876 -0.68070573 -0.71068025 0.0050578467
-0.044304516 -0.0015058491 -0.018368077 0.42480007 -0.64601129 -0.63420367 0.0044717677
-0.042249415 -0.00056083937 -0.017538365 0.62243539 -0.57566756 -0.53026503 0.0061921766
-0.061635755 0.0018903598 -0.017749969 -0.45758241 -0.63323468 -0.62420523 0.00026946375
-0.059327763 0.001154535 -0.01869474 -0.44224951 -0.65788037 -0.60959727 0.00024045183
-0.056939293 0.00033389186 -0.019384462 -0.39608896 -0.68850785 -0.60751176 0.00050459342
-0.043144226 0.00033265018 -0.019609969 0.4907057 -0.63853574 -0.59285748 0.0077252183
-0.041304294 0.0012311978 -0.018473454 0.66249448 -0.59624743 -0.45342031 0.0036216087
-0.064826854 0.004626744 -0.018063955 -0.54790658 -0.58882767 -0.59420574 0.0015261744
-0.062514469 0.0035165569 -0.018794615 -0.48050961 -0.64033443 -0.59923482 0.00014020626
-0.060658965 0.0027586981 -0.019412491 -0.45781013 -0.65435737 -0.60185248 0.0001893904
-0.04010541 0.0031770302 -0.019173436 0.73431844 -0.55608624 -0.38928726 0.0039935922
-0.039077435 0.004332664 -0.018356536 0.83539075 -0.45129812 -0.31377116 0.0027137648
-0.06746801 0.0077762115 -0.018133685 -0.72890073 -0.47378808 -0.49419487 0.0034438665
-0.065727048 0.0065743793 -0.01913457 -0.62992859 -0.5436604 -0.55463809 0.0030959998
-0.037872128 0.0071938741 -0.018579945 0.89963561 -0.34919485 -0.2621426 0.00044439215
-0.068405271 0.010141934 -0.018663727 -0.81224591 -0.39220303 -0.4317793 0.0029140627
-0.036972441 0.010046081 -0.018939018 0.92056221 -0.30063906 -0.2493618 0.00026431304
-0.036373746 0.011120386 -0.01787477 0.9306401 -0.28140706 -0.23392108 0.00013768816
-0.069753997 0.012685703 -0.017866854 -0.86562282 -0.31530237 -0.3889493 0.0010605829
-0.069249988 0.012895076 -0.019311007 -0.8629477 -0.32205114 -0.38936391 0.0010597667
-0.035937056 0.013325114 -0.018520534 0.94499052 -0.23635221 -0.22612059 0.00011290759
-0.07018292 0.015270081 -0.018410277 -0.88599044 -0.29400206 -0.35858583 0.00045045861
-0.035242341 0.016173778 -0.018340785 0.95400286 -0.20175363 -0.22175212 0.00023275409
-0.034714166 0.01920099 -0.01842548 0.97660393 -0.10953319 -0.18506008 0.0017189545
-0.034395441 0.02202861 -0.018651642 0.98567456 -0.051815402 -0.16050197 0.0016486209
-0.034228917 0.025417596 -0.018573172 0.9918462 -0.0047156764 -0.12735309 0.00090502691
-0.034322321 0.027317734 -0.017460797 0.99184495 -0.0047065299 -0.12736346 0.00092063466
-0.034657024 0.030279296 -0.019659285 0.99050963 -0.003323898 -0.13740316 0.00099702575
-0.052306663 -0.0096343597 -0.014225878 -0.29721066 -0.33992684 -0.8922531 0.0040170345
-0.050022181 -0.010258166 -0.014368127 -0.060216714 -0.31062442 -0.94862348 0.0056342576
-0.047416683 -0.010042245 -0.014301283 0.14814347 -0.29259306 -0.94469196 0.0045600454
-0.045653604 -0.0092852842 -0.014124724 0.28027296 -0.40228236 -0.8715595 0.0067649186
-0.055281654 -0.0068277949 -0.014273497 -0.38622686 -0.44202718 -0.80959296 0.00058675685
-0.053062599 -0.0075995475 -0.014868991 -0.29674202 -0.41267118 -0.86118913 0.0044665434
-0.050174944 -0.0077300738 -0.01539435 -0.044778392 -0.38503826 -0.92181367 0.0039620069
-0.04732604 -0.0076560676 -0.015203912 0.20187005 -0.37270436 -0.90572619 0.0062128888
-0.044851802 -0.0074971109 -0.014506426 0.40424359 -0.35941327 -0.84107625 0.005276625
-0.058378574 -0.0040875529 -0.014383803 -0.42595717 -0.51354635 -0.74486959 0.00088143104
-0.056039371 -0.0046152314 -0.015290334 -0.39481047 -0.50427938 -0.76800197 0.00066185003
-0.053335384 -0.0052751116 -0.016136926 -0.24224471 -0.55672556 -0.79459053 0.0049386928
-0.050275125 -0.005549483 -0.016587134 -0.039234363 -0.57855809 -0.81469703 0.0061421678
-0.047071181 -0.0053681992 -0.016370427 0.17748266 -0.55877596 -0.81010455 0.0060229427
-0.044151522 -0.0048411656 -0.015506354 0.44336873 -0.45485982 -0.77235144 0.0083180545
-0.042172179 -0.0042554047 -0.014433257 0.63619459 -0.3901141 -0.66563314 0.0053106463
-0.061773241 -0.0010315249 -0.01476748 -0.45228267 -0.58518153 -0.67305487 0.00074123463
-0.059285242 -0.0018770777 -0.015657216 -0.4261103 -0.58322525 -0.69157666 0.00063930085
-0.056855895 -0.0026377444 -0.016372744 -0.36789897 -0.61175942 -0.70028621 0.0015508158
-0.043300126 -0.0026654927 -0.016482173 0.49769112 -0.61667347 -0.6099323 0.0098945973
-0.041237276 -0.0015613538 -0.015335728 0.71937287 -0.45049918 -0.52872795 0.0048380424
-0.064845443 0.0014802302 -0.014924308 -0.52558815 -0.58256489 -0.61997992 0.0019839017
-0.062496826 0.00086434337 -0.016064249 -0.46680817 -0.61414284 -0.63633221 0.00046683493
-0.060523208 0.00017373424 -0.016794715 -0.43620846 -0.63955849 -0.63299853 0.00017238045
-0.040150255 0.00063640031 -0.015913669 0.78597224 -0.44584048 -0.42833847 0.0042416709
-0.039225489 0.0017548926 -0.015306133 0.80973905 -0.475986 -0.34316194 0.0043896032
-0.067435332 0.0046183988 -0.015215825 -0.69174546 -0.50073832 -0.52033591 0.0021669925
-0.065669902 0.0032778836 -0.01594492 -0.58070219 -0.57437098 -0.57696009 0.0028703874
-0.038322859 0.0040732212 -0.015740125 0.87353194 -0.38673931 -0.2955921 0.00099958689
-0.069828615 0.0086022336 -0.014316949 -0.91624641 -0.25927234 -0.30540195 0.0019797082
-0.068518952 0.0069526276 -0.015613593 -0.83719921 -0.36096728 -0.41085297 0.0011792398
-0.037209257 0.0068198512 -0.015680594 0.90480494 -0.33863175 -0.25817916 0.00029936657
-0.036510993 0.0081946831 -0.014853875 0.92279559 -0.30041301 -0.24124739 6.3376006e-05
-0.070090786 0.010681951 -0.015100363 -0.90468025 -0.28855482 -0.31351197 0.0019782672
-0.069310583 0.0095979692 -0.016363842 -0.87082863 -0.33878821 -0.35620224 0.0019976203
-0.036043648 0.010402721 -0.015686329 0.93287104 -0.27512887 -0.23249885 0.00010717859
-0.069905035 0.012194352 -0.016974125 -0.87862396 -0.3053903 -0.36709231 0.0021238979
-0.035178639 0.013297464 -0.015378532 0.94532865 -0.23210999 -0.22908223 0.00017432679
-0.034548782 0.016162241 -0.015324614 0.95887733 -0.18543106 -0.21487094 0.00086432084
-0.034132104 0.019060198 -0.015557418 0.98365039 -0.082410753 -0.16012605 0.0017443263
-0.033940822 0.022194985 -0.015761442 0.99001497 -0.030419365 -0.1376408 0.00091555202
-0.033996396 0.024071606 -0.015089604 0.99001455 -0.030412877 -0.13764577 0.00091476861
-0.046342447 -0.036725 -0.011083174 -0.069684044 -0.38040048 -0.92219281 0.018007345
-0.04510412 -0.036723863 -0.011097036 0.16286546 -0.39068392 -0.90600276 0.010510054
-0.049642667 -0.034744326 -0.011562523 -0.42109105 -0.30811134 -0.85308242 0.014214087
-0.04718608 -0.034693986 -0.01221365 -0.15222491 -0.24272837 -0.95807642 0.013027801
-0.044098951 -0.034625381 -0.012124456 0.23507768 -0.28135282 -0.93036497 0.012094995
-0.041624732 -0.034545232 -0.011503131 0.44198051 -0.27358443 -0.85428613 0.016389392
-0.049892738 -0.031823553 -0.011686578 -0.44588137 -0.072974689 -0.89211243 0.011366039
-0.047161832 -0.031770892 -0.012427965 -0.13978186 -0.030667046 -0.98970729 0.0096323164
-0.044011731 -0.031784646 -0.012232707 0.24738498 -0.067740776 -0.9665463 0.01100199
-0.041709378 -0.031838451 -0.011472085 0.53485668 0.0014459419 -0.84494156 0.011081805
-0.050104432 -0.0285933 -0.011824617 -0.38397223 -0.060893312 -0.92133456 0.009556205
-0.047158349 -0.028598769 -0.012457754 -0.098930776 -0.031511143 -0.99459523 0.0085692834
-0.044021185 -0.028618623 -0.012142955 0.25611791 0.019605745 -0.9664467 0.0076361164
-0.041788373 -0.028801635 -0.01134478 0.53687018 0.041826423 -0.84262735 0.0081969937
-0.05180534 -0.025764124 -0.011198804 -0.58136702 -0.10299082 -0.80709684 0.0026068196
-0.050114993 -0.025716625 -0.01203921 -0.32824597 -0.06248166 -0.9425236 0.0085870465
-0.047154374 -0.025690995 -0.012492147 -0.061167859 -0.024359236 -0.99783015 0.0085854009
-0.0440282 -0.025714403 -0.012076286 0.28175664 0.015807977 -0.95935565 0.0074599632
-0.041990865 -0.025757696 -0.01130797 0.55519569 0.039993931 -0.83075756 0.0078383591
-0.052106462 -0.02273776 -0.011400072 -0.53369182 -0.1157455 -0.83772069 0.0033418166
-0.050088428 -0.022797063 -0.012258906 -0.28579336 -0.071867757 -0.95559257 0.0086490316
-0.047148667 -0.022782959 -0.012541769 -0.02614212 -0.038918965 -0.99890041 0.008444014
-0.044033937 -0.022808641 -0.012021421 0.30443373 -0.0063888072 -0.95251209 0.0068553179
-0.042026099 -0.022969877 -0.011197424 0.57878518 0.019824328 -0.81523913 0.0072164317
-0.052548766 -0.019652734 -0.011609642 -0.48655945 -0.13576312 -0.86303431 0.0034793157
-0.050201625 -0.019542743 -0.01251546 -0.2506125 -0.092269637 -0.96368033 0.0080980929
-0.047130812 -0.019607071 -0.012698571 0.11752163 -0.059280831 -0.99129939 0.0055580968
-0.044028975 -0.019633505 -0.0120676 0.33057657 -0.025994206 -0.94342119 0.0060357158
-0.04225545 -0.019665198 -0.011311753 0.59942925 -7.7507371e-05 -0.80042773 0.0067525553
-0.053173911 -0.01666216 -0.011804974 -0.42627725 -0.18188302 -0.88611871 0.0033296277
-0.050281521 -0.016697761 -0.012847342 -0.21903563 -0.14984673 -0.96414179 0.0086960169
-0.047106642 -0.016695453 -0.012911107 0.10548246 -0.14066036 -0.98442274 0.004009333
-0.044017874 -0.016721347 -0.012171693 0.37598288 -0.066606946 -0.92422962 0.0077817887
-0.042005043 -0.016756561 -0.011167213 0.61853039 -0.035276309 -0.78496861 0.006422299
-0.055405285 -0.013407392 -0.011410562 -0.50096864 -0.2621268 -0.82481509 0.0005845718
-0.053231385 -0.013805198 -0.012484783 -0.38689345 -0.24362898 -0.8893584 0.0029914256
-0.050216112 -0.013779601 -0.013387284 -0.1230174 -0.23462343 -0.96427101 0.0060536591
-0.047060251 -0.013781427 -0.013319596 0.12925795 -0.19886331 -0.97146571 0.0039150137
-0.043986514 -0.013805378 -0.012466956 0.40948975 -0.14012115 -0.90149003 0.0073519247
-0.041985165 -0.013836416 -0.011364187 0.62987822 -0.088071637 -0.77168441 0.0052409885
-0.058334392 -0.0095124627 -0.011246009 -0.47051555 -0.39616513 -0.78845942 0.00037999486
-0.056044817 -0.010528415 -0.012066553 -0.45351046 -0.34154999 -0.82320827 0.00075294392
-0.05329084 -0.010858133 -0.01339164 -0.32911792 -0.34018514 -0.88088334 0.0037643483
-0.050423473 -0.011791463 -0.013848803 -0.085286342 -0.33504897 -0.9383328 0.0060063554
-0.04671175 -0.011433666 -0.013761515 0.13856776 -0.30144349 -0.94336146 0.0041019195
-0.044222217 -0.010628929 -0.013183998 0.39617744 -0.23754737 -0.886913 0.0058416268
-0.041906405 -0.010591949 -0.011797815 0.65698981 -0.153892 -0.73802549 0.0057497248
-0.060821444 -0.0069527612 -0.011146548 -0.47167844 -0.4361541 -0.76634789 0.00033138634
-0.059015252 -0.0076185144 -0.011828542 -0.45924002 -0.41954637 -0.78299391 0.00049340946
-0.05643684 -0.007841046 -0.013105863 -0.41143718 -0.43653023 -0.80010045 0.00079664978
-0.054473531 -0.0085896188 -0.013750228 -0.40068576 -0.42434031 -0.81202602 0.0010993301
-0.043554228 -0.0080205547 -0.013652815 0.45661166 -0.31343228 -0.83262599 0.00704489
-0.041567735 -0.007691802 -0.012266488 0.64790463 -0.27702153 -0.70956236 0.0085335113
-0.064176068 -0.0036844497 -0.011159323 -0.54955834 -0.49635056 -0.67202801 0.0020729292
-0.0619043 -0.0045632706 -0.01196906 -0.46619037 -0.48276484 -0.74135321 0.0005977613
-0.05943504 -0.0050615096 -0.013125858 -0.42909664 -0.50507551 -0.74884897 0.00077671313
-0.057100683 -0.0059556151 -0.013796888 -0.40781054 -0.49178937 -0.76930737 0.0009625291
-0.040972125 -0.0050076516 -0.012770628 0.69760674 -0.30150765 -0.64995229 0.0056336443
-0.039594773 -0.0040365192 -0.011435869 0.79427803 -0.24673612 -0.55519694 0.0031486512
-0.067190237 -0.00032770474 -0.011090132 -0.67402738 -0.45537111 -0.58165634 0.0032168103
-0.064983033 -0.0014781987 -0.012219971 -0.54092878 -0.53774315 -0.64670569 0.0026941593
-0.062556028 -0.0022149016 -0.013272149 -0.46093279 -0.54426664 -0.70093846 0.00067748124
-0.040260166 -0.0023792465 -0.013439993 0.74032491 -0.3919569 -0.54615819 0.0064329575
-0.039149962 -0.0015031659 -0.012136189 0.84506834 -0.29399818 -0.4465698 0.0025409111
-0.067481957 0.0015611341 -0.012295596 -0.68558854 -0.48249114 -0.54513365 0.0029335544
-0.065794848 0.00049295113 -0.013216341 -0.57425433 -0.52404046 -0.62897819 0.0035567039
-0.03839568 0.0012142439 -0.012525727 0.8784321 -0.30042288 -0.37162244 0.0012712909
-0.069845282 0.0049732341 -0.011061343 -0.83359581 -0.36206728 -0.4171634 0.0018370709
-0.068587668 0.0039769197 -0.012802726 -0.83502471 -0.3747943 -0.40281889 0.0018367246
-0.03744695 0.004053338 -0.012654982 0.89843309 -0.34385774 -0.27309319 0.00030000682
-0.036442365 0.0055018081 -0.011147651 0.91507626 -0.30158168 -0.26773885 0.00089933397
-0.070136093 0.0075907619 -0.012486083 -0.90621489 -0.27146783 -0.32416007 0.0028647338
-0.069499828 0.006257975 -0.013133797 -0.8442083 -0.35786811 -0.39905229 0.0015734736
-0.036777806 0.0062541454 -0.013333919 0.9117071 -0.32052144 -0.2570138 0.00027975254
-0.036031488 0.0075445878 -0.012211078 0.9192245 -0.30684325 -0.24672565 0.00023807042
-0.070631206 0.010227354 -0.012682172 -0.91625118 -0.25924689 -0.30540955 0.0019821059
-0.035314061 0.01023083 -0.012562904 0.93180203 -0.26882911 -0.24387676 0.00021830469
-0.034544226 0.01301704 -0.012524206 0.95543104 -0.20182639 -0.21544744 0.00093412201
-0.033903621 0.016101738 -0.012372234 0.97624022 -0.12729229 -0.17536134 0.0015217825
-0.033680618 0.019212298 -0.01252087 0.98863649 -0.057024945 -0.13909042 0.00083059631
-0.033731177 0.021095263 -0.011900249 0.99039167 -0.054025427 -0.12730104 0.00074836868
-0.046695504 -0.048826579 -0.010297157 0.074435614 0.26843783 -0.96041673 0.017695578
-0.044228476 -0.049126767 -0.010185574 0.2587755 0.2339813 -0.93717015 0.041154817
-0.041957755 -0.048793223 -0.0089938622 0.44043386 0.19292389 -0.8768115 0.019521667
-0.049113944 -0.046797868 -0.0090899002 -0.30616844 0.2572276 -0.91656691 0.034830835
-0.04715554 -0.046806779 -0.01014304 -0.1598572 0.27896148 -0.94690347 0.049998913
-0.044242516 -0.046815824 -0.010052758 0.30513537 0.22603716 -0.92509443 0.02007577
-0.041823201 -0.046752393 -0.0089350753 0.64553869 0.24466982 -0.72347528 0.021031432
-0.049207438 -0.043781228 -0.0084975092 -0.42608669 0.036821432 -0.90393263 0.056280203
-0.047145586 -0.043762218 -0.0089411819 -0.27088252 0.067239359 -0.96026117 0.038728271
-0.044270128 -0.043742761 -0.008648037 0.30051008 0.063791215 -0.95164299 0.036147125
-0.042475574 -0.044088587 -0.0080915354 0.70474654 0.040608577 -0.708296 0.034900215
-0.049420442 -0.040607933 -0.0086319856 -0.54677826 -0.2278223 -0.80568635 0.017763503
-0.047202744 -0.04073685 -0.0097246822 -0.1472785 -0.27107152 -0.95122516 0.0094241695
-0.044287641 -0.040745884 -0.009626613 0.19236535 -0.28536984 -0.93891406 0.0057056057
-0.041922331 -0.040551633 -0.0086378958 0.60030878 -0.24417317 -0.76158303 0.0077132992
-0.052144393 -0.037118282 -0.0084661674 -0.65966928 -0.43583447 -0.61227828 0.013740028
-0.04982568 -0.037501544 -0.0094673801 -0.49390173 -0.39738929 -0.77339697 0.020059478
-0.047288965 -0.037987202 -0.010528247 -0.16209979 -0.41225329 -0.89653271 0.0098391427
-0.04399487 -0.037936326 -0.010555498 0.17570998 -0.40283102 -0.89825004 0.0099152131
-0.0415323 -0.037700091 -0.0093518579 0.50672781 -0.37971687 -0.77397811 0.017389927
-0.052434869 -0.034592517 -0.008770844 -0.70347565 -0.24948685 -0.66549098 0.0054295869
-0.051147845 -0.034699745 -0.010273936 -0.61044747 -0.25208929 -0.75086933 0.010890555
-0.043098725 -0.035860937 -0.010841015 0.27974606 -0.31759873 -0.90602052 0.014034147
-0.040461317 -0.034918923 -0.010081777 0.63737243 -0.23832621 -0.73277354 0.017598066
-0.039052367 -0.034697656 -0.008734229 0.81924641 -0.22358727 -0.52805686 0.013519643
-0.052772034 -0.031649034 -0.0091370074 -0.71061426 -0.16503876 -0.68395138 0.0013785417
-0.051341187 -0.031630799 -0.010663399 -0.67283911 -0.11807369 -0.73030549 0.0015431126
-0.040259972 -0.03183968 -0.01035029 0.78464848 0.015589265 -0.6197449 0.0060204854
-0.039061286 -0.031772546 -0.0086382683 0.82724512 0.013870847 -0.56166995 0.0054991748
-0.054867405 -0.02754405 -0.0080340235 -0.68681866 -0.19765308 -0.69943792 0.00030070567
-0.052997235 -0.028706042 -0.009565657 -0.66063881 -0.14265878 -0.73702431 0.0014226285
-0.05130266 -0.030017955 -0.010977062 -0.54876018 -0.11597975 -0.82789558 0.015770625
-0.040351409 -0.028636841 -0.010178265 0.76679814 0.051440593 -0.63982379 0.0046323696
-0.039245404 -0.029026652 -0.0087069087 0.8405444 0.048502199 -0.53956717 0.0058363569
-0.054987043 -0.025384188 -0.0084806811 -0.66165715 -0.18944016 -0.72548074 0.00056400883
-0.05333719 -0.025762813 -0.0098762158 -0.62375313 -0.16681142 -0.76361376 0.0017344254
-0.040473133 -0.025682613 -0.010066264 0.64542317 0.049841583 -0.76219732 0.0075609009
-0.039336402 -0.025646532 -0.0085502099 0.83206421 0.052800119 -0.5521605 0.0056749242
-0.055586915 -0.022708971 -0.0086518675 -0.63704753 -0.19393289 -0.74602985 0.00044646018
-0.053695682 -0.022774801 -0.010163688 -0.57251608 -0.15651983 -0.80481482 0.002469572
-0.040629245 -0.022734076 -0.01002556 0.65962756 0.035345092 -0.75076097 0.0070168972
-0.039353244 -0.022722591 -0.0083709862 0.83078867 0.023593875 -0.55608755 0.0050731413
-0.056199398 -0.019619841 -0.008981836 -0.59585476 -0.21862246 -0.77276212 0.00056940102
-0.054124534 -0.019859774 -0.010477281 -0.52689672 -0.17801036 -0.83107895 0.003124682
-0.040786896 -0.019717559 -0.010063731 0.67245334 0.01323795 -0.74002111 0.0060134782
-0.039365768 -0.019794192 -0.0082378164 0.81618494 -0.0029664689 -0.57778323 0.0042403848
-0.058394361 -0.016427208 -0.0083956448 -0.56468207 -0.28583372 -0.77423072 0.00055267941
-0.05623728 -0.016805999 -0.0097699882 -0.55029905 -0.24555519 -0.79804361 0.00061861007
-0.054506104 -0.017299728 -0.010805957 -0.54418874 -0.21926096 -0.80980444 0.00060304417
-0.040544361 -0.016803471 -0.0098296264 0.68096262 -0.025447669 -0.7318759 0.0058925496
-0.039365817 -0.016592572 -0.0082372604 0.81097704 -0.033213731 -0.58413452 0.0024100251
-0.060717635 -0.012858456 -0.0081896959 -0.55318171 -0.33714756 -0.76178843 0.00053897308
-0.058838457 -0.013697777 -0.0091142422 -0.54240781 -0.30783048 -0.78168678 0.00029554105
-0.056624491 -0.014192513 -0.010370786 -0.50475115 -0.28640571 -0.81436974 0.00062118215
-0.040528994 -0.013875199 -0.0099878265 0.69144875 -0.071196862 -0.71890867 0.0053861272
-0.039349597 -0.013652955 -0.0084098605 0.80555457 -0.067647882 -0.58864731 0.0019302388
-0.061843041 -0.010291175 -0.0086516961 -0.52396834 -0.39360818 -0.7553342 0.0007784348
-0.059381675 -0.010879966 -0.0099629192 -0.48071221 -0.37489268 -0.79269874 0.00039275645
-0.057408754 -0.011462813 -0.010911974 -0.4826352 -0.34813786 -0.80365622 0.000516292
-0.040250424 -0.010683957 -0.010124656 0.78537476 -0.12019108 -0.60724014 0.0018673575
-0.039197605 -0.010448345 -0.0086070513 0.80478317 -0.10472561 -0.5842573 0.0016698426
-0.064343698 -0.0073953918 -0.0085921045 -0.58826047 -0.42617047 -0.68726146 0.001993607
-0.062177885 -0.0078366408 -0.0097719263 -0.48181689 -0.43238944 -0.76216263 0.00040456513
-0.060203064 -0.0086407047 -0.010532799 -0.48343948 -0.42275327 -0.76652849 0.00033258996
-0.039960012 -0.0080237752 -0.010386194 0.79701108 -0.19629554 -0.5711754 0.0020953782
-0.03902651 -0.0075999275 -0.009007372 0.81521028 -0.16591564 -0.55489117 0.001771909
-0.06708739 -0.0037849606 -0.0084061651 -0.67362159 -0.46273911 -0.57628679 0.0027759145
-0.065327354 -0.0048451964 -0.009439081 -0.61450785 -0.45059058 -0.64757109 0.0024308404
-0.063027196 -0.00563293 -0.010577339 -0.49691945 -0.47923636 -0.7234664 0.00029793355
-0.038759023 -0.0048555373 -0.0095113674 0.83580267 -0.20564036 -0.50906372 0.0013563118
-0.067598216 -0.0015990689 -0.0094344961 -0.69101363 -0.45612723 -0.56075674 0.0019345745
-0.066006809 -0.0025550174 -0.010527387 -0.63654035 -0.50843018 -0.57992685 0.0029494776
-0.03791919 -0.0016519182 -0.009465158 0.85077769 -0.2296923 -0.47267202 0.0021318556
-0.068770058 0.00097724621 -0.0097172912 -0.79008627 -0.40289414 -0.46199575 0.0022946971
-0.037284765 0.00096270221 -0.0096197827 0.87338531 -0.24761291 -0.41938761 0.0025609981
-0.036659036 0.0018134679 -0.0086779622 0.8684684 -0.24489044 -0.43103522 0.0019184176
-0.070084065 0.0044647022 -0.0096287755 -0.87671453 -0.31181261 -0.36625746 0.0050485162
-0.069409311 0.0031244694 -0.010492417 -0.8347488 -0.37610129 -0.40217197 0.0018797769
-0.037029762 0.0033897224 -0.010502411 0.9044888 -0.29819858 -0.3049224 0.00097570644
-0.036216304 0.0042682081 -0.0090492629 0.88622904 -0.23428175 -0.39963752 0.003121407
-0.070411019 0.0065677478 -0.010849032 -0.91715509 -0.26087558 -0.30128142 0.0022531177
-0.035264604 0.0073953154 -0.0093979631 0.91573161 -0.25224623 -0.3127417 0.002350999
-0.070928186 0.0097477008 -0.010926935 -0.93566799 -0.22334887 -0.27320448 0.00049510866
-0.034458451 0.010319361 -0.0094949007 0.93787754 -0.22590213 -0.2633515 0.00080693403
-0.03395357 0.013033381 -0.010100831 0.96169692 -0.17440628 -0.21147458 0.0010662529
-0.033487212 0.013819693 -0.0083462549 0.98254287 -0.1081418 -0.15137678 0.0018913547
-0.033432387 0.016191516 -0.009029761 0.98700947 -0.07654997 -0.14125326 0.0012687792
-0.033462361 0.017806815 -0.0086561171 0.98700869 -0.076540858 -0.14126359 0.0012857866
0.07020954 0.031555735 -0.0080808429 -0.053674638 -0.10577237 -0.99294072 0.0032310633
0.072236292 0.031664167 -0.0080816019 0.1141421 -0.10694032 -0.98769194 0.0029095714
0.070116699 0.034032524 -0.0081545804 -0.11150865 0.023476111 -0.99348617 0.002214141
0.072708212 0.034108181 -0.0081611425 0.063047901 0.004841852 -0.99799871 0.0026377193
0.070658095 0.036453232 -0.0080505228 -0.11587317 0.17794213 -0.97719496 0.0032459707
0.072499402 0.036428299 -0.0080802618 0.062750593 0.097915068 -0.99321455 0.0047424543
-0.041019998 -0.048669826 -0.0076919524 0.79925305 0.11674608 -0.58954638 0.035294555
-0.050714351 -0.04622652 -0.0066560535 -0.74759126 -0.031911202 -0.66339201 0.015113878
-0.040659904 -0.046643686 -0.0072701713 0.77018374 0.2702983 -0.57771611 0.035599463
-0.050705492 -0.043775696 -0.0068565598 -0.77261013 -0.031542752 -0.63409668 0.01761779
-0.041312452 -0.043748304 -0.0069169351 0.84008056 0.04602069 -0.54050606 0.049057197
-0.052034844 -0.039554175 -0.0050157635 -0.62249261 -0.47334045 -0.62325901 0.019565264
-0.050903026 -0.040892508 -0.0067616454 -0.75917411 -0.28893328 -0.58324283 0.028250851
-0.040642217 -0.04098564 -0.006676849 0.91625619 -0.19992977 -0.34713498 0.021030042
-0.054709703 -0.036857363 -0.0051199226 -0.73468918 -0.37521294 -0.56519639 0.014231081
-0.0532257 -0.037857972 -0.0063479603 -0.65429819 -0.44440547 -0.61188054 0.019670174
-0.050973672 -0.038299609 -0.0071231602 -0.65080398 -0.4156155 -0.63538796 0.018103713
-0.040151022 -0.037987225 -0.0071983067 0.85713315 -0.38420421 -0.34308878 0.017898746
-0.03874556 -0.036762815 -0.0062806336 0.88730848 -0.34643248 -0.30441442 0.020150026
-0.055326056 -0.034260791 -0.0053402213 -0.75579953 -0.24271195 -0.60815942 0.00018899415
-0.053953219 -0.034843966 -0.0068371734 -0.75991303 -0.21527725 -0.61334145 0.00086124672
-0.038397368 -0.034818769 -0.007157403 0.92456347 -0.17909281 -0.33631542 0.014440329
-0.05555604 -0.03152594 -0.0060462882 -0.73937947 -0.22642891 -0.63407248 0.0002995352
-0.054266457 -0.032090992 -0.0073709814 -0.73749858 -0.19232301 -0.64738524 0.0004837717
-0.038432226 -0.031635378 -0.0067763953 0.95366758 -0.0031689957 -0.3008455 0.0053467685
-0.056042582 -0.028684644 -0.0064664241 -0.71585852 -0.21824968 -0.6632598 0.00055288046
-0.054352801 -0.029956361 -0.0078847138 -0.7168088 -0.18593295 -0.67202246 0.00020594546
-0.038662255 -0.028665127 -0.0071810186 0.91104871 0.055913836 -0.40848973 0.0027484999
-0.058068078 -0.025551131 -0.0054561291 -0.68704343 -0.25425294 -0.68068111 0.0004042428
-0.056463029 -0.025851371 -0.0069439951 -0.67150658 -0.23143524 -0.70392942 0.00043663761
-0.03852598 -0.025628027 -0.0064729908 0.91029167 0.0010779281 -0.41396597 0.0026812572
-0.058791298 -0.022697231 -0.0058396319 -0.65979081 -0.26078421 -0.70474654 0.00029303343
-0.057038046 -0.022771157 -0.0073808338 -0.64757431 -0.23137622 -0.72602516 0.00043213833
-0.038447175 -0.02272629 -0.0062366454 0.88089442 -0.021321522 -0.47283235 0.0022779319
-0.061131179 -0.018842263 -0.0053204326 -0.65338522 -0.30027467 -0.69492656 0.00097014155
-0.059252344 -0.019737685 -0.0065233116 -0.61708307 -0.26946291 -0.73932284 0.00030797656
-0.05745317 -0.02075327 -0.0076688854 -0.60875434 -0.25605363 -0.75090259 0.00059206848
-0.038347278 -0.019690583 -0.0062285182 0.81583124 -0.035419658 -0.57720429 0.0063729533
-0.061802059 -0.016433761 -0.0058118561 -0.61980486 -0.32835239 -0.71275985 0.0011670451
-0.059726555 -0.016865257 -0.0072341207 -0.56203789 -0.310341 -0.76668239 0.00024218021
-0.038211752 -0.016661342 -0.0062448173 0.79521656 -0.053613927 -0.6039505 0.0043512331
-0.063964859 -0.01328499 -0.005531895 -0.62490845 -0.35844591 -0.69354588 0.0015499907
-0.062082522 -0.013767575 -0.0068017272 -0.55645049 -0.34601453 -0.75540507 0.00038538812
-0.060243852 -0.014471887 -0.0077704517 -0.53665918 -0.33201969 -0.7757318 0.00034283349
-0.037945528 -0.013713373 -0.0062195105 0.77865285 -0.076055296 -0.62282836 0.0028764433
-0.064898267 -0.010468923 -0.0062076398 -0.64714175 -0.39594215 -0.65148854 0.0028704952
-0.062972426 -0.011295892 -0.0073865037 -0.5895189 -0.38575 -0.70969319 0.0010957262
-0.037845526 -0.010835535 -0.0064810086 0.77444339 -0.10027112 -0.62464643 0.0031937142
-0.036435172 -0.0099812234 -0.0051023792 0.63895333 -0.089107171 -0.76406711 0.010183166
-0.067090333 -0.0073939492 -0.0056898203 -0.7142576 -0.39368907 -0.57865793 0.0014173235
-0.065640062 -0.0081119193 -0.0069343154 -0.71252835 -0.39056438 -0.58289176 0.0013564507
-0.03759139 -0.0078652306 -0.0067151482 0.76356721 -0.14860897 -0.6283952 0.003344699
-0.03621278 -0.0076262387 -0.0053431233 0.71414024 -0.13469711 -0.686921 0.0034770702
-0.06779632 -0.004844306 -0.0065439097 -0.72637302 -0.41498351 -0.5478785 0.0010103998
-0.066404969 -0.0059254006 -0.0076583652 -0.7075417 -0.41763908 -0.57005477 0.0015755778
-0.037267879 -0.0049948483 -0.0070700748 0.769234 -0.17341933 -0.61498362 0.0030693014
-0.035885584 -0.0047922088 -0.0056100991 0.6246382 -0.14856553 -0.76665205 0.0038251071
-0.068683691 -0.0022391365 -0.0071178284 -0.7207284 -0.43205032 -0.54210985 0.00095658528
-0.036893968 -0.001918156 -0.0075223139 0.7845822 -0.19279689 -0.58928782 0.0024395483
-0.035503179 -0.0015962393 -0.0059431368 0.70538241 -0.16192673 -0.69008362 0.0075236945
-0.035193298 0.0013392476 -0.0063330801 0.74335915 -0.19246557 -0.64060456 0.0069389176
-0.034644511 0.0041698948 -0.0063125198 0.75123608 -0.078631476 -0.65533304 0.007059569
-0.033218686 0.005072163 -0.0049905209 0.55554801 -0.11518017 -0.82346821 0.013036744
-0.034219407 0.0070514344 -0.0063348184 0.85012066 -0.040907528 -0.52499664 0.015284954
-0.034005057 0.0091892425 -0.0068907319 0.92654693 -0.093734771 -0.36431372 0.0097646276
-0.033639055 0.010406138 -0.0064531714 0.93400472 -0.14426424 -0.3268379 0.011188229
-0.033303168 0.012878194 -0.0058545838 0.98502809 -0.094905816 -0.14391823 0.0032719835
0.067205474 0.020551991 -0.0050993171 -0.13775365 -0.36428624 -0.92104256 0.0043352209
0.069229074 0.020504642 -0.0051233666 0.1095912 -0.44224235 -0.89017493 0.0033161165
0.064652719 0.02265482 -0.0052419305 -0.33816782 -0.28797469 -0.89594263 0.003042486
0.066904321 0.022274762 -0.0057021193 -0.18053307 -0.29375744 -0.93867695 0.0024562273
0.069812313 0.022186283 -0.0058817798 0.068373218 -0.35516614 -0.93229932 0.0043434408
0.072587147 0.022357069 -0.0055721868 0.24534267 -0.39323488 -0.88610005 0.0041575669
0.074579895 0.023081871 -0.0050420789 0.43228805 -0.41924298 -0.7983498 0.0031011605
0.064028174 0.025315773 -0.0056231236 -0.43417192 -0.15473323 -0.88744146 0.0048319246
0.066822894 0.02513794 -0.0065268199 -0.23114043 -0.21985263 -0.94775468 0.0035991028
0.069818102 0.025184317 -0.0068499902 -0.004233541 -0.27096969 -0.96257859 0.0020823623
0.072812319 0.025080875 -0.006429526 0.26190037 -0.32644373 -0.90820849 0.0026032641
0.075540297 0.025514457 -0.0056277798 0.41601515 -0.32494387 -0.84931904 0.0031436884
0.063762657 0.028318018 -0.0059031015 -0.47641835 -0.08208064 -0.87537903 0.0027516438
0.066731505 0.028310979 -0.0071165184 -0.26558152 -0.13156892 -0.95506859 0.0032830364
0.069865584 0.028277494 -0.0075881202 -0.067751594 -0.16709392 -0.98361039 0.0020445995
0.072840445 0.028292118 -0.0073804078 0.15597039 -0.22922811 -0.96079534 0.0037159815
0.075660273 0.02835089 -0.0065483828 0.39742398 -0.26343563 -0.87900847 0.0027318804
0.077825561 0.028610675 -0.0055067455 0.54359549 -0.2809844 -0.79091823 0.0024242897
0.063626267 0.031244282 -0.0059442697 -0.50079054 -0.0060013016 -0.86554766 0.0016405343
0.066691205 0.031233653 -0.00737635 -0.31590456 -0.050038047 -0.94747061 0.0034601397
0.069262281 0.030700948 -0.0078882165 -0.071550794 -0.12316444 -0.98980349 0.0029664403
0.073143728 0.03081595 -0.0078417119 0.15438226 -0.15514028 -0.97575492 0.0031999124
0.075818874 0.031249527 -0.0071699577 0.34345403 -0.13635993 -0.92921758 0.002458995
0.078679904 0.031282682 -0.0057056784 0.52507776 -0.17443317 -0.83298647 0.0033133826
0.063743018 0.034264013 -0.0058675744 -0.49528575 0.069972895 -0.86590749 0.0013871517
0.066696465 0.034177639 -0.0073418068 -0.3398132 0.037881333 -0.93972981 0.0035525998
0.068609834 0.034395434 -0.0079224659 -0.18066978 0.046165355 -0.98245978 0.0027884648
0.075760797 0.034164127 -0.007499353 0.33144432 -0.036463052 -0.94276994 0.0027451194
0.078902565 0.034369465 -0.005979198 0.5206998 -0.038270101 -0.85288167 0.0032451677
0.064182736 0.037144508 -0.0056627886 -0.47099996 0.20540482 -0.85788572 0.0014375134
0.066799559 0.037206128 -0.0069541726 -0.34404439 0.1978367 -0.91787475 0.0018992646
0.069602139 0.037602965 -0.0076821134 -0.17142589 0.22740348 -0.95859313 0.0025259228
0.072913945 0.037935428 -0.0078215599 0.089638561 0.17707035 -0.98010767 0.0053769145
0.075719379 0.037304334 -0.0073767831 0.30400875 0.12054538 -0.94501191 0.0035778664
0.078836523 0.037172012 -0.0059586884 0.54213524 0.12345702 -0.83117247 0.0044901418
0.064793572 0.039519947 -0.0053209318 -0.46196732 0.33949947 -0.81934494 0.0017939382
0.066893771 0.040185761 -0.0060671982 -0.33310801 0.36098361 -0.87105107 0.0022771636
0.069874689 0.040309977 -0.006940919 -0.16703714 0.33628243 -0.92682934 0.0022250002
0.072760619 0.040406253 -0.007147796 0.037217923 0.3290844 -0.9435668 0.0036065574
0.075784907 0.040237159 -0.00670911 0.29252031 0.29628849 -0.90920019 0.0052365423
0.078283593 0.040090196 -0.0056702732 0.47285086 0.27514449 -0.83708274 0.0040673232
0.067546345 0.042317785 -0.0053249281 -0.3472276 0.47554249 -0.80826497 0.0026871786
0.069859989 0.042933654 -0.0056667272 -0.2031579 0.48303124 -0.85170865 0.0034121578
0.072779916 0.043118816 -0.0058771977 0.031410161 0.50992745 -0.85964376 0.0030057114
0.075582869 0.042883556 -0.0056268349 0.29060075 0.43492624 -0.85228539 0.0058254851
0.077493049 0.042142544 -0.0052865474 0.50107551 0.40571389 -0.76440793 0.0043870541
-0.052344698 -0.045755316 -0.0039583072 -0.85702938 -0.11310966 -0.50269949 0.00057955214
-0.040306207 -0.046383835 -0.0039667441 0.96532655 0.10500244 -0.23899621 0.013045306
-0.052773133 -0.043743137 -0.0034066848 -0.81973946 -0.17986137 -0.54376197 0.015192769
-0.04022783 -0.044684563 -0.0047896085 0.96485025 0.012987307 -0.26247907 0.015087328
-0.055194233 -0.040382653 -0.0027635423 -0.6834808 -0.38449523 -0.62049764 0.016520919
-0.053214099 -0.040664416 -0.0037819985 -0.67607021 -0.41331607 -0.609999 0.015945235
-0.039906345 -0.040587723 -0.0024867607 0.95976418 -0.24341136 -0.14001279 0.023821793
-0.055620991 -0.037721388 -0.003476263 -0.74887389 -0.32277787 -0.57879382 0.0063625351
-0.054196153 -0.039023723 -0.0049323766 -0.62254441 -0.4733381 -0.623209 0.019521628
-0.039789356 -0.038049709 -0.0037314324 0.9110924 -0.32885242 -0.24852899 0.0098997904
-0.038681034 -0.037657708 -0.003399302 0.89068109 -0.37851635 -0.25181857 0.0098539693
-0.057772692 -0.033837501 -0.0023470251 -0.76644576 -0.28762698 -0.57430983 0.00017833748
-0.056444876 -0.034898829 -0.003622903 -0.773552 -0.26231566 -0.57689494 0.0002134477
-0.037962578 -0.03447976 -0.0033830828 0.90677023 -0.27345741 -0.32091877 0.030999402
-0.058427185 -0.03142127 -0.0026476241 -0.75316983 -0.27968803 -0.59540731 0.00028911699
-0.057075519 -0.031899881 -0.0040884875 -0.74690557 -0.2514959 -0.61553383 0.00042799034
-0.037625719 -0.03166154 -0.0034362737 0.83742982 -0.2088356 -0.50507313 0.026009506
-0.036682878 -0.03059843 -0.0022379486 0.68167752 -0.19166915 -0.70610112 0.0093114367
-0.05899648 -0.028585773 -0.0032831533 -0.72903091 -0.28189823 -0.62373662 0.0004748966
-0.057460915 -0.029362174 -0.0046504168 -0.72085667 -0.25135243 -0.64590067 0.00044724619
-0.037586775 -0.028681982 -0.0038787471 0.82145661 -0.14235163 -0.5522182 0.015597372
-0.0360943 -0.028317722 -0.0023675151 0.61480361 -0.15779202 -0.77273422 0.0052756323
-0.061130382 -0.025037101 -0.0025125844 -0.71347755 -0.30252123 -0.63200533 0.00036701397
-0.059545532 -0.025818788 -0.0038590443 -0.70844197 -0.28396741 -0.6461212 0.00055111223
-0.037466954 -0.025851307 -0.0040704813 0.79299909 -0.048413169 -0.60729623 0.015098453
-0.035813533 -0.02560048 -0.0025929359 0.52310216 -0.1073055 -0.84548783 0.005759188
-0.061612941 -0.02257961 -0.0031657373 -0.71051401 -0.30433163 -0.63446987 0.00094793329
-0.060094889 -0.023065574 -0.0045075486 -0.65915525 -0.28476441 -0.6960054 0.00028419451
-0.037310563 -0.022651764 -0.0043187467 0.72356129 -0.067210205 -0.68698031 0.0085300598
-0.035404921 -0.022651132 -0.0028010111 0.52416575 -0.11612619 -0.84366167 0.003246109
-0.064030848 -0.019239796 -0.0021028994 -0.75690484 -0.33110645 -0.56343901 0.00075075799
-0.062388666 -0.019714912 -0.0037121563 -0.70267981 -0.32395038 -0.63348025 0.0009363775
-0.06065248 -0.020740641 -0.0049104122 -0.63394612 -0.30616093 -0.71019566 0.00035686721
-0.03717161 -0.019909056 -0.0045867758 0.75910217 -0.071343407 -0.64705026 0.0059188334
-0.035257719 -0.019740447 -0.0030910945 0.50814307 -0.11275633 -0.85385984 0.0026264258
-0.033293933 -0.019550245 -0.0020783315 0.34429643 -0.10965027 -0.93243599 0.0020359955
-0.064507134 -0.016409097 -0.0031313477 -0.73186171 -0.34108528 -0.58994853 0.0017826566
-0.063150555 -0.017301172 -0.0041850898 -0.69516838 -0.35265216 -0.62640035 0.00080005772
-0.036999006 -0.016711088 -0.0048028156 0.67378873 -0.098158233 -0.73237544 0.0092718434
-0.035229556 -0.016758468 -0.0034286499 0.53160363 -0.11608885 -0.83900005 0.0061490824
-0.032809012 -0.016614147 -0.0022410292 0.35500333 -0.11010627 -0.92835838 0.0018094404
-0.065343738 -0.013848597 -0.0036184746 -0.75174838 -0.35456595 -0.55601925 0.00050451711
-0.035202358 -0.013781326 -0.003755175 0.49920344 -0.095796913 -0.86117297 0.0047313101
-0.032258902 -0.013715006 -0.0023836165 0.35616711 -0.11270787 -0.92760015 0.001274974
-0.067212917 -0.010679469 -0.0030943546 -0.74297893 -0.38056216 -0.55059499 0.00060040504
-0.066033863 -0.011302521 -0.0043937974 -0.74300438 -0.38343564 -0.54856318 0.00056052156
