# .PCD v0.7 - Point Cloud Data file format
VERSION 0.7
FIELDS x y z normal_x normal_y normal_z curvature
SIZE 4 4 4 4 4 4 4
TYPE F F F F F F F
COUNT 1 1 1 1 1 1 1
WIDTH 568
HEIGHT 1
VIEWPOINT 0 0 0 1 0 0 0
POINTS 568
DATA ascii
-0.025254352 0.019209636 0.011314865 0.19888516 0.68795073 -0.69797444 0.0035879936
-0.022677444 0.018833235 0.0118436 0.3257516 0.7166819 -0.61664653 0.0062585394
0.049907003 0.019903427 0.010767738 -0.61703193 -0.072746962 -0.78356844 0.0001951083
0.051705044 0.019834731 0.0093626659 -0.56576639 -0.093122847 -0.81929028 0.0011113895
0.06886097 0.018914422 0.0095793186 0.65758306 -0.44056299 -0.61113727 0.00099569617
0.070383608 0.020028634 0.010691813 0.73201728 -0.42132127 -0.53538692 0.0032069732
0.048090287 0.022776706 0.012086449 -0.64179337 -0.015297102 -0.76672506 0.00012921292
0.049948245 0.022889264 0.010548336 -0.63312936 -0.030159308 -0.7734583 8.5025174e-05
0.051684264 0.022058561 0.0091844285 -0.61194271 -0.041396633 -0.78981799 0.00033390342
0.071427673 0.022578919 0.010197009 0.77839613 -0.38490197 -0.49593341 0.0017399589
0.072673358 0.023852298 0.011265266 0.8055613 -0.38885298 -0.44706193 0.0012742465
0.048090618 0.025585694 0.012089566 -0.65596282 0.020489283 -0.75451505 8.8874258e-05
0.049819898 0.02594994 0.010616456 -0.6416319 0.0026376497 -0.76700824 7.6670665e-05
0.072379678 0.025424322 0.0094627421 0.73287082 -0.34651598 -0.58551431 0.0017618166
0.07335081 0.026222382 0.010608475 0.8141169 -0.34794533 -0.46491694 0.0018417113
0.049894016 0.028857233 0.010653366 -0.65493941 0.04451308 -0.7543692 0.0001785332
0.051681694 0.029591514 0.0091623645 -0.64322108 0.037675042 -0.76475304 0.00011123015
0.074287757 0.028721048 0.010482403 0.8406347 -0.30863455 -0.44505957 0.00099176657
0.050019722 0.031836804 0.010789461 -0.66457778 0.080821671 -0.74283528 0.00010859522
0.051699515 0.031835578 0.0093152802 -0.65104848 0.073652998 -0.75545424 0.00010265572
0.075016171 0.031597361 0.0098629156 0.83980036 -0.27232209 -0.46965522 0.0015249011
0.075812057 0.032038152 0.011257939 0.85915619 -0.2752122 -0.43140349 0.001016152
0.050217554 0.034936104 0.011035237 -0.67071044 0.1082328 -0.73378003 5.1459683e-05
0.051928468 0.035129324 0.0094837081 -0.65853232 0.10306452 -0.74546152 6.9023983e-05
0.076371334 0.034955256 0.010664415 0.86249202 -0.22326675 -0.45415789 0.001615418
0.050520409 0.037868027 0.011231288 -0.67696643 0.13543181 -0.72344649 7.4909673e-05
0.052216046 0.037988786 0.0096929716 -0.65335542 0.13077003 -0.74567139 9.3193245e-05
0.076894581 0.037736554 0.010451517 0.8682816 -0.14308998 -0.47498679 0.0027894215
0.050901037 0.040729657 0.011451278 -0.66913074 0.17224599 -0.72290754 0.00020870849
0.052527118 0.041009024 0.010024578 -0.64442277 0.17116711 -0.74526572 0.00018951972
0.077306777 0.040880919 0.010498261 0.85847634 -0.051495075 -0.51026142 0.0024107844
0.051050186 0.042780984 0.011772254 -0.67761064 0.23038909 -0.69840151 0.00084637967
0.052787371 0.043970611 0.010598618 -0.64468706 0.23100856 -0.72870678 0.00042434767
0.054496724 0.044680763 0.0093627851 -0.62177908 0.25173441 -0.74163365 0.00045515056
0.077311233 0.043962844 0.010524107 0.87039185 0.076508291 -0.48637897 0.0016748849
0.05335363 0.046619587 0.01121993 -0.62805611 0.38951859 -0.6736623 0.0012717653
0.055303391 0.047140557 0.0097777825 -0.60039926 0.35342863 -0.71736252 0.00082007464
0.076740615 0.04683407 0.010458442 0.8096664 0.23712471 -0.53685409 0.0032901384
0.054059219 0.048782941 0.011897045 -0.60961133 0.48937133 -0.62361032 0.0010419174
0.05611537 0.049822409 0.010768873 -0.58247375 0.48976451 -0.6487335 0.0022427428
0.058138195 0.05083029 0.0097647635 -0.52006257 0.56899887 -0.63700491 0.0013955925
0.074885152 0.050249491 0.0098314863 0.72186553 0.38214049 -0.57695645 0.0030362627
0.076162115 0.049776003 0.011172807 0.74595028 0.3841947 -0.54401535 0.0029767067
0.057030365 0.051942516 0.011711953 -0.56177825 0.5674094 -0.60203969 0.0010320761
0.059076831 0.052749738 0.01079755 -0.48059988 0.64352465 -0.59573466 0.0023374436
0.061568253 0.05354793 0.0098492345 -0.37238628 0.67017841 -0.64201975 0.0034430332
0.063414931 0.05387995 0.0092569571 -0.2766709 0.65446603 -0.70365298 0.0040673548
0.071363993 0.053603169 0.0095947795 0.30274409 0.68240201 -0.66533709 0.003503476
0.073658928 0.05282528 0.01066703 0.58791906 0.56135786 -0.58243322 0.0053819683
0.062121771 0.055074882 0.0113313 -0.35976806 0.74386823 -0.56322908 0.0019739056
0.064953789 0.055287726 0.010433548 -0.17241633 0.78702229 -0.59234154 0.002379826
0.067925103 0.055541176 0.010514732 0.10097139 0.79294282 -0.60087138 0.004534232
0.070551574 0.055153858 0.010849181 0.3241621 0.74100792 -0.58806992 0.0060018389
0.072770104 0.054767508 0.011859057 0.5499078 0.67409194 -0.49315464 0.0052850791
0.047535028 -0.044891376 0.014800018 -0.12773198 -0.899405 -0.41803735 0.0072743515
0.049249072 -0.044907477 0.014969153 0.082627594 -0.92886114 -0.36109528 0.0015582629
-0.006565799 -0.042185664 0.012536805 0.27876863 -0.45019326 -0.84830076 0.0074854693
-0.0041635628 -0.042227339 0.01344827 0.27773333 -0.60556388 -0.74575901 0.011820038
-0.0013486907 -0.042153656 0.014201088 0.25563508 -0.61574215 -0.74532694 0.013955615
0.0017584397 -0.042067744 0.014823733 0.2177138 -0.53654402 -0.81530434 0.016609069
0.043739453 -0.04308258 0.01356308 -0.54942203 -0.60530078 -0.57597429 0.029607575
0.046827469 -0.044198431 0.013440453 -0.12768532 -0.8994059 -0.41804963 0.0072871791
0.049961466 -0.044227436 0.013749162 0.082619406 -0.92886227 -0.36109394 0.0015952963
0.052660476 -0.043875072 0.013419785 0.15675062 -0.91785252 -0.36465868 0.00095394393
0.055109192 -0.043718882 0.014345158 0.20409916 -0.9212727 -0.33105928 0.0015648965
-0.006402059 -0.040719699 0.012306529 0.18701197 -0.82971472 -0.52592778 0.026637353
-0.0040172641 -0.040619686 0.012776677 0.14640455 -0.82751411 -0.54202032 0.022925779
-0.0010648713 -0.040833984 0.013630329 0.21606518 -0.83050048 -0.51340514 0.017510654
0.0019099687 -0.040928639 0.014721181 0.21771689 -0.53661549 -0.81525654 0.016608348
0.0048655951 -0.03979532 0.014684252 0.22533664 -0.87921703 -0.41976276 0.033554599
0.0090525299 -0.039029811 0.012260197 0.10005508 -0.93482584 -0.34071913 0.0029764294
0.01103773 -0.039088786 0.012973288 0.13704127 -0.90532464 -0.40200368 0.002535372
0.013884053 -0.03917335 0.013995551 0.087274931 -0.92461628 -0.37076667 0.005100219
0.016725484 -0.038995061 0.014569495 0.090695471 -0.90782166 -0.40943146 0.0062125213
0.019278605 -0.038675942 0.014814688 0.18979378 -0.82799679 -0.52763593 0.00095471035
0.041496258 -0.039827701 0.014111204 -0.72233713 -0.27437332 -0.6347822 0.0038163038
0.043647565 -0.040350035 0.01290445 -0.66160893 -0.23648292 -0.7115823 0.0024020036
0.012143238 -0.038467746 0.012258945 0.15459977 -0.85159832 -0.50087839 0
0.014032235 -0.038414143 0.012750524 0.15458685 -0.8516041 -0.50087255 0
0.016837543 -0.038082335 0.013052145 0.15898934 -0.84816158 -0.50531608 3.366813e-05
0.020160859 -0.037632324 0.013312178 0.18981242 -0.8279928 -0.52763546 0.00096797798
0.022822186 -0.036848176 0.013504479 0.36301771 -0.74640393 -0.5577628 0.0039119245
0.025569439 -0.035918016 0.01446446 0.23803148 -0.82136631 -0.51836121 0.0044257413
0.027481934 -0.035860818 0.014957009 0.17674483 -0.83980721 -0.51330805 0.0010043025
0.041284263 -0.036847394 0.013827765 -0.65933841 -0.38088742 -0.64822656 0.010950888
0.04295215 -0.037804566 0.012397788 -0.60142094 -0.26174209 -0.75484031 0.0073552667
0.060240485 -0.036125865 0.014722614 0.18450105 -0.65927887 -0.72891068 0.00051753415
0.060798056 -0.035839032 0.01466733 0.18437661 -0.65930086 -0.72892231 0.00051112741
0.02339088 -0.035107497 0.012414851 0.30020261 -0.74604636 -0.59438479 0.0080790473
0.026092684 -0.034936715 0.012956986 0.20911661 -0.8312602 -0.51505017 0.0049075927
0.029087219 -0.034750383 0.013564236 0.1545631 -0.85156173 -0.50095206 0
0.031955704 -0.034290314 0.013667466 0.15456244 -0.85152197 -0.50101978 9.9481804e-06
0.034878481 -0.033658806 0.013496371 0.034320578 -0.89972186 -0.43511218 0.0041695256
0.038113132 -0.034254909 0.014108973 -0.32303908 -0.76294237 -0.55996835 0.022552395
0.040635679 -0.034681749 0.01299683 -0.53652686 -0.61946905 -0.57305938 0.026436782
0.060022324 -0.034314215 0.013095764 0.18522458 -0.65918106 -0.7288155 0.00050628697
0.060611725 -0.034328245 0.013290694 0.18533632 -0.65916038 -0.7288059 0.00051184127
0.061090067 -0.024720335 0.012669196 0.87804532 0.15674683 -0.45218006 0.0032444121
0.061263487 -0.022245755 0.013938634 0.91214705 0.14148055 -0.38466999 0.0012729401
0.042478979 -0.017671326 0.01215112 0.0027565795 0.20622489 -0.97850072 0.0038358013
0.059911802 -0.017956445 0.012271581 0.77038956 0.23756945 -0.59165937 0.012903431
0.060793653 -0.019246614 0.013441974 0.87614477 0.15957998 -0.45486769 0.0046018804
0.038930103 -0.015052551 0.01225818 0.28225353 0.26704711 -0.92142218 0.0020082959
0.040951338 -0.015868006 0.012478568 0.12210257 0.22561678 -0.96653402 0.0038049459
0.04371985 -0.015887355 0.012467191 -0.16217059 0.21310367 -0.96347684 0.0055383476
0.045856468 -0.014863991 0.012214629 -0.36998883 0.27695772 -0.88679349 0.0040821088
0.059652589 -0.015782528 0.012854347 0.78156072 0.23619102 -0.57738781 0.0062963599
0.060744166 -0.016051585 0.014269212 0.82740963 0.16761248 -0.53600311 0.0069090351
0.038338453 -0.012969923 0.012636391 0.29970518 0.25112459 -0.92038751 0.0011956354
0.040888924 -0.013202403 0.013192197 0.13251634 0.2580663 -0.9569959 0.0042361622
0.043975554 -0.013199861 0.013089869 -0.17720261 0.23564915 -0.95554626 0.005801117
0.046308428 -0.013044851 0.012509963 -0.37534156 0.23669301 -0.89615577 0.0019114814
0.057088651 -0.012053394 0.012167869 0.43387058 0.25748897 -0.86339784 0.0049980888
0.059114117 -0.013071582 0.013316134 0.67413503 0.25734803 -0.692325 0.0084258262
0.06083677 -0.014377602 0.014953373 0.8514396 0.1838979 -0.49115384 0.01198878
0.03563429 -0.0096465135 0.012516854 0.36216745 0.26937482 -0.89234072 1.711744e-05
0.038089748 -0.010108374 0.0133815 0.2963531 0.25647199 -0.91999841 0.0010715114
0.040966 -0.01012032 0.014035186 0.086748205 0.2698445 -0.95898831 0.0024853114
0.043829944 -0.010163716 0.013920989 -0.16620386 0.2514897 -0.95348269 0.0026487582
0.046743721 -0.0099917641 0.013054397 -0.35065773 0.23617381 -0.90623456 0.00082118408
0.048812076 -0.0091051916 0.012265882 -0.23947392 0.2458701 -0.93925512 0.0050130142
0.05642537 -0.009688382 0.012598479 0.40377462 0.25354308 -0.87902325 0.0049448763
0.058832821 -0.010205314 0.013925171 0.58637112 0.19560632 -0.7860707 0.0075568436
0.032569751 -0.0062495638 0.012374275 0.34170985 0.29177386 -0.8933658 1.1558048e-05
0.034792516 -0.007005827 0.013000617 0.34769344 0.28220907 -0.89412934 1.6764008e-05
0.037929155 -0.0069808196 0.014236297 0.27240273 0.27497301 -0.92205566 0.001471679
0.04098225 -0.0072415168 0.014801905 0.049841065 0.24780312 -0.96752751 0.0029200693
0.043897633 -0.0070719873 0.014689358 -0.19881248 0.20529991 -0.95829296 0.0042588953
0.046855077 -0.0070138862 0.013711972 -0.34081066 0.21824241 -0.91444975 0.00050541066
0.049755566 -0.0069032377 0.012567581 -0.20549089 0.27065331 -0.94048941 0.0049004676
0.053083021 -0.006667194 0.012415124 0.10428956 0.22935562 -0.96773946 0.0059912796
0.056082241 -0.0070069754 0.013099073 0.32532948 0.19162211 -0.92598146 0.0048538772
0.058568951 -0.0070919343 0.014359094 0.56831038 0.12414297 -0.8133952 0.0055396967
0.029946622 -0.0032517004 0.012375641 0.33258492 0.29895416 -0.89443481 2.1951406e-05
0.031898286 -0.0041434267 0.012804588 0.33740312 0.28959402 -0.89570886 1.7846578e-05
0.034747157 -0.0041955789 0.013865499 0.33729845 0.28253928 -0.89799857 6.3681793e-05
0.037377007 -0.004532855 0.014772477 0.26323032 0.2888009 -0.92049104 0.0018457929
0.044637877 -0.0049557653 0.015029628 -0.19930352 0.22498547 -0.9537608 0.0040955255
0.04691048 -0.004197699 0.014241459 -0.35340741 0.1608564 -0.92153591 0.0004298701
0.049887605 -0.0041919416 0.013094103 -0.22792314 0.16513644 -0.95957339 0.0049605928
0.052957173 -0.0041907942 0.012862425 0.062852405 0.14661919 -0.98719418 0.0053515187
0.056135595 -0.0041941833 0.013525141 0.32452103 0.081623539 -0.94235015 0.0055200309
0.058533181 -0.0041997931 0.01462708 0.50433636 0.033215322 -0.86286825 0.0045615854
0.026950799 -6.6217093e-05 0.012409645 0.30981064 0.31770355 -0.89614826 4.9250473e-05
0.029146221 -0.00096003932 0.012865271 0.31946003 0.30346256 -0.89769477 2.399907e-05
0.031923674 -0.0010935648 0.013815604 0.32709092 0.29100573 -0.8990702 2.4981975e-05
0.034511913 -0.0014286418 0.014650417 0.33196506 0.28032914 -0.90067464 5.4893255e-05
0.036536932 -0.0025056391 0.015073476 0.25518906 0.24101549 -0.93637073 0.0018051581
0.047238216 -0.0012195754 0.01448587 -0.37922928 0.094015501 -0.92051411 0.00060654408
0.049929403 -0.0010947506 0.013469096 -0.27521142 0.062148087 -0.95937282 0.0040875738
0.052706014 -0.0010954905 0.013119916 0.01096468 0.064123176 -0.99788177 0.0059472509
0.055856422 -0.0010948385 0.013545845 0.27975368 -0.037473094 -0.95934016 0.006770859
0.058639634 -0.00097996159 0.014576776 0.47239903 -0.072938807 -0.87836158 0.0064681144
0.023498077 0.0028934062 0.012317256 0.29427791 0.33575726 -0.89480031 2.1050331e-05
0.026033321 0.0020641109 0.012858795 0.29752097 0.32408291 -0.89802647 1.6350361e-05
0.029042169 0.0020515374 0.013864176 0.30801556 0.30646405 -0.90066981 2.2280134e-05
0.03174876 0.0017773794 0.014700927 0.31546146 0.29537979 -0.90179527 3.1606967e-05
0.033710398 0.00088741502 0.015085636 0.32094651 0.28966799 -0.90171266 6.2016727e-05
0.04750856 0.0020137695 0.014554026 -0.42307541 0.017309641 -0.90592915 0.00075006124
0.049939469 0.0020049962 0.013559999 -0.31147265 -0.020139173 -0.95004171 0.0040175859
0.052929264 0.0020391333 0.013038686 -0.066988178 -0.12031239 -0.99047339 0.0062788241
0.056035522 0.0019587048 0.013247302 0.13967785 -0.22469963 -0.96436512 0.0060404353
0.058987468 0.0020567901 0.0141415 0.37037 -0.25334871 -0.89366686 0.007530699
0.061013512 0.0029585173 0.014866538 0.54231703 -0.32232571 -0.77588552 0.0092975823
0.020579139 0.0056085726 0.012395155 0.28366166 0.35550731 -0.89059001 7.4331627e-05
0.022898296 0.0048597078 0.012851939 0.28268489 0.34446317 -0.89522868 4.7125774e-05
0.025716899 0.0048264083 0.013752 0.28904158 0.33097288 -0.89828277 7.4103678e-05
0.028615242 0.0046509691 0.01462337 0.29147226 0.32038197 -0.90133202 1.8937113e-05
0.030880358 0.0037144483 0.015049217 0.30361 0.30581948 -0.90238315 4.5445497e-05
0.047506392 0.0048375996 0.01453398 -0.47583777 -0.046348237 -0.87831098 0.0013572314
0.049918003 0.0048199482 0.013368322 -0.36862919 -0.11210776 -0.9227916 0.0052652857
0.052879103 0.0047697267 0.012615912 -0.099357724 -0.24434483 -0.96458471 0.0039895652
0.056017257 0.0045268494 0.012584221 0.11155675 -0.3334673 -0.93613821 0.0042720269
0.058889113 0.0048144395 0.013037672 0.27406639 -0.40465128 -0.87243623 0.0049436945
0.061617076 0.0050687203 0.014131606 0.50298387 -0.42393222 -0.75318563 0.0057998006
0.06367138 0.0059756101 0.015009193 0.58183491 -0.47948158 -0.65693653 0.0011634886
0.014954595 0.0093002683 0.012304483 0.24192461 0.55006301 -0.79931414 0.0015266687
0.017341087 0.0085904365 0.012644402 0.274634 0.46464086 -0.84183425 0.0025340875
0.020052688 0.0079153664 0.013179097 0.27186531 0.47022432 -0.83962983 0.0035645328
0.022873495 0.0078855082 0.014039636 0.2183229 0.47488108 -0.85253924 0.0037912175
0.025547368 0.0073501011 0.014626211 0.24174172 0.44638434 -0.8615694 0.0038562291
0.027768277 0.006541139 0.015015258 0.29651296 0.41681403 -0.85927075 0.0034903076
0.047431327 0.0079966486 0.014359785 -0.53207266 -0.1057791 -0.84006518 0.0012931254
0.049828373 0.0078597469 0.012913745 -0.38938299 -0.2073721 -0.89742845 0.0031171343
0.051862583 0.0068651396 0.012322116 -0.21253321 -0.28871837 -0.93352628 0.0040427321
0.059646782 0.0064917938 0.012390835 0.21214205 -0.46952525 -0.85705411 0.003424196
0.062117703 0.0073756198 0.012866648 0.39482772 -0.51668918 -0.75969958 0.0024936304
0.064495169 0.0081815133 0.013964286 0.56961793 -0.53590924 -0.62316662 0.003744832
0.066509731 0.0093699759 0.015085606 0.69271946 -0.49303707 -0.52635944 0.0024118349
-0.008649217 0.012108645 0.012249349 0.13535015 0.88740343 -0.44067618 5.0222116e-06
-0.0069711721 0.012125871 0.012799261 0.13626327 0.88691193 -0.44138378 3.6355248e-06
-0.0041608121 0.011854874 0.013123048 0.13640685 0.8859551 -0.443257 2.3537559e-06
-0.0010091964 0.011626794 0.013636701 0.136452 0.88594234 -0.44326869 1.9373463e-06
0.0020368642 0.011316304 0.013954047 0.10628277 0.9326669 -0.34472659 0.0047282958
0.004673928 0.011141466 0.014416484 0.12827219 0.93266207 -0.33717617 0.0031702432
0.0068464307 0.011061906 0.014926104 0.095868029 0.94539177 -0.31151846 0.0024048258
0.011587583 0.010429503 0.012492804 0.14348228 0.85983288 -0.49000043 0.031078022
0.013975374 0.010191527 0.012926066 0.27505252 0.83524632 -0.47614047 0.034651849
0.016850021 0.010157387 0.013770476 0.18794514 0.82478005 -0.53330529 0.03207377
0.019693609 0.010135171 0.014618943 0.098116137 0.8317157 -0.54646337 0.025723172
0.021831037 0.0099334633 0.015009163 0.23538773 0.56463373 -0.79106343 0.001813583
0.04705495 0.011101432 0.01412566 -0.56117338 -0.14264831 -0.81531346 0.00027621383
0.049273022 0.010794696 0.01262631 -0.52048355 -0.16236505 -0.83829266 0.0013514794
0.065571807 0.010505024 0.012970412 0.64927691 -0.50728482 -0.5666582 0.0019044052
0.067169681 0.011349062 0.014036236 0.68971741 -0.50375289 -0.52011806 0.0024059492
-0.018029885 0.014557736 0.012625722 0.58211911 0.55548209 -0.59378189 0.037186988
-0.015998522 0.014121237 0.013511332 0.31651708 0.71348923 -0.62510002 0.043998551
-0.013040333 0.013416857 0.013511738 0.15278445 0.82009822 -0.55144882 0.019496936
-0.010248759 0.013124097 0.01378602 0.12291585 0.84658128 -0.51787245 0.0096988827
-0.0072355345 0.012897637 0.014260516 0.13423362 0.88773072 -0.44035843 7.8418971e-06
-0.0044585429 0.012754659 0.014829209 0.13540268 0.88660318 -0.44226801 1.6876014e-06
0.045019656 0.015024728 0.015077112 -0.61019832 -0.096455827 -0.78635508 0.00032646541
0.046865948 0.013849447 0.013820425 -0.59395444 -0.11596798 -0.7960965 0.00019723408
0.048846483 0.013558717 0.012397364 -0.56471139 -0.13488753 -0.81419063 0.00053386192
0.068345986 0.013705426 0.013431061 0.7283709 -0.48178789 -0.48719227 0.00083954446
0.069824778 0.015006176 0.014583794 0.79127043 -0.44196108 -0.42256549 0.00020561303
-0.018686801 0.017582834 0.012935508 0.49666318 0.59582108 -0.63112831 0.0143065
-0.016225344 0.016353333 0.013738345 0.51668739 0.52457792 -0.67664778 0.039733388
-0.013783793 0.01558005 0.014815627 0.26915643 0.68582708 -0.67616272 0.048606005
0.045004893 0.016715029 0.014929859 -0.62396252 -0.058929354 -0.7792291 0.00020491554
0.046829596 0.01693644 0.013473609 -0.61257577 -0.076098137 -0.78674018 0.00017609505
0.048663523 0.015759034 0.012191875 -0.60058546 -0.10441022 -0.79271412 6.4291067e-05
0.068940148 0.015490464 0.012509583 0.72364473 -0.46787703 -0.50737512 0.0031877137
0.070484854 0.017039599 0.013687827 0.78334945 -0.43385231 -0.44512442 0.0011175378
-0.033940315 0.019135287 0.012295527 -0.25658581 0.75203657 -0.60712832 0.01796875
-0.031367 0.02020075 0.01300732 -0.10279399 0.79483306 -0.59805834 0.0053097284
-0.028066197 0.020561839 0.012726613 0.040987302 0.77260417 -0.63356358 0.0075306133
-0.024777832 0.020366428 0.013034685 0.23606534 0.75806969 -0.60795021 0.0072500007
-0.022190973 0.019750129 0.013376784 0.35603446 0.73818392 -0.5729956 0.0043457355
-0.019563908 0.019016763 0.014064847 0.41402584 0.72453636 -0.55102605 0.0050880569
0.044989526 0.019816861 0.014776595 -0.64405692 -0.023572085 -0.76461434 0.0001608435
0.046806924 0.020025168 0.01325758 -0.63147485 -0.044554774 -0.7741152 0.00023919357
0.071731053 0.019569287 0.013551496 0.81455135 -0.40487644 -0.41542891 0.00010606941
0.072605997 0.020640906 0.014316846 0.82106996 -0.39728597 -0.40988788 0.00026619638
0.044988412 0.022924483 0.014765469 -0.66970319 0.016653571 -0.74244207 0.00031329173
0.046541091 0.022849435 0.013404978 -0.65441638 0.0032043385 -0.7561276 8.8093038e-05
0.072343305 0.021685114 0.012692003 0.82152849 -0.39733076 -0.40892443 0.0002304635
0.073490128 0.023032412 0.01380443 0.83523661 -0.37837684 -0.39901218 0.00019118916
0.04499799 0.025755925 0.014861004 -0.6849407 0.053330027 -0.72664446 0.0004707363
0.046634074 0.025947504 0.013397422 -0.66952366 0.031049389 -0.74214154 0.0001655793
0.074480355 0.025673183 0.01351352 0.85627943 -0.34351933 -0.38572025 2.0514182e-05
0.075490631 0.026875099 0.01468551 0.86331803 -0.33911997 -0.37373745 7.5818651e-05
0.045013741 0.028027246 0.015018083 -0.72298127 0.090788618 -0.68487626 0.0021902807
0.046782222 0.028995952 0.013458123 -0.68604624 0.074631862 -0.72371995 0.00032827703
0.075196028 0.028169757 0.012931285 0.86688691 -0.3184675 -0.38351735 9.1593996e-05
0.076107234 0.029548928 0.013877321 0.87416506 -0.30647945 -0.37670374 4.429643e-05
0.046898603 0.031845003 0.013670908 -0.71103102 0.11233083 -0.69413006 0.00062791404
0.048659086 0.032893199 0.01215112 -0.67913091 0.08903268 -0.72859758 0.00017603542
0.076774113 0.031804703 0.013694013 0.88589245 -0.27794138 -0.37140712 0.00014301162
0.047252588 0.034798317 0.013782734 -0.72602046 0.13137044 -0.67500824 0.0014886608
0.048764683 0.035079584 0.012383497 -0.68022412 0.11762964 -0.72350425 0.00011753828
0.077650324 0.034774885 0.013695074 0.89842296 -0.22857858 -0.37495071 0.00016968817
0.047537666 0.037858423 0.014130263 -0.74033892 0.17688937 -0.64854336 0.0016662246
0.04899602 0.037995443 0.012663323 -0.68797261 0.14533864 -0.71103477 0.00024504142
0.078027643 0.037464127 0.013032256 0.90154153 -0.17268912 -0.39673838 0.00054108986
0.078846417 0.038722251 0.014490373 0.91707706 -0.14890881 -0.36985925 0.00065135997
0.047987822 0.040877502 0.01447271 -0.77997559 0.20941661 -0.5897311 0.0013142577
0.049376521 0.040903408 0.012928879 -0.69530272 0.17515524 -0.69704717 0.000303718
0.078658149 0.040878888 0.013417343 0.92458451 -0.055301502 -0.37694201 0.0012275468
0.048368663 0.042976152 0.014669178 -0.76540023 0.27943695 -0.57972187 0.0027151587
0.049831871 0.043887921 0.013380511 -0.70076257 0.25444382 -0.66647583 0.0010330161
0.051481485 0.045265529 0.012266127 -0.66325128 0.33502573 -0.66921997 0.00088408199
0.078606464 0.043666847 0.013122784 0.9218632 0.065257035 -0.3819814 0.0017431478
0.050463367 0.04667443 0.014208855 -0.69805127 0.43937364 -0.56539834 0.0013110979
0.052069098 0.047348227 0.012891656 -0.67139119 0.4247357 -0.60731661 0.0027673771
0.078089722 0.047637943 0.013388611 0.85646415 0.26563492 -0.44261411 0.0029954477
0.078779012 0.045741562 0.014106212 0.92460048 0.11693358 -0.36254737 0.0031016059
0.05311954 0.049793728 0.013767192 -0.64957684 0.53156745 -0.54358625 0.0022342475
0.054907665 0.050797231 0.012711747 -0.61446166 0.5442965 -0.57112002 0.00094576622
0.077323094 0.049906448 0.013517074 0.84533405 0.38758343 -0.36768118 0.0036525286
0.054029211 0.051743943 0.014758227 -0.59307814 0.63683069 -0.49265108 0.0023283546
0.055981934 0.052600164 0.013659708 -0.56648463 0.65239501 -0.50346392 0.0022023034
0.058387317 0.053855091 0.012648986 -0.47748896 0.70937312 -0.51845354 0.0021650093
0.074634977 0.053778727 0.01294109 0.62983084 0.60246527 -0.49025369 0.0053369906
0.076150738 0.052167509 0.013580171 0.75867647 0.49698588 -0.42120668 0.0038291896
0.059067752 0.055143017 0.014013473 -0.47740707 0.74077219 -0.47258762 0.0011164468
0.061861731 0.056338478 0.013506781 -0.33991802 0.82026368 -0.46002528 0.0022466097
0.064661674 0.05703108 0.013061384 -0.16700359 0.86381561 -0.47532347 0.0032539919
0.067858361 0.057135876 0.012790034 0.087996192 0.8563714 -0.50880712 0.0037883187
0.071037561 0.056492999 0.013129897 0.359005 0.79393613 -0.49069422 0.0057940828
0.073710285 0.055340718 0.014160676 0.56085277 0.73121685 -0.38828614 0.0058438517
0.065590218 0.057939008 0.014600335 -0.10952591 0.92630213 -0.36051112 0.0056733908
0.068107001 0.057916064 0.014427654 0.065325461 0.90032583 -0.43028575 0.0044108601
0.071006574 0.057415295 0.014913348 0.25022653 0.86650467 -0.43192166 0.0086828228
0.050706793 -0.044944789 0.015360899 0.10071956 -0.9214741 -0.3751547 0.0020314849
0.052497149 -0.045020543 0.016156215 0.13851576 -0.92988509 -0.34077418 0.001365335
-0.00078603171 -0.04272351 0.015827743 0.2556214 -0.6157918 -0.74529058 0.013951461
0.0031743443 -0.042105954 0.015253125 0.21771036 -0.5363906 -0.8154062 0.016624358
0.0051217414 -0.041999236 0.015873848 0.1583304 -0.83244061 -0.53101236 0.040770918
0.0077256495 -0.041949701 0.016686333 0.27894658 -0.31780916 -0.9061932 0.0032681122
0.010741482 -0.042009078 0.017650936 0.15721014 -0.85492051 -0.49436405 0.030206311
0.041472152 -0.042640351 0.016481325 -0.58841801 -0.6462788 -0.48588875 0.021544319
0.053847451 -0.044401485 0.015600754 0.18119359 -0.92552626 -0.33252072 0.0015271672
0.05592709 -0.044249032 0.016390823 0.20408668 -0.92127854 -0.33105043 0.0015651506
0.057753511 -0.043999311 0.017368792 0.46130314 -0.45294622 -0.76291496 0.021164361
0.0029856039 -0.040594943 0.015224833 0.21770945 -0.53647161 -0.81535316 0.016612874
0.00474675 -0.040929653 0.015742769 0.15833241 -0.83241302 -0.53105497 0.040791165
0.007719568 -0.040501621 0.016337954 0.068536647 -0.86382025 -0.4991166 0.020219596
0.01086375 -0.040588886 0.017362947 0.1572032 -0.85492474 -0.49435905 0.030217819
0.013435761 -0.04006182 0.017858107 0.15551791 -0.85389376 -0.49666849 0.03001545
0.017603252 -0.03928386 0.01533152 0.12747832 -0.90775335 -0.39966619 0.001615953
0.020012055 -0.03916721 0.015876086 0.22489268 -0.87783146 -0.42288902 0.0040779547
0.022155173 -0.038759846 0.015844746 0.3017675 -0.87227505 -0.38480201 0.0037397011
0.039040565 -0.040062677 0.01786804 -0.75959873 -0.35102439 -0.54753238 0.0036399616
0.040176488 -0.040033847 0.016261468 -0.74878848 -0.33719262 -0.57062858 0.0050055403
0.023963457 -0.037647583 0.01611024 0.3456172 -0.84906906 -0.39953783 0.0042954907
0.025880851 -0.037120271 0.016603958 0.28073081 -0.82065034 -0.49771792 0.0065885405
0.028904807 -0.036550172 0.016567934 0.15452865 -0.85156399 -0.50095892 8.1978214e-06
0.031871371 -0.036303449 0.017062986 0.1496816 -0.85051334 -0.50420487 4.061389e-05
0.035039634 -0.036061808 0.017630009 -0.00054601545 -0.86139411 -0.50793701 0.018219227
0.038375758 -0.036829103 0.016748905 -0.52230096 -0.54263347 -0.65783793 0.031223388
0.039894648 -0.037465956 0.015955307 -0.71506149 -0.39079311 -0.57962739 0.012588897
0.060341939 -0.037032064 0.015479116 0.7139855 -0.43366924 -0.54968691 0.0010348212
0.060407542 -0.037636694 0.015968321 0.70508242 -0.4318496 -0.56246316 0.0007834502
0.032331757 -0.035340685 0.01556862 0.15456766 -0.85153711 -0.50099236 1.5513075e-05
0.035041466 -0.035123713 0.016036091 0.011163067 -0.85599017 -0.51687151 0.014278205
0.037420131 -0.034902878 0.016348245 -0.28970903 -0.7836163 -0.54955822 0.015138431
0.061497137 -0.018642953 0.015648982 0.93573904 0.089524679 -0.34114185 0.0011319902
0.061605625 -0.016119873 0.016443131 0.9220497 0.06126238 -0.38219279 0.0026602999
0.06138318 -0.013001047 0.016471831 0.87069625 0.11838431 -0.47736081 0.0072733308
0.060330458 -0.0095794583 0.015393501 0.67385787 0.13640173 -0.72616124 0.0062445742
0.061344169 -0.010041474 0.016792562 0.82293797 0.04835752 -0.56606948 0.0066112056
0.04135403 -0.0058995611 0.015186368 0.056572746 0.23085003 -0.97134322 0.0054545491
0.042765886 -0.0058993637 0.015163301 -0.19883762 0.205302 -0.95828742 0.0042576203
0.06006676 -0.0070348233 0.015536455 0.61674386 0.071151994 -0.78394151 0.0068373531
0.061321214 -0.0069482536 0.017003242 0.80177408 0.0081419013 -0.59757179 0.0062715239
0.038566094 -0.0038433005 0.015355114 0.22313641 0.25799114 -0.940027 0.0020382737
0.04098079 -0.004141375 0.015573332 0.038389742 0.23813964 -0.97047192 0.0048537217
0.043682549 -0.0039653559 0.015407609 -0.20154138 0.16927509 -0.96474195 0.0027546028
0.059771996 -0.0042039724 0.015449474 0.56722248 -0.014313789 -0.82344025 0.0053652721
0.061068214 -0.0042101662 0.016658893 0.72067356 -0.043239277 -0.69192481 0.0041738395
0.035556149 -0.0003052392 0.01538185 0.31549734 0.278514 -0.90713364 9.5215721e-05
0.037778474 -0.0010409278 0.015920436 0.2285136 0.26153141 -0.93775415 0.0018114704
0.040887963 -0.0010891528 0.016282966 0.010502485 0.21426965 -0.97671813 0.0061626937
0.043962199 -0.0010901748 0.015833231 -0.24810259 0.14774522 -0.95740092 0.0030978373
0.045767028 -0.00056614436 0.015276762 -0.36759964 0.11413752 -0.92295355 0.00074042066
0.060119435 -0.0013176769 0.015507577 0.65574729 -0.1303193 -0.74364799 0.0055081281
0.061783209 -0.00097521488 0.016906355 0.6913057 -0.20414621 -0.69312394 0.0072026793
0.032789323 0.0027755213 0.015377892 0.30697644 0.29117349 -0.90608138 6.6462395e-05
0.034952242 0.0020731364 0.015898546 0.30680242 0.28178993 -0.90910208 5.6651083e-05
0.03781341 0.0020338777 0.016802123 0.18455569 0.25254595 -0.94982094 0.0037124637
0.040948991 0.0020351138 0.016956534 -0.13672847 0.19810969 -0.97059667 0.0073522539
0.044000056 0.0020285312 0.016221704 -0.31967938 0.11978582 -0.93992364 0.0036162559
0.045899648 0.0020211174 0.015388759 -0.41583619 0.057940923 -0.90759194 0.00097844761
0.060298771 0.00088783226 0.015157221 0.59521157 -0.29975462 -0.7455672 0.0056335921
0.062036239 0.0019328537 0.016132375 0.59397751 -0.30043423 -0.74627739 0.0053772796
0.063707463 0.002382213 0.017673008 0.71198052 -0.31760907 -0.62626529 0.0037464914
0.029960915 0.0056051272 0.015392277 0.2955668 0.30926484 -0.90387803 3.951446e-05
0.032116015 0.0049050362 0.015848808 0.29715484 0.29643512 -0.90764821 3.8954808e-05
0.034972828 0.0048717288 0.016770631 0.28558561 0.29535711 -0.91170448 0.00020281201
0.037880454 0.0048841638 0.01760146 0.079119191 0.23358524 -0.96911204 0.0054311408
0.040950861 0.004843602 0.017518679 -0.17956036 0.21005204 -0.96105993 0.0085070077
0.043961097 0.0049109333 0.016495246 -0.40182534 0.084039345 -0.91185188 0.003782433
0.045907691 0.0048516849 0.015467646 -0.47447518 0.0093084443 -0.8802197 0.0012573885
0.062817372 0.0040992233 0.01564062 0.61561614 -0.42366141 -0.66447568 0.0012034081
0.0645364 0.0050020525 0.016797602 0.68756402 -0.43726221 -0.57970464 0.0039210054
0.024102423 0.0093726134 0.015190003 0.252175 0.53241807 -0.80804628 0.0026235182
0.026148027 0.0088619562 0.015508596 0.25914076 0.46369961 -0.84724772 0.0039893007
0.02892933 0.007711194 0.015815612 0.28127703 0.45048913 -0.84731501 0.0052485308
0.032010399 0.0077734892 0.016796075 0.27015373 0.45790201 -0.84696084 0.0055043027
0.034901552 0.0075377831 0.01759826 0.25007612 0.3827354 -0.88936806 0.0036668954
0.03720317 0.0067397566 0.018010845 0.049415499 0.34254882 -0.93819958 0.0079325354
0.041365061 0.0074011711 0.017881518 -0.21140635 0.18800123 -0.95914698 0.00820316
0.043812361 0.0077636754 0.016743559 -0.46286017 0.020382486 -0.88619697 0.0034161869
0.045877736 0.007835025 0.015426274 -0.52934742 -0.056618094 -0.84651393 0.0010415328
0.065666154 0.0071926289 0.016193196 0.69496715 -0.50823241 -0.50864571 0.00097558828
0.067042895 0.0085602617 0.016770793 0.72497994 -0.49810442 -0.47570589 0.0010073477
0.00034570158 0.012201152 0.015202163 0.1364831 0.88594502 -0.44325367 1.0944502e-06
0.0020459236 0.012218651 0.015760528 0.13614599 0.8877039 -0.43982521 9.4815141e-06
0.005008338 0.011980738 0.016197497 0.13648131 0.88597953 -0.44318515 1.0574832e-06
0.0078555103 0.011767107 0.016646931 0.13644381 0.88598686 -0.44318196 0
0.010850914 0.011401241 0.016837645 0.092038393 0.93990791 -0.32878882 0.0042023528
0.01380085 0.011228109 0.017400417 0.11527835 0.94128782 -0.31731382 0.0034816193
0.015998151 0.011148109 0.017916797 0.080435283 0.94523096 -0.31633642 0.0023932958
0.020720102 0.010510621 0.015434612 0.14575683 0.86381626 -0.48226178 0.030011462
0.023131967 0.010270922 0.015864426 0.26205418 0.84299654 -0.46977064 0.035339758
0.02588742 0.010262267 0.016709821 0.20132563 0.829225 -0.5213961 0.032269474
0.028622009 0.0099029262 0.017152088 0.24693307 0.5447095 -0.8014459 0.002555799
0.031632558 0.0095778601 0.017704049 0.22204188 0.51665592 -0.8269003 0.003426759
0.041745581 0.011147443 0.017893659 -0.52591795 -0.0027609649 -0.85053092 0.0030010196
0.043707944 0.010865412 0.016558332 -0.54935539 -0.046890717 -0.83427209 0.0016271863
0.045604955 0.01050604 0.015272198 -0.57131565 -0.10651219 -0.81378973 0.00020425912
0.068324283 0.010746861 0.016542181 0.75875622 -0.47736669 -0.44318175 7.561806e-05
0.069729283 0.011992573 0.017628653 0.7771706 -0.4610025 -0.42834869 0.00017065635
-0.015224563 0.015046551 0.015657766 0.37190995 0.59137142 -0.71551579 0.039630391
-0.013243178 0.014481059 0.015677784 0.20988862 0.66305274 -0.71854562 0.030318459
-0.0099151395 0.01427587 0.016262783 0.21049435 0.70807171 -0.67403746 0.019459639
-0.0069814352 0.013994477 0.016576868 0.20904735 0.86725634 -0.45184672 0.042982902
-0.0040885434 0.013586894 0.016606789 0.20564699 0.7932272 -0.5731492 0.019639561
-0.0012333785 0.013223644 0.01675923 0.12028164 0.85351914 -0.50698858 0.0084992312
0.0018093542 0.012995842 0.017241174 0.13075438 0.8902992 -0.43620011 3.3757526e-05
0.0046162577 0.012852079 0.01781862 0.13454412 0.88715327 -0.44142592 1.237254e-05
0.041861866 0.013982787 0.017616546 -0.6169759 -0.037856624 -0.78607088 0.00073604
0.043933753 0.013879939 0.016031001 -0.60342181 -0.076754913 -0.79371959 0.00040490844
0.0703137 0.013948048 0.016631501 0.78395724 -0.45350292 -0.4239648 5.1481587e-05
-0.015708679 0.017326718 0.016023634 0.51634675 0.58478647 -0.62562841 0.034975037
-0.01305163 0.015797185 0.01554336 0.31433439 0.58058041 -0.75107944 0.043419603
-0.010139474 0.015632916 0.016176237 0.2104912 0.70808905 -0.67402023 0.019459963
-0.0070384862 0.015675703 0.017277537 0.088518254 0.97022939 -0.22543178 0.057683211
-0.0050574755 0.015702842 0.01797582 -0.060751475 0.97857153 -0.19674106 0.058090534
0.041851494 0.01682156 0.017504668 -0.64562136 -0.010264765 -0.76358873 0.00075778156
0.043695714 0.016759666 0.016008727 -0.63280731 -0.037071362 -0.77342135 0.00012011736
0.07140664 0.016297186 0.016247053 0.80883771 -0.42464131 -0.40676939 0.00013216447
0.072474129 0.017652942 0.017013935 0.82863063 -0.39828926 -0.39336616 0.00018061891
-0.021456216 0.020428626 0.015716938 0.36563522 0.76189673 -0.53462529 0.0045433384
-0.018893149 0.019279419 0.015364273 0.44526449 0.73535353 -0.51087654 0.0043694102
-0.017220421 0.018460428 0.016024379 0.50670278 0.75586379 -0.41463518 0.020204315
0.041879881 0.019862307 0.01745077 -0.68791467 0.038316611 -0.72477949 0.0016599495
0.043684464 0.019870736 0.015892938 -0.65538025 -0.0032667981 -0.75529206 0.00029595543
0.07228139 0.018450877 0.015812455 0.8142311 -0.41447806 -0.40649185 0.00018924888
0.073488794 0.020127704 0.016655911 0.84121317 -0.38371038 -0.38095492 7.550812e-05
0.042058598 0.022920595 0.017507738 -0.72888547 0.093040019 -0.67828429 0.0023205217
0.043688435 0.022988977 0.015934199 -0.6835587 0.039549891 -0.72882324 0.0006054262
0.074566461 0.022772038 0.016417749 0.85235971 -0.36714998 -0.37240297 0.00015106078
0.075405605 0.023647463 0.01756501 0.86396831 -0.35423067 -0.35788167 0.00010412581
0.041899458 0.024811393 0.018018214 -0.80064046 0.15878595 -0.57772118 0.0047335234
0.043451753 0.025852023 0.01642417 -0.75283265 0.10181472 -0.65028977 0.0023202493
0.075115912 0.024682289 0.015827058 0.86477894 -0.34608963 -0.36383972 5.3130687e-05
0.076048367 0.025973709 0.016878713 0.87640804 -0.33157304 -0.3492395 9.2105009e-05
0.043883335 0.028846649 0.016430549 -0.77381563 0.16859283 -0.61056179 0.0027067317
0.076824047 0.028594151 0.016430158 0.88569844 -0.30569687 -0.34941047 3.9167404e-05
0.044255838 0.031830274 0.016733931 -0.81443757 0.17911516 -0.5519141 0.0033690531
0.045600556 0.033132348 0.015228866 -0.73594135 0.13158143 -0.66413605 0.0010086597
0.077845037 0.031799022 0.016323838 0.89408278 -0.28151006 -0.34837914 8.8135886e-05
0.078857273 0.033331726 0.017794577 0.91314572 -0.24735409 -0.32400748 0.00034346478
0.044786394 0.034832206 0.017003488 -0.84085035 0.22325008 -0.49308214 0.0029779612
0.045732174 0.035048261 0.015596606 -0.7658996 0.1734276 -0.61912894 0.0020044984
0.078978308 0.034962285 0.016857676 0.91148305 -0.22995198 -0.34105816 0.00030739902
0.045159049 0.037411366 0.017602919 -0.86217493 0.25605297 -0.43713984 0.0019776432
0.046162263 0.03799092 0.016043132 -0.84957623 0.22076109 -0.47904572 0.0038622853
0.079418279 0.037766315 0.016453438 0.92384297 -0.17107917 -0.34241208 0.00061395444
0.046690643 0.040893361 0.016544441 -0.86903006 0.25870049 -0.42173541 0.0026877383
0.079773851 0.040892769 0.016542681 0.94616616 -0.019272644 -0.323107 0.0016887236
0.047457684 0.043792348 0.016757563 -0.87350452 0.2976808 -0.38519627 0.0021804892
0.04845446 0.044753451 0.015465243 -0.81598049 0.33108741 -0.47387439 0.0034775243
0.07986524 0.043498926 0.017059851 0.9536466 0.017892737 -0.30039638 0.0018497682
0.048083782 0.046079632 0.017298533 -0.82036573 0.40876806 -0.39988601 0.0041113715
0.049154554 0.046955597 0.016299585 -0.76613861 0.46089223 -0.44789502 0.0047420394
0.079025663 0.046739329 0.015511958 0.91714889 0.1519548 -0.36843938 0.0043046367
0.05058809 0.049230222 0.016603908 -0.70576936 0.54593128 -0.45149601 0.0015867664
0.05210029 0.050785635 0.016233476 -0.6750676 0.59905124 -0.43060586 0.0037470986
0.053383671 0.052357949 0.01673702 -0.62650198 0.6807763 -0.37952447 0.002339229
0.055276867 0.05380068 0.016381947 -0.57561666 0.72894055 -0.37055513 0.0013617069
0.075701162 0.054150838 0.015939085 0.66115576 0.62537819 -0.41445762 0.0085840002
0.056661643 0.05494206 0.016598983 -0.53423715 0.76414317 -0.36149123 0.0023496768
0.058694914 0.056093145 0.016354151 -0.46594298 0.81408578 -0.34664318 0.0017195616
0.06068448 0.056981612 0.015923081 -0.3867642 0.84733093 -0.36392829 0.0032684363
0.062290356 0.057828415 0.016613755 -0.29005 0.92070717 -0.26109254 0.0025596593
0.064805128 0.058358245 0.016329605 -0.18036956 0.91481185 -0.36136699 0.0028275542
0.067058027 0.05880874 0.016873507 -0.019000195 0.94362557 -0.33046916 0.0067730346
0.07001932 0.058103118 0.015835611 0.20967558 0.930291 -0.30098954 0.01382955
0.043517552 -0.044820201 0.020055233 -0.1397474 -0.87847596 -0.4568924 0.009405327
0.012310854 -0.042380463 0.018338023 0.30138099 -0.30832455 -0.90227795 0.00045768882
0.014037352 -0.042144328 0.018887121 0.14984308 -0.85125726 -0.50289959 0.029960627
0.016931321 -0.042244539 0.020019425 0.16696469 -0.81630558 -0.55296308 0.022800095
0.019808564 -0.041996066 0.02044897 0.25997901 -0.82816184 -0.49654683 0.01376556
0.038754683 -0.042916812 0.020072332 -0.66768605 -0.54070336 -0.51169837 0.02039944
0.040356595 -0.043086961 0.01870276 -0.53727084 -0.65723205 -0.5285697 0.022986567
0.058436513 -0.044081669 0.018256841 0.46130335 -0.45294985 -0.76291257 0.021162348
0.014168309 -0.040830288 0.018527029 0.14985369 -0.85126048 -0.50289106 0.029964214
0.016905433 -0.040756699 0.019334082 0.077171586 -0.86063117 -0.50334728 0.017660404
0.019802907 -0.040840629 0.020319883 0.24407956 -0.85996336 -0.44820556 0.017670212
0.023040155 -0.03954564 0.019873472 0.315117 -0.8435843 -0.43481812 0.010769818
0.025847297 -0.03928424 0.020272998 0.16601157 -0.85410762 -0.49288982 0.00021519502
0.028417917 -0.039169144 0.020868845 0.15014456 -0.87333703 -0.46339947 0.00035665915
0.031861484 -0.038604628 0.020971714 0.11791892 -0.86275512 -0.49167955 0.0022617609
0.037827171 -0.040051546 0.019627919 -0.73646396 -0.40444034 -0.54226273 0.019311499
0.024267765 -0.038386967 0.018258033 0.31322575 -0.84428102 -0.4348323 0.0055259215
0.026195424 -0.038332421 0.018761022 0.17578694 -0.86526382 -0.46948639 0.0010814521
0.028893981 -0.038189545 0.019350694 0.15465197 -0.85549521 -0.49417681 4.1697644e-05
0.031749371 -0.037687227 0.019378811 0.14947075 -0.85195768 -0.50182331 2.1367428e-05
0.03495159 -0.037398018 0.019720059 -0.10083327 -0.85307491 -0.511953 0.050495803
0.037368283 -0.037610732 0.018919414 -0.60997015 -0.56617653 -0.55441916 0.038556192
0.062725574 -0.023971209 0.020452498 0.96147484 -0.064568266 -0.26720253 0.00091904547
0.062562421 -0.021916777 0.019269077 0.96633118 -0.034796823 -0.25493765 0.00078146608
0.062517241 -0.019050207 0.018941341 0.9524107 -0.033497006 -0.30297187 0.0004367147
0.062510103 -0.016197046 0.01888952 0.93871379 0.016991867 -0.3442786 0.00098716177
0.062948219 -0.013087432 0.019989781 0.91744077 0.0039586131 -0.39785269 0.00094340841
0.06294705 -0.0099431118 0.019982088 0.88795924 -0.01216979 -0.45976102 0.0015191714
0.062906034 -0.0070817904 0.019686455 0.86198419 -0.055006199 -0.50394195 0.0015727578
0.062819391 -0.004222495 0.019061172 0.83669198 -0.12102298 -0.53413469 0.0012165781
0.063916907 -0.0039447411 0.020786365 0.83409441 -0.15354545 -0.52982092 0.0010020428
0.063053899 -0.0016555091 0.018699227 0.77557951 -0.22222371 -0.59084105 0.0039591207
0.06414298 -0.00084495172 0.020018246 0.80495566 -0.23665576 -0.54409587 0.0013489922
0.064945064 0.0020178903 0.01967486 0.78702956 -0.33605886 -0.51734793 0.0011444035
0.065765113 0.004429535 0.01905062 0.73180753 -0.4385958 -0.52162391 0.0014368558
0.067025423 0.0054199137 0.0200195 0.75511068 -0.42622888 -0.49813312 0.00046612881
0.035808757 0.0087403161 0.018370418 0.20791979 0.42170057 -0.88257462 0.0051181493
0.038091552 0.0079365633 0.018502856 -0.015490952 0.32618445 -0.94517922 0.014429608
0.040221468 0.0080499267 0.018351391 -0.25867602 0.24388304 -0.93466991 0.01365311
0.068113558 0.0077195428 0.019490659 0.75136596 -0.46530691 -0.46790877 0.0001578181
0.069638826 0.008939526 0.020756362 0.78333259 -0.4467794 -0.43217841 0.00014632219
0.010895639 0.012309737 0.018667419 0.13566136 0.88271272 -0.44990471 5.0591527e-05
0.014173774 0.012073281 0.019204201 0.11821935 0.85200423 -0.51001281 0.0016204253
0.017049095 0.011858357 0.019660598 0.13640404 0.83621758 -0.53116286 0.0020491399
0.019778233 0.011487285 0.019759191 0.13606578 0.89747798 -0.41954672 0.011802878
0.022743473 0.011298507 0.020295227 0.14280286 0.90861762 -0.3924557 0.0096090622
0.025272075 0.01123549 0.02094811 0.12336055 0.90241814 -0.41282412 0.01357584
0.029683691 0.010590895 0.018346069 0.13032411 0.88582492 -0.44534227 0.028518938
0.031919748 0.010388541 0.018753501 0.20226423 0.82605696 -0.52604097 0.030600971
0.034880191 0.010045686 0.019253349 0.22135821 0.70716602 -0.67150342 0.037170768
0.038093422 0.010831987 0.019911975 -0.29966515 0.38345134 -0.87359369 0.05057453
0.040459886 0.010782422 0.01870531 -0.48420224 0.12147482 -0.86648262 0.011132499
0.069025807 0.010028056 0.018611608 0.76625293 -0.46718436 -0.44112945 0.00019484323
0.070349135 0.011087723 0.019794367 0.78158295 -0.45998394 -0.42135844 0.00012996751
-0.014257634 0.015248924 0.021040244 -0.10934307 -0.99366409 -0.025994111 0.035385605
-0.0093813352 0.015237214 0.020728646 0.014104174 0.99658406 -0.081371084 0.019605951
-0.007226903 0.015073082 0.020149207 -0.042707454 0.99566239 -0.082658812 0.028494682
-0.0042104754 0.014594246 0.018791996 0.06411349 0.98989475 -0.12648213 0.056791462
-0.00084779272 0.014388521 0.019403575 0.098221019 0.92511642 -0.36675915 0.045516185
0.0020630185 0.013988614 0.019386807 0.24895021 0.86683232 -0.43200162 0.021843007
0.0050247246 0.013690233 0.01961956 0.20542049 0.82860774 -0.52077991 0.015430645
0.0076358058 0.013343619 0.019731082 0.13611399 0.83774251 -0.52882934 0.012204622
0.010646866 0.013120993 0.020212671 0.12478381 0.82248104 -0.55493599 0.010698905
0.013812147 0.012950747 0.020847006 0.095991887 0.85443276 -0.51061755 0.0015278279
0.038676552 0.01407635 0.020278346 -0.67059439 0.11900195 -0.73221695 0.0068078567
0.040265899 0.014026214 0.018853748 -0.64900076 0.036647037 -0.75990456 0.005436888
0.071717367 0.013902625 0.019413041 0.8077541 -0.43195552 -0.40118304 0.00014107813
0.072803304 0.014669075 0.020850955 0.82940066 -0.41012767 -0.37932816 0.00028678917
-0.0036384414 0.015722986 0.018494524 0.17711306 0.95309567 -0.24543729 0.061729085
-0.0010756712 0.015760226 0.019453121 0.12454174 0.95415163 -0.27218404 0.050439347
0.0020699685 0.015802881 0.02055084 0.10327563 0.96798956 -0.22875832 0.044729829
0.038889866 0.016834836 0.020338818 -0.75451773 0.112826 -0.64650857 0.0038432279
0.040266301 0.016877672 0.018858949 -0.6823281 0.036420505 -0.73013818 0.0018750221
0.072093852 0.015711283 0.018192826 0.8065806 -0.43019843 -0.40540975 0.0001575458
0.07329762 0.016974 0.019475741 0.83734632 -0.39459297 -0.37834847 3.9964703e-05
0.039115701 0.019567851 0.020629868 -0.80521667 0.15615813 -0.57204974 0.0029472902
0.040288694 0.019741034 0.019111784 -0.77930391 0.087981015 -0.62043911 0.0032383034
0.074606881 0.019765509 0.019623622 0.85739213 -0.36764103 -0.36016494 0.00024535626
0.039308205 0.021547606 0.020962982 -0.81459844 0.20382617 -0.54303259 0.0031866045
0.040599756 0.022895046 0.019405326 -0.82619631 0.15146583 -0.54263961 0.003189466
0.07506644 0.021444282 0.018951951 0.86424333 -0.3617619 -0.34958801 0.00010577531
0.076035112 0.023192104 0.019627277 0.87502521 -0.34703106 -0.3374913 4.0396728e-05
0.041229356 0.026006956 0.019497002 -0.85213512 0.20502479 -0.48148799 0.0034347416
0.077216886 0.026062461 0.019858781 0.88829583 -0.3227081 -0.3267872 0
0.041725643 0.028690943 0.01984613 -0.876499 0.24203865 -0.41613314 0.0028989166
0.042513009 0.029112795 0.018490253 -0.86270529 0.19752027 -0.4655377 0.0029653383
0.077882759 0.0284323 0.019409196 0.89418167 -0.30623007 -0.32659182 7.7473895e-05
0.07875929 0.029822988 0.020517362 0.90240431 -0.29254967 -0.31635606 0.00019944475
0.042144198 0.031264573 0.020657159 -0.90659606 0.29740658 -0.29938751 0.0045065954
0.042924903 0.032017022 0.019233985 -0.88917971 0.25311306 -0.38117343 0.004041879
0.078398772 0.031102514 0.018432884 0.90530717 -0.27799043 -0.32115451 0.0001077228
0.078993618 0.031885773 0.019396311 0.91623658 -0.26320279 -0.30205101 0.00021650041
0.043614808 0.034803167 0.019588165 -0.89382136 0.27846363 -0.35148457 0.0032784122
0.080037996 0.034873374 0.019977299 0.92205608 -0.23688968 -0.30609787 0.00020409067
0.044556033 0.037809893 0.019575888 -0.91343844 0.28034332 -0.29502192 0.0022431833
0.080180548 0.037404384 0.018844126 0.93168944 -0.18938376 -0.30998161 0.00088156055
0.045184307 0.039752338 0.019572942 -0.91647118 0.28993785 -0.27571106 0.0026102101
0.045723706 0.041150346 0.01925673 -0.91582388 0.29021004 -0.27756938 0.0024053918
0.046539903 0.043840975 0.019662723 -0.91281492 0.30902719 -0.26696652 0.0015255756
0.047716383 0.04656725 0.019209707 -0.83633465 0.46021435 -0.2979044 0.0033861424
0.048809126 0.048229147 0.018755792 -0.80691606 0.4974494 -0.31848162 0.0045966241
0.049905244 0.049802203 0.019223027 -0.74247664 0.60439199 -0.28885758 0.0016706146
0.052859418 0.052851453 0.019259635 -0.66404098 0.68837017 -0.29188374 0.0012358191
0.055829626 0.055059593 0.018669901 -0.55336142 0.76208836 -0.33617336 0.0024205232
0.058576167 0.05685598 0.019338636 -0.4962337 0.81234753 -0.30633891 0.0029214295
0.06585747 0.059010599 0.018378673 -0.123625 0.93381482 -0.33571818 0.0060710404
0.038592853 -0.04511717 0.021990089 -0.62521297 -0.67863983 -0.38543057 0.025954388
0.041121893 -0.0454969 0.022014093 -0.26555935 -0.82603115 -0.49714261 0.013081314
0.044049125 -0.045921508 0.022592831 -0.056154396 -0.90192813 -0.42821983 0.0036107383
0.046692699 -0.046287406 0.023406362 0.014642745 -0.92502517 -0.37962344 0.0027472307
0.049082365 -0.046340991 0.023965193 0.1049898 -0.88834178 -0.4470191 0.0047927005
0.019592587 -0.042712361 0.022067999 0.26845264 -0.64702845 -0.71364379 0.0068923975
0.022332491 -0.042016108 0.022316022 0.29428089 -0.78106755 -0.55075604 0.0054940437
0.036103543 -0.042011414 0.023908494 -0.70008242 -0.53177297 -0.4765524 0.033094365
0.03772239 -0.043269604 0.021879004 -0.69069791 -0.55025715 -0.4692052 0.025314467
0.04019751 -0.044364106 0.021301998 -0.26559857 -0.82602668 -0.49712908 0.013069442
0.022476532 -0.040829681 0.021687394 0.28171679 -0.79672128 -0.53466898 0.0070276028
