# .PCD v0.7 - Point Cloud Data file format
VERSION 0.7
FIELDS x y z normal_x normal_y normal_z curvature
SIZE 4 4 4 4 4 4 4
TYPE F F F F F F F
COUNT 1 1 1 1 1 1 1
WIDTH 550
HEIGHT 1
VIEWPOINT 0 0 0 1 0 0 0
POINTS 550
DATA ascii
0.03239169 -0.00032914511 -0.013592777 0.46038309 -0.13561988 -0.87729967 0.020513499
0.034389779 -6.3071959e-05 -0.012323192 0.55771607 -0.20855704 -0.8034032 0.019136449
-0.036329068 0.0028699965 -0.0113231 -0.67823577 0.055736173 -0.73272765 0.027996272
-0.034520742 0.002734598 -0.012276564 -0.48203138 0.17495149 -0.85850894 0.025239164
-0.031572122 0.0027697908 -0.013125981 -0.29231793 0.29067481 -0.91107547 0.007985319
-0.028468411 0.003186621 -0.013434394 -0.093758188 0.44813713 -0.88903457 0.0026332971
-0.025436496 0.0035275214 -0.01308672 -0.031626578 0.46745256 -0.88345224 0.0018636228
-0.022441318 0.0034709962 -0.013243395 0.04805873 0.46611166 -0.88341969 0.0019620501
-0.01917962 0.0029605029 -0.013425492 0.1647906 0.39900145 -0.90202099 0.0059280111
-0.016424416 0.0027325556 -0.012939465 0.33501834 0.26027244 -0.90555006 0.0075317197
-0.013656921 0.0027595118 -0.011982278 0.53982258 0.14414424 -0.82934552 0.017891645
0.013752926 0.0027686714 -0.011948675 -0.54402161 0.13330217 -0.8284148 0.018392794
0.016659239 0.0026700126 -0.012986294 -0.34098667 0.24962296 -0.90632027 0.0067878454
0.019412819 0.0030775277 -0.013391014 -0.12115431 0.43759954 -0.89097041 0.0021581876
0.022491284 0.0034710367 -0.013235901 -0.051533189 0.46653992 -0.88299763 0.0017650041
0.025667673 0.0034958601 -0.013175243 0.026920423 0.46628466 -0.88422507 0.0015750671
0.028673565 0.0032736452 -0.013385423 0.1017253 0.44979107 -0.88732177 0.0023779222
0.031618502 0.002769653 -0.013168743 0.29230255 0.29917502 -0.90832454 0.0080785276
0.034564842 0.0027344206 -0.012343519 0.47597373 0.18237065 -0.86034292 0.026123745
0.036414381 0.0028253326 -0.01142459 0.68220758 0.055859704 -0.72902161 0.028448792
-0.03390963 0.0050954344 -0.011369623 -0.24093102 0.50071019 -0.83140939 0.004815144
-0.031469114 0.0051286221 -0.011957053 -0.17555912 0.49321008 -0.85201108 0.0044920081
-0.028411886 0.0058914628 -0.011665355 -0.16662663 0.41977304 -0.89220303 0.010334074
-0.025490772 0.0059239427 -0.012188353 -0.029255474 0.41854906 -0.90772289 0.0035943964
-0.022571305 0.0059248488 -0.012103249 0.09636122 0.42332301 -0.90083963 0.0056506051
-0.019649643 0.005737097 -0.011659455 0.17843586 0.45266339 -0.87364554 0.0076863696
-0.016314304 0.0052870298 -0.011741572 0.19150743 0.50137573 -0.84376967 0.0039712777
-0.01435848 0.0049059466 -0.011273756 0.34751579 0.45455101 -0.82013184 0.021619478
0.014409193 0.0049062194 -0.011240364 -0.40635669 0.3937802 -0.8245067 0.016399279
0.016420171 0.0052301008 -0.011755146 -0.19346246 0.50355732 -0.84202266 0.0039731953
0.019737462 0.0057208911 -0.011641835 -0.18228231 0.45527738 -0.87149054 0.0075169196
0.022621812 0.0059250388 -0.012085574 -0.090831324 0.41894609 -0.90345657 0.0056509855
0.025539797 0.0059238486 -0.012197361 0.023975188 0.41703695 -0.90857327 0.0034442709
0.02845888 0.0058910623 -0.011703701 0.17328043 0.41520223 -0.89307398 0.0089550791
0.031709615 0.0051889159 -0.011828238 0.17608938 0.49322927 -0.8518905 0.0039644497
0.034209929 0.0050852485 -0.011346527 0.33430302 0.45237914 -0.82679778 0.016658677
-0.02794373 0.0077978941 -0.011264889 -0.21785459 0.47685593 -0.85155612 0.0088853175
-0.026592981 0.0077934125 -0.011563307 -0.13692959 0.35735103 -0.92387801 0.0071038427
-0.022069808 0.0077939862 -0.01152513 -0.12074705 0.98792839 -0.09704487 0.17977065
-0.020580823 0.0079776654 -0.01112553 0.22240449 0.51634407 -0.82699764 0.0076940157
0.020632263 0.0079782568 -0.011087085 -0.22354451 0.52136016 -0.82353586 0.0074023218
0.022384869 0.0077937972 -0.01153748 -0.096954897 0.43273655 -0.89629167 0.0047255373
0.026641279 0.0077930996 -0.011583751 0.13291578 0.36462361 -0.92161977 0.0074557192
0.027991017 0.0077973725 -0.011299623 0.21584353 0.47012216 -0.85580176 0.0082328971
-0.015867196 0.01279425 -0.013655802 0.48245755 0.3488847 -0.80343896 0.052091833
0.015929094 0.013068289 -0.0133282 -0.48636591 0.33405674 -0.80737495 0.060382895
0.032852467 0.01199472 -0.013858682 0.4598006 0.30051941 -0.83562642 0.049120728
-0.030701051 0.016238334 -0.013636555 -0.13251321 0.55782622 -0.81931072 0.0068066842
-0.029364685 0.016232247 -0.013810238 -0.036748409 0.61732394 -0.78585029 0.001180966
-0.019042177 0.016235214 -0.013725602 0.082389943 0.60071492 -0.79520661 0.0095212804
-0.016245862 0.015729897 -0.012939697 0.31603405 0.48713487 -0.81413889 0.025559157
0.016219193 0.015102384 -0.013664783 -0.39034247 0.52008849 -0.75969779 0.037191637
0.019355956 0.016234675 -0.013740784 -0.067517355 0.59598321 -0.80015337 0.007739597
0.029411932 0.016231062 -0.01384378 0.15449129 0.61239678 -0.77530807 0.015085203
0.030752523 0.016239222 -0.013611382 0.35785481 0.47490346 -0.80399418 0.026352178
0.033455271 0.014671332 -0.012930022 0.48046765 0.47967511 -0.73420888 0.025445335
-0.031384248 0.017764524 -0.012658156 0.049768064 0.6233201 -0.7803815 0.0011592048
-0.028395509 0.017874124 -0.012474285 0.004938778 0.61908466 -0.78530866 0.0023062611
-0.025451692 0.017859992 -0.012837446 -0.040720578 0.67012858 -0.74112719 0.00045142058
-0.02253571 0.017862491 -0.012772944 0.019783901 0.65546477 -0.75496656 0.0012616388
-0.019370854 0.017879562 -0.012330868 0.036033172 0.56288946 -0.82574642 0.010409557
-0.016857518 0.017691223 -0.012902655 0.058678973 0.60424048 -0.79463845 0.011426051
0.01703955 0.017658014 -0.012904538 -0.33492005 0.50478935 -0.79562324 0.031802196
0.019467557 0.017917292 -0.012301665 0.012854056 0.6274935 -0.7785157 0.0021579803
0.022585947 0.017862979 -0.012760323 -0.015725527 0.65449005 -0.75590706 0.0013881564
0.025559844 0.017817574 -0.012879339 0.03867897 0.66964388 -0.74167436 0.00044689747
0.028492078 0.017911464 -0.012454579 0.0028860418 0.62791711 -0.77827495 0.0019134822
0.031434178 0.017764794 -0.012651924 0.13671301 0.60918057 -0.78115851 0.020188987
-0.030766947 0.019731216 -0.011263394 0.048838586 0.60718912 -0.793055 0.00099378487
-0.027162712 0.019530134 -0.010978585 0.021904729 0.64184195 -0.76652402 0.0017596404
-0.025287507 0.019523367 -0.011137749 -0.015286394 0.66386408 -0.747697 0.00098879565
-0.022625443 0.019525399 -0.011090143 0.001340045 0.66828746 -0.74390191 0.0011471726
-0.018267633 0.019697603 -0.011218117 -0.061025422 0.62000871 -0.78221816 0.00061371917
-0.017284006 0.019512901 -0.011383062 -0.0069138436 0.58054793 -0.81419671 0.010025389
0.017594475 0.019507246 -0.011515981 -0.029340291 0.57343239 -0.81872731 0.0071339845
0.018406939 0.019787351 -0.011197006 0.020222215 0.6406762 -0.76754493 0.002482428
0.022941213 0.019525193 -0.011094767 0.0063013281 0.67491406 -0.7378695 0.0012292661
0.025603455 0.019523321 -0.011138743 0.015174842 0.66425437 -0.7473526 0.00094483723
0.027210914 0.019529225 -0.011000162 -0.012501349 0.66378266 -0.74782103 0.0010238616
0.031134855 0.019623792 -0.011282355 0.073041461 0.55604905 -0.82793379 0.016657995
-0.069200791 -0.052794725 -0.0081507321 -0.34636199 -0.46904811 -0.81242061 0.0028749174
-0.067233182 -0.053338196 -0.0083787404 -0.2019216 -0.46643379 -0.86120099 0.0024119893
-0.064419366 -0.05378991 -0.0084982738 -0.04671748 -0.52829295 -0.847776 0.0031809949
-0.061523572 -0.053594112 -0.0084941657 0.13174625 -0.57517326 -0.80735278 0.0051066997
-0.059087683 -0.052987088 -0.0083269114 0.32473558 -0.6031788 -0.72850674 0.0039179004
0.05933626 -0.052865654 -0.0084382351 -0.3233937 -0.60264307 -0.72954631 0.003843412
0.061694898 -0.053665109 -0.0084458832 -0.13672602 -0.57588518 -0.80601627 0.0050963927
0.064640433 -0.053826712 -0.0084729288 0.040626515 -0.53087205 -0.84647757 0.0032745067
0.067555919 -0.053254437 -0.0084040519 0.1876245 -0.4983404 -0.84643602 0.0027388954
0.069527708 -0.052801721 -0.0080955084 0.33977842 -0.47553819 -0.81142718 0.0029169712
-0.070228696 -0.050955467 -0.0085659847 -0.32974291 -0.34163126 -0.88008964 0.0025214364
-0.067399904 -0.051036555 -0.0093623176 -0.20491919 -0.33966199 -0.91795313 0.0017250193
-0.064399377 -0.05125761 -0.009741364 -0.085356332 -0.36301652 -0.92786485 0.0020839034
-0.061444744 -0.051245887 -0.009837579 0.045275114 -0.40766817 -0.91200697 0.0025115283
-0.058560509 -0.051028773 -0.009428082 0.27294973 -0.48665503 -0.82985866 0.0064008767
-0.056010239 -0.050589681 -0.0086339563 0.43275493 -0.54151487 -0.72075295 0.0029205761
0.056070633 -0.050599739 -0.0085513126 -0.43732351 -0.54212564 -0.71752906 0.0029565264
0.058616802 -0.051034804 -0.0093790516 -0.27539435 -0.49005172 -0.82704729 0.0062209871
0.061591666 -0.051176742 -0.0098567186 -0.047022827 -0.40702829 -0.91220444 0.0022799314
0.064530142 -0.051322676 -0.0097235469 0.082279205 -0.36495131 -0.92738366 0.0021312695
0.067466699 -0.051054422 -0.0093783261 0.19131203 -0.35410759 -0.91542751 0.0019616752
0.070323005 -0.050992187 -0.0085828658 0.32305488 -0.34669042 -0.88059139 0.0031283263
0.072493091 -0.050127879 -0.0080151912 0.46244696 -0.38145587 -0.80039626 0.0036571405
-0.072968677 -0.047867168 -0.0084548611 -0.42863226 -0.27060205 -0.86200291 0.0026143719
-0.070549347 -0.048210844 -0.0093161128 -0.30743879 -0.23866725 -0.92115104 0.0015546473
-0.067447536 -0.048211899 -0.010147965 -0.21381967 -0.22966406 -0.94949228 0.00082085881
-0.064530596 -0.048345365 -0.010638298 -0.15142119 -0.22190502 -0.96323919 0.0010074154
-0.061653852 -0.048806485 -0.010765999 0.014970146 -0.31203762 -0.94995183 0.003051552
-0.05823347 -0.048534475 -0.010576671 0.20842908 -0.3638269 -0.90784764 0.0029134585
-0.055283275 -0.048280496 -0.0096101761 0.40746009 -0.39602435 -0.82288581 0.0038058108
-0.053043257 -0.047622584 -0.0086207036 0.55091792 -0.44136178 -0.70830023 0.00308109
0.053212535 -0.047536645 -0.0086519271 -0.55193561 -0.44634038 -0.70437729 0.003365776
0.055385128 -0.048340525 -0.0095392279 -0.41624984 -0.38756981 -0.82251179 0.0048538558
0.058257442 -0.04847594 -0.010563602 -0.21117257 -0.37599513 -0.90223825 0.0039826138
0.06178325 -0.048885599 -0.01074125 -0.0214357 -0.31624725 -0.94843465 0.003294155
0.064646475 -0.048302229 -0.010660036 0.14834453 -0.22365107 -0.96331412 0.0010261743
0.067593485 -0.048269842 -0.010142338 0.21030881 -0.23119587 -0.94990456 0.00080968102
0.070723094 -0.048192725 -0.0093290247 0.32076055 -0.25562999 -0.9120121 0.0010305105
0.073150091 -0.04781542 -0.0084710587 0.43025768 -0.26117241 -0.86409914 0.0034686511
-0.075108096 -0.044748034 -0.0081259459 -0.57688737 -0.1817407 -0.79634863 0.0032324898
-0.07336425 -0.045199458 -0.0089091044 -0.40399927 -0.15089643 -0.9022277 0.0037459347
-0.07048025 -0.045152716 -0.0099021308 -0.26048356 -0.11134973 -0.95903575 0.0011267707
-0.067472093 -0.045282312 -0.010595025 -0.18347092 -0.085843854 -0.9792698 0.00093183946
-0.06542334 -0.046181396 -0.010903595 -0.14404474 -0.10265287 -0.98423243 0.0010468329
-0.055015445 -0.045605034 -0.010572844 0.3608703 -0.24854782 -0.89888632 0.0028580888
-0.052569583 -0.04510932 -0.0094106775 0.50265998 -0.28362581 -0.81663299 0.004358998
-0.050753988 -0.044367339 -0.0083388742 0.64215708 -0.30458009 -0.70346659 0.0049314187
0.050865989 -0.044606939 -0.0081899893 -0.64379823 -0.30323184 -0.70254838 0.0045478474
0.052729517 -0.045147806 -0.0093844961 -0.49165007 -0.25222644 -0.83346385 0.0019115979
0.055237062 -0.04560072 -0.010588331 -0.36337686 -0.25375262 -0.89641899 0.0033473163
0.057068996 -0.046575963 -0.010950511 -0.28264123 -0.28625697 -0.91551673 0.0077735567
0.065469347 -0.04617881 -0.010926789 0.15381224 -0.096679963 -0.98335898 0.0010656965
0.067557 -0.045318492 -0.010612313 0.19173245 -0.10060863 -0.97627687 0.00077052193
0.070504762 -0.045205336 -0.0099429926 0.25925776 -0.11177454 -0.9593184 0.001127742
0.073402472 -0.04519226 -0.0089751128 0.39443082 -0.15273999 -0.90614283 0.0035397562
0.075141124 -0.044737864 -0.0082202516 0.56914312 -0.18482165 -0.80119729 0.0033235163
-0.075317405 -0.042190939 -0.0083232336 -0.55875409 -0.057402588 -0.82734436 0.0038698576
-0.073304527 -0.042217527 -0.0092563992 -0.36968625 -0.027922854 -0.92873698 0.0028184599
-0.070495941 -0.042135831 -0.010055259 -0.24505147 -0.0081085665 -0.96947622 0.00090789661
-0.067497253 -0.04203425 -0.010676372 -0.17757313 0.042013902 -0.98321033 0.00051518017
-0.065548226 -0.040977411 -0.010958081 -0.13680914 0.051004253 -0.9892835 0.00040396649
-0.05435906 -0.042048704 -0.010909359 0.32774064 -0.08246085 -0.94116223 0.0039329408
-0.052596763 -0.042135537 -0.010060167 0.47410923 -0.099945478 -0.87477493 0.0018184284
-0.050431721 -0.042149995 -0.0086060837 0.62723172 -0.14262246 -0.76566255 0.0032072391
0.050493434 -0.042160477 -0.0085032061 -0.65871125 -0.13070515 -0.74095589 0.003947461
0.052654438 -0.042142265 -0.0099944631 -0.4799796 -0.10159349 -0.87137723 0.0020860999
0.054488976 -0.042242438 -0.010876699 -0.33509925 -0.078046173 -0.93894476 0.003737696
0.065596804 -0.040710226 -0.010964548 0.13750654 0.06562753 -0.98832434 0.00018783665
0.067584738 -0.042008054 -0.010691555 0.17885727 0.04196899 -0.98297948 0.00056662748
0.070539378 -0.042132042 -0.010092482 0.24033277 -0.0066848961 -0.9706676 0.00087925058
0.073344789 -0.042212006 -0.0093105137 0.36174235 -0.024095871 -0.93196666 0.00259739
0.075380087 -0.042306382 -0.0083873607 0.54577428 -0.053833455 -0.83620113 0.0037948797
-0.075323224 -0.039219204 -0.0082901716 -0.53705525 0.067174301 -0.84086818 0.0034822733
-0.073381647 -0.039164178 -0.009153733 -0.34929708 0.075281627 -0.93398297 0.0026541157
-0.070520587 -0.039211612 -0.0099060042 -0.2439287 0.090455845 -0.96556538 0.0010380856
-0.067490712 -0.039157175 -0.010477141 -0.1765411 0.10661788 -0.9785018 0.00032331384
-0.064856067 -0.038767558 -0.010836151 -0.14054222 0.11294168 -0.98361176 0.0003030193
-0.054359838 -0.039116677 -0.01090328 0.27063295 0.038113538 -0.96192783 0.0028470985
-0.052586455 -0.039188981 -0.010144546 0.43823877 0.017437253 -0.89868945 0.0026109989
-0.050215025 -0.039018176 -0.0086781997 0.6197812 -0.04302622 -0.78359425 0.0035098048
0.050377592 -0.039142195 -0.0086498056 -0.62327021 -0.046840101 -0.78060246 0.0034114011
0.052645069 -0.039195951 -0.010071333 -0.43925196 0.011940112 -0.89828449 0.002637371
0.054503474 -0.038942855 -0.010862614 -0.27438235 0.036600314 -0.96092391 0.0028109204
0.0649039 -0.038766466 -0.010847592 0.13966927 0.11412641 -0.98359936 0.00030884001
0.067536652 -0.039154988 -0.01050005 0.17110081 0.10007231 -0.98015815 0.00037163845
0.070564941 -0.039208595 -0.0099375648 0.24032994 0.093003452 -0.96622562 0.00097603735
0.073423207 -0.039159745 -0.0092003392 0.34457162 0.075595796 -0.93571132 0.0023995575
0.075388186 -0.039092366 -0.0083413254 0.52182627 0.070381418 -0.85014343 0.00306319
-0.075113051 -0.036968783 -0.0080977138 -0.49049148 0.17674533 -0.85333419 0.0015078719
-0.073287621 -0.036322143 -0.0087767774 -0.35831931 0.15229981 -0.92109287 0.0030909595
-0.070485875 -0.036240235 -0.0095095132 -0.23195431 0.16241606 -0.95907152 0.00073051808
-0.067475915 -0.036320038 -0.010074564 -0.16463909 0.15207036 -0.97456068 0.0001725693
-0.064499959 -0.036176495 -0.010500233 -0.13477273 0.15912007 -0.97801685 7.5257027e-05
-0.061757647 -0.035864659 -0.010775956 -0.10063459 0.16046317 -0.98189825 0.00010439054
-0.058627352 -0.034985803 -0.010888765 -0.015499479 0.16134578 -0.98677629 0.00096169714
-0.055159483 -0.035875387 -0.010805358 0.18934974 0.098998509 -0.97690636 0.0037727146
-0.052602291 -0.036262423 -0.010017118 0.38030276 0.055255901 -0.92320991 0.002854937
-0.050127544 -0.036190309 -0.0086671356 0.57322609 -0.0073625254 -0.81936425 0.0035564671
0.050268665 -0.036115717 -0.0086432584 -0.57651651 -0.0070381025 -0.81705523 0.0033624773
0.05265836 -0.036267098 -0.0099644093 -0.38088858 0.049339131 -0.92330354 0.0029042463
0.055211965 -0.035877362 -0.010782839 -0.19710453 0.09416616 -0.97584963 0.0038719021
0.058677044 -0.034985878 -0.010887956 0.013892038 0.16431153 -0.98631066 0.0010579213
0.061851736 -0.035780419 -0.010763392 0.10024898 0.16248682 -0.98160493 0.00010978445
0.06459824 -0.036217801 -0.010519613 0.13364846 0.15933503 -0.97813618 6.9942907e-05
0.067604624 -0.03625742 -0.010071263 0.16302918 0.15377194 -0.97456431 0.00013251677
0.070632607 -0.03630539 -0.0095284414 0.23384322 0.15608786 -0.95966345 0.00082388718
0.073377445 -0.036275171 -0.0087861689 0.34571344 0.16442671 -0.92382145 0.0024951093
0.075160801 -0.03669944 -0.0081080757 0.5209437 0.18005367 -0.83438498 0.0021827247
-0.072888479 -0.033531427 -0.0083448999 -0.37951782 0.19404927 -0.90460545 0.0035375578
-0.07041315 -0.033143647 -0.0089372844 -0.24476565 0.19397385 -0.94998103 0.00085242861
-0.067376338 -0.033097316 -0.0095108766 -0.17046137 0.18395264 -0.96804154 6.7138972e-05
-0.064364441 -0.033059955 -0.0099732969 -0.13407098 0.17345746 -0.97567284 6.5272179e-05
-0.061374329 -0.033031333 -0.010327599 -0.10210384 0.17418019 -0.97940594 5.9975122e-05
-0.058468111 -0.033176661 -0.010593182 -0.027469223 0.15817182 -0.98702943 0.00094000745
-0.055414751 -0.033162933 -0.010534842 0.12560818 0.12859379 -0.98371041 0.003055793
-0.052623771 -0.033070624 -0.0098442454 0.36592841 0.061258491 -0.92862463 0.0042625321
-0.05009098 -0.033167031 -0.0086531211 0.52177042 0.0044735945 -0.85307419 0.0032634893
0.050149839 -0.033173457 -0.0085740238 -0.52519 0.0048464774 -0.85097116 0.0034413484
0.052678853 -0.033074249 -0.0097995074 -0.37186688 0.062740929 -0.92616338 0.0043730591
0.055466324 -0.033164181 -0.010519429 -0.13377282 0.12500609 -0.9830963 0.0031537893
0.058518451 -0.033177093 -0.010587773 0.015946696 0.14626405 -0.98911709 0.00092938927
0.061612532 -0.033094279 -0.010326321 0.099627852 0.17325258 -0.97982544 6.5581975e-05
0.064584523 -0.032995105 -0.0099495528 0.13284989 0.17243987 -0.97602016 6.1785722e-05
0.067523628 -0.033162907 -0.0095271319 0.18058929 0.18557864 -0.96589237 0.00030046489
0.070539519 -0.033079751 -0.0089489762 0.2429954 0.19324149 -0.95058453 0.00081207854
0.073035598 -0.033522379 -0.0083529251 0.37062541 0.20632258 -0.90557593 0.0030909998
-0.072448328 -0.03134197 -0.00798673 -0.39605302 0.26040366 -0.88052934 0.0032788932
-0.070319645 -0.030342344 -0.0083775735 -0.26117635 0.21084891 -0.94198173 0.0011982897
-0.067466848 -0.030197695 -0.008937926 -0.18620147 0.19227868 -0.96351337 0.00016322422
-0.064447604 -0.030161841 -0.0094227474 -0.14085133 0.18547484 -0.97250187 4.6779296e-05
-0.061449867 -0.030133694 -0.0098036313 -0.10507607 0.1759816 -0.97876936 7.8398909e-05
-0.058406033 -0.030300105 -0.01010172 -0.050530713 0.17177254 -0.98383993 0.00036841651
-0.055423129 -0.030212741 -0.010132404 0.1307521 0.13413116 -0.98229969 0.0050579538
-0.052504722 -0.03020779 -0.0096065011 0.30400032 0.074522406 -0.94975275 0.0040175235
-0.050093442 -0.030220514 -0.0086326478 0.47432777 0.018262673 -0.88015896 0.003362471
0.050149899 -0.03022485 -0.0085739726 -0.47660181 0.018212743 -0.87893069 0.0038413499
0.052703366 -0.030148756 -0.0096019786 -0.30857152 0.075940929 -0.94816482 0.0042394539
0.055631597 -0.030280033 -0.010146161 -0.082524747 0.13963179 -0.98675865 0.0018363599
0.058454618 -0.030299583 -0.01010892 0.048103791 0.16731595 -0.98472911 0.00036495825
0.061496653 -0.030132273 -0.0098229358 0.10286397 0.17231633 -0.97965616 8.3360603e-05
0.064493753 -0.030160189 -0.0094454531 0.14193128 0.1839388 -0.97263658 6.2411193e-05
0.067511603 -0.030195452 -0.0089682397 0.17227162 0.18781613 -0.96697855 5.8991147e-05
0.070421696 -0.030336676 -0.0084025171 0.2602534 0.21167856 -0.94205117 0.0012451448
0.072488837 -0.031337872 -0.0080403145 0.39794374 0.2417362 -0.88498837 0.0035345843
-0.069561131 -0.028289568 -0.0081350468 -0.2676627 0.21307683 -0.93965679 0.001613813
-0.067400336 -0.027365081 -0.0083882036 -0.18382244 0.18965694 -0.96448928 0.0001379384
-0.064494863 -0.027295299 -0.0088561866 -0.14886056 0.1897593 -0.97048026 8.7693894e-05
-0.061530989 -0.02723122 -0.0092407912 -0.11999017 0.18632594 -0.9751333 0.00010449337
-0.058545742 -0.027211085 -0.0095414221 -0.080930717 0.17331032 -0.98153645 0.00036735064
-0.05531906 -0.027202267 -0.0096736792 0.08350192 0.14406291 -0.98603916 0.0036589801
-0.052420687 -0.027225796 -0.0093246046 0.23910458 0.096202828 -0.96621633 0.0038320988
-0.050102722 -0.027277578 -0.0085539669 0.42380521 0.042686351 -0.90474689 0.0035903871
0.05015837 -0.027281046 -0.0085022375 -0.4258416 0.038975231 -0.9039579 0.0035328316
0.052696854 -0.027262559 -0.0093461089 -0.24559471 0.09284763 -0.96491581 0.0038059391
0.05558417 -0.027159095 -0.0096742874 -0.087957688 0.14588282 -0.98538405 0.0039259023
0.058593392 -0.027210144 -0.0095555037 0.032546699 0.17528933 -0.98397887 0.0013220914
0.061574474 -0.027228402 -0.0092829391 0.11338758 0.18684322 -0.97582418 9.3580391e-05
0.064579129 -0.027255366 -0.0088802492 0.14965478 0.19096251 -0.97012198 8.6841363e-05
0.067499861 -0.02741587 -0.0084134508 0.18387686 0.19052523 -0.96430773 0.00012888816
0.0696356 -0.028187029 -0.0081391428 0.26663032 0.23207086 -0.93544185 0.0014980698
-0.066342995 -0.02507036 -0.0081235729 -0.19020109 0.20349418 -0.96042371 0.00029058458
-0.064246535 -0.024261786 -0.0082938299 -0.14809833 0.19066605 -0.97041911 7.5798693e-05
-0.061347518 -0.024054503 -0.0086548543 -0.12075306 0.18660749 -0.97498536 5.869802e-05
-0.058354635 -0.02403502 -0.008982446 -0.077310666 0.18118899 -0.98040479 0.00011334768
-0.055388063 -0.024025513 -0.0091423504 0.0023940119 0.1613986 -0.98688644 0.00076246657
-0.052462175 -0.024034826 -0.0089876801 0.17299691 0.12184864 -0.97735614 0.0034468498
-0.050122194 -0.024070611 -0.0083883852 0.36079606 0.070764959 -0.92995614 0.0034562331
0.050210498 -0.024130853 -0.0083565749 -0.36827976 0.06814298 -0.92721444 0.0034156612
0.052514412 -0.024036122 -0.0089659356 -0.17994261 0.11855347 -0.97650683 0.0033954033
0.055437185 -0.024025312 -0.0091458829 -0.0035637545 0.16222982 -0.98674661 0.0007461537
0.058634046 -0.024073416 -0.0089804456 0.077255674 0.18438376 -0.9798134 0.00011807565
0.061615307 -0.024012145 -0.0086398311 0.12575439 0.19852225 -0.97199529 4.2591309e-05
0.064473189 -0.024273733 -0.0082782041 0.14722151 0.19673209 -0.96934116 6.7522378e-05
0.066751599 -0.025249777 -0.0081153773 0.19136558 0.20283538 -0.96033174 0.00021598575
-0.063316099 -0.022213487 -0.0080272015 -0.14657205 0.20361301 -0.96801782 6.606213e-05
-0.061119601 -0.021480234 -0.0081856484 -0.11998489 0.19758029 -0.97291601 7.0255875e-05
-0.058434285 -0.02112004 -0.0083994437 -0.085500591 0.19368614 -0.97733068 0.00010085705
-0.055458438 -0.021109492 -0.0086003356 -0.021369014 0.17841552 -0.98372316 0.00039126159
-0.05245325 -0.021070553 -0.0085570887 0.10950718 0.1353811 -0.98472333 0.0030263467
-0.050304811 -0.021273537 -0.0082049388 0.30259207 0.099016905 -0.94796288 0.0034591334
0.05050122 -0.021207621 -0.008195255 -0.31077656 0.10229082 -0.94496274 0.003381354
0.052564651 -0.021111798 -0.0085576251 -0.11645751 0.13358942 -0.9841705 0.0030979889
0.055507224 -0.021109158 -0.0086065196 0.020042591 0.17554668 -0.98426706 0.00044754127
0.058482669 -0.021119582 -0.0084081693 0.087403744 0.19426113 -0.97704822 0.00013727188
0.061171256 -0.021481011 -0.0081710601 0.12173504 0.19930996 -0.97234565 3.9098246e-05
0.063365996 -0.022213606 -0.0080250558 0.15116049 0.20659029 -0.96668041 8.4682695e-05
-0.058033209 -0.019348998 -0.0080605447 -0.091705687 0.20675851 -0.97408468 7.5140488e-05
-0.055332005 -0.018901631 -0.0081593804 -0.039853837 0.19086203 -0.98080754 0.00026938203
-0.052353211 -0.018752715 -0.00816618 0.055297211 0.15992026 -0.98557991 0.0016082486
-0.050431531 -0.019528864 -0.0080413874 0.28669849 0.09304662 -0.95349163 0.0043830811
0.0508379 -0.019349514 -0.0080501586 -0.11340667 0.12993367 -0.98501581 0.0024909484
0.05261144 -0.018717175 -0.0081773028 -0.056921761 0.16009113 -0.98545963 0.0016514186
0.055381238 -0.018901503 -0.0081620235 0.040989283 0.18968204 -0.98098963 0.00027895768
0.058081336 -0.01934847 -0.008071309 0.093544558 0.20335856 -0.97462541 0.00010095493
-0.027615689 -0.01093912 -0.0080906209 -0.20822676 -0.6715259 -0.7111221 0.0043723546
-0.025245566 -0.011149683 -0.0082355198 -0.052238725 -0.67352724 -0.73731405 0.0029453789
-0.022739997 -0.011088756 -0.0082208868 0.099180914 -0.6731292 -0.73284388 0.0032640633
-0.020909483 -0.010940715 -0.0080359634 0.14841974 -0.67997432 -0.71805745 0.0043711844
0.022737913 -0.011024549 -0.0082313474 -0.12510246 -0.66829574 -0.73330086 0.0026530426
0.025295185 -0.011149699 -0.0082350876 0.050171264 -0.67230666 -0.73857063 0.0031584373
0.027662631 -0.010937965 -0.0081315991 0.22625586 -0.61839962 -0.75258905 0.0024936711
-0.031109467 -0.0086037461 -0.0085128676 -0.38986015 -0.55762184 -0.73284847 0.0018422966
-0.028370449 -0.0092171542 -0.0091737099 -0.22475514 -0.59531164 -0.77142018 0.0021513694
-0.025375804 -0.0092908368 -0.0096555268 -0.063871443 -0.60651344 -0.7925036 0.0018270878
-0.02243942 -0.0092932442 -0.0095591322 0.1113361 -0.59511888 -0.79588807 0.0017023
-0.019669225 -0.0091638528 -0.0089565469 0.28151217 -0.58791077 -0.75836128 0.0021031694
-0.017078172 -0.0083086351 -0.0083911736 0.44662347 -0.53285056 -0.71874738 0.001269351
0.017125802 -0.0081288321 -0.0084354896 -0.44984928 -0.53888649 -0.71220577 0.0012155768
0.019721981 -0.0091655469 -0.0088881645 -0.2930117 -0.57563072 -0.76340908 0.0018451664
0.022550667 -0.0092521664 -0.0095583815 -0.11883151 -0.60432792 -0.78782415 0.0018096009
0.025473712 -0.0093286466 -0.0096169021 0.055167407 -0.60551238 -0.79392153 0.0019188477
0.028537819 -0.0092037236 -0.0091688912 0.22452344 -0.59893304 -0.76867974 0.0020727585
0.031327382 -0.00853441 -0.0085411286 0.40483338 -0.55241209 -0.7286638 0.0013187726
-0.033810318 -0.0057909265 -0.0087797018 -0.53831935 -0.49940351 -0.67882878 0.0014950621
-0.031553723 -0.0063797757 -0.009904122 -0.37881202 -0.55149072 -0.74320889 0.0011352407
-0.028887406 -0.0073130736 -0.010443696 -0.23035495 -0.57626361 -0.78412807 0.0017008964
-0.025300851 -0.0076587163 -0.010914559 -0.06836658 -0.5944584 -0.80121487 0.0017750808
-0.022374198 -0.0076611927 -0.010798358 0.12143023 -0.58789581 -0.79977071 0.0016909913
-0.019223943 -0.007077856 -0.010351423 0.28550708 -0.56332403 -0.77533978 0.0017073763
-0.01633656 -0.0061403392 -0.0094879176 0.48591235 -0.49565405 -0.71987242 0.0026770842
-0.01424197 -0.005460294 -0.0083776768 0.55834603 -0.46781981 -0.6851235 0.001275912
0.014704176 -0.0056333011 -0.0084659737 -0.56639087 -0.46222755 -0.68231016 0.0011658685
0.016561395 -0.0061288849 -0.0095321797 -0.47335842 -0.50649524 -0.72069031 0.0024578997
0.019217424 -0.0069974633 -0.010316685 -0.2843506 -0.56342119 -0.77569407 0.0015889697
0.02249915 -0.0075846836 -0.010815009 -0.1223738 -0.5880838 -0.79948866 0.0018681006
0.025886407 -0.00765971 -0.01086772 0.061198104 -0.59508467 -0.80132955 0.0018120747
0.028934948 -0.007312472 -0.010473436 0.22906004 -0.579427 -0.78217381 0.001603697
0.031627234 -0.006417145 -0.0099369437 0.37413764 -0.55357981 -0.74402314 0.0013233338
0.033959154 -0.0057391301 -0.0088172667 0.54088461 -0.49025926 -0.68343955 0.0014929299
-0.036586244 -0.0022158797 -0.0083168056 -0.69130355 -0.37494883 -0.6176672 0.0020450654
-0.034668613 -0.0032840944 -0.0097092129 -0.61899394 -0.42438543 -0.66086572 0.0017329559
-0.032511823 -0.0044621369 -0.010740107 -0.4630729 -0.49885544 -0.73260272 0.0051777093
-0.015681591 -0.0041610291 -0.010470856 0.51447088 -0.4975175 -0.69842398 0.0040577813
-0.013649125 -0.0030545215 -0.0093640732 0.65339905 -0.40745857 -0.6380024 0.0020165911
-0.011784768 -0.0018156457 -0.0080184396 0.74987739 -0.32803822 -0.5745213 0.0063476688
0.013822431 -0.0030675586 -0.009349294 -0.64160627 -0.42942935 -0.63555634 0.002469029
0.015858199 -0.0041100322 -0.010477578 -0.47850379 -0.50324804 -0.71956623 0.0020247593
0.032552578 -0.0044605425 -0.010855591 0.42556649 -0.53118718 -0.73262089 0.0029275366
0.034781668 -0.0034075803 -0.0096882321 0.61228472 -0.41442013 -0.67332268 0.0014477024
0.036619417 -0.0022142667 -0.0085086282 0.70170176 -0.37790668 -0.60398763 0.0020829975
-0.036823653 -7.7522709e-05 -0.0092771202 -0.76506335 -0.30514404 -0.56706721 0.0019078427
-0.035524249 -0.00083684508 -0.01043688 -0.67496139 -0.30795094 -0.67051721 0.0037115996
-0.012794035 -0.00038844661 -0.010142281 0.73795629 -0.30200073 -0.60350317 0.0027110844
-0.011564966 -2.1017622e-06 -0.0086954404 0.78320789 -0.25110805 -0.56879711 0.0045145364
0.011665603 2.6237802e-05 -0.008580056 -0.77681077 -0.26986951 -0.56897753 0.0045472994
0.01291735 -0.00041161058 -0.010054634 -0.73875231 -0.31366062 -0.5965417 0.0021184294
0.035648674 -0.00086321193 -0.010498477 0.67282861 -0.30188602 -0.67540097 0.0042993636
0.036988411 -5.8096484e-05 -0.0093127917 0.7458654 -0.33111274 -0.57796985 0.0021488345
-0.037537105 0.0027573367 -0.0096213203 -0.80521351 -0.13613744 -0.57714629 0.0068697096
-0.012242699 0.002471478 -0.010754432 0.62048572 0.015645519 -0.78406167 0.020818649
-0.011152635 0.0028123914 -0.0094680684 0.77370417 -0.020358 -0.63321996 0.024694577
0.011291265 0.002820784 -0.009427201 -0.77171731 -0.031412039 -0.63518953 0.024325496
0.012294621 0.0024715972 -0.010673283 -0.73645604 0.0020440442 -0.67648238 0.021533521
0.037727602 0.002830894 -0.0096302144 0.79920954 -0.12518165 -0.58787215 0.0075851036
-0.037366882 0.0058577545 -0.00947263 -0.51941687 0.35954773 -0.77519774 0.01196303
-0.034681831 0.0064780768 -0.010296525 -0.23776285 0.51240885 -0.82517028 0.0051974566
-0.031380843 0.0066451775 -0.01026384 -0.20026572 0.5344345 -0.82114148 0.0067646201
-0.029838147 0.0072710672 -0.01083616 -0.19226094 0.50032014 -0.84422475 0.00916309
-0.018414749 0.0067390082 -0.010748073 0.20540835 0.52060801 -0.82871872 0.0076855826
-0.016737429 0.006787437 -0.010178046 0.20385714 0.53618544 -0.81911379 0.0058385069
-0.013400554 0.0061942218 -0.010183602 0.38253585 0.38674742 -0.83910239 0.017593307
-0.01098548 0.0057641901 -0.0092540355 0.69526279 0.21737249 -0.68509763 0.02287722
0.011037955 0.0057653124 -0.0091371275 -0.69544572 0.21761772 -0.68483406 0.02294481
0.013451509 0.0061947098 -0.010140076 -0.3919318 0.37979326 -0.83794183 0.017596221
0.016696602 0.0067465333 -0.010168239 -0.1773971 0.60401034 -0.77698255 0.0080381595
0.018494025 0.006672685 -0.010721954 -0.20630293 0.52363986 -0.82658356 0.0074029909
0.029884016 0.007270352 -0.010889059 0.21584547 0.47012118 -0.85580182 0.008233266
0.031492513 0.0066736732 -0.010295772 0.2025077 0.52670276 -0.82557541 0.0061264755
0.034729894 0.0064779716 -0.010312914 0.22826363 0.51135427 -0.82850015 0.0044203792
0.037406858 0.0058566919 -0.0095812771 0.54115331 0.35151562 -0.7639305 0.014974071
-0.037298232 0.00784274 -0.0082824919 -0.3631137 0.54715896 -0.75416541 0.02426213
-0.03460028 0.0085756695 -0.0087888734 -0.23032244 0.6082955 -0.7595579 0.0028700468
-0.031633403 0.0087212073 -0.0092385039 -0.23389617 0.61582589 -0.75236368 0.0061287405
-0.02950082 0.0082530715 -0.010576343 -0.23372035 0.52951247 -0.81546998 0.010072476
-0.018891962 0.0084614223 -0.010286166 0.28996938 0.55146581 -0.78217852 0.0072068479
-0.01655666 0.0087257773 -0.0089607127 0.19091471 0.61478549 -0.7652387 0.0098552071
-0.013581622 0.008610934 -0.0087103983 0.22300233 0.56766176 -0.79248339 0.007658456
-0.011152839 0.0076647233 -0.0082326047 0.46081424 0.44314331 -0.76894367 0.033637229
0.011290281 0.0075744065 -0.0082932394 -0.68316919 0.38327298 -0.62159604 0.020205611
0.013847936 0.0085317874 -0.0088135116 -0.22900876 0.56388247 -0.79346806 0.0075296648
0.016808521 0.0087775141 -0.0089242952 -0.18899584 0.61261833 -0.76744992 0.009458635
0.018999502 0.0084901005 -0.010240857 -0.286515 0.55545896 -0.78062445 0.0069646146
0.029469516 0.0081262328 -0.010716295 0.23238499 0.5184406 -0.82293165 0.0094446233
0.031677973 0.0086566536 -0.0093580941 0.23094547 0.60922927 -0.75861979 0.0047553941
0.034660865 0.008504292 -0.0088574169 0.19860417 0.58867347 -0.78359425 0.0033905951
0.037340876 0.0078415535 -0.0083620222 0.45551011 0.46339983 -0.76011258 0.023308992
-0.017148104 0.010528238 -0.0081343409 0.17096137 0.6524784 -0.738271 0.010295808
0.017201191 0.0105301 -0.0080468711 -0.1534287 0.67297065 -0.72358155 0.011747662
-0.030390929 0.020615043 -0.010563022 0.048849706 0.60718304 -0.79305887 0.00099304609
-0.02845319 0.020711079 -0.010088131 0.018067429 0.64413053 -0.76470214 0.0016382815
-0.025379678 0.021194743 -0.009587639 -0.0049860245 0.65630662 -0.7544778 0.00095887855
-0.022393493 0.021129875 -0.009657409 -0.013072398 0.65696216 -0.75381023 0.00069204508
-0.01978036 0.020583725 -0.010241834 -0.020482749 0.64903641 -0.76048154 0.0012399042
-0.017570915 0.020067262 -0.010886883 -0.0069159386 0.58054531 -0.81419855 0.010026491
0.017357584 0.019804562 -0.010797312 0.023085754 0.5706985 -0.82083511 0.0066377819
0.019936098 0.020579359 -0.010240813 0.0099519761 0.64886099 -0.76084185 0.0016505142
0.022502018 0.02109094 -0.0096929036 0.013840338 0.64388728 -0.76499516 0.0010642351
0.025477309 0.021233179 -0.0095532788 0.015189336 0.6642521 -0.74735427 0.00094922498
0.028503681 0.020711662 -0.010074828 -0.0077814432 0.65074396 -0.75925738 0.0011735767
0.030833811 0.020344162 -0.010658702 -0.036909543 0.61756736 -0.78565139 0.00078066776
-0.024644464 0.022856634 -0.0084259361 -0.0029170455 0.63200879 -0.77495569 0.00028164673
-0.023575591 0.022860037 -0.0083582457 -0.0029145703 0.63200951 -0.77495503 0.0002849407
-0.020874111 0.022304045 -0.0087596234 -0.031346694 0.63598269 -0.77106649 0.00044250669
0.024693755 0.022856401 -0.0084306449 0.0059370492 0.66829377 -0.74387378 0.00084138266
-0.069694825 -0.055989645 -0.005653521 -0.3803083 -0.65036702 -0.65756238 0.0050358125
-0.067287952 -0.056735002 -0.0057988819 -0.15509567 -0.73500508 -0.66008556 0.0059348103
-0.064510018 -0.056816343 -0.0059613483 0.0391872 -0.7476486 -0.6629374 0.0053783795
-0.061482836 -0.056379989 -0.0058299685 0.23501572 -0.75720459 -0.60943317 0.0040041045
-0.059622563 -0.055813245 -0.0056263115 0.34657705 -0.72972673 -0.58939224 0.0035521355
0.059687 -0.055827513 -0.0055190381 -0.34051347 -0.72830904 -0.59465659 0.0031978416
0.061678294 -0.056374095 -0.005837121 -0.2379849 -0.75720674 -0.60827714 0.0035923347
0.064655289 -0.056854025 -0.0059173312 -0.03678868 -0.7509684 -0.65931255 0.0051306495
0.067460276 -0.056652091 -0.0058753686 0.17163745 -0.74434757 -0.6453582 0.00526853
0.069875911 -0.056030311 -0.0056181606 0.36048663 -0.64795262 -0.67097455 0.0044905273
-0.072615132 -0.05343445 -0.005939241 -0.50854284 -0.54412484 -0.66731715 0.00427865
-0.070499197 -0.054045465 -0.0067829648 -0.37760609 -0.50910413 -0.77345109 0.0021860688
-0.067577824 -0.054935627 -0.0072886073 -0.18345757 -0.6301778 -0.75446624 0.0027868524
-0.064477727 -0.055303469 -0.0074418392 -0.0045234538 -0.67198157 -0.74055409 0.003689931
-0.061445005 -0.054975361 -0.0073496876 0.16939834 -0.63778085 -0.75135863 0.0033141659
-0.058282681 -0.054141592 -0.0067632953 0.37597635 -0.69948119 -0.60775638 0.0031065808
-0.056017403 -0.053423841 -0.0058463197 0.51380926 -0.67571551 -0.52859116 0.0032475421
0.056248859 -0.053336792 -0.0060009193 -0.50176322 -0.67108929 -0.54577732 0.0026101156
0.058434419 -0.054173335 -0.0066991467 -0.37318534 -0.69424015 -0.61543745 0.0025721099
0.06150014 -0.054980475 -0.0073106205 -0.17498904 -0.63840038 -0.74954915 0.0037299455
0.064527549 -0.0553037 -0.0074400809 0.0054088738 -0.6723184 -0.74024248 0.0039553354
0.067621298 -0.054930553 -0.0073271962 0.17279169 -0.56531358 -0.80657518 0.003375462
0.070568323 -0.054090481 -0.0068125227 0.36155948 -0.55062079 -0.75239056 0.0029455307
0.072891898 -0.053650077 -0.0056603337 0.54058176 -0.55414653 -0.63300312 0.0027820882
-0.075306416 -0.050706051 -0.005456401 -0.68741041 -0.45936131 -0.56254262 0.0033459684
-0.073408432 -0.051203977 -0.0067715822 -0.54764825 -0.43253103 -0.71623892 0.004474021
-0.071256667 -0.052145507 -0.0076204096 -0.37624371 -0.43303183 -0.81909955 0.00509089
-0.055161014 -0.051749248 -0.0069666761 0.48733211 -0.59836543 -0.63597661 0.0034721019
-0.053035684 -0.050532829 -0.0061440575 0.58901834 -0.59378386 -0.54815882 0.0047341892
0.053175364 -0.050667398 -0.0059472793 -0.62755311 -0.60436356 -0.49083784 0.0039688051
0.055294342 -0.051744752 -0.0069463081 -0.53218466 -0.60861945 -0.58852506 0.0058435132
0.071585812 -0.051889557 -0.0076623019 0.45989981 -0.40622911 -0.78960115 0.0044527482
0.073645562 -0.051264934 -0.0067046001 0.54000443 -0.43301383 -0.72173005 0.0051871296
0.075621463 -0.050432749 -0.0054829102 0.64219791 -0.41962802 -0.64147812 0.0028075462
-0.075965874 -0.047984928 -0.0063119885 -0.68348336 -0.31962141 -0.65627176 0.0046370667
-0.074182339 -0.048571192 -0.0075560161 -0.55260712 -0.30951229 -0.77383953 0.0058673467
-0.051996328 -0.048464913 -0.0070114662 0.62706423 -0.5163365 -0.58325565 0.0066122133
-0.050392058 -0.047701735 -0.0057572182 0.69801891 -0.49963978 -0.5129618 0.0033660126
0.050396781 -0.047528092 -0.0057000825 -0.69832188 -0.49925107 -0.51292795 0.0029424066
0.052090447 -0.048455358 -0.006935508 -0.62811279 -0.51027793 -0.58744425 0.0059914482
0.074185051 -0.048894837 -0.0075447345 0.49929994 -0.3031452 -0.81166649 0.0026553932
0.076115087 -0.04800795 -0.0063210335 0.68338299 -0.32521126 -0.65362471 0.0050365459
-0.078315131 -0.043977976 -0.0052440222 -0.78730959 -0.23411331 -0.57038122 0.0052543199
-0.076587722 -0.045257334 -0.0067314948 -0.67354906 -0.22895186 -0.70278931 0.0044772523
-0.051001914 -0.046130352 -0.0077591147 0.70199335 -0.34284177 -0.62423146 0.0032112577
-0.049486939 -0.045083396 -0.0065529072 0.74666113 -0.34968826 -0.56587565 0.0054981527
0.04964428 -0.045107935 -0.0065161483 -0.74355733 -0.3320021 -0.58042842 0.0046756961
0.051082399 -0.046427771 -0.0074995514 -0.71701699 -0.37583205 -0.58705795 0.0061449683
0.076607823 -0.045239385 -0.006896541 0.66782421 -0.22687353 -0.70890003 0.0046179658
0.078348316 -0.044238672 -0.0053342339 0.77930021 -0.24513012 -0.57671684 0.0055892621
-0.078468911 -0.041924719 -0.0055131372 -0.76218635 -0.088670395 -0.64125621 0.0040629338
-0.076818578 -0.042260118 -0.0071932711 -0.62602252 -0.069420822 -0.77670878 0.0032319913
-0.048753381 -0.042247701 -0.0068287919 0.77984083 -0.18569335 -0.59780115 0.0034938406
-0.047516111 -0.041543934 -0.0052741971 0.81636298 -0.20850241 -0.53858924 0.0022621627
0.047766373 -0.041368026 -0.00541138 -0.81984425 -0.21053605 -0.53247547 0.0023002783
0.048901621 -0.042344429 -0.0067684422 -0.78335726 -0.18834719 -0.59234864 0.0036342384
0.076918773 -0.042150103 -0.0072853481 0.61605996 -0.070581973 -0.78453064 0.0034343719
0.078530908 -0.04195594 -0.0056507941 0.75430399 -0.092857599 -0.64992535 0.0037397195
-0.078494519 -0.03922819 -0.0056085559 -0.74789375 0.039612938 -0.66263556 0.0035102798
-0.076822788 -0.039127029 -0.0072286357 -0.61342442 0.056456607 -0.7877329 0.0031605018
-0.048729755 -0.039433531 -0.0072664097 0.76286137 -0.083711796 -0.64112008 0.0032996726
-0.04749741 -0.038834084 -0.0058470992 0.79772335 -0.1167606 -0.5916118 0.0027206405
0.047723897 -0.039101128 -0.005875119 -0.79780179 -0.12045825 -0.59076393 0.002818251
0.04895046 -0.039187588 -0.0073392019 -0.76310927 -0.081639647 -0.64109224 0.0032930609
0.076913625 -0.039189607 -0.0073137637 0.60014927 0.059404049 -0.79767913 0.0032755961
0.07850872 -0.039209895 -0.0058025313 0.74152476 0.04798812 -0.66920722 0.0038111701
-0.0782886 -0.036400851 -0.0053900597 -0.7286039 0.16534762 -0.6646778 0.0034588624
-0.076557629 -0.036077634 -0.0068649347 -0.59966558 0.1850394 -0.77856386 0.0027867092
-0.07459987 -0.035101891 -0.0079627093 -0.46740291 0.19394617 -0.86250758 0.0013448142
-0.04861825 -0.036219511 -0.0074634668 0.62493455 -0.052189816 -0.77893072 0.003581374
-0.047246356 -0.03602387 -0.0060021351 0.76740718 -0.10179603 -0.63302749 0.0033832132
0.047398701 -0.036080882 -0.0059681558 -0.76771313 -0.10203051 -0.63261867 0.003250987
0.048802581 -0.03635411 -0.0074589332 -0.62871194 -0.052762914 -0.7758463 0.0033958165
0.076646179 -0.03606369 -0.0069323597 0.61840516 0.19451882 -0.76140499 0.0044505349
0.078411601 -0.036573064 -0.0054817004 0.72068155 0.17315467 -0.67129391 0.0030763901
-0.076218836 -0.033388581 -0.0063406075 -0.61585885 0.24586876 -0.74850941 0.0044289557
-0.074160933 -0.032911219 -0.007604694 -0.44189212 0.23039471 -0.86697733 0.0036746426
-0.048601042 -0.03325101 -0.0076153334 0.57606637 -0.037197929 -0.8165561 0.0037424238
-0.047115359 -0.033117518 -0.0062332628 0.72366351 -0.093091018 -0.68384588 0.0036157947
0.047235534 -0.033175629 -0.0061652577 -0.72554922 -0.094689958 -0.68162459 0.0033826653
0.048660912 -0.033258352 -0.0075245532 -0.58242959 -0.038496118 -0.81196916 0.0036328614
0.074254543 -0.032816317 -0.0076207691 0.43914044 0.23064797 -0.86830711 0.0029707071
0.076355599 -0.033342514 -0.0063413521 0.61575985 0.2430575 -0.74950838 0.0039626583
-0.075855568 -0.030326942 -0.0056253239 -0.64364135 0.25661394 -0.72102368 0.0025300113
-0.073569 -0.030029356 -0.0070909886 -0.44151184 0.25611481 -0.85992587 0.0022438758
-0.071657784 -0.029737806 -0.0078987237 -0.33270398 0.22450843 -0.91591698 0.00079749251
-0.048587147 -0.030286716 -0.0077379611 0.53300643 -0.021679027 -0.84583348 0.0033931716
-0.046862558 -0.030123543 -0.0063025858 0.6988939 -0.063609608 -0.7123912 0.0039046791
0.046924859 -0.030132115 -0.0061859204 -0.68552572 -0.057682641 -0.72575974 0.0037223662
0.04864566 -0.030292561 -0.0076592173 -0.62782294 -0.028844427 -0.77782148 0.0022882009
0.071809895 -0.029385446 -0.0078211688 0.33248463 0.22574954 -0.91569167 0.00079372153
0.073764801 -0.030019335 -0.0070817298 0.44001192 0.25458676 -0.86114752 0.0022781407
0.076011397 -0.030438589 -0.0056788959 0.64664334 0.25398594 -0.71926606 0.0028335731
-0.075171515 -0.027657593 -0.0053017614 -0.66912633 0.24525982 -0.70151085 0.0037261024
-0.073198058 -0.02720762 -0.0065000467 -0.44386643 0.2305866 -0.86591709 0.0020852026
-0.070540324 -0.02709366 -0.0076213051 -0.31549692 0.23148313 -0.92025936 0.0016287012
-0.06852378 -0.026157437 -0.0079101771 -0.19877604 0.20313391 -0.95876205 0.00025092016
-0.048582394 -0.027329557 -0.0077799913 0.48614889 -0.0025642919 -0.87387222 0.0033950394
-0.04659177 -0.027158644 -0.0063113286 0.64199221 -0.059027467 -0.76443553 0.0037426183
0.046694051 -0.027125152 -0.0062543578 -0.65304303 -0.035885263 -0.75647008 0.0036017352
0.048639584 -0.027334055 -0.0077129286 -0.57951343 -0.011294332 -0.81488442 0.0025496781
0.068569794 -0.026155997 -0.0079324301 0.19379023 0.20642662 -0.95907944 0.00021699192
0.070730627 -0.027177757 -0.0076367767 0.31318259 0.2303867 -0.92132443 0.001683053
0.073401831 -0.027147748 -0.0064701838 0.43991914 0.23052749 -0.86794484 0.0020714253
0.07533405 -0.027551578 -0.0052736518 0.66889954 0.25247121 -0.69916499 0.0035611279
-0.07308007 -0.024378095 -0.0057813209 -0.5108946 0.22878762 -0.82863921 0.002844441
-0.070471071 -0.024155661 -0.0069537708 -0.30788058 0.21966013 -0.92572081 0.0015746948
-0.06760177 -0.023918636 -0.007629755 -0.21323305 0.21847947 -0.9522596 0.00032674297
-0.065080732 -0.022891948 -0.0078953933 -0.15794083 0.20055401 -0.96686751 0.00013762951
-0.048586451 -0.024109028 -0.0077443328 0.42841491 0.021770071 -0.90331984 0.0037131493
-0.046574529 -0.024184886 -0.0064722481 0.57817703 -0.01359893 -0.81579804 0.0043664011
-0.044834226 -0.023726812 -0.0050886404 0.70047885 -0.097657971 -0.70695996 0.006207021
0.04488983 -0.023189558 -0.005030727 -0.70239919 -0.10491893 -0.7040081 0.006351328
0.046634149 -0.024190415 -0.0063794693 -0.57818806 -0.013303253 -0.815795 0.0041956375
0.048702691 -0.024008268 -0.00770284 -0.43565902 0.023531854 -0.89980412 0.0035922732
0.065355532 -0.022937246 -0.0078853816 0.15428613 0.20449999 -0.96663105 0.00010477401
0.067647472 -0.023917183 -0.0076544043 0.20973878 0.21779369 -0.95319235 0.00029644032
0.070513107 -0.024152948 -0.006999407 0.30897334 0.21958417 -0.92537469 0.0015088514
0.073178999 -0.02440292 -0.0058249775 0.50931931 0.23007585 -0.829252 0.0030240424
-0.072512373 -0.02151322 -0.005327954 -0.54150337 0.23818132 -0.8062529 0.0030656036
-0.070596479 -0.021236239 -0.0061904308 -0.36596707 0.22548199 -0.90289867 0.0031095536
-0.067495279 -0.021190755 -0.0070554442 -0.22559145 0.22210568 -0.94856608 0.0002500682
-0.064496085 -0.021116391 -0.0076185348 -0.16293588 0.21015139 -0.96399605 8.507559e-05
-0.062052634 -0.020450762 -0.0078564342 -0.12846442 0.20903607 -0.96943319 0.0001114792
-0.048822496 -0.021080753 -0.0076924702 0.36588699 0.050284814 -0.92929983 0.0036926514
-0.046568286 -0.021218657 -0.0065315096 0.53513855 -0.01135054 -0.84468812 0.0045675375
-0.044812709 -0.021283789 -0.0052954433 0.67040664 -0.053225562 -0.74008238 0.0029188076
0.044872642 -0.021289039 -0.0051959809 -0.67249107 -0.053782221 -0.73814839 0.0026060161
0.046626896 -0.021223055 -0.0064481115 -0.53652507 -0.013263027 -0.8437801 0.0050029084
0.048979871 -0.021091415 -0.0076721702 -0.37097505 0.052054346 -0.92718279 0.0036309895
0.06210538 -0.020451875 -0.0078345537 0.12799495 0.20844752 -0.96962208 5.626876e-05
0.064543948 -0.021115802 -0.0076299044 0.15637824 0.20765096 -0.96562254 8.1241691e-05
0.067540444 -0.021189285 -0.0070834821 0.22286554 0.22304475 -0.94898999 0.00023828729
0.070637628 -0.021233555 -0.0062416107 0.36472231 0.22577289 -0.90332955 0.0031736768
0.072707802 -0.02158194 -0.0053279586 0.53632712 0.23482043 -0.81068653 0.0030582526
-0.070167661 -0.018492518 -0.0056277034 -0.3723765 0.23301451 -0.89835405 0.0029338112
-0.067326829 -0.018260963 -0.006412738 -0.24846616 0.22732131 -0.94158888 0.0010050812
-0.06450057 -0.018193239 -0.0069450098 -0.17030233 0.22453803 -0.95946848 5.8004414e-05
-0.06148481 -0.018252861 -0.0074304729 -0.12541027 0.21621928 -0.96825695 7.513148e-05
-0.058643606 -0.017911922 -0.0076860506 -0.098650463 0.21619111 -0.97135448 6.3386222e-05
-0.055765107 -0.017391456 -0.0078187548 -0.053602491 0.20657308 -0.97696179 0.00021222993
-0.052225754 -0.017181989 -0.0078873709 0.037358209 0.18323147 -0.98235971 0.0014948348
-0.049371034 -0.018160461 -0.0076041124 0.22804861 0.14277048 -0.96312535 0.0026542093
-0.046571795 -0.018257363 -0.0065007913 0.47014746 0.031801112 -0.88201475 0.0043323305
-0.044547509 -0.018314883 -0.005246819 0.61780351 -0.036526684 -0.7854836 0.0029920503
0.044688594 -0.018045206 -0.0052330317 -0.62419832 -0.04199928 -0.78013623 0.0030240268
0.046628382 -0.018260339 -0.0064361249 -0.46835524 0.025745209 -0.88316506 0.0043174014
0.049620494 -0.018101038 -0.007603257 -0.23524715 0.14255641 -0.96142417 0.0030503538
0.05264654 -0.01711984 -0.0078918003 -0.03650922 0.18687889 -0.98170429 0.0015369332
0.055814061 -0.01739125 -0.0078235902 0.056247171 0.20734382 -0.97664976 0.00014635683
0.058691259 -0.017911293 -0.0077001024 0.098926187 0.21232902 -0.97217792 9.0397283e-05
0.061572969 -0.018214498 -0.0074295234 0.12524486 0.21095137 -0.96943963 4.4569366e-05
0.064598627 -0.018235527 -0.0069690701 0.16795802 0.22121798 -0.96065223 6.9961592e-05
0.067521118 -0.018333837 -0.0064270841 0.24948329 0.22643372 -0.9415338 0.0012078473
0.0703637 -0.018368555 -0.0055953683 0.37272409 0.23015444 -0.898947 0.0030181333
-0.069442354 -0.015884332 -0.0052246973 -0.38580808 0.24819393 -0.88856727 0.003070872
-0.067413293 -0.015104845 -0.005623118 -0.25086078 0.23325171 -0.93950117 0.00089752953
-0.064455047 -0.015114555 -0.0062247878 -0.17074172 0.22766043 -0.95865422 4.7923513e-05
-0.061350208 -0.015284178 -0.0067598806 -0.13728695 0.22691834 -0.96418899 4.7861795e-05
-0.05833938 -0.015269968 -0.0071259793 -0.10555735 0.22046596 -0.96966612 5.0343802e-05
-0.055345844 -0.015259493 -0.0073960647 -0.066664457 0.20939653 -0.97555572 0.00015903881
-0.052372571 -0.015254267 -0.0075313128 0.016428009 0.17825356 -0.98384744 0.0015094251
-0.049443714 -0.015263514 -0.0072957668 0.19462448 0.13345291 -0.97175699 0.0037363053
-0.046541076 -0.015246797 -0.0063847331 0.39723411 0.047196966 -0.91650289 0.0040051038
-0.044535659 -0.015068781 -0.0053616548 0.55790496 -0.013827302 -0.82978964 0.0031250997
-0.025096821 -0.013721819 -0.0052653607 -0.061722122 -0.81706715 -0.57322907 0.0039807404
