# .PCD v0.7 - Point Cloud Data file format
VERSION 0.7
FIELDS x y z normal_x normal_y normal_z curvature
SIZE 4 4 4 4 4 4 4
TYPE F F F F F F F
COUNT 1 1 1 1 1 1 1
WIDTH 556
HEIGHT 1
VIEWPOINT 0 0 0 1 0 0 0
POINTS 556
DATA ascii
0.058030847 -0.0053546634 -0.048925731 0.098759636 0.81487471 -0.57116181 0.0013567148
0.060771331 -0.0057053696 -0.048691444 0.28609934 0.7722168 -0.56729919 0.003569524
0.062990956 -0.006178082 -0.047963142 0.4749566 0.69902641 -0.53458238 0.0020993326
0.04745806 -0.034000847 -0.045679688 -0.37252256 -0.89536285 -0.24403335 0.0063728187
0.048953712 -0.034298021 -0.046374023 -0.17149061 -0.96997017 -0.17247866 0.0091813682
0.054599795 -0.03423477 -0.046612304 0.16368689 -0.95075506 -0.26319453 0.011612818
0.043505393 -0.031507172 -0.046531647 -0.67065942 -0.71501285 -0.19741489 0.0029992117
0.045336343 -0.03285357 -0.046322405 -0.49933594 -0.84645629 -0.18486609 0.0040902281
0.058360033 -0.032719929 -0.046463042 0.51335067 -0.80046856 -0.30938825 0.006283076
0.040858135 -0.028618071 -0.046438165 -0.77568364 -0.60546631 -0.17811663 0.0020970667
0.042042863 -0.030045966 -0.046681184 -0.70661384 -0.68731236 -0.16822219 0.0023356879
0.062256258 -0.029049996 -0.047060549 0.70541942 -0.6273455 -0.32988036 0.0049741231
0.038263541 -0.024806593 -0.045699239 -0.84994471 -0.48312518 -0.2102001 0.0014167748
0.039327241 -0.026312858 -0.046269398 -0.84143519 -0.49913794 -0.20699821 0.0011089992
0.064246953 -0.026429173 -0.046646893 0.79405463 -0.50694442 -0.33538714 0.00064313202
0.03751136 -0.02309235 -0.046020236 -0.88067579 -0.41058636 -0.23628162 0.0015803555
0.066566847 -0.022947827 -0.046008687 0.85017931 -0.39661738 -0.34625107 0.0019475915
0.036297757 -0.02018817 -0.046086755 -0.91168547 -0.29620633 -0.28476587 0.0027521162
0.067853712 -0.020179691 -0.046225373 0.86339259 -0.2922563 -0.41126567 0.0024566061
0.035276357 -0.017090403 -0.04520715 -0.94769907 -0.13469151 -0.28935212 0.0037102241
0.035837274 -0.017429525 -0.046693895 -0.92706692 -0.10146815 -0.36090317 0.0031663633
0.068848535 -0.017048452 -0.046050299 0.91585118 -0.097112134 -0.389597 0.0034692714
0.035191916 -0.014383419 -0.045255393 -0.93749589 0.08151532 -0.33831459 0.004379957
0.035826001 -0.013997886 -0.046728712 -0.89742339 0.11375699 -0.42625165 0.0034023884
0.069002114 -0.014146112 -0.046096884 0.92684984 0.035480153 -0.37375221 0.0078821247
0.035426043 -0.012017597 -0.04482989 -0.86628813 0.34455547 -0.36169928 0.0039798385
0.036458451 -0.010927984 -0.046190549 -0.85253245 0.3609004 -0.37807313 0.0032888688
0.068033591 -0.010549234 -0.046250392 0.84581643 0.349884 -0.40271041 0.0025522367
0.068713516 -0.011977717 -0.045886077 0.84519267 0.3243629 -0.42477989 0.0028247174
0.037718564 -0.0083895512 -0.04565471 -0.71631426 0.56211233 -0.41342905 0.0034999731
0.039292119 -0.0073245144 -0.046522256 -0.52408546 0.70328271 -0.48034132 0.0028136522
0.064915285 -0.0068742302 -0.047013059 0.55579054 0.64592171 -0.52333736 0.0016542944
0.066743791 -0.0081250872 -0.045909543 0.70541096 0.55235755 -0.44418067 0.0031158724
0.04037229 -0.005908255 -0.045552328 -0.51415581 0.7237069 -0.46031755 0.002169709
0.042854566 -0.0048635858 -0.045962814 -0.30943838 0.80521888 -0.50583637 0.0040629455
0.045878351 -0.0043931231 -0.046402 -0.13627042 0.83319694 -0.53592277 0.00044023851
0.049036834 -0.0042272061 -0.046711255 -0.081776425 0.83424222 -0.54530048 0.00013794791
0.051675066 -0.0041043665 -0.046848651 -0.051183641 0.84199858 -0.53704619 8.0987309e-05
0.054806072 -0.0039833798 -0.046881404 -0.016244996 0.84240317 -0.53860283 9.8157696e-05
0.057942886 -0.0039835526 -0.046871178 0.07233984 0.8378194 -0.54113364 0.00098796806
0.061187532 -0.0044015483 -0.046588093 0.24141 0.80533028 -0.54144645 0.00243412
0.063932978 -0.0053124637 -0.04582525 0.49701509 0.70990491 -0.49901009 0.0048059328
0.065944962 -0.0064369333 -0.045023918 0.67430282 0.59216273 -0.4412019 0.0044761584
0.044185743 -0.003536765 -0.04450804 -0.25587296 0.83995491 -0.47854441 0.0011346055
0.04601809 -0.0034616268 -0.044892427 -0.15818584 0.84731668 -0.50698298 0.0011848429
0.048966471 -0.0032844562 -0.045160364 -0.083834589 0.84860522 -0.52234179 8.6986423e-05
0.052242253 -0.0031365454 -0.045323018 -0.051361676 0.84981132 -0.52457851 6.626283e-05
0.05499962 -0.0030392655 -0.045344885 -0.017453836 0.85075188 -0.52527767 8.0024838e-05
0.05790557 -0.0030392776 -0.045343317 0.067245245 0.84997088 -0.5225206 0.00088675722
0.060638931 -0.0033325143 -0.045192622 0.26718989 0.82052261 -0.50532383 0.0036825282
0.046274371 -0.033758704 -0.043073654 -0.51618314 -0.8459025 -0.13417847 0.0060477974
0.042772893 -0.031238778 -0.044049602 -0.67359692 -0.72937328 -0.11950615 0.0043724999
0.040321734 -0.02830391 -0.044297904 -0.80383164 -0.58345044 -0.11593234 0.00098597107
0.041657776 -0.030115392 -0.042949826 -0.71891296 -0.69266856 -0.058089752 0.0064191795
0.038219765 -0.025219318 -0.043279201 -0.84916943 -0.52163291 -0.08252579 0.001558346
0.038937841 -0.026425768 -0.043430775 -0.83188277 -0.54300344 -0.11453568 0.0012610941
0.036889359 -0.022913925 -0.043176502 -0.88950211 -0.43664879 -0.13462503 0.00081703119
0.035292074 -0.019129481 -0.043366536 -0.9451099 -0.24572416 -0.21537592 0.0050731553
0.035792898 -0.020600762 -0.043187421 -0.93000203 -0.308579 -0.19968785 0.001832537
0.069078967 -0.019115184 -0.043625712 0.91057813 -0.19761692 -0.36303577 0.0061327796
0.034791801 -0.017245598 -0.043186724 -0.97222012 -0.1411069 -0.18675329 0.002762276
0.034684211 -0.013775609 -0.0433641 -0.97290117 0.071381874 -0.21992715 0.0033902056
0.069487944 -0.012773369 -0.04410097 0.91816753 0.20385855 -0.3397207 0.0062082801
0.034966998 -0.011577199 -0.042592727 -0.92954707 0.30086857 -0.2131208 0.0039594295
0.035617683 -0.010458184 -0.043573909 -0.89270866 0.3658666 -0.26308328 0.0042980644
0.069385067 -0.011064098 -0.04293853 0.87903261 0.33146507 -0.34268448 0.0023769841
0.0367691 -0.0081452876 -0.042968038 -0.80595464 0.51077104 -0.29924905 0.0024438167
0.067822859 -0.0075902408 -0.043222416 0.8062489 0.44948265 -0.38461417 0.0017297737
0.06872426 -0.0089234551 -0.042804707 0.8549577 0.39869297 -0.33180013 0.0032556225
0.038023587 -0.0063673076 -0.042699412 -0.68321717 0.65003794 -0.33266345 0.0025967937
0.039864875 -0.0049453047 -0.043114491 -0.54290801 0.73445308 -0.40722167 0.0040056091
0.042046309 -0.0040299338 -0.044024274 -0.35569033 0.83911896 -0.41153827 0.0054053226
0.064706139 -0.0043146778 -0.043596316 0.44820833 0.73172784 -0.51350129 0.0028611962
0.066519521 -0.0054794909 -0.042775068 0.67150706 0.59495819 -0.44170457 0.0041665067
0.040999029 -0.0035723937 -0.042138536 -0.4793711 0.7612074 -0.43676844 0.0032914788
0.043101463 -0.0029121418 -0.04277017 -0.30747736 0.82689166 -0.47085872 0.00365527
0.045992047 -0.0023092898 -0.042932864 -0.1382453 0.85167587 -0.50550616 0.00045243066
0.049029976 -0.0018863897 -0.042857803 -0.087917157 0.85278749 -0.5148049 8.8131856e-05
0.051788434 -0.001786015 -0.043066707 -0.055032481 0.85485107 -0.51594675 7.3202049e-05
0.054892253 -0.0016352141 -0.043040652 -0.01645989 0.85326982 -0.5212099 6.7844972e-05
0.057975996 -0.0016101464 -0.042988308 0.072347626 0.8489036 -0.52357292 0.00080498884
0.061006825 -0.0020333664 -0.042976439 0.2080252 0.8367306 -0.50656438 0.0028938076
0.063598722 -0.0029237391 -0.042650484 0.45022118 0.73500115 -0.50702488 0.0029519217
0.06548544 -0.0035795313 -0.041662216 0.57432115 0.69517112 -0.4323104 0.0037988427
0.055489771 -0.00064789166 -0.041453965 -0.016923683 0.8562122 -0.51634705 6.2438834e-05
0.057449881 -0.00064808165 -0.041426957 0.067557596 0.85682064 -0.51116967 0.00089317816
0.035007413 -0.019280467 -0.040613577 -0.96156222 -0.21929781 -0.16524726 0.0059314072
0.034379564 -0.016819514 -0.040827647 -0.9816016 -0.088508509 -0.16918793 0.0060571954
0.034265786 -0.014129124 -0.040708169 -0.98468113 0.11065731 -0.13475193 0.0031113573
0.034810934 -0.011069865 -0.039943498 -0.9353168 0.31461358 -0.16186684 0.0026526379
0.070170537 -0.01072482 -0.039911494 0.87993258 0.35296968 -0.31801113 0.0011409706
0.035355553 -0.0090267053 -0.039225489 -0.90237409 0.40371245 -0.15078852 0.0033758341
0.036093473 -0.0078376736 -0.040031165 -0.8634488 0.45671386 -0.21416965 0.0021967359
0.069338292 -0.008080747 -0.040126346 0.87593353 0.35460824 -0.32709837 0.0015574883
0.037538465 -0.005538892 -0.03981059 -0.76659036 0.56685477 -0.30168658 0.0042053084
0.038996547 -0.0044090785 -0.040783782 -0.67066294 0.64588481 -0.36475199 0.0047099153
0.06762816 -0.0048776534 -0.040155459 0.75060856 0.51132268 -0.41849232 0.0020319433
0.068943828 -0.0062004072 -0.039137051 0.81564343 0.43842906 -0.37749916 0.0045046317
0.0402845 -0.0027889474 -0.039738718 -0.53647494 0.75097638 -0.38500544 0.0035811095
0.042697761 -0.0016377607 -0.04023613 -0.34011447 0.82031769 -0.45978367 0.0038852512
0.045815039 -0.0012022726 -0.040987268 -0.16676463 0.85322011 -0.49417102 0.00067951716
0.04791379 -0.0011374842 -0.041401744 -0.094794013 0.85588706 -0.50840092 6.6938352e-05
0.06188434 -0.0011392202 -0.041202724 0.24781863 0.79480445 -0.55396026 0.0064009107
0.064262591 -0.0017032791 -0.040238637 0.41275993 0.75156629 -0.51456517 0.0021341338
0.066293038 -0.0028504427 -0.039578598 0.60734707 0.65990663 -0.44232658 0.0021706093
0.043663871 -0.00050258794 -0.038933698 -0.34870487 0.82462144 -0.44542605 0.0031976125
0.046035539 -0.00023242494 -0.039415538 -0.17854139 0.85531723 -0.48636958 0.00068824366
0.048989154 -9.7568962e-05 -0.039867133 -0.095069967 0.85709417 -0.50631142 9.1735681e-05
0.051928379 6.9166184e-05 -0.040024247 -0.054862365 0.85584539 -0.51431394 7.2477378e-05
0.054871455 0.00023029296 -0.039957926 -0.014793337 0.8591491 -0.51151156 6.2381841e-05
0.0580847 0.00022559147 -0.039948873 0.060224444 0.85465276 -0.51569521 0.00081841531
0.060850948 -4.1420572e-06 -0.039834555 0.19598456 0.83533901 -0.51361352 0.0030029754
0.063347198 -0.0003843412 -0.039074074 0.43337846 0.7607187 -0.48320815 0.0036041061
0.034606982 -0.011059571 -0.037312154 -0.95290697 0.28053859 -0.11518033 0.00094594562
0.035036948 -0.0090954639 -0.036841132 -0.92982423 0.34579602 -0.1259048 0.0013658415
0.035638958 -0.0074818996 -0.037061945 -0.91195703 0.375572 -0.16516727 0.0037474742
0.070456952 -0.0084006377 -0.036939774 0.89390051 0.32031003 -0.31359759 0.00070873089
0.036818244 -0.005211174 -0.036935683 -0.85342693 0.46647292 -0.23251979 0.0042055324
0.068448409 -0.0046149236 -0.038378119 0.78704202 0.44882864 -0.42322302 0.0060683931
0.069440484 -0.0051995725 -0.036799774 0.85390228 0.40119642 -0.33150017 0.004173947
0.038090441 -0.0033220216 -0.036815807 -0.72133332 0.62033874 -0.30799058 0.0024798554
0.039854348 -0.0016703098 -0.036996923 -0.55512142 0.72503638 -0.40763021 0.0041586594
0.067150056 -0.0019040883 -0.037040722 0.65610123 0.5954932 -0.46359354 0.0043750494
0.06877768 -0.0034122285 -0.03629303 0.76949716 0.49451563 -0.4041391 0.0014363776
0.040820792 -0.00019431522 -0.035779029 -0.55441278 0.7292127 -0.40109253 0.004180843
0.042913802 0.00037267944 -0.03682236 -0.35839325 0.81865877 -0.44872269 0.003266962
0.045986429 0.001203949 -0.036931161 -0.18470259 0.85283488 -0.48842356 0.00086340198
0.048973754 0.0016426815 -0.036902212 -0.095731996 0.86107725 -0.49938104 9.1487556e-05
0.052079894 0.0017930513 -0.037112113 -0.056906573 0.86159438 -0.50439739 5.7199464e-05
0.055022772 0.0017932848 -0.037311532 -0.017965494 0.85978091 -0.51034707 3.8324466e-05
0.057984382 0.001793322 -0.037345953 0.031488933 0.85304141 -0.52089226 0.00034522629
0.061091747 0.0016942277 -0.037038945 0.18947701 0.83086973 -0.52321488 0.001952999
0.064001426 0.00071360753 -0.036913376 0.42985368 0.74037045 -0.51679528 0.003453111
0.065998591 -2.6885769e-05 -0.036099024 0.60355222 0.64468008 -0.46916142 0.0035661608
0.052768148 0.0027835476 -0.0354608 -0.05506308 0.86463684 -0.49937084 4.8982271e-05
0.054982647 0.0027833455 -0.035625312 -0.022985909 0.86341906 -0.50396341 5.0762184e-05
0.058203448 0.0027832971 -0.035673618 0.023978436 0.85920328 -0.51107222 0.00033191135
0.060208112 0.0027834731 -0.035532385 0.17568728 0.82822233 -0.53214824 0.0022122178
0.034661185 -0.010138188 -0.035173237 -0.93944168 0.32054773 -0.1212374 0.00053164671
0.035033014 -0.0081818458 -0.033954084 -0.92877829 0.33573613 -0.15700972 0.0010285227
0.071107522 -0.0076778326 -0.034160495 0.89394921 0.30865341 -0.32494304 0.0008379909
0.036268357 -0.0049138693 -0.03422628 -0.89067644 0.41247371 -0.19120897 0.0026696599
0.070289612 -0.0047499039 -0.034213506 0.89156502 0.30463612 -0.3351247 0.00090972736
0.037714932 -0.002243015 -0.033735774 -0.75791639 0.57546401 -0.30725223 0.0046465681
0.039026901 -0.0010321306 -0.034460906 -0.64287251 0.68761444 -0.33749282 0.0037175149
0.067867123 -0.00086439063 -0.034707911 0.6837185 0.56269515 -0.46465373 0.0065038139
0.069292404 -0.0020672882 -0.033610243 0.78300899 0.47960457 -0.39607632 0.0024722104
0.040291417 0.00055563159 -0.033593915 -0.56329745 0.73907954 -0.36940145 0.0035505502
0.042740826 0.0018202494 -0.03411109 -0.3719652 0.81206262 -0.44966227 0.0039529647
0.045675818 0.0022159587 -0.035073534 -0.18933901 0.8510043 -0.48983917 0.00075349578
0.064367913 0.0020383149 -0.034678236 0.39462468 0.74916571 -0.53199816 0.006121031
0.066847853 0.00094063941 -0.03366806 0.586487 0.64641708 -0.48803475 0.0037140022
0.043738451 0.0029535503 -0.032889105 -0.37991339 0.80564904 -0.45452774 0.0032521065
0.046139535 0.003223435 -0.033455282 -0.18684675 0.85827529 -0.47796631 0.0010017735
0.04906024 0.0033847834 -0.033916228 -0.097717859 0.8649528 -0.49224767 0.0001202847
0.051859666 0.003602521 -0.033931963 -0.059217438 0.86799544 -0.4930287 4.5415934e-05
0.054943871 0.0037833964 -0.033911712 -0.025351189 0.86795598 -0.49599367 6.8348025e-05
0.057928056 0.0037831813 -0.03397001 0.016514735 0.86884564 -0.49480763 0.00014810542
0.060972191 0.0036090915 -0.033944845 0.15571462 0.85337234 -0.49750233 0.0021822939
0.063736245 0.0031320001 -0.033452399 0.33332878 0.79608709 -0.5051111 0.0030500211
0.034934871 -0.0074972515 -0.031342082 -0.94317669 0.30498472 -0.13191663 0.00034472879
0.071397595 -0.0067221862 -0.032380164 0.90101808 0.30009243 -0.31322661 0.00066770217
0.035279874 -0.0060798968 -0.031188279 -0.90584248 0.37694681 -0.19328864 0.0016236601
0.035865393 -0.0044065034 -0.031193137 -0.9058525 0.376932 -0.19327052 0.0016013484
0.071053684 -0.0039843139 -0.031411588 0.89835507 0.28951603 -0.33036149 0.00083288772
0.071678691 -0.0057550813 -0.030654848 0.89836192 0.28948262 -0.33037204 0.00077856838
0.037043065 -0.0019239237 -0.031023555 -0.81667995 0.51615047 -0.25811365 0.0027716176
0.070376992 -0.0017945099 -0.030939102 0.87852234 0.34241903 -0.33308822 0.0019332401
0.038017999 -0.00010198762 -0.030418046 -0.73960555 0.60512519 -0.29463065 0.0029093609
0.039785199 0.001439588 -0.031087108 -0.59824461 0.71113276 -0.36931503 0.0031422842
0.067744821 0.0019525375 -0.0311791 0.63491142 0.62034458 -0.46049991 0.0070610079
0.069094084 0.00066840241 -0.030753914 0.73433834 0.53139681 -0.42233241 0.0026240752
0.040901933 0.0029583331 -0.030032434 -0.5791626 0.7209506 -0.38052711 0.0046450458
0.042874649 0.0037236856 -0.030742798 -0.41594148 0.8012175 -0.43016651 0.0030442616
0.04591421 0.0046146307 -0.030881241 -0.18755363 0.86166918 -0.47153986 0.0012272986
0.048850313 0.0048564193 -0.031220488 -0.10907514 0.86943507 -0.48185605 0.00017669758
0.051988434 0.0050467062 -0.031406254 -0.061250705 0.86999869 -0.48923478 5.1185805e-05
0.054964188 0.0050447281 -0.031691864 -0.028184505 0.8702479 -0.49180698 6.1439518e-05
0.057966087 0.0050443616 -0.031742055 0.01804642 0.87011057 -0.49252614 0.00014042579
0.061000373 0.0050040069 -0.031549197 0.1189093 0.8491776 -0.51454645 0.0015084727
0.064002328 0.0045343572 -0.031051017 0.3182444 0.80038196 -0.50804436 0.0031986267
0.066485308 0.0034185285 -0.03065085 0.53252447 0.68414491 -0.49836078 0.002011376
0.049422815 0.0058148424 -0.029600419 -0.11033002 0.86969739 -0.48109624 0.00015584358
0.051894099 0.0058110859 -0.030028392 -0.064264394 0.87342691 -0.48269597 7.3735479e-05
0.055167183 0.0059791515 -0.030027945 -0.02821367 0.8742941 -0.48457572 5.8111964e-05
0.057949509 0.0060640965 -0.029922165 0.012400882 0.87347209 -0.48671627 0.00010956047
0.060938332 0.0058098887 -0.030164585 0.12465588 0.8603555 -0.49421591 0.0023673892
0.063034698 0.0058150697 -0.029572472 0.27689427 0.81356972 -0.51130611 0.0027386816
0.035190362 -0.0050531332 -0.027765706 -0.97241509 0.22257435 -0.069781803 0.0018602624
0.035608567 -0.0040224683 -0.028977439 -0.94108194 0.31157842 -0.13146725 0.0022710229
0.072073095 -0.0042865369 -0.028234132 0.90220064 0.2967034 -0.31305125 0.00075981359
0.036331825 -0.0018617149 -0.028067671 -0.89239615 0.40658423 -0.19575103 0.0015349671
0.071105175 -0.001581976 -0.029010881 0.87771928 0.32888508 -0.34848741 0.0018492519
0.07181637 -0.00214655 -0.027479254 0.89616811 0.29861999 -0.32819024 0.00085787236
0.037685215 0.00081413472 -0.027640186 -0.7875362 0.55054706 -0.27691993 0.003316506
0.038994964 0.0019504636 -0.028711263 -0.74603552 0.58238292 -0.32289499 0.0027250221
0.070240617 0.0011195525 -0.028018296 0.80026507 0.44052935 -0.40682864 0.001656807
0.040259428 0.0036577717 -0.027686086 -0.59570295 0.70404112 -0.3866058 0.0037052769
0.042772498 0.0048698676 -0.028519079 -0.37234271 0.81432188 -0.44524243 0.0027180712
0.044923127 0.0053136903 -0.02922368 -0.19689196 0.85730273 -0.47567376 0.0011624407
0.06512098 0.0053146663 -0.029092222 0.40114099 0.76055098 -0.51053709 0.0071810558
0.067286275 0.0043820026 -0.028360184 0.55457616 0.67601389 -0.48523247 0.0064338474
0.069029979 0.0034458321 -0.027360331 0.67054045 0.5920608 -0.44703412 0.0021924686
0.0431922 0.0057854904 -0.027177896 -0.37806788 0.82092702 -0.42795277 0.0024236478
0.046141356 0.0063073114 -0.027849734 -0.19624235 0.86743551 -0.45721391 0.0013168571
0.049008511 0.0067429482 -0.027798932 -0.10476245 0.87497038 -0.47270691 9.0697431e-05
0.052103899 0.0068396376 -0.028178591 -0.068027668 0.87640399 -0.47674775 8.147474e-05
0.054856006 0.0071988693 -0.027794953 -0.033324499 0.87728733 -0.4788073 5.6593966e-05
0.057908777 0.0073525561 -0.02760762 0.010740343 0.87470919 -0.48452917 0.00011659819
0.060870156 0.0070728147 -0.027953353 0.088581927 0.86699682 -0.4903771 0.00079668628
0.063882947 0.0066477074 -0.027745407 0.24655591 0.82407767 -0.51000601 0.0018223021
0.066459693 0.0058366084 -0.027119972 0.456624 0.74290806 -0.48947138 0.002791432
0.034865726 -0.007393911 -0.025177516 -0.980793 0.18590808 -0.0590198 0.00066661328
0.035032425 -0.0053682183 -0.024613529 -0.97584748 0.1967123 -0.095004342 0.0018653
0.035414293 -0.0028146696 -0.024631061 -0.9520188 0.28903458 -0.10059404 0.0022832917
0.035974644 -0.0013795625 -0.025340308 -0.93729973 0.31095198 -0.1574108 0.0041721561
0.072427757 -0.0019160103 -0.025277384 0.89586717 0.29750976 -0.33001515 0.00070800609
0.037088085 0.0011825473 -0.024980024 -0.84697878 0.47035572 -0.24777493 0.0028023843
0.071124405 0.0016088643 -0.025727995 0.85537302 0.36472163 -0.36785197 0.002754481
0.071932837 0.0010115813 -0.024394438 0.87368661 0.33723345 -0.35063544 0.0014851034
0.038078025 0.0030015549 -0.02448662 -0.75739592 0.58550376 -0.28902724 0.0035288336
0.039374169 0.0042800824 -0.024981093 -0.66140217 0.66938961 -0.33832639 0.0048949816
0.070194475 0.0038591782 -0.024903398 0.71698606 0.5429697 -0.43716687 0.0041951658
0.040791765 0.0056387209 -0.024816383 -0.57683635 0.71409792 -0.39664093 0.0023326352
0.042912032 0.0068506859 -0.024935983 -0.41932291 0.80414814 -0.42132422 0.004874662
0.045743864 0.0075762728 -0.025358249 -0.21193913 0.85869712 -0.4666059 0.0015234166
0.048637457 0.0078114616 -0.025736816 -0.10484508 0.87640816 -0.47001734 9.2429909e-05
0.051819101 0.0078775575 -0.026208661 -0.071480818 0.87878495 -0.47183406 5.3753804e-05
0.062219858 0.0078757219 -0.026342452 0.1186102 0.86832237 -0.48160958 0.001377273
0.064182512 0.0077376729 -0.02581507 0.24710037 0.82623649 -0.50623572 0.0030384227
0.06701456 0.006875128 -0.025043514 0.41420808 0.75492555 -0.50844777 0.0020022523
0.069032848 0.0057590618 -0.024331439 0.59956211 0.64358163 -0.47573945 0.0024308022
0.046192769 0.0084194234 -0.023973167 -0.21057951 0.86678803 -0.452034 0.0014373187
0.048977893 0.0086714057 -0.024217356 -0.10497855 0.87631613 -0.47015899 8.6052903e-05
0.052146856 0.0087751644 -0.024590332 -0.070731416 0.8783226 -0.4728069 4.8115293e-05
0.055056032 0.0089203324 -0.024643667 -0.037039347 0.87783277 -0.47753298 4.0929059e-05
0.058019042 0.0088873375 -0.024825502 0.0043046218 0.87444812 -0.4851 0.00012809396
0.060919754 0.0089199329 -0.024669062 0.066183455 0.87140411 -0.48608088 0.00059980125
0.063648283 0.0087382467 -0.024397712 0.22814307 0.84681296 -0.48047742 0.0029532297
0.065904602 0.0084231384 -0.023725346 0.39913392 0.77072185 -0.49666882 0.0028030823
0.035042912 -0.0043776077 -0.022652913 -0.97619402 0.20126531 -0.080854848 0.0013533519
0.035152689 -0.0031167832 -0.021088824 -0.9691453 0.22374344 -0.10342264 0.00063009385
0.035567384 -0.0013027977 -0.022488058 -0.95532036 0.26171759 -0.13735718 0.0022429763
0.07293871 -0.0010431599 -0.022921264 0.8792308 0.33414814 -0.33955595 0.0014142836
0.036336485 0.0010320522 -0.022097368 -0.89890391 0.39687005 -0.18564993 0.0040935208
0.072814316 0.0010536422 -0.021793943 0.87738228 0.32591197 -0.35211045 0.0015744492
0.03757897 0.0037259641 -0.021659374 -0.81837052 0.50393724 -0.27625525 0.0040009893
0.038617715 0.0045933011 -0.022831112 -0.76409715 0.56726617 -0.30718845 0.0037003721
0.07108023 0.0043371026 -0.022794176 0.804708 0.44697654 -0.39071339 0.0025317743
0.071924515 0.0038298387 -0.021573305 0.82747364 0.41509035 -0.37813672 0.0041139699
0.038284361 0.0053790766 -0.020525932 -0.73793852 0.59865266 -0.31154725 0.0014315248
0.040074669 0.0065505439 -0.0219367 -0.6160624 0.70853579 -0.34415713 0.0035956572
0.042298939 0.0077547664 -0.022729371 -0.37806594 0.81292665 -0.44296312 0.0026263744
0.067962587 0.0077965334 -0.022795074 0.54818529 0.71985114 -0.42580187 0.0020944045
0.069933973 0.006505263 -0.022005716 0.70231527 0.58629096 -0.4037526 0.0012685499
0.043338858 0.0088591753 -0.021615855 -0.37000549 0.82046396 -0.43581519 0.0026837212
0.045976508 0.0093897237 -0.022099659 -0.21256422 0.86860627 -0.44759303 0.0014993966
0.04889385 0.0099953189 -0.02174289 -0.10698805 0.87718153 -0.46808773 8.6220563e-05
0.051894739 0.010162283 -0.021977806 -0.067337424 0.88184416 -0.46670827 7.4694406e-05
0.054893859 0.010509872 -0.021704804 -0.040323321 0.8839733 -0.46579516 6.9892922e-05
0.057955444 0.010506393 -0.02187806 -0.005906953 0.89127582 -0.45342302 0.00039705544
0.060960088 0.010475877 -0.021891251 0.062782794 0.88390505 -0.46343315 0.00043267015
0.064004563 0.010044452 -0.022019023 0.21247527 0.86155087 -0.46106875 0.0019951614
0.066850603 0.0090496801 -0.021937616 0.41668233 0.78449738 -0.45928183 0.0043803547
0.068596251 0.0084618889 -0.02114886 0.58932614 0.69855869 -0.40584522 0.0037537082
0.035276502 -0.0015887137 -0.019324683 -0.96745098 0.22874939 -0.10822339 0.00052847213
0.035379145 -0.00030659547 -0.017862201 -0.9529267 0.27065772 -0.1366566 0.0009947872
0.035948291 0.0014754453 -0.019220244 -0.93420756 0.31730843 -0.16300799 0.001998533
0.073507972 0.0012541423 -0.019427359 0.89907563 0.32493168 -0.29339805 0.0018661971
0.036968857 0.0040688375 -0.018954188 -0.87671852 0.41326767 -0.24611871 0.0051980279
0.072719648 0.0038381587 -0.019507542 0.85143209 0.43005019 -0.30020013 0.0033013404
0.037989993 0.0059101288 -0.018758941 -0.77226776 0.56289005 -0.29454589 0.0042691133
0.039338775 0.0074123889 -0.019049317 -0.67040616 0.64754772 -0.3622674 0.0066217738
0.070416704 0.0075846203 -0.01936923 0.72741556 0.6032207 -0.32709551 0.0041454211
0.071674407 0.005903359 -0.019582838 0.76245618 0.5582 -0.32722053 0.0019093261
0.040560693 0.00878808 -0.018610368 -0.5718661 0.71750671 -0.39768499 0.0035893251
0.042776298 0.0099516977 -0.018898103 -0.40384963 0.82711834 -0.39087191 0.0031862808
0.045765273 0.010754533 -0.019398175 -0.21997854 0.87775707 -0.42561948 0.0016725463
0.048930094 0.011064809 -0.019740069 -0.10615441 0.88511091 -0.45311141 0.00014293344
0.051457185 0.011054128 -0.020241283 -0.066804089 0.89044231 -0.45016634 0.00016849618
0.064398773 0.011061382 -0.019901469 0.22735861 0.88522291 -0.40581831 0.0024568068
0.066977337 0.010326537 -0.019114448 0.41073158 0.84237069 -0.34887138 0.0019932312
0.069475815 0.008756578 -0.018765375 0.61840051 0.7180565 -0.31933635 0.0028915473
0.046520561 0.011621155 -0.017967634 -0.22876443 0.88504857 -0.40540829 0.0013996055
0.0492041 0.011851075 -0.018231656 -0.104439 0.89736557 -0.42875114 0.00035437846
0.052023698 0.01183981 -0.018720154 -0.054864019 0.90195203 -0.42833689 0.00015105758
0.054950118 0.011855877 -0.019042745 -0.035002202 0.90430367 -0.42545247 0.00027829377
0.057893068 0.011875762 -0.019199602 0.0045255939 0.91868556 -0.39496386 0.00073256862
0.060884908 0.011853448 -0.019149253 0.076492935 0.91849148 -0.38797209 0.0013391952
0.063583419 0.011755112 -0.018599445 0.23079294 0.91032326 -0.34357831 0.0045466628
0.035442106 0.00046772847 -0.016965151 -0.95594114 0.25574437 -0.14412279 0.0014548703
0.035557557 0.0017655798 -0.015320171 -0.93208158 0.27166957 -0.23962376 0.015213688
0.036231026 0.0040465011 -0.015929453 -0.88921249 0.31750935 -0.32937655 0.0086358041
0.026206434 0.0080400668 -0.014420806 -0.016816573 -0.30958626 -0.95072263 0.019250136
0.026989782 0.008039739 -0.014444663 0.04027763 -0.25725481 -0.96550387 0.015535111
0.037278786 0.006642431 -0.015694702 -0.81192541 0.4812552 -0.33040974 0.01052059
0.038566075 0.0077461414 -0.01690051 -0.75493336 0.54517245 -0.36450335 0.0082949167
0.071281463 0.0074828826 -0.017147303 0.72700083 0.63998842 -0.24876617 0.0047523691
0.072193407 0.0064531895 -0.016307846 0.76548433 0.5858196 -0.26617479 0.0032292155
0.026205519 0.0088242777 -0.014439984 -0.030290317 0.074542806 -0.99675775 0.009439378
0.02717662 0.008936299 -0.014443627 0.049116723 0.036070518 -0.99814147 0.0087393615
0.038027909 0.0087306611 -0.014859914 -0.68564326 0.51367235 -0.51578486 0.013359413
0.03990173 0.0098200431 -0.015806828 -0.55479747 0.69384241 -0.45911047 0.01182864
0.042573206 0.010940935 -0.016401134 -0.35202324 0.84573972 -0.40100366 0.00094282971
0.06781625 0.010883976 -0.015988067 0.5281049 0.81746918 -0.22988981 0.0056496733
0.068968043 0.0098242424 -0.016982079 0.58060884 0.78031224 -0.23239234 0.0021599401
0.043608215 0.011829949 -0.015327542 -0.33281481 0.85947478 -0.38799146 0.00085147895
0.046085496 0.012346335 -0.016053325 -0.2327438 0.8945449 -0.38160151 0.0011989272
0.048749689 0.012911987 -0.015865587 -0.11123803 0.9103651 -0.39857438 0.00069947989
0.051900908 0.012963545 -0.016194174 -0.041836843 0.91696781 -0.39676151 0.00011100091
0.054995012 0.012956832 -0.016456809 -0.01335434 0.92697078 -0.37489566 0.00028657939
0.057986364 0.012930566 -0.016561329 0.033075169 0.94056386 -0.33800247 0.0007745527
0.060779247 0.012968559 -0.016005136 0.10642332 0.94701642 -0.30304137 0.0012077353
0.063963734 0.012488227 -0.015853519 0.24674787 0.93238181 -0.26415846 0.0023997992
0.065869465 0.011646483 -0.01684472 0.42014369 0.86323082 -0.27984253 0.0022575855
-0.07305 -0.025226913 -0.011575273 -0.1515519 -0.38707906 -0.90950638 0.005645616
-0.071059145 -0.025352836 -0.011662947 -0.022713255 -0.41260281 -0.91062784 0.0038486517
-0.06888368 -0.025271716 -0.011561333 0.12976788 -0.42441234 -0.89612192 0.0031457774
-0.075822935 -0.02246494 -0.011532236 -0.44094867 -0.17899264 -0.87950325 0.0067560794
-0.073955894 -0.023181934 -0.01199045 -0.24090064 -0.20052373 -0.94960892 0.0050400915
-0.07110469 -0.023139374 -0.012422621 -0.08100275 -0.22911891 -0.9700222 0.0043527605
-0.068061404 -0.023212587 -0.012237354 0.11579149 -0.2681241 -0.95640045 0.0027017787
-0.065290064 -0.022698388 -0.01182591 0.24325749 -0.3173798 -0.91656744 0.0024067115
-0.06320329 -0.021945063 -0.011413991 0.3897903 -0.329207 -0.86005014 0.0022256118
-0.075817041 -0.020356575 -0.011562394 -0.43442816 0.061760027 -0.89858657 0.0068510291
-0.074117489 -0.020059861 -0.012189457 -0.28000307 0.040241741 -0.95915526 0.0051123057
-0.071100645 -0.020024128 -0.012863618 -0.1300749 -0.041301966 -0.99064362 0.0047692177
-0.06794171 -0.020021645 -0.012913139 0.094443865 -0.11269401 -0.98913115 0.0048786304
-0.064878635 -0.02004897 -0.012402784 0.20994742 -0.16462094 -0.96375412 0.0034807194
-0.062429368 -0.019710241 -0.011736687 0.33320868 -0.20628624 -0.92000973 0.0033642368
-0.07371141 -0.017294401 -0.011850643 -0.34897712 0.23726048 -0.90659934 0.004236463
-0.071051672 -0.017204056 -0.012621732 -0.1637295 0.18449737 -0.96909928 0.0044775135
-0.067943364 -0.017134747 -0.012904641 0.0098457253 0.12807104 -0.99171615 0.0045339651
-0.064842492 -0.017148223 -0.012616383 0.16766813 0.041797757 -0.98495704 0.0037581194
-0.06190455 -0.017126143 -0.011877429 0.28374714 -0.019388109 -0.9587031 0.0029607622
-0.072836138 -0.015442479 -0.011545896 -0.36243767 0.43248516 -0.82558799 0.0031148284
-0.070782572 -0.014769272 -0.011962693 -0.23487122 0.37096095 -0.89845622 0.0046963459
-0.068058461 -0.014272804 -0.012256716 -0.076079473 0.29230303 -0.95329469 0.004814357
-0.064905517 -0.014273423 -0.012246085 0.10159061 0.21574079 -0.97115153 0.0040789526
-0.062057324 -0.014433098 -0.011763781 0.23801924 0.1413912 -0.96091378 0.003847094
-0.067493275 -0.01235171 -0.011582803 -0.15261663 0.46256483 -0.87335098 0.0041114562
-0.065013669 -0.01219276 -0.011610082 0.034206826 0.41061634 -0.91116643 0.0051669525
-0.062921479 -0.012459058 -0.011525585 0.21373995 0.34810552 -0.91276377 0.0038453087
0.035164874 0.001410165 -0.012172534 -0.89070123 -0.20689286 -0.40477976 0.082585447
0.01975956 0.0049197855 -0.011577099 -0.37946224 -0.56548715 -0.73227918 0.0071609509
0.022006962 0.0044959183 -0.012021775 -0.2107196 -0.68108898 -0.70122391 0.0099668112
0.02505332 0.0043327282 -0.012502952 -0.088723734 -0.68806589 -0.7202037 0.0081307497
0.027954577 0.0043047601 -0.01254484 0.051028211 -0.68929756 -0.72267908 0.0084726792
0.030870527 0.0043898234 -0.012178269 0.054459151 -0.67903465 -0.73208338 0.015714301
0.034272932 0.0041532991 -0.012263235 -0.59175491 -0.26842308 -0.76011527 0.11877155
0.035653047 0.0038579633 -0.013959556 -0.88560903 0.1448532 -0.44126421 0.036296017
0.017389873 0.0075525204 -0.011583794 -0.53644991 -0.29360431 -0.79121298 0.018576013
0.019046394 0.0068817772 -0.012249751 -0.42135075 -0.33224189 -0.84384769 0.013935847
0.021801727 0.0067438404 -0.01329849 -0.26308504 -0.25228983 -0.9312014 0.0076499688
0.024882559 0.0066996063 -0.013943566 -0.15550829 -0.31801662 -0.93524468 0.0077826809
0.028119916 0.0066593084 -0.014011959 0.11941643 -0.32031876 -0.93975294 0.009697224
0.030962672 0.006740706 -0.013592243 0.17007126 -0.22377464 -0.95968783 0.010068349
0.033893775 0.0067489357 -0.012848255 -0.33614591 -0.32631227 -0.88347387 0.072729431
0.036158167 0.0070719314 -0.013724079 -0.67773193 0.17505552 -0.71416724 0.040479816
0.017388545 0.0093948357 -0.011634215 -0.54957706 0.037517004 -0.83460021 0.0079700593
0.018944582 0.0099077495 -0.012392798 -0.41132203 0.073402308 -0.90852976 0.0035859328
0.021792879 0.0098869083 -0.013538057 -0.28314677 0.049949393 -0.957775 0.00318614
0.024832617 0.0099368347 -0.014177056 -0.15667959 0.09718179 -0.98285669 0.0036047867
0.02825449 0.010099825 -0.014229352 0.10795538 0.095239513 -0.98958325 0.0043271212
0.030948475 0.0098815486 -0.013833201 0.22166517 0.068207592 -0.97273439 0.0034151236
0.033892062 0.009898847 -0.012882947 0.16835827 0.1962667 -0.96598899 0.016803287
0.036932994 0.010001861 -0.012935173 -0.21883954 0.53329462 -0.81713283 0.05400648
0.039537065 0.010932399 -0.013671505 -0.31629139 0.75364983 -0.57616991 0.018377671
0.068194158 0.011199277 -0.013429224 0.45835686 0.87056231 -0.17896973 0.0026966771
0.070543766 0.0093634389 -0.013490676 0.65258306 0.74248672 -0.15115838 0.0030398192
0.019195186 0.012704281 -0.011941131 -0.43901515 0.18734463 -0.87873071 0.0018309969
0.021813309 0.012783446 -0.012985584 -0.29862225 0.19115017 -0.93503278 0.0017292587
0.024932643 0.012766584 -0.013657803 -0.11548982 0.19885448 -0.97320038 0.0014159996
0.028072881 0.01276469 -0.013733365 0.060689289 0.20057361 -0.97779703 0.0013225257
0.03098153 0.012776257 -0.013272529 0.25939897 0.20001872 -0.94483054 0.0018852726
0.033886246 0.01276474 -0.012283784 0.30849046 0.29029828 -0.90584803 0.0084719472
0.036943 0.011838811 -0.011653465 0.027249837 0.55977768 -0.82819474 0.03025854
0.040321495 0.011923624 -0.012337627 -0.2465377 0.81342137 -0.5268442 0.014478395
0.042929623 0.012637025 -0.01286011 -0.29749718 0.86534733 -0.40332305 0.0013090651
0.045681871 0.013467073 -0.013097271 -0.23258124 0.89488697 -0.38089794 0.00067116349
0.049011741 0.013807938 -0.013886868 -0.10511836 0.91159183 -0.39742967 0.00082308974
0.052116629 0.013798528 -0.014227796 -0.030164717 0.92074323 -0.38900143 0.00012297265
0.054986056 0.013796478 -0.014302408 0.010545899 0.92952186 -0.36861622 0.0004136996
0.057902608 0.013805165 -0.013987416 0.057704136 0.94119102 -0.33291084 0.00058116025
0.061162803 0.013742999 -0.013078222 0.16971539 0.94738716 -0.27139312 0.0012816531
0.063701317 0.01331999 -0.012544333 0.27008584 0.93081248 -0.24625525 0.0022160334
0.066521168 0.011969734 -0.01412253 0.4582819 0.87059641 -0.17899632 0.0027217811
0.019728508 0.015157195 -0.01163377 -0.44287163 0.20322761 -0.87324864 0.0016799272
0.021836542 0.015690146 -0.012356548 -0.28982157 0.19286768 -0.9374463 0.0014871671
0.024959568 0.015667893 -0.013052478 -0.15522611 0.19862103 -0.96770585 0.0032590243
0.028104424 0.015665514 -0.013126857 0.10709699 0.20373361 -0.97315097 0.0033308582
0.031018699 0.015681041 -0.01264153 0.25302017 0.19780467 -0.94702381 0.0018527816
0.033367369 0.015466431 -0.011901833 0.40217081 0.20057307 -0.89332479 0.0023144514
0.047119707 0.014391702 -0.011802106 -0.22659841 0.89520419 -0.38374823 0.00055760972
0.049146269 0.014369593 -0.012569218 -0.11040904 0.92114079 -0.37324199 0.00092907704
0.051934801 0.014668072 -0.012179266 -0.021939794 0.92413652 -0.38143185 0.00015650527
0.054680716 0.014549755 -0.012409182 0.036036052 0.9299441 -0.36593083 0.00031557918
0.057845093 0.014376649 -0.01232463 0.094799399 0.93891454 -0.33083618 0.00067120459
0.059769414 0.014395881 -0.011657535 0.17881796 0.94293946 -0.28087255 0.0012003763
0.022197584 0.018679382 -0.011825132 -0.29178837 0.20646074 -0.93393439 0.0016121109
0.02498902 0.018842405 -0.012390436 -0.14970884 0.24796428 -0.95713168 0.0038962224
0.028060693 0.018776979 -0.012481016 0.061563604 0.23178096 -0.97081792 0.0031940169
0.030922052 0.018884087 -0.011977322 0.25902981 0.22476335 -0.93935347 0.0020101154
0.032791521 0.017952088 -0.011592119 0.35537663 0.22898161 -0.90624213 0.0009346265
0.022973975 0.021140968 -0.011520719 -0.2145223 0.53427035 -0.81764013 0.023869419
0.025013626 0.021495273 -0.011837072 -0.10478576 0.43822533 -0.89273655 0.019342108
0.027903618 0.021491069 -0.011928981 0.057676755 0.43992448 -0.89618069 0.018435501
0.030250859 0.021316683 -0.011628107 0.15583582 0.54501826 -0.82381445 0.024708427
-0.075998843 -0.028101329 -0.0088255294 -0.47154582 -0.58420897 -0.66056377 0.0048947507
-0.073879711 -0.028571393 -0.009367791 -0.2523807 -0.60973346 -0.75135154 0.0053281179
-0.071087249 -0.028874623 -0.0095610544 -0.051134534 -0.6141969 -0.7874943 0.0028868529
-0.068135284 -0.028830243 -0.0093336552 0.16011384 -0.59742546 -0.78577763 0.002268872
-0.065443426 -0.028302185 -0.0089363586 0.33218238 -0.56843281 -0.75268787 0.0018540403
-0.078790739 -0.025291827 -0.0085595092 -0.67846012 -0.4115572 -0.60853308 0.0064818864
-0.076945432 -0.026041538 -0.0096065309 -0.5307526 -0.42909002 -0.73087847 0.0047649653
-0.074172311 -0.026292307 -0.010755653 -0.22199588 -0.48117447 -0.84805006 0.0034201127
-0.070921265 -0.026716227 -0.010980334 -0.014953074 -0.49588075 -0.86826193 0.0029148723
-0.067800142 -0.026430719 -0.010800651 0.16832832 -0.4782784 -0.86192542 0.0017730399
-0.065063618 -0.02625142 -0.010065657 0.2946361 -0.47246754 -0.83064067 0.0014366473
-0.062396422 -0.025710553 -0.0091584614 0.43216169 -0.49289638 -0.75517511 0.0014851737
-0.060485192 -0.024758104 -0.0086112609 0.53091067 -0.49741742 -0.68608302 0.0021346048
-0.079183511 -0.023020696 -0.009094853 -0.66136754 -0.17665443 -0.72896248 0.0053137606
-0.077121623 -0.023300126 -0.010616183 -0.54199231 -0.16004515 -0.82500297 0.0044316207
-0.075161748 -0.024409298 -0.011320937 -0.28470045 -0.26125687 -0.92232883 0.0071576578
-0.064666755 -0.024039105 -0.011064488 0.28237507 -0.3820678 -0.8799367 0.001857555
-0.062086068 -0.023200301 -0.010336249 0.39424998 -0.38344997 -0.83518445 0.00098391238
-0.059644688 -0.022933034 -0.0090861656 0.51662976 -0.4147934 -0.74902606 0.0014375808
-0.079190858 -0.020218724 -0.009204004 -0.68947923 0.06953489 -0.72096002 0.0054609044
-0.077258535 -0.020087935 -0.01067087 -0.54544842 0.10284108 -0.83181107 0.003516993
-0.061278813 -0.020539712 -0.011047315 0.40396968 -0.25857604 -0.87746626 0.002545451
-0.058956187 -0.020181678 -0.0099174976 0.49404067 -0.30701077 -0.81342995 0.0018703016
-0.056904171 -0.019657807 -0.0087978533 0.55926347 -0.32926387 -0.76079553 0.0021985138
-0.079155654 -0.017991431 -0.0087226247 -0.68366718 0.27104354 -0.67759478 0.0038680693
-0.077166051 -0.017055167 -0.0098891668 -0.54942769 0.30633727 -0.77735877 0.0023964492
-0.075055189 -0.016758112 -0.011077679 -0.4239735 0.2870346 -0.85898644 0.0030095701
-0.060582541 -0.017998192 -0.011331319 0.3625198 -0.066900238 -0.92957175 0.0033409293
-0.058810886 -0.017191609 -0.010582259 0.45166659 -0.090947837 -0.88753915 0.0028772908
-0.056283992 -0.016957259 -0.0091242939 0.55102265 -0.14439744 -0.82190228 0.003101819
-0.076302432 -0.014418668 -0.0090809204 -0.48318091 0.49072623 -0.72506821 0.0015913903
-0.074100561 -0.014273871 -0.010310485 -0.40740505 0.45128104 -0.79395628 0.0014866809
-0.071552381 -0.013481434 -0.011068099 -0.29128176 0.44712967 -0.84571272 0.0026616727
-0.060765915 -0.013609215 -0.011282656 0.30821425 0.12753914 -0.94272888 0.0038343547
-0.058881599 -0.014299147 -0.010644957 0.42616832 0.073411204 -0.90166026 0.0020207986
-0.056158066 -0.014130042 -0.0091791311 0.52912438 0.082852378 -0.84448975 0.003941298
-0.073519759 -0.011968595 -0.009025922 -0.42052689 0.56497157 -0.70990437 0.0018335661
-0.070916943 -0.011353205 -0.0098544611 -0.3181091 0.57276118 -0.75548071 0.0024589766
-0.068109408 -0.010887048 -0.010595348 -0.19649149 0.5309031 -0.8243379 0.0023681289
-0.065082967 -0.010670077 -0.010864548 -0.017447805 0.49512008 -0.8686493 0.0035942879
-0.06193009 -0.011088613 -0.010760308 0.16145767 0.42947593 -0.88852793 0.0038840396
-0.058959313 -0.011193701 -0.0098996032 0.36485356 0.37111664 -0.85390538 0.0041153068
-0.056664955 -0.011552816 -0.0089169908 0.49214059 0.31920013 -0.8098821 0.0032193803
-0.070038006 -0.0093807168 -0.0085696271 -0.34776002 0.65770918 -0.66819286 0.0010393813
-0.067814589 -0.0089482311 -0.0091528799 -0.23536591 0.63767397 -0.73346764 0.0027574496
-0.064986885 -0.0085160909 -0.0093596559 -0.066246599 0.64278847 -0.76317388 0.0051397891
-0.062099613 -0.0086124837 -0.0093564708 0.1281025 0.586981 -0.7994017 0.0037086215
-0.059452947 -0.0088772606 -0.0088816769 0.32821235 0.51653069 -0.79086834 0.0032444785
0.022769051 0.002286897 -0.0086585078 -0.17890505 -0.88489246 -0.43006778 0.0016379271
0.025130741 0.0022869119 -0.0092037059 -0.098344274 -0.88006955 -0.4645493 0.0024276678
0.02803939 0.0022869101 -0.0092864977 0.081346512 -0.92468745 -0.37193537 0.0064126989
0.034619343 0.0011760033 -0.0098509984 -0.61166036 -0.67817271 -0.40737385 0.032892648
0.016710553 0.0045637609 -0.0092070093 -0.53267962 -0.58343899 -0.61306715 0.0055096354
0.019019047 0.0039245468 -0.0099322489 -0.39405572 -0.72293288 -0.56752813 0.01146592
0.021755487 0.0032371809 -0.010270497 -0.17028303 -0.86195618 -0.47753042 0.0030138991
0.024939716 0.0030539837 -0.010806422 -0.06969399 -0.86156017 -0.50284863 0.0021783214
0.028157717 0.0030120015 -0.010828498 0.081974775 -0.89733171 -0.43367714 0.0063588899
0.030775024 0.003236956 -0.010508313 -0.029096561 -0.89671868 -0.44164348 0.039999295
0.033436753 0.0033424753 -0.010420579 -0.5322215 -0.62944537 -0.56616145 0.087189831
0.014106377 0.0074993335 -0.0087794904 -0.71812356 -0.18343265 -0.67130548 0.012945482
0.015985128 0.0067052655 -0.01015979 -0.60207081 -0.31103459 -0.73536938 0.015607839
0.018102422 0.0056247767 -0.011208851 -0.44363374 -0.41279545 -0.79548037 0.010274609
0.014105908 0.0097077619 -0.0088051418 -0.71720344 0.0703291 -0.69330585 0.0047970144
0.015934395 0.01000964 -0.010412242 -0.62437564 0.086750492 -0.77629203 0.0029242623
0.014289169 0.011835601 -0.0084607592 -0.73671901 0.15286444 -0.65869391 0.0015314061
0.016156597 0.012824275 -0.0099000512 -0.6090346 0.19412373 -0.76902068 0.00092764979
0.01803243 0.013249704 -0.011199014 -0.49053404 0.19456585 -0.84942359 0.0019314187
0.035309937 0.013878118 -0.011341332 0.41843972 0.3433471 -0.84084535 0.014203593
0.036985449 0.013143643 -0.010805802 0.26922581 0.51984507 -0.81072718 0.033489302
0.039776154 0.013234479 -0.010075558 -0.014789246 0.7756995 -0.63092905 0.028694317
0.04265935 0.013639707 -0.010424115 -0.16603796 0.85163593 -0.49713951 0.010301492
0.064193547 0.013780139 -0.01011066 0.34741452 0.88583416 -0.3075729 0.0025739069
0.066683568 0.012645059 -0.010065828 0.44232088 0.87103373 -0.21366419 0.0041020694
0.01650464 0.015695158 -0.00943569 -0.62155253 0.1986827 -0.75775832 0.0028067683
0.01866354 0.015975377 -0.01089007 -0.49094608 0.20507109 -0.84671003 0.0015204777
0.034837216 0.016065147 -0.011063382 0.43047658 0.23169582 -0.87235707 0.0023411703
0.036972981 0.015728887 -0.0097194435 0.50686949 0.34274435 -0.79095495 0.013168897
0.03907077 0.014613695 -0.0087012863 0.22407602 0.55185086 -0.80327487 0.041361485
0.043406367 0.01446878 -0.0091285575 -0.13579863 0.87462538 -0.46539128 0.0085435435
0.045906737 0.014891653 -0.0097683016 -0.20242397 0.90653312 -0.37043521 0.00071607059
0.049020447 0.015347138 -0.010109713 -0.11620246 0.92440844 -0.36327133 0.00044594498
0.051971387 0.015753236 -0.0096300943 -0.038420409 0.91025901 -0.41225284 0.0015424869
0.055095173 0.015621506 -0.0097933766 0.03465455 0.89829051 -0.43803322 0.0026379796
0.057991564 0.015262229 -0.0099584423 0.10728331 0.91765875 -0.382613 0.0012618363
0.06102486 0.014823485 -0.0096868686 0.20295189 0.91381729 -0.3517791 0.0027951284
0.063303605 0.014476169 -0.0088722995 0.31538188 0.88411129 -0.34479186 0.0029581832
0.016993523 0.018842908 -0.0090202829 -0.63869011 0.21011925 -0.74021941 0.0019896682
0.019005628 0.018922614 -0.010360006 -0.47006539 0.22316383 -0.85395336 0.001387617
0.020855518 0.019446056 -0.011185185 -0.34599668 0.22387807 -0.91113383 0.001879595
0.032147598 0.020199832 -0.011359214 0.26014096 0.42624763 -0.86639464 0.022826668
0.034186129 0.019025618 -0.010670482 0.42649019 0.24846798 -0.86969519 0.0016268821
0.036600884 0.01878711 -0.0091974335 0.60425419 0.22805376 -0.76345819 0.0023786356
0.017289257 0.021020563 -0.0086883698 -0.51675022 0.49232405 -0.70041859 0.020804655
0.018963957 0.021754878 -0.009542509 -0.40108064 0.57375103 -0.7141037 0.0214925
0.021676149 0.021937983 -0.010705678 -0.30152744 0.55629539 -0.77434909 0.023070171
0.025060935 0.02286276 -0.01077257 -0.10338172 0.81421655 -0.57128251 0.0073045115
0.027957905 0.022857862 -0.010872661 0.055296108 0.82230246 -0.56635773 0.0069648158
0.031356715 0.022201873 -0.010814247 0.24605323 0.68556666 -0.68516868 0.026927212
0.033993755 0.021726457 -0.0099997073 0.40672201 0.5935446 -0.69446528 0.024441676
0.036244694 0.021522025 -0.0087680975 0.51986283 0.54139161 -0.66078573 0.024635088
0.022770161 0.023497766 -0.0086296787 -0.20317757 0.83165991 -0.51677918 0.0045624827
0.025128394 0.023466391 -0.0092556514 -0.10688688 0.84929109 -0.5169912 0.0079296688
0.028036026 0.023461521 -0.0093528563 0.0607282 0.85910493 -0.5081839 0.0072537805
0.030447925 0.023487542 -0.0088338098 0.17003168 0.85830384 -0.48415264 0.0039658067
-0.075876847 -0.030810121 -0.0057957759 -0.49365494 -0.73359811 -0.46705306 0.0038623216
-0.07384342 -0.031236975 -0.0065423078 -0.28386009 -0.77649271 -0.56256789 0.003566612
-0.071020655 -0.031778205 -0.0066305408 -0.076548696 -0.81864369 -0.56917733 0.0038692984
-0.067997597 -0.031637106 -0.006590263 0.1417055 -0.77796954 -0.61211348 0.0035751611
-0.065222137 -0.031135064 -0.006193066 0.33111897 -0.72262716 -0.60677028 0.0022553811
-0.078597493 -0.028693635 -0.005537211 -0.64876693 -0.6116401 -0.45276687 0.0045844722
-0.076991394 -0.029048644 -0.0070091775 -0.52454853 -0.68423569 -0.50662649 0.0030056566
-0.074231222 -0.029895946 -0.0079942541 -0.25943908 -0.73472458 -0.6267944 0.0041220747
-0.070932671 -0.030636793 -0.0080263857 -0.048720215 -0.73322111 -0.67824274 0.0031924767
-0.06794589 -0.030413626 -0.0079705492 0.15090258 -0.71261168 -0.68513721 0.0028241454
-0.064849749 -0.029458806 -0.0077148899 0.34210998 -0.64011323 -0.6879068 0.0033075751
-0.062370628 -0.028968835 -0.0066474234 0.46580258 -0.60955006 -0.64146453 0.0018219792
-0.060399026 -0.028142396 -0.005776315 0.54873854 -0.5804134 -0.60166967 0.001193955
-0.079552464 -0.026015949 -0.0069806566 -0.74101645 -0.41788113 -0.5256139 0.0034296396
-0.077931985 -0.027276332 -0.0079890182 -0.54022384 -0.59556478 -0.59452575 0.0053649354
-0.061329491 -0.026761973 -0.0077491375 0.48790249 -0.52461159 -0.69766307 0.0023903395
-0.059230886 -0.025906131 -0.006688063 0.58857608 -0.52254474 -0.61686724 0.0014524856
-0.057224497 -0.024951521 -0.0055848053 0.60284799 -0.53309059 -0.59362346 0.00090807228
-0.081749581 -0.022002321 -0.0057924977 -0.8361516 -0.095528297 -0.54011559 0.0036120166
-0.080527186 -0.023244357 -0.0073331408 -0.80141073 -0.18302642 -0.56942266 0.0036802515
-0.058316275 -0.023603478 -0.0076786163 0.57227713 -0.45590755 -0.68165028 0.0016552547
-0.056451365 -0.022862684 -0.0065083196 0.62718427 -0.4611055 -0.62771142 0.0016109544
-0.081688128 -0.020118132 -0.0060896925 -0.83616102 0.023160296 -0.54799491 0.0055261869
-0.080555759 -0.020298244 -0.0077121123 -0.79504311 0.047880717 -0.60466015 0.0033917692
-0.055825397 -0.020441091 -0.0075345105 0.62134439 -0.37600946 -0.68742126 0.0030487145
-0.054082263 -0.019871872 -0.0061705587 0.68527806 -0.39314142 -0.6130529 0.0019026709
-0.081768587 -0.018269803 -0.0057005575 -0.82788891 0.13731192 -0.54382479 0.0031022725
-0.080159605 -0.016947804 -0.007181487 -0.71417338 0.28204185 -0.64063144 0.0040748403
-0.054914217 -0.017361665 -0.0080192806 0.66352433 -0.17026225 -0.72852337 0.0029695563
-0.05341104 -0.017082594 -0.0066523636 0.7308228 -0.1782044 -0.65889394 0.003063374
-0.079469383 -0.014520198 -0.0065128771 -0.6244393 0.45857319 -0.63228649 0.0017850882
-0.077684261 -0.013877922 -0.007676295 -0.567577 0.47383124 -0.67330557 0.0020851777
-0.054717235 -0.0141697 -0.0081583196 0.64617389 0.066669285 -0.76027262 0.0035572008
-0.053312194 -0.014221964 -0.0068134679 0.69527179 0.072341084 -0.71509713 0.0029434771
-0.076714315 -0.011679512 -0.0065438566 -0.50032163 0.59711742 -0.62699997 0.001021023
-0.074322395 -0.010837385 -0.0074708108 -0.43527454 0.63563341 -0.63757837 0.0014746373
-0.071988061 -0.0099256821 -0.0080625406 -0.37011707 0.65654749 -0.65723574 0.0030050918
-0.055434659 -0.010966509 -0.0078342566 0.572447 0.28691682 -0.76810354 0.0030309551
-0.053560678 -0.011444104 -0.0064134635 0.66252494 0.22819644 -0.71343333 0.0011735561
-0.073564403 -0.0090503469 -0.0060293032 -0.4114562 0.7027635 -0.58036822 0.0011451938
-0.071002945 -0.0084798895 -0.0069787102 -0.3582699 0.71937096 -0.59510338 0.0015484125
-0.068157494 -0.0073781386 -0.0071994783 -0.27253792 0.75829399 -0.59221047 0.0016492048
-0.064987712 -0.0070322552 -0.0079258261 -0.11102375 0.74546385 -0.65723461 0.0027160153
-0.061916128 -0.0070074457 -0.007956462 0.078930229 0.70410269 -0.70569783 0.0024479236
