# .PCD v0.7 - Point Cloud Data file format
VERSION 0.7
FIELDS x y z normal_x normal_y normal_z curvature
SIZE 4 4 4 4 4 4 4
TYPE F F F F F F F
COUNT 1 1 1 1 1 1 1
WIDTH 552
HEIGHT 1
VIEWPOINT 0 0 0 1 0 0 0
POINTS 552
DATA ascii
-0.003366082 0.00091937894 -0.026220538 -0.078034043 0.50262254 -0.86097693 0.071119621
0.0044254446 0.0020446135 -0.025108706 -0.48635745 0.18773569 -0.85335326 0.0020082484
0.0066012214 0.002197681 -0.026235208 -0.62316495 0.14298801 -0.7689082 0.0083099604
0.048474923 0.0022818716 -0.025925942 -0.90272683 -0.42890903 0.03348659 0.00091647892
0.0048412881 0.0042502056 -0.024829365 -0.53862262 0.21224779 -0.81537509 0.0028220098
0.0067660012 0.0052023837 -0.026013877 -0.6922977 0.10592449 -0.71379542 0.0064802528
0.046992779 0.0060329363 -0.026184224 -0.94374657 -0.32853758 0.037490398 0.00049620005
0.047535356 0.0045003593 -0.025934555 -0.93514609 -0.35291123 0.030910399 0.00051198812
0.00686076 0.0083345063 -0.026063245 -0.72153366 0.086902887 -0.68690395 0.0053007868
0.046449304 0.0078185126 -0.02644933 -0.96006173 -0.27180859 0.066343367 0.00049481867
0.0047901114 0.012646846 -0.027381487 -0.72079676 -0.42551163 -0.54716718 0.072826952
0.0068575069 0.011076861 -0.026207978 -0.6271835 -0.40538016 -0.66506231 0.080464311
0.0088863047 0.012152347 -0.026771991 -0.55483627 -0.39800042 -0.73058355 0.085356615
0.045834806 0.010654502 -0.025189526 0.95291919 0.27842319 -0.1201065 0.0045483671
0.0045686769 0.014297722 -0.027110279 -0.77581382 -0.40357897 -0.4850122 0.081512444
0.0436178 0.015219904 -0.026637621 0.94500601 0.23610602 -0.22631322 0.03777631
0.045218561 0.013704441 -0.026060797 0.95091814 0.2273645 -0.20990516 0.026916038
0.004541121 0.016991306 -0.027070401 -0.85811794 0.038073961 -0.51203895 0.023852488
0.043329362 0.017277174 -0.026188033 0.97463036 0.069633186 -0.21271323 0.029031999
0.044686772 0.016767411 -0.026233701 0.94501805 0.23607175 -0.22629826 0.037782226
0.0046240357 0.01936725 -0.027178081 -0.68436635 0.50317198 -0.52769381 0.05836701
0.0068843942 0.02141799 -0.025172636 -0.65614146 0.55148923 -0.51510972 0.067079984
0.0086451564 0.021364547 -0.026294686 -0.48464882 0.63193667 -0.60479051 0.061348006
0.043299999 0.019906368 -0.026226716 0.92839074 0.19168255 -0.31835261 0.020490512
0.04428421 0.020899924 -0.025301643 0.93732423 0.08089418 -0.33893871 0.018265272
0.0068607647 0.02316553 -0.026063006 -0.73184866 -0.15043473 -0.66465545 0.0082179746
0.042994533 0.023175955 -0.026247233 0.93868625 0.084808014 -0.3341791 0.011261894
0.0068607517 0.02623399 -0.026063539 -0.75483441 -7.5922879e-05 -0.65591532 1.5062096e-05
0.042525768 0.026199142 -0.02636217 0.89236063 0.17836922 -0.41458035 0.013487233
0.0068607442 0.029302448 -0.026063841 -0.75991082 0.048233371 -0.64823538 0.0039448291
0.040957384 0.029676264 -0.026839597 0.83041292 0.18818972 -0.52440351 0.029643131
0.042456869 0.029159561 -0.026135333 0.85308462 0.19201677 -0.48515588 0.024899188
0.0069555184 0.032247573 -0.026065901 -0.76985049 0.19620806 -0.6073159 0.0087327668
0.0083519416 0.033274874 -0.027607121 -0.74456197 0.20902148 -0.63398552 0.0066500134
0.040448338 0.032305062 -0.026564764 0.80230904 0.25285324 -0.54070842 0.026148133
0.041984387 0.032203175 -0.026021695 0.80561948 0.19197993 -0.56046498 0.017746972
0.0073140371 0.034861706 -0.025528578 -0.76173735 0.36883923 -0.53264797 0.0070067616
0.0090305498 0.035596378 -0.026820268 -0.70119733 0.39359504 -0.59447902 0.0043748766
0.040223412 0.035338815 -0.026544021 0.77320355 0.18606026 -0.60624892 0.007559373
0.041802634 0.034986235 -0.02534877 0.78215069 0.16698517 -0.60029685 0.0064328141
0.0079218326 0.036831729 -0.024728544 -0.67752671 0.54810548 -0.49044663 0.010651283
0.010053257 0.037737977 -0.025778085 -0.60074621 0.59194565 -0.53731209 0.0033957146
0.012040379 0.0387889 -0.026814628 -0.66125792 0.55282182 -0.50707597 0.0052451519
0.037923947 0.03966359 -0.027388372 0.70070136 0.30044311 -0.6471101 0.002786326
0.039642069 0.038246714 -0.026345342 0.70430857 0.28405631 -0.65058547 0.0045607784
0.041231878 0.037825521 -0.025100954 0.77586275 0.21987776 -0.5913465 0.0028163802
0.013000591 0.040815163 -0.025997872 -0.70770019 0.54743993 -0.44662055 0.0038210361
0.014477885 0.042218216 -0.027329214 -0.73962849 0.49064597 -0.4606694 0.0042634262
0.03770816 0.041540813 -0.02672375 0.74459076 0.23994544 -0.62290514 0.0043060048
0.039390981 0.041046623 -0.02577069 0.69573826 0.2654283 -0.6674549 0.0019660243
0.014059446 0.042943083 -0.025184549 -0.73380369 0.52742249 -0.42820275 0.0019404332
0.015802693 0.044318296 -0.026257586 -0.6503486 0.68730104 -0.32351792 0.013698223
0.034923628 0.045336835 -0.026769198 0.56131494 0.74691278 -0.35643628 0.052115861
0.037283663 0.044269018 -0.026515143 0.63215083 0.556795 -0.5388549 0.042790852
0.038874052 0.043926228 -0.024973061 0.70943278 0.46261504 -0.53168833 0.021428594
0.018809937 0.046039805 -0.027347274 -0.47137466 0.82514405 -0.31135696 0.0039742813
0.021126371 0.046844639 -0.026984699 -0.34078112 0.90226656 -0.26416531 0.011114524
0.024173692 0.047331445 -0.027195014 -0.17551492 0.96550989 -0.19231546 0.0016136958
0.034571838 0.046032064 -0.025055494 0.56134737 0.74688774 -0.35643765 0.052095108
0.036809903 0.045956489 -0.025756754 0.48153326 0.75952756 -0.43731403 0.053879574
0.051407404 -0.053348385 -0.02182097 -0.28654227 -0.86598873 -0.40982568 0.0022749989
0.054613039 -0.053719193 -0.02289911 -0.17682889 -0.88385296 -0.4330537 0.0024196738
0.057584614 -0.053950012 -0.022928916 0.04502574 -0.91264462 -0.40626657 0.0044369111
0.060014762 -0.053709306 -0.022972144 0.19391587 -0.89166802 -0.40905344 0.0089703687
0.062267788 -0.053355984 -0.021764226 0.46412048 -0.80298609 -0.37390587 0.016729329
0.046567351 -0.050828353 -0.022668708 -0.45814946 -0.75728369 -0.46542507 0.0016420888
0.048815738 -0.051543366 -0.023317941 -0.38663331 -0.79568458 -0.46626255 0.0011612287
0.051572334 -0.05266992 -0.023393575 -0.30157068 -0.84686118 -0.43804255 0.0012906253
0.053939346 -0.053051241 -0.024036832 -0.1769149 -0.88382423 -0.43307725 0.0024153905
0.060874846 -0.052945223 -0.024061294 0.2647039 -0.85252506 -0.45070264 0.0037755792
0.063562684 -0.051858399 -0.02333444 0.529719 -0.76158768 -0.373339 0.0080387117
0.065192014 -0.050636552 -0.022823639 0.63905907 -0.6466704 -0.41643819 0.011464668
0.043073356 -0.048227366 -0.022940135 -0.5561828 -0.67816925 -0.48036143 0.0022109444
0.045354128 -0.049382184 -0.023646057 -0.48639563 -0.71224737 -0.50608593 0.0018057957
0.066311322 -0.048771523 -0.023317214 0.77699023 -0.50784099 -0.37199947 0.0043265503
0.040243182 -0.045469034 -0.02294047 -0.65966654 -0.58592945 -0.47066617 0.0026206686
0.041879836 -0.046389736 -0.023870708 -0.60555696 -0.59565836 -0.52772325 0.0024675289
0.067624182 -0.046027407 -0.023665145 0.87273622 -0.335053 -0.35506496 0.0024624029
0.068403617 -0.045560412 -0.022141941 0.8727541 -0.334986 -0.35508418 0.0024332101
0.037373941 -0.042179506 -0.022642493 -0.70223874 -0.56326157 -0.43542755 0.0023074255
0.038915463 -0.043169361 -0.02376765 -0.69063991 -0.55354184 -0.46541145 0.0030044131
0.068056718 -0.044303142 -0.024133272 0.88358301 -0.29005352 -0.36762756 0.0036859764
0.068645947 -0.042809077 -0.023703564 0.92592978 -0.18657385 -0.32839638 0.0014275145
0.034659039 -0.038836427 -0.02226264 -0.75932997 -0.53218293 -0.37443194 0.0028477868
0.036303554 -0.039986603 -0.023634065 -0.70567083 -0.53795552 -0.4611209 0.0041079666
0.069394179 -0.039598797 -0.02238021 0.95261908 -0.062127456 -0.2977536 0.0018725354
0.033830192 -0.036885004 -0.023484206 -0.71239215 -0.56505567 -0.41618454 0.0030274561
0.068992637 -0.036686957 -0.02320037 0.96116352 0.093841493 -0.25953507 0.0030933248
0.031209763 -0.033545829 -0.023294471 -0.74126959 -0.55009985 -0.38458997 0.00233609
0.032612324 -0.034936786 -0.024011806 -0.7257669 -0.55725729 -0.40339401 0.0033334398
0.068544336 -0.034098495 -0.023303863 0.9473893 0.21500288 -0.23712271 0.00071592449
0.028707396 -0.030132269 -0.023246333 -0.77285272 -0.53205854 -0.34584996 0.0038276806
0.029852599 -0.031498231 -0.02363809 -0.75520402 -0.56418437 -0.33371082 0.0020223672
0.067438088 -0.030241467 -0.023249544 0.91928148 0.32186088 -0.22655487 0.00054693845
0.026034862 -0.026685759 -0.022559024 -0.78438765 -0.55407405 -0.27881533 0.0020932527
0.027337912 -0.02803403 -0.023518916 -0.77813905 -0.56419963 -0.27600423 0.0021783242
0.066248477 -0.027549339 -0.023685481 0.89961863 0.37816969 -0.21834388 0.00012840706
0.024994634 -0.024823822 -0.023423251 -0.77540183 -0.54778224 -0.31414416 0.0027330336
0.026418984 -0.026302628 -0.024370588 -0.7712779 -0.55849177 -0.30531508 0.0030861227
0.064743742 -0.024274111 -0.023971386 0.88524693 0.41206574 -0.21573053 8.9753186e-05
0.065614648 -0.025856383 -0.023376472 0.89596915 0.3887834 -0.21467815 0.00010906676
0.022520553 -0.021371625 -0.023364704 -0.79470235 -0.52971536 -0.29639474 0.0033027988
0.02363063 -0.022741187 -0.023820192 -0.76883966 -0.54185641 -0.33952501 0.0016079802
0.063395515 -0.021681616 -0.024358895 0.87555748 0.43454713 -0.21111126 0.00014259515
0.019687764 -0.017843477 -0.022295542 -0.78069127 -0.54316485 -0.30901968 0.0035753851
0.02092262 -0.018951211 -0.023527052 -0.77566487 -0.54162568 -0.32401499 0.0045547248
0.061676934 -0.018110767 -0.023860492 0.86312532 0.46880293 -0.18771912 0.00022652844
0.062391214 -0.019634776 -0.024216421 0.86602515 0.45189247 -0.21399471 0.00021288007
0.0016268047 -0.015189299 -0.021996927 -0.48805147 -0.44653708 -0.74994028 0.016548036
0.0035658274 -0.015631629 -0.02290686 -0.18056503 -0.59276348 -0.78487432 0.021680413
0.0065059145 -0.015198663 -0.022815516 0.14623956 -0.60699576 -0.78113395 0.011525809
0.0091142673 -0.014755794 -0.022069898 0.31545594 -0.65570205 -0.68596089 0.00090693682
0.018635662 -0.015740331 -0.023188297 -0.73225796 -0.50366658 -0.45838654 0.002034914
0.020241395 -0.017046787 -0.024633594 -0.77681744 -0.48467782 -0.40204728 0.0003502247
0.060473822 -0.015821911 -0.023341231 0.85403258 0.49021548 -0.17411801 0.00012980467
-0.010626678 -0.012148607 -0.022799965 -0.6336481 -0.2786319 -0.7217024 0.038748845
-0.008712722 -0.012608648 -0.02388794 -0.60512054 -0.28836551 -0.74207443 0.044708323
-0.0058332039 -0.012448073 -0.024071427 -0.30067739 -0.55813521 -0.77335519 0.042993408
0.0011283346 -0.012722255 -0.022561226 -0.63699871 -0.20406902 -0.74336296 0.0032651988
0.0032982677 -0.012824547 -0.023948785 -0.28400731 -0.39951032 -0.87162566 0.016412329
0.0069797798 -0.013507917 -0.02412544 0.1458797 -0.56171632 -0.81436712 0.012188831
0.0097647831 -0.012734098 -0.023277124 0.38271001 -0.47714871 -0.79111445 0.001158693
0.012578184 -0.012155616 -0.022342807 0.093214951 -0.5877893 -0.80362588 0.01710354
0.015812248 -0.012362777 -0.022837054 -0.38790798 -0.60984701 -0.69109619 0.018090168
0.017572861 -0.013560895 -0.023761019 -0.69081748 -0.51542389 -0.50705951 0.0031276131
0.05817299 -0.011960804 -0.023219042 0.84290218 0.5153029 -0.154851 0.0002913888
0.059512392 -0.014035486 -0.022885121 0.84884346 0.50123876 -0.16800123 3.4282104e-05
-0.010484667 -0.0095093036 -0.022554584 -0.71591389 -0.041380156 -0.69696116 0.0042485134
-0.0091226911 -0.0096736206 -0.02404004 -0.61987418 -0.17041349 -0.76597333 0.043623984
0.00079916464 -0.0093661565 -0.022543805 -0.56624192 -0.18053281 -0.80422509 0.0079891263
0.0026936678 -0.0097673833 -0.024357695 -0.55010766 -0.10666689 -0.82825345 0.004352978
0.010580523 -0.010029622 -0.024310641 0.3717607 -0.37766212 -0.84803623 0.0040159486
0.012842695 -0.0096365325 -0.023555968 -0.006550943 -0.39121124 -0.92027754 0.049305584
0.015137535 -0.010157341 -0.024003167 -0.52662408 -0.47608712 -0.70427847 0.015331302
-0.01070525 -0.0067307469 -0.022796823 -0.75185233 -0.065709092 -0.65604901 0.00058430387
-0.0093010953 -0.0069034467 -0.024324473 -0.72551244 -0.046385091 -0.68664402 0.00122465
-0.0014934833 -0.0066466723 -0.021930076 -0.50629812 -0.12387399 -0.85341513 0.0051582861
0.00049971649 -0.0068224538 -0.022776699 -0.49490312 -0.079692543 -0.86528611 0.011050151
0.002289773 -0.006798266 -0.023865504 -0.56992185 -0.027888924 -0.82122546 0.0074467198
0.012525178 -0.0070167137 -0.024368197 0.031698912 -0.24884969 -0.9680233 0.058212802
-0.010842719 -0.0039870958 -0.022753138 -0.77128518 0.019801442 -0.63618159 0.00061807042
-0.0094563691 -0.0037816497 -0.024293307 -0.70886475 0.016770577 -0.70514512 0.0005581319
-0.0015586643 -0.0039970577 -0.022060759 -0.44125637 0.049905334 -0.8959924 0.003189808
0.0004979861 -0.003984062 -0.022962186 -0.51873207 -0.004700386 -0.8549239 0.0078373784
0.0022945104 -0.0039760023 -0.023521882 -0.56649661 -0.0010788878 -0.82406336 0.0074940617
0.012158232 -0.0048580952 -0.024638839 -0.25440055 -0.26737911 -0.92940241 0.056693215
-0.010584624 -0.0008934763 -0.022744646 -0.74870759 0.043640241 -0.66146243 0.00072135555
-0.0092745908 -0.00088356715 -0.024184469 -0.74589407 0.033187628 -0.66523731 0.0008740112
-0.001428728 -0.0018037822 -0.02189441 -0.51632339 0.1777575 -0.83774245 0.013038904
0.00053837383 -0.00093152479 -0.022577114 -0.51513624 0.12561791 -0.84785306 0.013559177
0.002454048 -0.00062629522 -0.024359008 -0.60147852 0.054074761 -0.79705673 0.0041740495
0.049954291 -0.00037587469 -0.023059659 -0.87768018 -0.47855464 0.025750365 0.0018734826
0.051181398 -0.0021749665 -0.023522235 -0.86515075 -0.4999176 0.039956458 0.0034525497
-0.010616747 0.0024573656 -0.022644427 -0.75152242 0.25423267 -0.60875267 0.042448733
-0.0091907643 0.0019415317 -0.024065349 -0.60423863 0.33989352 -0.72067201 0.065373808
-0.0054201363 0.0033112536 -0.024408069 -0.065932602 0.75691557 -0.65017825 0.037060399
0.0011906684 0.0022130532 -0.02286673 -0.62145549 0.16627254 -0.76560205 0.0029526029
0.002945734 0.0023091328 -0.024174819 -0.51456016 0.20935819 -0.8315028 0.0010609416
0.048497479 0.0023268643 -0.023384489 -0.9096213 -0.41542402 0.0034568761 0.00074499671
-0.010588686 0.0040052752 -0.022516806 -0.63799828 0.44844842 -0.62598103 0.049891714
-0.0082508903 0.0039985846 -0.023848835 -0.44664881 0.49900118 -0.74263221 0.061546188
-0.0064547481 0.0040009539 -0.023379482 -0.17846845 0.73421079 -0.65504473 0.034257542
0.0013134687 0.0049702199 -0.022282977 -0.62395239 0.22613342 -0.74802881 0.0032141334
0.0035029599 0.0053471178 -0.023605248 -0.55161422 0.22951479 -0.80190063 0.0020964686
0.0053633321 0.0057931729 -0.024403051 -0.60346693 0.17038161 -0.77897227 0.007127549
0.047033649 0.0060561076 -0.023774274 -0.95500463 -0.29650798 0.0070113628 0.0015603055
0.047510229 0.0046920604 -0.022691179 -0.93819493 -0.34610435 0.0014074835 0.00055473309
0.0018015075 0.007109426 -0.021798737 -0.58847183 0.30579555 -0.74845839 0.0024707313
0.0037982245 0.0082309116 -0.022804122 -0.63592452 0.18811804 -0.74847287 0.0094766533
0.0053648627 0.0083616376 -0.024331219 -0.70454162 0.088158123 -0.70416564 0.0058701769
0.046542611 0.0078583658 -0.023583077 -0.9653644 -0.26087943 0.0036650689 0.00048593638
0.0041064732 0.011219249 -0.02287358 -0.75427669 0.017184366 -0.65633166 0.00094585924
0.0056732693 0.011083888 -0.024320949 -0.73703432 -0.25825137 -0.6245693 0.087132625
0.046041455 0.010176428 -0.023471959 -0.98025978 -0.19367976 0.03973506 0.00091433339
0.0037099621 0.013920384 -0.022414053 -0.86509979 -0.054702558 -0.49860805 0.027959367
0.0036015729 0.01716787 -0.02229543 -0.89590019 0.0056387759 -0.44421962 0.016817505
0.044051148 0.016889177 -0.022879232 0.96729982 0.086816832 -0.23831467 0.040145691
0.044922758 0.018123977 -0.024230577 0.9788304 0.055232614 -0.19707924 0.050304849
0.0039102496 0.020477811 -0.022646194 -0.7027837 -0.01367916 -0.71127212 0.002580835
0.0061358456 0.021459229 -0.02430702 -0.67390937 0.54446691 -0.49940166 0.06630037
0.043383431 0.020693153 -0.024214797 0.95382726 0.022973046 -0.29947573 0.031222207
0.045124963 0.019481517 -0.022514232 0.96532172 -0.059677616 -0.25415063 0.030826578
0.0041064792 0.02333143 -0.022873275 -0.69975322 -0.047224838 -0.71282208 0.0023079198
0.0053648772 0.023255635 -0.02433056 -0.72219568 -0.068777479 -0.68826091 0.0037725719
0.044490434 0.023298349 -0.023532335 0.92932397 0.04055585 -0.36703146 0.010260768
0.0040417924 0.026358765 -0.022883173 -0.73990327 -0.046219468 -0.67112362 0.001398294
0.0053648772 0.026337156 -0.024330549 -0.74149752 -0.01693753 -0.6707418 0.00051195029
0.043912318 0.0266096 -0.024083305 0.9100883 0.0906922 -0.40436891 0.0013148505
0.0446533 0.026210241 -0.022135008 0.91008055 0.09072873 -0.40437809 0.0013046978
0.0037916256 0.029085472 -0.022985255 -0.6790933 0.021062372 -0.73374969 0.0076367138
0.0053648772 0.029161887 -0.024330558 -0.7133286 0.045804285 -0.6993314 0.0071740672
0.043809075 0.029422933 -0.023308035 0.87127417 0.13097498 -0.47299761 0.0054705315
0.0038493453 0.032094963 -0.022856239 -0.58671987 0.14714235 -0.79630953 0.0056349155
0.0054607955 0.032249097 -0.023269832 -0.68152356 0.15673748 -0.71481389 0.012026485
0.043454878 0.032093678 -0.023182999 0.86314481 0.13684064 -0.48606125 0.0073559186
0.0040746164 0.034910832 -0.022419412 -0.52121794 0.42623615 -0.73936099 0.028265452
0.0061824843 0.03503789 -0.023234697 -0.66245335 0.36139274 -0.65616375 0.031813726
0.042914454 0.035088222 -0.023172105 0.86547166 0.17807816 -0.46823817 0.00013275036
0.0075272648 0.037625961 -0.023466192 -0.68832868 0.59337711 -0.41726142 0.0081072897
0.0091996621 0.038758643 -0.023684615 -0.59772015 0.6637032 -0.44969851 0.0082842717
0.042187117 0.038156912 -0.023274031 0.82606512 0.22885206 -0.51501751 0.0029356012
0.010676432 0.040205829 -0.022932336 -0.63562608 0.67592943 -0.37295958 0.008612263
0.012577471 0.041544013 -0.023746181 -0.7117154 0.59517598 -0.37313098 0.0062983916
0.040381908 0.041274022 -0.024420889 0.76214743 0.32138282 -0.56200033 0.0091913985
0.041582786 0.040199529 -0.023458667 0.81989241 0.31953427 -0.47505188 0.0068672542
0.03990835 0.044442389 -0.023072243 0.76323766 0.37464261 -0.52641344 0.0045976955
0.01921498 0.046590768 -0.024633594 -0.44398898 0.87326497 -0.20070398 0.010996587
0.034010425 0.046794355 -0.022766218 0.48146272 0.75953496 -0.43737885 0.053936657
0.035962414 0.046668623 -0.023919441 0.48147798 0.75954819 -0.43733907 0.053903513
0.051588204 -0.05379165 -0.020446889 -0.28655499 -0.865987 -0.40982038 0.0022662545
0.05539621 -0.054491408 -0.021019034 -0.085459143 -0.93340689 -0.3484942 0.0048681251
0.060343396 -0.054257005 -0.020838879 0.1489858 -0.88813734 -0.43475896 0.009556626
0.043901417 -0.050519906 -0.019672997 -0.50636345 -0.75020552 -0.42519134 0.0020981722
0.045682523 -0.05131872 -0.020531181 -0.4781163 -0.75527436 -0.44829172 0.0015164645
0.048275106 -0.052549668 -0.020694591 -0.39884624 -0.83152717 -0.38663191 0.0017590144
0.040719204 -0.047676131 -0.020284541 -0.66154116 -0.65203613 -0.37042153 0.0040351842
0.042481791 -0.049148198 -0.020497188 -0.57542098 -0.70138747 -0.42064986 0.0016104124
0.037930261 -0.044549033 -0.01964929 -0.72249514 -0.59263873 -0.35606197 0.0015158049
0.039371032 -0.045979191 -0.020555742 -0.70940864 -0.60967356 -0.35360661 0.0015518058
0.036979903 -0.042916492 -0.020333406 -0.75118595 -0.57389677 -0.32613218 0.00086247863
0.069319025 -0.042807363 -0.021341674 0.95063895 -0.14335477 -0.27519998 0.0034348341
0.034507576 -0.039477773 -0.020157401 -0.77945751 -0.5551666 -0.29023436 0.00040642204
0.035655081 -0.0408783 -0.020821281 -0.75423509 -0.56676728 -0.33151823 0.00056050415
0.03195364 -0.035974927 -0.019685276 -0.78206986 -0.56390297 -0.26529264 0.00028997805
0.033012584 -0.037235614 -0.020635065 -0.77595937 -0.56557494 -0.27930638 0.00054217526
0.069596812 -0.03738568 -0.021233507 0.97342813 0.060853858 -0.22075914 0.0036622053
0.030822732 -0.034111846 -0.020792557 -0.77385473 -0.56550485 -0.28522465 0.00078834826
0.069156796 -0.034319617 -0.020792045 0.95495141 0.18936749 -0.22849031 0.0015912474
0.028225746 -0.030340681 -0.020889141 -0.79590774 -0.55377233 -0.2446778 0.00055348675
0.02921816 -0.031676807 -0.021438666 -0.78029126 -0.55814809 -0.28216335 0.0013076753
0.068094537 -0.030681498 -0.020943709 0.92353082 0.32410464 -0.20505391 0.0005648415
0.068675339 -0.032264896 -0.020582177 0.94699109 0.26310316 -0.18434927 0.0012468402
0.025638498 -0.026544817 -0.020857222 -0.79945177 -0.56422371 -0.20622407 0.00019217868
0.026688367 -0.028112613 -0.020664699 -0.80329883 -0.5569123 -0.21109176 0.00024070828
0.067188717 -0.027974386 -0.020181563 0.9087255 0.37259081 -0.18813351 0.00023712224
0.024050798 -0.024181947 -0.021371044 -0.8014822 -0.55603939 -0.22010586 0.0010612953
0.064923637 -0.023408122 -0.021330006 0.88096493 0.43272853 -0.19143368 0.00010933939
0.065805264 -0.025001653 -0.020700075 0.89539087 0.40247777 -0.19049108 7.8351353e-05
0.064092711 -0.021836787 -0.021665908 0.88019532 0.43374985 -0.19265825 7.1440149e-06
0.00065993145 -0.018192513 -0.019541534 -0.37442213 -0.68361056 -0.62648606 0.021344153
0.0035409227 -0.018100228 -0.020006882 -0.06314081 -0.77801019 -0.62507075 0.016231772
0.0065118144 -0.01794328 -0.019316941 0.189832 -0.81273991 -0.55083358 0.0020710798
0.010165526 -0.017314695 -0.018856443 0.23450638 -0.76417106 -0.60087377 0.0015911673
0.021002136 -0.019834019 -0.020431288 -0.78469509 -0.56713581 -0.25022101 0.0016022613
0.062932976 -0.019293787 -0.02083629 0.8669365 0.46681741 -0.17465022 0.00011461737
-0.0015751845 -0.015448766 -0.019232906 -0.66991901 -0.24992935 -0.6991021 0.004550965
0.00033222744 -0.016036751 -0.020602703 -0.53905356 -0.41372007 -0.73365992 0.021553267
0.0037727584 -0.017197097 -0.021392193 -0.04755545 -0.76579684 -0.64132166 0.017253814
0.0069608642 -0.016737331 -0.020847069 0.2153573 -0.77032971 -0.60017776 0.0017824778
0.0098759597 -0.016027858 -0.020397894 0.27846757 -0.70993835 -0.64687198 0.001794848
0.012526067 -0.015509091 -0.019733662 0.21200484 -0.72529471 -0.65498203 0.0066215652
0.015731853 -0.015081363 -0.020019654 -0.32161516 -0.75685138 -0.56898123 0.050647482
0.017946508 -0.016163582 -0.021367647 -0.7210961 -0.58450037 -0.37199417 0.010742758
0.061248943 -0.015900819 -0.019458659 0.8566224 0.48920307 -0.16394633 0.00010628054
-0.013230831 -0.011557303 -0.019853093 -0.7350964 0.052115999 -0.67595661 0.0011480298
-0.012165579 -0.011860459 -0.021136697 -0.71086425 0.012916588 -0.70321053 0.003056298
-0.0017706221 -0.012642717 -0.019565932 -0.68007636 -0.21658409 -0.70041949 0.0063987868
-0.00036119157 -0.012876917 -0.02068441 -0.6789481 -0.18972301 -0.70924932 0.0050843726
0.011107758 -0.014082767 -0.021667965 0.25796905 -0.65534818 -0.70990884 0.0053592385
0.012893055 -0.013670425 -0.021187 0.1633613 -0.65772527 -0.73533022 0.011059212
0.015049866 -0.013671231 -0.021166917 -0.17794962 -0.7442143 -0.64380038 0.036020231
0.059379175 -0.013096295 -0.020364948 0.84292501 0.51600838 -0.15235698 0.00021072928
-0.013605074 -0.009856293 -0.019262716 -0.73510718 0.052116852 -0.67594463 0.0011655523
-0.012027043 -0.0098268222 -0.020702668 -0.75443327 0.021185964 -0.65603477 0.0022003786
-0.0021435483 -0.0098579321 -0.020493474 -0.56689101 -0.29049164 -0.77087557 0.0052289688
-0.00026204204 -0.010475083 -0.021315437 -0.60838354 -0.22047906 -0.76240301 0.0062952712
0.057348076 -0.0099934563 -0.020070858 0.83596128 0.5297057 -0.14345942 0.00010042488
-0.013242143 -0.0066350303 -0.019378059 -0.77185088 -0.003344934 -0.6357947 0.0014089552
-0.012284669 -0.006865039 -0.020759162 -0.75816375 -0.017590003 -0.65182692 0.0015718212
-0.0021247594 -0.0074721826 -0.021405907 -0.5374977 -0.19151405 -0.82122999 0.0058535542
-0.013238524 -0.0037737386 -0.01953003 -0.75200903 0.007481311 -0.65911031 0.0012417476
-0.012409055 -0.0038981023 -0.02074986 -0.78955895 0.014309838 -0.61350799 0.00050542626
0.052184816 -0.0032494939 -0.019874241 -0.84997642 -0.52467686 0.047479041 0.0029295201
-0.013443493 -0.0005933831 -0.019119319 -0.75789356 -0.01432761 -0.6522209 0.0016033328
-0.012174706 -0.00090741972 -0.020714462 -0.76431137 0.005127714 -0.64482695 0.0018985989
-0.0020402535 -0.00054833782 -0.021182716 -0.61349404 0.2066592 -0.76217914 0.0085511822
-0.00078104204 0.00039080495 -0.021600015 -0.58743733 0.18474904 -0.78789914 0.0078056911
0.049753286 -0.00013484841 -0.019945808 -0.86167818 -0.50721657 0.015554979 0.0024230261
0.05090607 -0.0016884684 -0.020391036 -0.84105301 -0.54093456 0.0044343849 0.0013971089
-0.013564075 0.0014867855 -0.019509669 -0.74456036 -0.014479216 -0.6673981 0.0011028976
-0.012027579 0.0018840595 -0.020865984 -0.70350868 0.22536798 -0.67400658 0.039691202
-0.0021886039 0.0021224243 -0.019852672 -0.6848287 0.24099667 -0.68769926 0.0038077799
-0.00025969045 0.0021863608 -0.020984259 -0.65724701 0.19256623 -0.72865939 0.0055238311
0.048568781 0.0020449352 -0.020560415 -0.90197277 -0.43165576 0.010883644 0.0014994646
-0.0082794745 0.0045278962 -0.021434955 0.1360556 -0.99069929 0.0019707249 0.066720128
-0.0016468889 0.0054605003 -0.019356823 -0.68886107 0.20523097 -0.69523418 0.0032277554
-6.2422827e-05 0.005542153 -0.020938389 -0.67818552 0.2073226 -0.70504016 0.0033216416
0.046925414 0.006348677 -0.020434208 -0.95970696 -0.28097856 -0.003684775 0.0025296025
0.047418993 0.0047917888 -0.020636864 -0.94222647 -0.33495671 0.0036504725 0.00056933827
-0.0012853388 0.007403858 -0.019064434 -0.67887789 0.29670528 -0.67163295 0.0023177473
0.00052267313 0.0081663914 -0.020266511 -0.62011403 0.30981046 -0.72074687 0.002622986
0.002585656 0.0089288838 -0.02116745 -0.65195113 0.26369682 -0.7109316 0.0053005945
0.046450142 0.008169122 -0.020071412 -0.97062433 -0.23995256 -0.017641814 0.0013251512
0.0012233527 0.010948596 -0.019514602 -0.72656846 0.12577449 -0.67548424 0.0092552165
0.0025868125 0.01100082 -0.021079425 -0.70672148 0.11454734 -0.69815737 0.0081467312
0.046034053 0.010843052 -0.01983181 -0.98486006 -0.17334779 -0.0010565025 0.0020871917
0.0013091781 0.014150784 -0.019586395 -0.7692315 -0.010327719 -0.63888681 0.00012346594
0.0025863436 0.014105864 -0.021113027 -0.76502401 -0.0021628281 -0.64399815 3.7340465e-05
0.045901705 0.012832604 -0.020323105 -0.97770262 -0.20279306 0.054521438 0.0044581466
0.0013087667 0.017266572 -0.019625092 -0.76257735 -0.0074589173 -0.6468541 4.4888115e-05
0.0025863503 0.017211592 -0.021112602 -0.75907993 -0.0015538452 -0.65099561 1.0670152e-06
0.044257868 0.018248029 -0.021086447 0.97443235 -0.10645881 -0.1978585 0.018968714
0.0013388512 0.020305039 -0.01966859 -0.75755715 -0.0012646749 -0.6527676 0
0.0025863398 0.020317266 -0.02111328 -0.75714928 -5.0628129e-05 -0.65324193 0
0.045021176 0.020571843 -0.021195792 0.96532041 -0.059644617 -0.2541633 0.030747587
0.00127661 0.023144562 -0.019596441 -0.75900549 -0.0066817221 -0.65105003 5.752857e-05
0.0025863419 0.023164177 -0.021113168 -0.75620914 -0.010183485 -0.6542508 5.1863826e-05
0.04532465 0.023179552 -0.020819265 0.95990783 -0.018986644 -0.27967224 0.014297186
0.0013081511 0.026094738 -0.019675311 -0.77279639 -0.043628432 -0.63315272 0.001295369
0.0025334407 0.025798835 -0.021198513 -0.74494547 -0.064744353 -0.66397625 0.00075829134
0.045415431 0.02607346 -0.020048667 0.93797469 0.0609442 -0.34130529 0.00094258221
0.0013026898 0.029181059 -0.020136202 -0.77532595 -0.037579086 -0.63044226 0.0016051602
0.0023214042 0.029086653 -0.021571081 -0.73077071 -0.047985077 -0.68093437 0.001507369
0.045146778 0.029181946 -0.020132069 0.91891599 0.087312855 -0.38466847 0.00053416239
0.0014987483 0.032169793 -0.020470161 -0.82520217 0.11645172 -0.55270272 0.0071421424
0.0023226009 0.032195494 -0.021484297 -0.66017222 0.087653011 -0.74598229 0.0063946573
0.044710428 0.03234227 -0.020437229 0.89523381 0.12092213 -0.42887548 0.0003421173
0.0016010641 0.034785543 -0.020030919 -0.75869715 0.46701264 -0.45417815 0.025127849
0.0027972758 0.035159685 -0.021162223 -0.52122372 0.42620212 -0.73937654 0.028273001
0.0059484569 0.036095675 -0.0212248 -0.66033816 0.50945342 -0.55173427 0.048153672
0.043711171 0.036085978 -0.021341074 0.89012206 0.22227094 -0.39784202 0.0070012813
0.044624887 0.03505091 -0.019907787 0.89243752 0.22382104 -0.39173892 0.0072489688
0.0045591556 0.037670601 -0.019456394 -0.48906267 0.7675764 -0.41429955 0.019245924
0.0064517921 0.037721038 -0.019836616 -0.5699091 0.72768527 -0.38167757 0.020621037
0.043575346 0.037665136 -0.021020945 0.89005297 0.30775064 -0.33629641 0.0043921536
0.044401608 0.03672915 -0.019839831 0.89263916 0.27714345 -0.35550922 0.006646194
0.0106243 0.040804006 -0.020679004 -0.64908868 0.69188112 -0.31620324 0.0038576531
0.041120887 0.042290486 -0.02137471 0.8399936 0.24846639 -0.48236421 0.0088503668
0.042487346 0.041517757 -0.019459186 0.87019366 0.18393411 -0.45708987 0.015145583
0.041124921 0.044104934 -0.021337289 0.84000808 0.24839325 -0.48237652 0.0088451179
0.042345393 0.044016503 -0.019659173 0.83357054 0.23540667 -0.4997437 0.017915957
0.038336623 -0.045495011 -0.018188305 -0.72734517 -0.60120505 -0.33094049 0.0011565326
0.067517973 -0.027766921 -0.018250175 0.91041481 0.37201768 -0.18096313 0.00024061794
0.066058815 -0.024157755 -0.017623492 0.89392549 0.40811625 -0.185306 1.2824031e-05
0.064695112 -0.021527372 -0.017981909 0.86992061 0.45758286 -0.18400036 0.0002127262
0.065488614 -0.023096226 -0.017914899 0.88891631 0.41794354 -0.18748575 0.00021270409
-0.0021383874 -0.018265285 -0.016972451 -0.49107918 -0.69103527 -0.53038812 0.025844293
0.00017408142 -0.019238051 -0.017433353 -0.27903488 -0.83509165 -0.47409007 0.023607928
0.0038001901 -0.019225137 -0.017581059 0.019687101 -0.9176687 -0.39685845 0.0021030596
0.0069519309 -0.019021213 -0.017279008 0.11528993 -0.87909609 -0.46249142 0.0023273223
0.0096908193 -0.018427905 -0.017397944 0.18933196 -0.82546568 -0.53175163 0.0021751383
0.012400959 -0.0180082 -0.016973175 0.25630653 -0.79110116 -0.55539715 0.00205195
0.01485721 -0.017643027 -0.016296752 0.25723407 -0.84496003 -0.4689064 0.0097993929
-0.004180681 -0.015568269 -0.016382745 -0.75146025 -0.28117645 -0.59686458 0.01006633
-0.0027469993 -0.015963044 -0.017771801 -0.67215323 -0.33024827 -0.66268098 0.013745564
0.013225108 -0.016647141 -0.018268522 0.2294766 -0.74006534 -0.63217396 0.0063135619
0.015433724 -0.016409786 -0.017469715 0.19487904 -0.81942552 -0.53903991 0.016333444
0.017462861 -0.016283505 -0.01863534 -0.44119236 -0.82685989 -0.34878659 0.054411434
-0.0041748574 -0.013135648 -0.016691744 -0.74758869 -0.19810437 -0.63392884 0.005313098
-0.0028122067 -0.013120674 -0.0179152 -0.73578238 -0.21648099 -0.64168543 0.0077121789
-0.01441162 -0.0086867344 -0.01840855 -0.72408342 0.039980356 -0.68855268 0.0011303738
-0.003887034 -0.011081956 -0.018453129 -0.67908871 -0.29051629 -0.67412078 0.0059674443
-0.01458058 -0.0066641136 -0.017951369 -0.74537385 -0.0059873839 -0.66661978 0.0014623861
-0.015920069 -0.0043351525 -0.016752837 -0.75065351 0.013146493 -0.66056532 0.001255526
-0.014582767 -0.0037966562 -0.017873418 -0.75201291 0.007481419 -0.65910596 0.0012387657
0.052382488 -0.0038797269 -0.017290391 -0.8054235 -0.58927274 0.063644513 0.0031644474
-0.014507202 -0.0011866625 -0.018124938 -0.74014026 -0.0091667203 -0.67238992 0.001679569
0.050669234 -0.0017072189 -0.018223163 -0.84101343 -0.54099655 0.0043699588 0.0014287189
-0.014301303 0.0014211159 -0.018634327 -0.73069525 -0.034975126 -0.68180728 0.00073489192
-0.0041873939 0.0029872386 -0.01743716 -0.71792251 0.19655761 -0.66779667 0.0031529653
-0.0031924155 0.0033318223 -0.018235285 -0.69937074 0.19231857 -0.68839973 0.0030411484
-0.0042387247 0.0055185459 -0.016475566 -0.73492759 0.23584783 -0.63581216 0.0011888436
-0.0028446913 0.0052260691 -0.017755404 -0.71703911 0.22549041 -0.65955204 0.00068946392
-0.0040211584 0.0075749569 -0.016021021 -0.72873473 0.28764796 -0.62145346 0.002258904
-0.0024135788 0.0082774749 -0.017419383 -0.68575937 0.32572716 -0.65087324 0.0035769113
-0.00076219346 0.0092327371 -0.018592127 -0.61771125 0.36641806 -0.69582367 0.0027286217
0.046095304 0.0087102279 -0.018697061 -0.98155594 -0.19048113 -0.016276134 0.0024612944
-0.0018440201 0.010553788 -0.016552361 -0.7312032 0.26466447 -0.62872458 0.014983485
-0.00014804304 0.011163386 -0.017660966 -0.76672983 0.18724822 -0.61405492 0.013868834
0.045649212 0.011588357 -0.01806426 -0.98933071 -0.14357229 -0.024733601 0.0016605955
-0.0017471882 0.014657809 -0.016122069 -0.72846895 -0.055514254 -0.6828258 0.0074476982
-0.00023509562 0.014206825 -0.01767974 -0.74288327 -0.0031667445 -0.66941351 0.0027372579
0.045407232 0.014005168 -0.017455377 -0.9762944 -0.20321676 0.074513905 0.0040123602
-0.0020096581 0.017271126 -0.016279712 -0.6866231 -0.063908391 -0.72419912 0.0020257854
-0.00023610704 0.017333331 -0.017818753 -0.70674789 -0.026755396 -0.70695943 0.0013348592
0.045290451 0.016329564 -0.016668536 -0.9922356 -0.11394509 0.049850021 0.011136861
-0.0021048086 0.02012871 -0.016253917 -0.67723203 -0.0014474853 -0.7357682 0.00027663755
-0.00023628864 0.020201879 -0.017843734 -0.70190698 -0.0028650127 -0.71226293 0.00068347796
-0.0020572608 0.023150887 -0.016276082 -0.67689067 -0.0025113819 -0.73607928 0.00024780218
-0.00023629051 0.023071298 -0.017844014 -0.70151228 -0.00066849228 -0.71265703 0.00070880319
-0.002057259 0.026292976 -0.016275911 -0.67829335 0.001995354 -0.73478848 0.00026120432
-0.0002362947 0.026201569 -0.01784442 -0.71554446 -0.019554283 -0.69829351 0.0018429863
-0.0020572571 0.02917324 -0.016275615 -0.63309038 0.063952841 -0.77143151 0.0073955525
-0.00023629144 0.02933188 -0.017844088 -0.74458486 0.039535202 -0.66635609 0.012821289
0.046287719 0.029643362 -0.017081005 0.91487533 0.086323969 -0.39439997 0.00035720956
-0.0019002124 0.031944402 -0.016335607 -0.57036012 0.16167822 -0.80532569 0.011377704
-7.1609393e-06 0.032340568 -0.01669473 -0.76680905 0.25120181 -0.59067887 0.036756147
0.045990288 0.032332443 -0.017634887 0.92766279 0.1617327 -0.33657721 0.0061951713
-0.0015615099 0.034657907 -0.016085116 -0.52069986 0.31713614 -0.79265147 0.016048035
8.5682608e-05 0.034918919 -0.016076263 -0.66380274 0.38986027 -0.63825929 0.04146529
0.045888569 0.034400694 -0.017513134 0.93885094 0.2172723 -0.26711729 0.0048729307
0.0037613448 0.037509736 -0.017212834 -0.47594056 0.78799111 -0.39057732 0.016861873
0.0066120448 0.038982078 -0.017281868 -0.51611054 0.76140612 -0.39228907 0.013669661
0.043578323 0.03923656 -0.017932422 0.92095494 0.26172918 -0.28868625 0.0085104611
0.044209294 0.039061125 -0.016973523 0.91048485 0.28919506 -0.29560694 0.0084204543
0.043578502 0.041323118 -0.017930888 0.82476002 -0.024098305 -0.5649693 0.00066549506
0.044312395 0.041339777 -0.016834967 0.83469588 -0.018652191 -0.55039525 0.00058515318
0.043578345 0.044191815 -0.017932219 0.74502164 0.27424589 -0.60805589 0.029578434
0.04451092 0.04406289 -0.016625142 0.74498647 0.27431431 -0.60806817 0.029559897
0.042456239 0.045930989 -0.016276084 0.74493176 0.27440044 -0.60809618 0.029527534
0.004811964 -0.020745888 -0.013131656 -0.013759573 -0.94908643 -0.3147153 0.0016436914
0.0066565238 -0.020740731 -0.013227148 0.0017296799 -0.94429213 -0.3291038 0.0020256601
0.0095638335 -0.020751042 -0.01303601 0.082764938 -0.93466419 -0.34576407 0.001853675
-0.0045409016 -0.018177526 -0.014220305 -0.72680229 -0.41370574 -0.54827553 0.0020120121
-0.0030143261 -0.019089906 -0.014610069 -0.53066725 -0.70032769 -0.47742376 0.024678478
0.0011063823 -0.020159941 -0.014239736 -0.12478283 -0.95413059 -0.27214721 0.0033643416
0.00372267 -0.020111982 -0.015150882 -0.0053688847 -0.9440673 -0.32970926 0.0017981173
0.0066136038 -0.020118333 -0.015030022 0.072441362 -0.92446208 -0.37432888 0.0023800083
0.0097203134 -0.019921463 -0.014782308 0.13753937 -0.89112747 -0.43240586 0.0015428459
0.012764905 -0.019555405 -0.014413428 0.23240088 -0.85713494 -0.45968422 0.0011491842
0.01556573 -0.018304937 -0.01452228 0.25849277 -0.8465541 -0.46532533 0.0098939976
-0.0070606638 -0.014419891 -0.012991108 -0.80209517 -0.28309497 -0.52583325 0.0064159213
-0.0056151943 -0.015780194 -0.014305575 -0.7685591 -0.26553366 -0.58207279 0.0054974356
0.017110594 -0.016959719 -0.01518888 0.25720611 -0.84496397 -0.46891463 0.0098033715
-0.0070573287 -0.013877816 -0.013371326 -0.77635711 -0.25313798 -0.57722676 0.005412844
-0.005410824 -0.013535733 -0.014703198 -0.76848257 -0.16485383 -0.61826998 0.004429921
-0.0070579899 0.0051066354 -0.013295817 -0.80445415 0.23055777 -0.54744565 0.0020505488
-0.0056533562 0.0053257854 -0.014535751 -0.76620424 0.25651616 -0.58917791 0.0024462948
-0.0050291121 0.0083128382 -0.014194477 -0.74429137 0.36775464 -0.5574826 0.0037192123
-0.0042877793 0.0099689662 -0.014125861 -0.78646082 0.24030359 -0.56897599 0.023819041
-0.002591738 0.011467375 -0.014342751 -0.77244925 0.17995979 -0.60904574 0.026627364
-0.004345038 0.014626134 -0.013651072 -0.72609615 -0.20172323 -0.65733725 0.0029966058
-0.0026476085 0.014055968 -0.014804176 -0.73621726 -0.080837116 -0.67189997 0.0072627692
-0.0044199489 0.017215475 -0.013884522 -0.73058164 -0.073422201 -0.67886639 0.0021913704
-0.003366082 0.01717292 -0.015058441 -0.70537531 -0.073308289 -0.705033 0.0018934928
-0.0044199377 0.020112071 -0.013887822 -0.73815143 -0.00034046674 -0.67463493 0.00015547637
-0.003366082 0.02006411 -0.014996929 -0.72318661 -0.0013064643 -0.69065148 0.00027085026
-0.0044198949 0.02327114 -0.013906484 -0.73723853 -0.0031184689 -0.67562538 0.00020412994
-0.003366082 0.023214271 -0.015026806 -0.72401726 -0.0021357583 -0.68977857 0.0002294497
-0.0044199377 0.026168711 -0.013889511 -0.73680776 0.0034170488 -0.67609364 0.00021462231
-0.003366082 0.026362689 -0.01508039 -0.72420359 0.0026711035 -0.6895811 0.00027154075
-0.0044199442 0.029065566 -0.013887061 -0.74070823 0.0099056978 -0.67175382 0.00020984073
-0.003366082 0.029258154 -0.014971097 -0.72295612 0.0095798448 -0.69082749 0.00032994605
-0.0044201994 0.032233097 -0.013786839 -0.74515349 0.1167219 -0.6565991 0.0023031174
-0.0031562606 0.032337781 -0.015244941 -0.64263421 0.10681919 -0.75869024 0.0087359138
-0.0041868277 0.034881484 -0.013229927 -0.70501214 0.32764527 -0.62897247 0.0027909395
-0.0025921618 0.035443202 -0.014731399 -0.53240448 0.37834623 -0.75723153 0.013479865
0.00041207951 0.036101367 -0.015444202 -0.36862189 0.49425727 -0.78729129 0.022078836
-0.0020051789 0.037603971 -0.01360854 -0.51312035 0.55516326 -0.65459996 0.0062571769
0.00062258914 0.038183764 -0.014616702 -0.35766155 0.59831971 -0.71700186 0.015572912
0.0033449889 0.038876861 -0.01412042 -0.23071529 0.74446559 -0.62653124 0.018647492
0.044908885 0.037885785 -0.015440263 0.91047597 0.2891835 -0.29564583 0.0084203705
0.0012922816 0.040089019 -0.013324988 -0.24452181 0.81253076 -0.52915287 0.013021494
0.0029670836 0.040203273 -0.013034913 -0.084612228 0.87623876 -0.47439057 0.01668353
0.006106378 0.039834883 -0.014191993 -0.16845199 0.9090153 -0.38120219 0.016122252
0.045761246 0.04464329 -0.014637997 0.8721168 0.34190184 -0.35002214 0.055677947
0.043591514 0.046013698 -0.01549042 0.80484444 0.32124814 -0.49902418 0.03437664
0.045238931 0.046079751 -0.014862932 0.8720488 0.34199145 -0.35010383 0.055665571
0.0036256968 -0.020938301 -0.011534412 -0.054734834 -0.97859663 -0.1983753 0.0015566507
0.0067125135 -0.021399844 -0.010840448 -0.0099171931 -0.97691727 -0.21338762 0.0037724355
0.0096762395 -0.021385033 -0.0111093 0.082765661 -0.93466103 -0.34577245 0.0018497709
0.01185983 -0.020964149 -0.011548236 0.15411162 -0.9095155 -0.38604569 0.0059554703
-0.0070808232 -0.017693229 -0.01069326 -0.80845749 -0.34138232 -0.47943154 0.00072917837
-0.0060102968 -0.018019501 -0.012205228 -0.7521947 -0.3756617 -0.54136997 0.0045934259
0.013549165 -0.020259432 -0.012349553 0.22294891 -0.87187582 -0.43603477 0.0022146406
0.014599186 -0.019722171 -0.012518086 0.27616513 -0.84502661 -0.45788968 0.0031406009
-0.0076416507 -0.015688226 -0.011061462 -0.8316043 -0.31847164 -0.45498365 0.00061985233
-0.0065388633 -0.016830586 -0.012193538 -0.8084569 -0.3413814 -0.4794333 0.000728602
-0.0081359632 -0.013954766 -0.011324164 -0.82288766 -0.25638977 -0.50707018 0.0060557732
-0.0079232035 0.0055445656 -0.011407958 -0.80901915 0.43436342 -0.39600053 0.0077811521
-0.007503828 0.0074052839 -0.010909678 -0.8121081 0.41405436 -0.41114411 0.0095472988
-0.0063627213 0.0083760843 -0.012180599 -0.81984603 0.39972457 -0.40996674 0.0093367863
-0.0049349256 0.011530571 -0.011093982 -0.84174359 -0.057153169 -0.53684384 0.042813975
-0.0073491596 0.014686913 -0.010394794 -0.73208588 -0.26240849 -0.62864304 0.0051001706
-0.0057659186 0.014361784 -0.011794699 -0.73174673 -0.25759131 -0.63102567 0.004708346
-0.0073479358 0.017072137 -0.010525286 -0.75391614 -0.096429266 -0.64985526 0.0063829147
-0.0060447147 0.017183835 -0.012022367 -0.75240576 -0.03879318 -0.65755653 0.00069665315
-0.007347933 0.020257451 -0.010525557 -0.75837237 -0.0011737696 -0.65182042 8.0346927e-06
-0.006011378 0.020190883 -0.012064931 -0.75085026 -0.0014367843 -0.66047084 3.1112984e-05
-0.0073479321 0.023177328 -0.010525631 -0.758865 0.0015336244 -0.65124625 6.6064022e-06
-0.0059799766 0.023284465 -0.01210979 -0.75197077 5.2009611e-05 -0.65919644 1.7894079e-05
-0.0073479367 0.026097225 -0.010525283 -0.75869942 0.00011571918 -0.6514408 9.6406147e-06
-0.0060447101 0.02617698 -0.012023356 -0.75381404 0.0011114449 -0.65708685 9.3353987e-07
-0.007347933 0.029282531 -0.010525554 -0.75883716 0.0099462895 -0.65120441 2.8199136e-05
-0.0060113845 0.029183261 -0.012063519 -0.75119287 0.01162116 -0.65998042 4.7139743e-05
-0.0073489966 0.032210656 -0.010412629 -0.76173079 0.11209048 -0.63812369 0.0019648615
-0.0059787631 0.03219679 -0.011993926 -0.75683349 0.10475752 -0.64515811 0.0019308209
-0.0072193881 0.034229133 -0.010054991 -0.72843248 0.31769386 -0.60700631 0.003064119
-0.0056795208 0.035256635 -0.011274133 -0.69681734 0.35608485 -0.62261474 0.0055944729
-0.0044272142 0.037475467 -0.010956685 -0.62124515 0.5961951 -0.50853312 0.0071765967
-0.0025921864 0.038734823 -0.011489 -0.50148022 0.71535933 -0.48659906 0.0028071434
-0.00072482089 0.039447747 -0.012628265 -0.38905871 0.71448684 -0.58149958 0.01514014
-0.001507109 0.040188514 -0.010273047 -0.47012627 0.78073591 -0.41162211 0.0051924596
0.00040282169 0.040696077 -0.011177935 -0.29424191 0.88000423 -0.37284604 0.0064018052
0.0041408539 0.04100097 -0.011629522 -0.07448332 0.91436565 -0.39797965 0.012796158
0.0056747124 0.041029975 -0.0097883418 -0.074493036 0.91435695 -0.3979975 0.012825721
0.043942165 0.047123857 -0.0099943057 0.84216231 0.47865352 -0.24830101 0.05503894
0.045091439 0.046957705 -0.011554033 0.84216231 0.47865352 -0.24830101 0.05503894
0.0046618497 -0.021606766 -0.0070881918 -0.04942181 -0.98846698 -0.14314501 0.0020460295
-0.0088007571 -0.015426252 -0.0090184826 -0.83160412 -0.3184706 -0.45498469 0.00061899459
-0.0095016854 -0.01406309 -0.0084432736 -0.83160323 -0.31847176 -0.45498544 0.00062029646
-0.010326227 0.0046188012 -0.0069283918 -0.83168995 0.4230358 -0.35962817 0.012966559
-0.0093069971 0.0053689489 -0.008740888 -0.81038839 0.45333111 -0.37116253 0.0051440932
-0.007726457 0.008530003 -0.0080146762 -0.85417712 0.30015248 -0.42460564 0.025862277
-0.0065672733 0.0094112679 -0.0084155574 -0.86875194 0.20662555 -0.45008436 0.033558603
-0.0077487612 0.011400184 -0.0077306079 -0.75626123 -0.20639127 -0.62086362 0.0090074865
-0.00638403 0.010995042 -0.0091897259 -0.88654953 -0.010042242 -0.46252471 0.065670751
-0.010325277 0.014789455 -0.0069867345 -0.70217007 -0.25052533 -0.66647905 0.0059634801
-0.0087019959 0.01434565 -0.0084286109 -0.73661095 -0.26669711 -0.62151182 0.007401641
-0.0065580728 0.013113774 -0.0096390918 -0.74131185 -0.28867036 -0.60590941 0.0042296718
-0.010324686 0.017197201 -0.0070229694 -0.7557708 -0.097153403 -0.64758915 0.0065109902
-0.008966824 0.017141191 -0.0085902624 -0.7544651 -0.027650164 -0.65575755 0.00063921447
-0.010324367 0.020140469 -0.0070425523 -0.75323242 -0.00013054977 -0.65775448 1.914679e-05
-0.0089309067 0.020279294 -0.0086771054 -0.75922865 -0.00013753142 -0.65082395 2.3650789e-05
-0.010324988 0.023086194 -0.0070044873 -0.75353104 0.00073012646 -0.65741193 1.4781082e-05
-0.0090053324 0.023199247 -0.0085650217 -0.7587074 0.00079620944 -0.65143102 1.992244e-05
-0.010324116 0.026294908 -0.0070579676 -0.75286472 -4.5514076e-05 -0.65817523 2.5825231e-05
-0.0089667244 0.026207101 -0.0085973898 -0.75939816 2.5839849e-05 -0.65062624 2.9208892e-05
-0.010325116 0.02924262 -0.0069966512 -0.75283349 0.0108499 -0.65812159 3.2877579e-05
-0.0089278826 0.029212235 -0.0086614946 -0.75718898 0.010002212 -0.65311927 4.2723539e-05
-0.010325832 0.032190226 -0.0069526508 -0.73640823 0.13002852 -0.66392434 0.0024816387
-0.0090028448 0.032138776 -0.0084957853 -0.75430048 0.12267891 -0.64496565 0.0027850468
-0.0083490722 0.035168078 -0.0082365153 -0.74573469 0.33493617 -0.57593191 0.0041299355
-0.0065598506 0.036541007 -0.0094026998 -0.67676657 0.44263783 -0.58826762 0.0082341004
-0.0075689936 0.037474085 -0.0073311785 -0.59203339 0.5621267 -0.57750332 0.0038162575
-0.0054996265 0.038360473 -0.0086369067 -0.59304017 0.61914164 -0.51474941 0.0051906328
-0.0043025212 0.040056005 -0.0072972924 -0.50935483 0.74535346 -0.43012312 0.0058279308
-0.0024993857 0.04041424 -0.0085151568 -0.45112795 0.80049008 -0.39458737 0.0043877177
0.00037053041 0.041579466 -0.0081704855 -0.31308115 0.88085222 -0.35507685 0.0042297267
0.0024890564 0.041863225 -0.00941021 -0.15793245 0.94112056 -0.2989136 0.01146562
0.043532964 0.047242068 -0.0088849142 0.84216231 0.47865352 -0.24830101 0.05503894
0.0095297489 -0.021700524 -0.0053880885 0.077111058 -0.9867323 -0.14287527 0.0051363464
-0.0099868579 0.0086392006 -0.0041369656 -0.86734927 0.03061734 -0.49675739 0.029798022
-0.0088556269 0.0083893808 -0.0053449222 -0.81681067 0.24774785 -0.52100033 0.028117875
-0.010410554 0.011049773 -0.0045287982 -0.73151124 -0.25287774 -0.63320148 0.0018283025
-0.0092272852 0.011352266 -0.0059966706 -0.77710098 -0.26346126 -0.57157862 0.0083211437
-0.013071585 0.015152082 -0.0038973019 -0.76625323 -0.2515918 -0.59123397 0.0056019737
-0.011431263 0.014217187 -0.0051321792 -0.73036611 -0.26708999 -0.62867177 0.0074951779
-0.009533572 0.013203844 -0.0062177852 -0.72666681 -0.29623282 -0.61983979 0.0053392961
-0.013071581 0.01730887 -0.0038974658 -0.75456363 -0.10336466 -0.64803511 0.0074560135
-0.011693607 0.017251896 -0.0054925755 -0.75509989 -0.03246988 -0.65480518 0.0012982383
-0.013071598 0.020139668 -0.0038967431 -0.75794959 -0.00019872267 -0.65231317 1.6612992e-05
-0.011693611 0.020206474 -0.0054925247 -0.75352269 0.00059110357 -0.65742165 1.8135481e-05
-0.013071583 0.023240004 -0.0038974709 -0.7576946 0.00017176234 -0.65260923 3.7659524e-05
-0.011693613 0.023161056 -0.005492311 -0.75306112 -0.00064431253 -0.65795022 1.193591e-05
-0.013071598 0.026070837 -0.0038967282 -0.75906342 0.00075759704 -0.65101618 1.5794631e-05
-0.011654389 0.026189625 -0.005538085 -0.75181913 0.00026497929 -0.65936941 2.1817799e-05
-0.013071585 0.029332921 -0.0038972809 -0.75756717 0.0094852634 -0.65268838 5.5452576e-05
-0.011729407 0.029131066 -0.0054512694 -0.75311351 0.011112896 -0.6577968 2.555553e-05
-0.013073129 0.031871974 -0.0038288683 -0.76203042 0.13324283 -0.63368452 0.0025583401
-0.011660281 0.032241523 -0.0054015503 -0.74153578 0.12453283 -0.65925431 0.0026957765
-0.011219724 0.035073597 -0.004970747 -0.69035548 0.35509703 -0.63032961 0.005796623
-0.0096659753 0.035853833 -0.0063222647 -0.69384503 0.34404624 -0.6326226 0.0048082098
-0.010261198 0.037386365 -0.0043160515 -0.61643016 0.61166966 -0.49585685 0.0042861458
-0.0084719313 0.038250312 -0.0052918685 -0.5748927 0.64147592 -0.50794393 0.0063857473
-0.0064046364 0.039297532 -0.0062838076 -0.49939111 0.741207 -0.44857621 0.0040360265
-0.0051814374 0.040602461 -0.0049443953 -0.41262767 0.84138095 -0.34902215 0.0047676382
-0.0022919197 0.041473348 -0.0055609299 -0.39388117 0.85909581 -0.32682115 0.0033074301
-0.010913325 0.0056563974 -0.0018403903 -0.88146591 0.063813731 -0.46791628 0.02599032
-0.01142604 0.0081160041 -0.002255464 -0.74098271 -0.2436631 -0.62575793 4.1645922e-05
-0.013363405 0.01155137 -0.0012750356 -0.73099655 -0.26734474 -0.62783033 0.0013313192
-0.011949186 0.01106465 -0.0027534589 -0.73034471 -0.28300956 -0.62169307 0.0018524671
