# .PCD v0.7 - Point Cloud Data file format
VERSION 0.7
FIELDS x y z normal_x normal_y normal_z curvature
SIZE 4 4 4 4 4 4 4
TYPE F F F F F F F
COUNT 1 1 1 1 1 1 1
WIDTH 560
HEIGHT 1
VIEWPOINT 0 0 0 1 0 0 0
POINTS 560
DATA ascii
0.06669981 0.020161197 0.0055576377 -0.35543594 0.097561486 -0.92959511 0.0025911238
0.069473788 0.020253388 0.0046615796 -0.26663494 0.10989143 -0.9575122 0.0014752202
0.072437175 0.020378856 0.0039871307 -0.19342086 0.17617439 -0.96516883 0.002947984
0.075353801 0.020494441 0.0035607822 -0.10284588 0.16783972 -0.98043489 0.0014302653
0.078441188 0.020357715 0.0033638978 0.020079618 0.1858926 -0.98236495 0.0017532572
0.081473939 0.020500407 0.0036052663 0.15402579 0.20428181 -0.96671867 0.0019765336
0.08438044 0.020306149 0.0042573651 0.32257324 0.2112778 -0.92266369 0.002982968
0.086894177 0.020082239 0.0053716451 0.53379911 0.18853506 -0.8243258 0.0054781833
-0.0054761982 0.021983458 0.0052801147 0.69279176 0.62656826 -0.35700384 0.017448641
0.06725584 0.022506475 0.0057737716 -0.35924235 0.29945126 -0.88389701 0.003096554
0.069508694 0.023160845 0.0052590575 -0.26901099 0.30716982 -0.91284162 0.0031653589
0.072391428 0.023537237 0.0047035655 -0.17507957 0.32571936 -0.9291147 0.0029697889
0.075399876 0.023475025 0.0042843251 -0.076928072 0.34295797 -0.93619543 0.0029233515
0.078399934 0.023470996 0.0041988539 0.02909035 0.36318958 -0.93126106 0.0028520583
0.081369191 0.023425424 0.0044757528 0.1541205 0.37446639 -0.91434228 0.0034066751
0.084372535 0.023197845 0.0051947683 0.35337842 0.40222865 -0.84459209 0.0043389373
0.086563163 0.022076728 0.005733843 0.49621379 0.37685061 -0.782148 0.0046763839
-0.010385301 0.026176624 0.0035581545 0.64388102 0.75417274 -0.12899907 0.00043654756
0.070176855 0.02520138 0.0058821393 -0.26373851 0.47796485 -0.83784938 0.0032272174
0.0724971 0.025627492 0.005609869 -0.15856335 0.49824262 -0.85241532 0.003070411
0.075491287 0.025870625 0.0053856606 -0.056248076 0.51034772 -0.8581267 0.0024643673
0.078292541 0.025869185 0.0053598695 0.052899227 0.53853822 -0.84093887 0.0036224471
0.081258684 0.025597287 0.0055574011 0.18397449 0.54880196 -0.81545681 0.0044454755
0.083378688 0.025200225 0.0058597578 0.2935501 0.60223889 -0.7423858 0.0050086584
-0.014775463 0.029921021 0.0039081471 0.57006353 0.78264278 -0.24999595 0.0015637446
-0.017377069 0.031674564 0.0039308397 0.51718444 0.80961835 -0.27755797 0.00021943108
-0.015931783 0.031243481 0.0057184352 0.57006639 0.78264016 -0.24999714 0.0015668032
-0.065229103 -0.029845849 0.0061851693 -0.76959282 -0.46201214 -0.44076264 0.0019064005
-0.066119224 -0.027948059 0.0066162003 -0.79281592 -0.48269397 -0.3720879 0.0019210344
-0.040168345 -0.026537098 0.0061068786 0.33345187 -0.77414244 -0.53806436 0.0015244619
-0.038615778 -0.026614878 0.0072777467 0.34174433 -0.74404222 -0.57411844 0.0017149863
-0.036228493 -0.0266953 0.0084885238 0.28277659 -0.72752863 -0.62509155 0.0014236139
-0.032935973 -0.026167318 0.0088805063 0.25113639 -0.77688611 -0.57738936 0.0059611644
-0.069453612 -0.023274474 0.0067957295 -0.85804945 -0.3406024 -0.38437092 0.0059156483
-0.037847381 -0.025863674 0.0063325716 0.35400337 -0.74070746 -0.57099396 0.0016968694
-0.035303771 -0.025279602 0.0069352835 0.30429304 -0.72240323 -0.62091798 0.0026720054
-0.032560557 -0.024532622 0.0075070569 0.28228283 -0.68136472 -0.67532092 0.0020175038
-0.029763885 -0.024051603 0.008240887 0.27112514 -0.63855809 -0.72023237 0.0007271315
-0.027252233 -0.023530703 0.0087938113 0.27824974 -0.60879779 -0.74292815 0.00029805023
-0.070162609 -0.022228427 0.0078017367 -0.88215292 -0.29976004 -0.36324939 0.0046736207
-0.069767147 -0.021784605 0.0064487113 -0.88217193 -0.29975131 -0.36321065 0.0046296739
-0.031650584 -0.022696286 0.006330709 0.33076742 -0.6273371 -0.70501149 0.00022760796
-0.029297702 -0.022114858 0.0068665808 0.31161621 -0.60730213 -0.73080736 0.00017975993
-0.026608361 -0.021600112 0.0075201811 0.30352345 -0.59752339 -0.74218559 8.8437599e-05
-0.023702918 -0.021153856 0.0083664134 0.30577064 -0.57445782 -0.75927764 5.883964e-05
-0.021301255 -0.020626634 0.0088688685 0.31137174 -0.56113124 -0.76692849 9.7046563e-05
-0.070567884 -0.018315382 0.0068683876 -0.90220791 -0.25076991 -0.3509064 0.0013173053
-0.025957683 -0.019757733 0.0063123852 0.31562066 -0.60642135 -0.7298196 8.6833112e-05
-0.023473712 -0.019201698 0.0069332542 0.31285948 -0.58539569 -0.74795115 9.3265597e-05
-0.02067291 -0.018541241 0.007597954 0.31839809 -0.57805097 -0.75131857 8.0888014e-05
-0.017900467 -0.017905012 0.0083123241 0.3347604 -0.56663305 -0.75290275 6.4705979e-05
-0.015759556 -0.01730027 0.008815865 0.35109004 -0.54555076 -0.76099288 9.4703457e-05
-0.019899387 -0.016453385 0.0063215941 0.33380398 -0.5820477 -0.74148184 4.2325461e-05
-0.017460899 -0.015780957 0.0069099423 0.3454228 -0.56813836 -0.74692822 9.1643626e-05
-0.014772202 -0.015452948 0.007910803 0.35417342 -0.55207503 -0.754834 6.2707717e-05
-0.01226527 -0.014745322 0.008638842 0.37562281 -0.53489447 -0.75683248 9.8779172e-05
-0.014205164 -0.013309034 0.0066263014 0.37228802 -0.54806244 -0.74901885 9.2072471e-05
-0.01157588 -0.012827714 0.0076152124 0.3856355 -0.54164839 -0.74692851 7.2350151e-05
-0.0089890491 -0.011875241 0.0083160438 0.41015247 -0.53328031 -0.73985618 7.6555945e-05
-0.010998133 -0.010818856 0.0064704623 0.39267036 -0.55056036 -0.73667723 7.6141769e-05
-0.0083409902 -0.0096747857 0.0070853755 0.41909251 -0.535106 -0.73350054 5.5686443e-05
-0.005733504 -0.0091717998 0.0082372874 0.44045961 -0.51922888 -0.732391 4.1954499e-05
-0.0038503453 -0.0084380424 0.008840288 0.45609748 -0.51451725 -0.72611785 3.6104124e-05
-0.0073207421 -0.0076369559 0.0061671194 0.43342161 -0.52874839 -0.72977453 5.4240987e-05
-0.0052606585 -0.0069688326 0.0069548991 0.4477565 -0.5149036 -0.73101878 2.4129615e-05
-0.0029718329 -0.0065270718 0.0080505172 0.45967203 -0.51184851 -0.72574985 5.1900264e-05
-0.0010805549 -0.0056650406 0.0086703552 0.46953934 -0.50664109 -0.72308207 9.2932669e-06
-0.0043839822 -0.0050668782 0.0061379028 0.45455152 -0.51487297 -0.72683465 2.8061304e-05
-0.0025197191 -0.0042820424 0.0067726308 0.46102598 -0.51094395 -0.72552836 2.949884e-05
0.00010211812 -0.0034594047 0.0079044839 0.47959125 -0.50441474 -0.71802366 3.2630945e-05
0.0024277354 -0.002528982 0.0088194264 0.49974322 -0.50238007 -0.70559973 6.6938868e-05
0.00094136712 -0.0010349082 0.0067534419 0.48267049 -0.50723523 -0.71396196 3.0764317e-05
0.0032175048 -0.00055119308 0.0079784729 0.49939397 -0.50271553 -0.70560807 4.3400847e-05
0.0051973918 0.00024068682 0.0088190492 0.51092851 -0.50373012 -0.69656885 2.2978e-05
0.0036976603 0.001721913 0.006710195 0.51493925 -0.44826803 -0.73068011 0.0017266107
0.0061798664 0.0025665252 0.0078796614 0.53699756 -0.42275205 -0.73000979 0.0030910331
0.0085216342 0.0035643512 0.008848941 0.55007511 -0.28359038 -0.78548956 0.026567468
0.070640519 0.0037487829 0.0087390495 -0.30855849 -0.51848364 -0.79747492 0.0021680272
0.072550312 0.0032735742 0.0085683782 -0.15815361 -0.59464562 -0.78827912 0.0033715162
0.075383075 0.0032286281 0.0083417306 0.0076316907 -0.64340228 -0.76549017 0.0031471669
0.078225784 0.0033957297 0.0085016284 0.15851396 -0.67379159 -0.72171891 0.0029922395
0.080349565 0.0037490213 0.0088309897 0.31120035 -0.71763033 -0.62302572 0.00300753
0.003878986 0.0064982655 0.0064988583 0.5462358 0.22295891 -0.80741298 0.014042809
0.0065367464 0.0054011662 0.0072165886 0.60527134 0.18325767 -0.77463746 0.024405695
0.0088335592 0.0052076024 0.0085256025 0.53734976 0.086426973 -0.83891928 0.030994475
0.067615315 0.0062420303 0.0088729514 -0.41524908 -0.38584027 -0.82382983 0.00042987024
0.069586903 0.0055092005 0.0082475599 -0.34660509 -0.43333462 -0.83191711 0.0013651063
0.072445549 0.0054611824 0.0072060991 -0.22328857 -0.46000355 -0.85938287 0.0031746603
0.075316004 0.0052491128 0.0068370719 -0.081116907 -0.54384166 -0.83525825 0.0046896311
0.078485869 0.0053019612 0.0069156345 0.127121 -0.60442972 -0.7864508 0.0012741521
0.081256181 0.0054974933 0.0074949991 0.24958083 -0.6392554 -0.72736651 0.0025355841
0.083702788 0.0060294094 0.0082631772 0.44850039 -0.63582408 -0.62815219 0.0025963304
0.0037237497 0.0085475538 0.0066857664 0.54431909 0.24535286 -0.80219615 0.0072121723
0.0058570299 0.0083336234 0.0081637725 0.58599508 0.21706164 -0.78070104 0.0076297307
0.064844362 0.0095659429 0.0088665439 -0.45298979 -0.35783631 -0.81654972 0.00010131054
0.06665691 0.0087482631 0.0082627563 -0.42989311 -0.35410652 -0.83054227 0.00011666487
0.069313273 0.008394856 0.0071234321 -0.3724747 -0.35731199 -0.85649908 0.0002792165
0.071929589 0.0077354852 0.006290081 -0.26847914 -0.38710135 -0.88208359 0.0020263048
0.081997685 0.007230998 0.0063154502 0.25144422 -0.58770865 -0.7690087 0.0025781028
0.084621005 0.0080575971 0.0070997318 0.45543948 -0.56503665 -0.68797421 0.003948905
0.086768955 0.0091236876 0.0079375273 0.60023361 -0.50881255 -0.61711377 0.0027912233
0.0034285327 0.011537724 0.0069098584 0.57352191 0.11740857 -0.8107329 4.71829e-07
0.0056305951 0.011392841 0.0084465658 0.57347459 0.11738227 -0.81077015 2.872649e-07
0.064034522 0.011724481 0.008459623 -0.46382794 -0.31857497 -0.82666409 0.00014539331
0.066528365 0.011471305 0.0072119674 -0.4186269 -0.3124322 -0.85272372 0.00022754472
0.068869069 0.010902808 0.0063091172 -0.37233374 -0.30624947 -0.8761158 0.00042690281
0.087461591 0.011306749 0.007087308 0.65770525 -0.35675886 -0.6634357 0.0047111954
0.08914233 0.012050473 0.008486554 0.75047797 -0.35005882 -0.56057262 0.003727
0.0016722722 0.014753608 0.0061333235 0.58716792 -0.014710963 -0.80933148 0.010199361
0.0033359989 0.014232166 0.0072345007 0.56525356 0.0011884413 -0.8249163 0.0091028446
0.0052869106 0.014268635 0.0086198756 0.56167233 -0.0059269774 -0.82733858 0.0040473384
0.061377972 0.014966593 0.0088388948 -0.51077479 -0.23454429 -0.82710218 0.0016724278
0.063318804 0.014249342 0.0079108737 -0.47615346 -0.2526505 -0.84228593 0.00088651571
0.066049576 0.014038104 0.0065376852 -0.4183324 -0.24787027 -0.87381828 0.00078357366
0.088308014 0.014165303 0.0066084219 0.73489976 -0.18492004 -0.65247756 0.0044062724
0.089707375 0.014326644 0.0082048392 0.78286731 -0.19760603 -0.58997512 0.0040886831
0.0016732744 0.015859492 0.0062932624 0.60626596 0.10081411 -0.78884602 0.02344908
0.0035626197 0.017304363 0.0069572497 0.57653016 0.19747645 -0.79285306 0.042616013
0.0058356039 0.017274765 0.0082746921 0.62912005 0.23158926 -0.74200702 0.031135514
0.061205938 0.017312944 0.0086014178 -0.57347673 -0.044500474 -0.81801236 0.0029524318
0.063222364 0.017267989 0.0072508389 -0.51591313 -0.061430622 -0.85443544 0.0016394188
0.065275639 0.016848454 0.0062203333 -0.4247627 -0.095650107 -0.90023756 0.0021756731
0.088742942 0.017244294 0.006531477 0.73076105 -0.012713475 -0.68251497 0.0042998497
0.089831106 0.017286275 0.0077985879 0.80891502 -0.019033995 -0.58761734 0.004907791
-0.0027323549 0.021361493 0.0061609102 0.35981625 0.81193769 -0.45966241 0.0063853767
0.00077120611 0.020313865 0.0074652284 0.35666922 0.78479409 -0.50683862 0.034024857
0.0030933963 0.019636791 0.008158844 0.38844502 0.67771131 -0.62435389 0.010313232
0.061287146 0.020154022 0.0086862957 -0.60915709 0.14730543 -0.77924889 0.0032885028
0.063225254 0.020305023 0.0072711669 -0.5344348 0.090139478 -0.84038937 0.0026401936
0.065203518 0.020468377 0.0061983345 -0.42660531 0.10677782 -0.89811271 0.0031133639
0.088434592 0.020500148 0.0066396696 0.71722537 0.18071641 -0.67300022 0.004889755
0.08982648 0.02013135 0.0081118336 0.77465069 0.18618947 -0.60435891 0.0055271988
-0.0052145803 0.022487819 0.00671726 0.39774349 0.81386554 -0.4235836 0.021361968
-0.0033994743 0.022301462 0.0074706506 0.35241297 0.86494118 -0.35732606 0.020172765
2.7764123e-05 0.022036694 0.0090010418 0.28097126 0.86395317 -0.41789967 0.027457286
0.061536666 0.022035845 0.008981253 -0.63085711 0.33575064 -0.69949323 0.0029965627
0.063509718 0.023220934 0.0079353135 -0.54368776 0.34519574 -0.76501209 0.0043809614
0.066120982 0.023565589 0.0066161826 -0.38332084 0.35006332 -0.8547051 0.0029436937
0.068561167 0.024662219 0.0061034216 -0.26637176 0.4365972 -0.85931897 0.0017951889
0.085356057 0.024250377 0.0061224354 0.36139867 0.44482461 -0.8194645 0.0049382243
0.087413289 0.023536026 0.0071408609 0.60617059 0.40268293 -0.6858598 0.0051714741
0.089236543 0.022419706 0.0082699312 0.72532481 0.38549709 -0.57034725 0.0053982902
0.064368457 0.025565021 0.0086470377 -0.48163676 0.56645781 -0.6686939 0.0048201755
0.06661202 0.02616749 0.0078332704 -0.36542732 0.57725549 -0.73023218 0.002866192
0.069276556 0.026511794 0.0070055816 -0.26059422 0.53461558 -0.80391347 0.0033908999
0.072323091 0.026999077 0.0065437807 -0.14940037 0.57348245 -0.80547959 0.0026127186
0.075251766 0.027272126 0.0063612545 -0.040251389 0.592408 -0.80463201 0.0037003295
0.078603901 0.027183097 0.0063322606 0.07204733 0.61088234 -0.78843641 0.0035899023
0.081530884 0.026983781 0.0067256875 0.19708024 0.72083884 -0.66449279 0.0039836667
0.084353484 0.026353775 0.0073394775 0.34133473 0.64267385 -0.68590152 0.0033161787
0.086687326 0.025689686 0.0082018329 0.54124379 0.59459543 -0.59456831 0.004693863
0.069699749 0.028319312 0.0084006321 -0.24979679 0.68967706 -0.67966682 0.0022952256
0.072456554 0.02862853 0.0080062225 -0.13739334 0.72474492 -0.67517996 0.003297488
0.075347923 0.028572813 0.0076116873 -0.015133093 0.75702673 -0.65320855 0.0034228708
0.078414865 0.028656524 0.0078926785 0.096993968 0.77568209 -0.62362599 0.0034100886
0.081108995 0.028286567 0.008073966 0.22177286 0.78009731 -0.58503413 0.0041423407
0.083109312 0.028119631 0.0087785972 0.31832695 0.78946978 -0.52479082 0.0063080811
-0.034625132 -0.026745111 0.0092383279 0.2830793 -0.76626998 -0.5767985 0.0032920775
-0.032310087 -0.026645772 0.009830079 0.24772628 -0.77344775 -0.58344704 0.0059231152
-0.029592682 -0.026529213 0.010550587 0.19806094 -0.76847947 -0.60844976 0.0086105419
-0.026917854 -0.026539393 0.011381517 0.2072984 -0.68828088 -0.69519556 0.0045669149
-0.024784738 -0.026361719 0.011863436 0.22107901 -0.72865564 -0.64821684 0.0061618085
-0.069617845 -0.024273895 0.0096359057 -0.84114522 -0.39875826 -0.36533082 0.00780296
-0.029262485 -0.025374888 0.0094885807 0.25984195 -0.70061219 -0.66454852 0.0039248662
-0.026500857 -0.024764149 0.010067596 0.27515864 -0.62682527 -0.72895664 0.0012716086
-0.02369928 -0.024550589 0.010898027 0.25092441 -0.61333054 -0.74890757 0.0015344435
-0.020837991 -0.023956001 0.011482112 0.29099002 -0.56494081 -0.77211833 0.00013866478
-0.018931367 -0.023577265 0.011936034 0.29338095 -0.55820519 -0.77610219 0.00025990588
-0.023273066 -0.022496788 0.0095302006 0.28813565 -0.57815689 -0.76335609 7.2150899e-05
-0.020453705 -0.021902824 0.010151613 0.30512625 -0.55262077 -0.77556968 5.9008293e-05
-0.017633749 -0.02162252 0.011095041 0.31731129 -0.54488683 -0.77615201 5.3319698e-05
-0.014766227 -0.020519858 0.01154465 0.34201315 -0.53841102 -0.7701562 8.7729008e-05
-0.019652143 -0.020088382 0.0091753853 0.3058539 -0.55689818 -0.7722162 9.0107744e-05
-0.017418405 -0.019490436 0.0096832169 0.32600033 -0.55296892 -0.76677841 2.8460709e-05
-0.01456054 -0.018517319 0.010226092 0.34734526 -0.5457117 -0.76259422 6.8403606e-05
-0.011879747 -0.018215761 0.011262844 0.3684583 -0.52980638 -0.76390034 9.9866913e-05
-0.0098180268 -0.017622514 0.011836117 0.39042097 -0.52047497 -0.75939268 3.8378344e-05
-0.013694896 -0.016627196 0.0092591299 0.3527137 -0.54855037 -0.75808012 6.8696849e-05
-0.011462678 -0.015903633 0.0098417085 0.37675074 -0.5315733 -0.75860971 8.7937755e-05
-0.0087833935 -0.015549722 0.010961546 0.3964738 -0.52059466 -0.75616777 7.496008e-05
-0.0064703953 -0.014829577 0.011724805 0.43215746 -0.50878918 -0.74456263 8.7292108e-05
-0.0081788218 -0.013251144 0.009708304 0.40976974 -0.51564503 -0.75246197 6.6696062e-05
-0.0056327004 -0.012521963 0.010640243 0.43325463 -0.5128783 -0.74111158 8.9499859e-05
-0.0033098685 -0.01185096 0.01156833 0.45884478 -0.50762415 -0.72923195 6.0773429e-05
-0.0050328746 -0.010326366 0.0094752302 0.43752033 -0.5174818 -0.73538327 4.6147539e-05
-0.0027012106 -0.0096363155 0.010405193 0.4586584 -0.51116294 -0.72687346 6.1850449e-05
-0.00052313297 -0.0090603502 0.011426948 0.47368857 -0.50724947 -0.71994245 9.1829315e-06
-0.0020048122 -0.0075271567 0.0093723191 0.46388498 -0.50856537 -0.72537714 4.7958016e-05
0.00031030958 -0.0068101273 0.010398231 0.47964001 -0.50426978 -0.71809298 2.6428668e-05
0.0028905091 -0.0058579957 0.011518585 0.5196448 -0.50399107 -0.68990028 0.00012888176
0.0011391183 -0.004809618 0.0095413662 0.4866862 -0.50246978 -0.71460521 2.6041411e-05
0.0034134856 -0.0037292005 0.010379876 0.50488895 -0.50396532 -0.70078957 7.0117603e-05
0.005606635 -0.0029315746 0.011460952 0.52303314 -0.50886554 -0.68373406 6.6730281e-05
0.0042822296 -0.0016121434 0.0094840974 0.50514132 -0.50226295 -0.7018292 5.197963e-05
0.0065132119 -0.00076018932 0.010539128 0.51447695 -0.51294631 -0.68716776 3.4526165e-05
0.0087680118 3.9483886e-05 0.011632597 0.50828159 -0.52529466 -0.68243337 2.7472584e-05
0.069965392 0.00025158667 0.011695521 -0.22072987 -0.66348404 -0.71488976 0.0030447824
0.072462775 0.00013375963 0.011384998 -0.057807513 -0.73759007 -0.67276984 0.0035994644
0.0751395 0.00016421743 0.011470207 0.10557529 -0.79229069 -0.60094041 0.0038854838
0.077247649 0.0004111387 0.011662836 0.25492945 -0.79295707 -0.55338061 0.0025556511
0.0074295551 0.001345978 0.0096696271 0.52322596 -0.47807062 -0.70546657 0.0014081587
0.0095492853 0.0022765063 0.010514991 0.53144723 -0.40079612 -0.74627495 0.0061882543
0.011734118 0.0031980048 0.011386211 0.57535172 -0.28518832 -0.76657546 0.022226658
0.064548053 0.0035706693 0.011866406 -0.45385605 -0.41992229 -0.78592616 0.00035610216
0.066640027 0.0027475124 0.01114611 -0.38622782 -0.49400657 -0.77896446 0.0025108475
0.069311306 0.0022402983 0.010291192 -0.26413882 -0.57861805 -0.77164227 0.0020023691
0.072296217 0.0017243654 0.0098749977 -0.097886764 -0.6784721 -0.72807539 0.0021057881
0.075459428 0.0014951163 0.0099843265 0.050001118 -0.72274715 -0.68930143 0.0019737694
0.078482486 0.0018794721 0.010287197 0.20569636 -0.75197822 -0.62627286 0.0020768293
0.081306562 0.002869142 0.010475009 0.3591935 -0.74375236 -0.56374854 0.0021309345
0.083611846 0.0035697455 0.011415726 0.51572579 -0.72659814 -0.45396253 0.0014013788
0.007791399 0.0065225894 0.0092703952 0.54745245 0.18722233 -0.81562471 0.018641127
0.0099449875 0.0055766446 0.0098608639 0.56105709 0.13083395 -0.81737226 0.028133364
0.012227474 0.005212395 0.011006996 0.53438759 0.046179835 -0.84397715 0.027152319
0.063676648 0.0057046879 0.011311972 -0.46189547 -0.39197701 -0.79561704 8.0849255e-05
0.066303179 0.005358234 0.010008449 -0.44070241 -0.38667765 -0.81009984 8.9827474e-05
0.068414487 0.0044893557 0.0092583746 -0.36502311 -0.42223901 -0.82974231 0.00190467
0.082364798 0.004304477 0.0092355115 0.33307409 -0.692725 -0.63968247 0.003588239
0.08459495 0.005161609 0.010071483 0.52829182 -0.68660158 -0.49948579 0.0027308259
0.086410366 0.0063482109 0.010537739 0.6366148 -0.63123035 -0.44302359 0.0032703304
0.0075467238 0.0083105136 0.0093554342 0.56710708 0.24077269 -0.7876662 0.0071572345
0.0094902925 0.0082043903 0.010714903 0.60136068 0.23170076 -0.76464379 0.006344493
0.011190317 0.0079400325 0.01187935 0.59779114 0.21340974 -0.77272379 0.0057257372
0.061161023 0.008492399 0.01149598 -0.47834641 -0.36570942 -0.79839915 7.3201882e-05
0.063446164 0.00821908 0.010245761 -0.46101794 -0.36542127 -0.80865926 0.00011716798
0.065543458 0.0075099734 0.0094232047 -0.44020975 -0.36379924 -0.82089305 0.00012080343
0.087709211 0.0080858003 0.010173296 0.71197069 -0.58451718 -0.38914964 0.0031806969
0.08908084 0.009319731 0.010909881 0.75306958 -0.52489996 -0.39669421 0.0028840099
0.0072760498 0.011324029 0.0096002668 0.57342076 0.1173599 -0.81081152 0
0.0093746958 0.011177968 0.011063356 0.57345331 0.11731276 -0.81079525 1.1101179e-06
0.058256902 0.012119078 0.011693682 -0.51171929 -0.30405119 -0.80355221 0.00063927937
0.06043084 0.011303011 0.0107199 -0.49395636 -0.31084597 -0.81202328 0.00046104952
0.062869668 0.010838804 0.0094733275 -0.47177568 -0.32915568 -0.8179757 0.00016666956
0.088791534 0.010130198 0.0094849421 0.7772485 -0.43336362 -0.45615864 0.0051352088
0.089967579 0.011718083 0.010257667 0.8097142 -0.39727533 -0.43189743 0.0050338199
0.006970169 0.014300079 0.0098146731 0.59703714 -0.009579936 -0.80215633 0.004408339
0.0090776421 0.014240625 0.011296513 0.58751994 -0.013598093 -0.80909544 0.0093265083
0.057789803 0.014433754 0.01137686 -0.5608319 -0.14595076 -0.81496376 0.0031572562
0.060082961 0.014194744 0.0098820264 -0.53738433 -0.20247172 -0.81867164 0.003008482
0.090877742 0.014317255 0.010447652 0.8532002 -0.25383005 -0.45565307 0.0036388775
0.0071066301 0.017384287 0.009701482 0.60611445 0.10550179 -0.78834939 0.016548019
0.0093158269 0.017355649 0.010883044 0.47254413 0.10820529 -0.87463909 0.019202322
0.01118599 0.016859211 0.011722411 0.52250105 0.071292855 -0.84965289 0.024142269
0.057718623 0.017341075 0.011267103 -0.60966837 0.044534639 -0.79140443 0.0032269906
0.059698258 0.017350281 0.009722027 -0.60496449 0.0046541058 -0.79623884 0.0023742381
0.091126382 0.017360574 0.010041486 0.82922065 0.010346363 -0.55882567 0.0048209317
-0.0018213992 0.021348439 0.010203089 0.27406564 0.90420645 -0.32756481 0.024695022
-6.38247e-05 0.021324238 0.0096301492 0.2809706 0.86395103 -0.41790447 0.02745582
0.0035174706 0.020556483 0.0095919026 0.34970304 0.82951564 -0.43544403 0.012303654
0.0062903743 0.019814525 0.010637498 0.4385117 0.73779017 -0.51319897 0.017041149
0.0086774686 0.019368924 0.011741365 0.39129469 0.66281086 -0.63841224 0.012615688
0.058138881 0.020219721 0.011460768 -0.64552718 0.26058835 -0.71790558 0.0041794395
0.059863269 0.020490481 0.010006637 -0.65856951 0.21607792 -0.72083038 0.0056026946
0.090961017 0.020426176 0.010313286 0.84786767 0.22540499 -0.47990939 0.0076282951
-0.0020796389 0.02229609 0.0098455027 0.27403045 0.90423751 -0.32750851 0.024682758
3.1363219e-05 0.022307072 0.01040228 0.2400202 0.88194913 -0.40565512 0.023426713
0.0025432338 0.022153057 0.011653523 0.34768501 0.81905454 -0.45636034 0.013203342
0.058597967 0.022162117 0.011860455 -0.64412105 0.40998441 -0.6457715 0.0017801805
0.060515787 0.023151703 0.010577722 -0.64454907 0.35564697 -0.67680997 0.0017595476
0.062417578 0.024269365 0.0093279434 -0.62888014 0.44746241 -0.63583583 0.0064988183
0.088828586 0.024840914 0.0096674217 0.64128816 0.60440505 -0.47269866 0.005150645
0.090059079 0.023202863 0.010251471 0.75115311 0.4364244 -0.4952805 0.0063242367
0.061479546 0.0252892 0.011201134 -0.62038791 0.51795524 -0.58893228 0.0020812235
0.063424058 0.026464004 0.010351171 -0.54188234 0.62174952 -0.56550074 0.0059572072
0.065586112 0.027421704 0.0095026251 -0.42740703 0.68032193 -0.59538668 0.0043797884
0.085200578 0.02760987 0.0095608486 0.42726821 0.80954665 -0.40258682 0.0027976222
0.087357245 0.026539654 0.010289366 0.53943658 0.74014789 -0.40148389 0.0044819475
0.089173533 0.025483198 0.011366392 0.63389528 0.65111238 -0.41740808 0.0078237541
0.064430654 0.028288126 0.011701356 -0.503851 0.72483861 -0.4698332 0.0036501938
0.066613786 0.028704986 0.010485119 -0.37679631 0.75494033 -0.53673977 0.003801459
0.069411315 0.029671472 0.01037098 -0.24327683 0.85236269 -0.46291921 0.0034002082
0.072276972 0.030040843 0.009983222 -0.095563971 0.87323272 -0.47784123 0.0028322858
0.075391762 0.030151362 0.0098674549 -0.010769383 0.85527253 -0.51806653 0.0034411014
0.078170747 0.030077348 0.010199859 0.11994389 0.89324552 -0.43327346 0.0021820702
0.081414483 0.02930682 0.010090946 0.23373599 0.86083394 -0.45203146 0.0024969655
0.083997041 0.028591501 0.01052241 0.37771082 0.83642673 -0.39714602 0.0033217107
0.07423795 0.031094767 0.011997427 -0.016807964 0.9085831 -0.41736591 0.0053376299
-0.031514015 -0.027513087 0.01239347 0.1921881 -0.78102297 -0.59419417 0.0071813399
-0.029559426 -0.027513165 0.012394436 0.17916591 -0.80557865 -0.56475002 0.0062936028
-0.026227182 -0.027348833 0.012715659 0.21429726 -0.75224549 -0.62305975 0.0054758536
-0.02337152 -0.027041128 0.01308539 0.2288878 -0.73793554 -0.6348713 0.0052996119
-0.020691596 -0.027056834 0.013923545 0.198045 -0.70215529 -0.683927 0.0075485036
-0.018120663 -0.026741447 0.014460589 0.2522386 -0.6317597 -0.73297703 0.0029794557
-0.022571191 -0.025827087 0.012224938 0.27072746 -0.69778949 -0.66317147 0.0079804668
-0.020434014 -0.025292387 0.012595099 0.26776394 -0.57787859 -0.77094668 0.00037032602
-0.017540021 -0.024819138 0.013347882 0.2994464 -0.56747466 -0.76700997 0.0004801476
-0.014755636 -0.024523124 0.014234561 0.32870421 -0.53948838 -0.77518117 0.00021192875
-0.012213313 -0.02355388 0.014714305 0.37137759 -0.51449347 -0.77290052 7.1601527e-05
-0.016603488 -0.022821229 0.012370856 0.31376582 -0.54040766 -0.78071153 5.551548e-05
-0.014361219 -0.022138312 0.012798923 0.33387423 -0.52216697 -0.78477359 9.4642091e-05
-0.011760361 -0.021498471 0.01354939 0.37138981 -0.51878119 -0.77002323 0.0001075691
-0.0092355628 -0.020919112 0.014420663 0.39843863 -0.517039 -0.75757337 0.00010109891
-0.011132382 -0.019377677 0.012420339 0.36530975 -0.53040016 -0.76499969 7.1139519e-05
-0.0084990272 -0.018726327 0.013305523 0.4004485 -0.52023661 -0.7543174 0.00010950855
-0.005887758 -0.018191971 0.014364845 0.44513261 -0.50706673 -0.73806524 0.00013897364
-0.0076689087 -0.016677814 0.012343444 0.40910292 -0.51916784 -0.75039965 7.5890399e-05
-0.0054271808 -0.015943179 0.013091949 0.43974715 -0.51289093 -0.73726887 0.00016696069
-0.0029931583 -0.015333896 0.014200355 0.47317621 -0.50582641 -0.72127938 7.2309056e-05
-0.0010805549 -0.014196998 0.014674569 0.50068295 -0.5013563 -0.70566165 0.00050259958
-0.0046155108 -0.013917621 0.012190893 0.44559199 -0.51028574 -0.73556519 0.00016237958
-0.0025400098 -0.013043424 0.012892026 0.46408203 -0.50726432 -0.72616166 4.8112157e-05
-9.2551345e-05 -0.012276914 0.013984249 0.49513155 -0.50212097 -0.70902699 0.0001217325
0.00073694508 -0.0099377073 0.012893199 0.50915319 -0.50354594 -0.69800031 0.00036153098
0.0030317949 -0.0093209473 0.014222953 0.5463739 -0.50714147 -0.66654575 7.8425095e-05
0.0017100042 -0.0079630082 0.012154604 0.51072055 -0.50036293 -0.69914341 0.00032313855
0.0036728671 -0.0070050843 0.012991446 0.53422582 -0.50525624 -0.67773062 0.00016999761
0.005777814 -0.0061630402 0.014071406 0.54110259 -0.51683366 -0.66339362 5.5943627e-05
0.0068907198 -0.0037917187 0.013129954 0.52517331 -0.52114969 -0.6727525 2.7955133e-05
0.0090106996 -0.0029652854 0.014147884 0.51890022 -0.53080076 -0.67006958 4.2198135e-05
0.069653533 -0.0024113362 0.014764751 -0.094298728 -0.79538357 -0.59872597 0.0026919146
0.072456487 -0.0024110381 0.014738203 0.076708466 -0.84515977 -0.52898091 0.0039959638
0.0078534316 -0.0018258756 0.012363876 0.51915079 -0.52226955 -0.67654783 8.2670995e-05
0.0097835595 -0.00095123862 0.013157909 0.51382709 -0.53238332 -0.67271811 4.2783398e-05
0.012059124 -0.00024344056 0.014314261 0.50453228 -0.54168874 -0.67232472 3.9936109e-05
0.063771628 4.2520696e-06 0.014465774 -0.42714921 -0.54316586 -0.72285151 0.0015582874
0.066486441 -0.00064029399 0.01371117 -0.2661213 -0.65486318 -0.70734268 0.0022151351
0.069280051 -0.00096739671 0.01310707 -0.1782821 -0.72734708 -0.66270798 0.0039658635
0.072380461 -0.0012414521 0.013075111 0.031046202 -0.81630152 -0.57679123 0.0036072088
0.075409964 -0.0011164197 0.01326025 0.16620842 -0.8540175 -0.49297956 0.0038579993
0.078273326 -0.00025005807 0.013250562 0.31670535 -0.83323199 -0.45323542 0.003762075
0.080455393 0.00039958284 0.013966586 0.40180999 -0.80620867 -0.4342536 0.0026447065
0.010643621 0.0009662293 0.01230001 0.5038445 -0.5268985 -0.68448418 2.7717084e-05
0.012619083 0.0019413964 0.012984111 0.50388896 -0.49612957 -0.70707244 0.0019754805
0.01498509 0.0028272469 0.013989459 0.57472014 -0.36754075 -0.73117071 0.020238455
0.061040141 0.0028861212 0.014388516 -0.48112276 -0.44185373 -0.75715667 0.00014137272
0.063382842 0.0022906051 0.013258147 -0.44237047 -0.46722326 -0.76551342 0.0012154462
0.065804496 0.0012446129 0.012497867 -0.34150738 -0.56014347 -0.75472641 0.0018527121
0.079871438 0.0009662293 0.012296463 0.37451106 -0.80432838 -0.4612996 0.0028836413
0.081722975 0.0014517948 0.013247966 0.43691316 -0.78829217 -0.43324623 0.002505763
0.08409404 0.002920313 0.01345935 0.502307 -0.7544229 -0.42253247 0.001312199
0.012610028 0.0065525221 0.01268253 0.56619978 0.25169814 -0.78489864 0.0099468585
0.015349393 0.005359571 0.013355487 0.61699611 0.071662933 -0.78369647 0.034314457
0.017631026 0.0053542885 0.01473402 0.57741344 0.027552346 -0.81598681 0.034930687
0.058220521 0.0060070287 0.014486819 -0.49702591 -0.40528637 -0.76727319 9.3887254e-05
0.060315605 0.0053793127 0.013496098 -0.48402634 -0.40071452 -0.7779116 0.00010886662
0.062574834 0.0048745032 0.012370585 -0.47077143 -0.39410052 -0.78934097 8.6910906e-05
0.085525163 0.0043173367 0.012661065 0.57652712 -0.71750164 -0.3909066 0.0052285683
0.086886838 0.0057131322 0.012481983 0.68043512 -0.65467364 -0.32925749 0.0027286741
0.012549962 0.0082848044 0.012890738 0.54607797 0.25283754 -0.79866898 0.0067705819
0.014695677 0.0081802802 0.014393545 0.52221483 0.21965782 -0.82404006 0.00874958
0.055427074 0.0091899969 0.014726018 -0.51032889 -0.36748093 -0.77751023 0.00021202024
0.057509065 0.0082813911 0.013832224 -0.49645689 -0.37289616 -0.78388709 9.0581372e-05
0.059883293 0.0079074288 0.012521622 -0.4854269 -0.36630982 -0.79383737 5.59156e-05
0.088564254 0.0071233446 0.013884629 0.71706992 -0.59862584 -0.35701239 0.0024455378
0.089612313 0.0087992782 0.013527538 0.76411146 -0.52754354 -0.37125644 0.0021994982
0.010638207 0.012127785 0.012094324 0.57344747 0.11728181 -0.81080395 1.4543867e-06
0.012346122 0.011312153 0.013184371 0.57349825 0.11725821 -0.81077147 0
0.014325386 0.011211442 0.014570274 0.5735237 0.11723727 -0.81075633 0
0.054671381 0.011520062 0.01429651 -0.53701067 -0.27684861 -0.79685283 0.0011811842
0.057073459 0.011102771 0.012859556 -0.50977701 -0.30243698 -0.80539387 0.00067028747
0.059183367 0.0098951096 0.01206478 -0.48750806 -0.35577202 -0.79734695 7.5353732e-05
0.09016525 0.010454171 0.012127991 0.84219521 -0.40867624 -0.35169721 0.0049842247
0.010434467 0.014574827 0.012304372 0.57916421 -0.016564621 -0.81504261 0.0099161221
0.012359851 0.014400782 0.013640798 0.59789234 -0.056088459 -0.79961169 0.0078832777
0.014078676 0.014151026 0.014820482 0.54477268 -0.032255854 -0.8379631 0.0052756113
0.054499485 0.014466649 0.013796377 -0.61277878 -0.074963428 -0.78669095 0.0036963595
0.056386504 0.014033907 0.012445818 -0.59436393 -0.10632879 -0.79713595 0.0022240533
0.010421518 0.017604621 0.012344361 0.55998784 0.20054471 -0.80386281 0.041711118
0.012442271 0.01720864 0.013153915 0.56453598 -0.01247503 -0.82531422 0.019715203
0.014673283 0.017366471 0.014423673 0.4950524 0.025370806 -0.86849266 0.035145581
0.054603577 0.017102152 0.013800328 -0.63993227 0.12995942 -0.75736201 0.0037119878
0.056375641 0.017718911 0.012409248 -0.62568212 0.084616676 -0.77547526 0.0025515752
0.0036360961 0.021502603 0.013230422 0.33451733 0.83455437 -0.43774089 0.016449211
0.0061995527 0.021220783 0.013790484 0.32184011 0.82640111 -0.46203911 0.020553883
0.0094674136 0.020439954 0.01371614 0.31769991 0.72180736 -0.61486655 0.021863434
0.012118503 0.019305145 0.014103665 0.39051342 0.57953405 -0.71528983 0.012132162
0.054936007 0.019961156 0.014323111 -0.63501233 0.3323769 -0.69734132 0.0031352832
0.056727223 0.020587685 0.01292388 -0.6633243 0.27028248 -0.69781673 0.00229895
0.0039479034 0.022194989 0.012609924 0.33451697 0.83455539 -0.43773922 0.016448928
0.0062076133 0.022260441 0.014101977 0.24989459 0.83907503 -0.48322448 0.0181085
0.055641945 0.022297435 0.014944906 -0.63321054 0.45667869 -0.62489122 0.0008092951
0.0576398 0.023213428 0.013619588 -0.63687211 0.48841935 -0.59652364 0.0046993126
0.059367817 0.024000712 0.012396331 -0.64850658 0.43520126 -0.62453115 0.0030181208
0.058637161 0.025070369 0.01424485 -0.61938053 0.5874905 -0.5207904 0.0026744453
0.060396913 0.026060542 0.01341951 -0.60554123 0.63729829 -0.47662431 0.0046155634
0.062489942 0.02733214 0.012557127 -0.54357868 0.73186713 -0.41096565 0.0029351013
0.087692209 0.027207159 0.012320126 0.55333638 0.76232517 -0.33567724 0.0031747955
0.08994361 0.024978332 0.012408818 0.73415363 0.56700659 -0.37352628 0.016789874
0.061779853 0.027897529 0.014661427 -0.54675645 0.77698684 -0.31200761 0.0028925142
0.063695587 0.028713807 0.013685285 -0.48235822 0.80468208 -0.34614637 0.0045285746
0.066472553 0.030009929 0.013407589 -0.36902091 0.86823946 -0.33163822 0.0031531989
0.068749927 0.030573465 0.012581632 -0.28555208 0.88550115 -0.36653483 0.0045124535
0.079294369 0.030549072 0.012192423 0.16586268 0.90640384 -0.38848644 0.0016452211
0.081504866 0.029983602 0.012073065 0.29891273 0.8948155 -0.33159661 0.0016928673
0.085030481 0.028921746 0.012993003 0.43846643 0.83372808 -0.33562586 0.0041842512
0.086113334 0.028352149 0.012811567 0.4916828 0.81446803 -0.30804196 0.0067674071
0.070110179 0.031229766 0.014109517 -0.19677354 0.93826759 -0.2844891 0.0052216463
0.07235869 0.031123521 0.012447144 -0.11917288 0.89031672 -0.43947002 0.0033092145
0.075731263 0.031131074 0.012565422 0.044748057 0.93088216 -0.36256877 0.0057743876
-0.023293354 -0.028287996 0.01553424 0.20160675 -0.77580124 -0.59790224 0.0032827659
-0.020494621 -0.028309524 0.015846428 0.19430572 -0.72728026 -0.65826195 0.0049698134
-0.017323621 -0.027745383 0.015816687 0.27288854 -0.70052779 -0.65938807 0.005111434
-0.014606676 -0.0275131 0.016542878 0.31251591 -0.65410167 -0.68882859 0.007449796
-0.011694758 -0.027095454 0.017343484 0.3005611 -0.69064671 -0.65777659 0.00917821
-0.0092765847 -0.02618663 0.017849859 0.38953236 -0.54783887 -0.74036282 0.0012655577
-0.014008506 -0.025704456 0.015329565 0.31254274 -0.55761838 -0.76901156 0.00058469636
-0.011380805 -0.024946552 0.016053725 0.35976872 -0.52510583 -0.77125245 0.00044680873
-0.0086100791 -0.024267208 0.016972778 0.40713963 -0.51169038 -0.75657797 0.00023295573
-0.0065421928 -0.023537405 0.017652558 0.44303957 -0.50189036 -0.74284726 9.9351892e-05
-0.0082275746 -0.021978211 0.015680427 0.4017773 -0.51253563 -0.75886905 0.0001128322
-0.0057189716 -0.02147755 0.016743168 0.44436669 -0.50312525 -0.74121737 0.00012169682
-0.0035290516 -0.020903276 0.017699685 0.47949588 -0.50886357 -0.71494168 0.00027769001
-0.0051705958 -0.019345134 0.01560321 0.44230106 -0.50730866 -0.73959959 0.0001413096
-0.0028181199 -0.018736608 0.016681092 0.46769786 -0.5023241 -0.72727519 3.1897544e-05
-0.00085449661 -0.018148856 0.017601535 0.52422321 -0.49364763 -0.69390351 0.00024506616
-0.0022050233 -0.016478812 0.015530647 0.47407866 -0.50538647 -0.72099507 7.1339229e-05
0.00016415876 -0.015510504 0.016509654 0.52600121 -0.4972688 -0.68996119 0.00039000221
0.0024985168 -0.014500411 0.017733371 0.5740521 -0.5014295 -0.6473273 5.6536734e-05
0.0012942482 -0.013044034 0.015578461 0.54779494 -0.50449306 -0.66738862 0.00018932676
0.0032056165 -0.012415053 0.016752541 0.56991512 -0.50598514 -0.64743787 3.5593916e-05
0.0051353276 -0.011485896 0.017714646 0.57011467 -0.51457286 -0.64045614 4.6412122e-05
0.0039836988 -0.010300239 0.015780693 0.55925834 -0.50550753 -0.65703285 0.00010757335
0.0060159573 -0.0095321815 0.01693368 0.5615595 -0.51772797 -0.64545232 3.8330872e-05
0.007964788 -0.0086655682 0.017917063 0.55640739 -0.52877098 -0.64094609 6.5732034e-05
0.0069451313 -0.0069978694 0.015689366 0.54566932 -0.52183241 -0.65569496 6.1729872e-05
0.0091227936 -0.006410385 0.017018329 0.53923893 -0.53960216 -0.64656866 5.7792979e-05
0.01135609 -0.0052731102 0.017891642 0.52224791 -0.55212331 -0.64993608 4.0950476e-05
0.0099831671 -0.0039223279 0.015687579 0.52500832 -0.53414869 -0.66260958 4.8669906e-05
0.012221605 -0.0033274642 0.016956192 0.5110091 -0.55116993 -0.65960699 4.4235399e-05
0.014176817 -0.0024446612 0.017720725 0.5066697 -0.55934519 -0.65606308 4.793012e-05
0.061650772 -0.0024452126 0.017767992 -0.39201462 -0.6365177 -0.66420615 0.0018843346
0.063730009 -0.0028288579 0.017115697 -0.30046546 -0.71033466 -0.63651013 0.0033605208
0.066535704 -0.003250733 0.016618833 -0.18037161 -0.80132526 -0.57038927 0.0037156739
0.069389597 -0.0034589018 0.016450636 -0.035671979 -0.8567037 -0.51457387 0.0044559692
0.072341874 -0.0033541941 0.016539911 0.13729215 -0.89412016 -0.42626286 0.0022818432
0.07524538 -0.0027485241 0.016840275 0.20233177 -0.89035439 -0.40783682 0.0019191416
0.012833167 -0.0013489153 0.015789304 0.50732011 -0.54496557 -0.66756195 4.0002866e-05
0.015105302 -0.00051765871 0.016807344 0.4981049 -0.55775434 -0.66392893 2.5069703e-05
0.017192129 0.00019212393 0.017756777 0.49001044 -0.56525671 -0.66360736 4.3360404e-05
0.058617786 0.00019287888 0.017625885 -0.48117849 -0.51416248 -0.71000296 0.00062918756
0.060590055 -0.00057202455 0.016847128 -0.43705323 -0.5679037 -0.69747394 0.0013887824
0.063095853 -0.0011797086 0.015812503 -0.37981832 -0.58824337 -0.71393824 0.0044553848
0.065510944 -0.0018545231 0.015220369 -0.22811215 -0.70736098 -0.66903311 0.0032063839
0.076169811 -0.0018534428 0.015113737 0.19728304 -0.86281264 -0.46543944 0.0016989306
0.078275926 -0.001411349 0.015904911 0.3425495 -0.85567141 -0.38792554 0.0015097094
0.080748051 -0.00017454399 0.016090201 0.3855941 -0.82727057 -0.40858355 0.0026187345
0.015978124 0.0017502254 0.015553576 0.51649725 -0.48570526 -0.70520991 0.0031984835
0.018294862 0.0024939957 0.016620852 0.53208673 -0.45728129 -0.71258515 0.0056631258
0.020766353 0.0033942992 0.017652681 0.52494788 -0.39045644 -0.75628936 0.010707662
0.055253595 0.0035831218 0.017831074 -0.51097316 -0.43457961 -0.74165148 0.00010059225
0.057506274 0.0025652123 0.016905487 -0.50403714 -0.44807911 -0.73835742 0.00022986349
0.059947368 0.0019375423 0.015634483 -0.47895175 -0.45705754 -0.74946892 0.00034908531
0.016344169 0.006575712 0.015327002 0.56296831 0.11246409 -0.81879085 0.023789622
0.018821977 0.0055412659 0.016054599 0.53625882 0.14345951 -0.83177274 0.023006419
0.02116124 0.0052377735 0.017249806 0.52405316 0.0668585 -0.84905726 0.026231661
0.052626893 0.0065985108 0.017923173 -0.51767945 -0.41851696 -0.74622488 0.00011119901
0.054748148 0.0056496854 0.016990064 -0.5115906 -0.41435811 -0.75271672 7.4429387e-05
0.05705718 0.0052217171 0.01567192 -0.50348288 -0.41176683 -0.75957423 5.8854075e-05
0.016097851 0.0083881449 0.015415448 0.56062442 0.24800299 -0.79005992 0.0080456017
0.018223824 0.0082190195 0.016894741 0.53095347 0.27237329 -0.8024345 0.0075881965
0.051914874 0.0086099235 0.017365417 -0.5362134 -0.34895054 -0.76857573 0.00092945981
0.054234196 0.0081660179 0.016020654 -0.51277781 -0.37080655 -0.77431351 0.00023055695
0.056236316 0.007136547 0.015201177 -0.51458162 -0.39254937 -0.76230621 0.00010465283
0.015733473 0.01143294 0.015598132 0.55764353 0.097195387 -0.82437056 0.00061811687
0.017934671 0.011301927 0.0171363 0.56569439 0.089825638 -0.81970793 0.00066731888
0.049691774 0.011872312 0.017797546 -0.57262099 -0.19602196 -0.79604053 0.0028658749
0.051531792 0.011442567 0.016533237 -0.57448131 -0.22732116 -0.78631824 0.0026596154
0.053458646 0.010512532 0.015466063 -0.55469751 -0.25855336 -0.79086083 0.0025682298
0.015453945 0.014512296 0.015845401 0.47757667 -0.10770315 -0.87196356 0.013895106
0.017976709 0.014655727 0.017218927 0.36388284 -0.24520558 -0.89858973 0.029321095
0.02137731 0.01537526 0.017307626 0.32413086 -0.46556354 -0.82352269 0.015942069
0.049525935 0.01438233 0.017719457 -0.62070841 0.021073539 -0.78375822 0.00250542
0.051562928 0.01446511 0.01609298 -0.60996699 -0.027102126 -0.79196322 0.0028631517
0.015987238 0.017227642 0.015504013 0.40418938 -0.073980205 -0.91167861 0.027466515
0.018547572 0.017226484 0.01577899 0.3182916 -0.2953279 -0.90081739 0.018229287
0.021467602 0.017296633 0.016605316 0.25108048 -0.2828348 -0.92572302 0.015596289
0.023855271 0.017650705 0.017557301 0.44331759 -0.21043357 -0.87131345 0.0040824283
0.04978998 0.016771911 0.017832672 -0.63007176 0.235587 -0.73993814 0.0025948947
0.05160011 0.017291069 0.016411714 -0.65258455 0.22791806 -0.7226249 0.0023901893
0.05341021 0.018370397 0.015065785 -0.67013448 0.20954065 -0.71204811 0.004636629
0.0070014941 0.021405093 0.015431642 0.26628876 0.80743533 -0.52643949 0.018728625
0.010281298 0.021539865 0.015622105 0.28524491 0.75626063 -0.58881676 0.012124222
0.012570232 0.020864688 0.016253628 0.24958488 0.68279481 -0.68665761 0.023486774
0.015348502 0.020302877 0.015968058 0.11152858 0.42317304 -0.89915848 0.033858269
0.01841742 0.02043475 0.015861733 0.076276407 0.29951498 -0.9510377 0.016711023
0.021456836 0.020389317 0.016393468 0.2406023 0.14187677 -0.96019876 0.0089096753
0.024071043 0.020221267 0.017344916 0.40192831 0.096723057 -0.91054839 0.012906458
0.051897895 0.019912278 0.017176526 -0.65399939 0.37926969 -0.65455282 0.0023433478
0.053661317 0.020681692 0.015917504 -0.63624489 0.34586164 -0.68961734 0.0025314181
0.0079085492 0.022304781 0.015112544 0.26629364 0.80742234 -0.52645701 0.018729636
0.009635305 0.022378359 0.016789963 0.21968301 0.86687863 -0.44750506 0.016547503
0.013048125 0.022044418 0.017764376 -0.015224802 0.78660071 -0.61727422 0.031016415
0.015421738 0.022657733 0.017434215 -0.13578749 0.64827204 -0.74920297 0.0061226999
0.018390866 0.022959664 0.017166397 -0.018406373 0.58716738 -0.80925626 0.0066069481
0.021423718 0.022927335 0.01734593 0.17077874 0.54067326 -0.82371533 0.0096598081
0.02378195 0.022323946 0.017694753 0.38672799 0.44882834 -0.80560201 0.009103911
0.052608415 0.021856107 0.017767992 -0.63775802 0.50531834 -0.58130717 0.0059415158
0.054827213 0.023265945 0.016720055 -0.62723762 0.55622262 -0.54515082 0.0047110668
0.05666323 0.024201564 0.015609364 -0.60641229 0.56437188 -0.56013262 0.0043271785
0.057593096 0.025833173 0.016707242 -0.57753712 0.68247175 -0.44797692 0.001987753
0.059720825 0.027090859 0.016039589 -0.51030356 0.78910166 -0.34191933 0.0032193316
0.061051171 0.028142218 0.016498897 -0.51634574 0.80057794 -0.30407584 0.0021042677
0.06302809 0.029110922 0.016196679 -0.45826018 0.84686095 -0.26985943 0.0010503751
0.065426789 0.030258574 0.016550805 -0.38626447 0.89061576 -0.24000707 0.0014304949
-0.011598709 -0.029198758 0.020498496 0.25094792 -0.78978425 -0.55970168 0.0031369724
-0.014412158 -0.029128186 0.019492868 0.29336488 -0.72458887 -0.62362492 0.0051847305
-0.011329061 -0.028310683 0.018846346 0.28200293 -0.74374676 -0.60606527 0.0066565191
-0.0084269643 -0.027469214 0.019348416 0.32510996 -0.73064888 -0.60037965 0.0054770275
-0.00593263 -0.026911329 0.02029244 0.40815344 -0.63549602 -0.65540487 0.0064538573
-0.0074942596 -0.025466276 0.018384175 0.43261167 -0.53455281 -0.72601688 0.0016191326
-0.0054852795 -0.024693085 0.019058237 0.44632882 -0.50731415 -0.73717231 0.00019530681
-0.0031637626 -0.024257172 0.020256039 0.50908238 -0.50586909 -0.69637036 0.0002848627
-0.0046629924 -0.022624848 0.018172806 0.46138895 -0.502662 -0.7310617 2.6619746e-05
-0.0025417462 -0.021970712 0.019090684 0.48683947 -0.50034755 -0.71598858 0.00026103127
-0.00056373491 -0.021379936 0.020227427 0.54687804 -0.49504399 -0.67517108 0.00026054747
-0.0016463879 -0.019992195 0.018315252 0.50660378 -0.48874816 -0.71026605 0.0004766614
0.00060002366 -0.018868048 0.019375056 0.56409049 -0.48603252 -0.66751355 0.00047871468
0.0027087445 -0.017630555 0.020332402 0.59234113 -0.49293485 -0.63729692 5.1302479e-05
0.0013243279 -0.016596559 0.018301088 0.55577344 -0.49682903 -0.66654092 0.0004030331
0.0035402053 -0.015595988 0.01953179 0.58719581 -0.50004572 -0.63651818 4.3057844e-05
0.0053624706 -0.014603274 0.020438876 0.58394933 -0.50618547 -0.63464916 6.2056453e-05
0.0043536881 -0.013321963 0.018494442 0.57819754 -0.5082078 -0.63828874 4.2281059e-05
0.0062159933 -0.012599505 0.019601913 0.58026844 -0.51213992 -0.6332466 1.7543149e-05
0.0082107978 -0.011769908 0.020725207 0.57093322 -0.52453274 -0.63158572 4.340829e-05
0.0070365248 -0.010572559 0.018682977 0.56581247 -0.52245557 -0.63788432 3.8572845e-05
0.0092142951 -0.0097022122 0.019859156 0.55407912 -0.53842485 -0.63489765 6.5635853e-05
0.011624958 -0.0083577204 0.020762857 0.53357404 -0.55512297 -0.63807309 4.7547786e-05
0.010251463 -0.0075577442 0.018915689 0.54107803 -0.5451141 -0.64037895 6.0909675e-05
0.012461181 -0.0063599916 0.019716773 0.52261102 -0.55619729 -0.64615965 4.173147e-05
0.01446338 -0.0055100187 0.020585682 0.51752114 -0.56184953 -0.64536583 1.6996326e-05
0.064046964 -0.0053221164 0.020684045 -0.17871048 -0.85560876 -0.4857944 0.0028266497
0.066528402 -0.0053128935 0.020158984 -0.036663637 -0.90736586 -0.41873983 0.0031434088
0.069139004 -0.0053189611 0.020504322 0.041396696 -0.93754554 -0.34539059 0.0018990159
0.013264118 -0.0043425923 0.018633058 0.51175737 -0.55687648 -0.6542117 3.561729e-05
0.01529148 -0.0035192086 0.019506855 0.50853807 -0.56043571 -0.65368253 1.8842482e-05
0.017571123 -0.0027042096 0.020556197 0.49251375 -0.57501823 -0.65328723 3.7796563e-05
0.057977121 -0.0028313445 0.02048181 -0.44415566 -0.62993044 -0.63711327 0.0021790375
0.060526703 -0.0034355945 0.019548299 -0.38949585 -0.68964213 -0.61048079 0.0027111787
0.063240126 -0.004199882 0.019144157 -0.22077678 -0.82197875 -0.52498442 0.0014199915
0.066074438 -0.0045600384 0.018740842 -0.093947388 -0.87598467 -0.47310111 0.0030940853
0.06917005 -0.0047238506 0.018876048 0.028159853 -0.90429944 -0.425969 0.0022317327
0.072060257 -0.0044465577 0.019234693 0.1293278 -0.91235602 -0.38843381 0.0022628326
0.074376509 -0.0038839495 0.019528698 0.18605009 -0.90944856 -0.3718718 0.0013038815
0.016012967 -0.001660598 0.018450901 0.49969169 -0.56547296 -0.6561619 3.1019452e-05
0.018361788 -0.00078902912 0.019459296 0.48958078 -0.57503194 -0.65547615 3.5210418e-05
0.020687835 -3.9356353e-05 0.020499852 0.48184693 -0.58170849 -0.65531582 2.0656795e-05
0.055192575 -0.00020121393 0.020377796 -0.50571358 -0.52470827 -0.68478829 0.00022209551
0.057342838 -0.00080708746 0.019251661 -0.48028216 -0.53627324 -0.69407493 0.0012533126
0.059369352 -0.0016606576 0.018458089 -0.46247518 -0.59276241 -0.65935528 0.0020139331
0.019483905 0.0013202511 0.01844131 0.49878848 -0.52934712 -0.68629557 0.0023215984
0.021753965 0.0021469307 0.019369669 0.52477384 -0.4165822 -0.74234205 0.010257213
0.024168203 0.0031278685 0.020275082 0.57579577 -0.26132551 -0.77470523 0.02260492
0.052040968 0.0032092817 0.020350879 -0.5227052 -0.45552188 -0.72061014 7.9368954e-05
0.05428873 0.0021903217 0.019404141 -0.51326269 -0.47870442 -0.71232259 0.00011349344
0.056457758 0.0013204499 0.018410208 -0.50975382 -0.47537923 -0.71705347 0.00010397629
0.022080123 0.0058128829 0.018666141 0.61269724 0.10423417 -0.78341389 0.024683058
0.024382086 0.0053241407 0.019675681 0.55997872 0.26640254 -0.78450841 0.018138845
0.026228707 0.0054857912 0.020796712 0.59034556 0.03582469 -0.80635518 0.042212371
0.049150072 0.0062424722 0.020563187 -0.52455163 -0.4346509 -0.7320683 0.00027866353
0.051343411 0.0054377699 0.019475803 -0.52178878 -0.42130804 -0.74177891 6.2090665e-05
0.053614423 0.0047156694 0.018298181 -0.51675302 -0.42422748 -0.74363798 0.00015551491
0.019846966 0.0088628717 0.018136349 0.58389086 0.2436301 -0.77441323 0.0041550426
0.021603094 0.0083119776 0.019298375 0.54739648 0.2590054 -0.79578471 0.004955064
0.023590866 0.0081157917 0.020675749 0.54259789 0.25215322 -0.80125284 0.0088052033
0.046522483 0.0092789959 0.020811515 -0.54889637 -0.32294258 -0.77098691 0.0015631615
0.048538722 0.0084225144 0.019798396 -0.53253615 -0.34689125 -0.77205688 0.0015970714
0.050783839 0.0078229122 0.01854028 -0.53245324 -0.34741545 -0.7718783 0.00098096207
0.019632258 0.0116394 0.01838557 0.53399318 -0.045816462 -0.84424651 0.029891392
0.021624481 0.011155322 0.01972498 0.57245088 0.076768056 -0.81633729 0.00060621428
0.023389269 0.010608105 0.020894622 0.58469272 0.081218608 -0.80717897 0.00061701227
