# .PCD v0.7 - Point Cloud Data file format
VERSION 0.7
FIELDS x y z normal_x normal_y normal_z curvature
SIZE 4 4 4 4 4 4 4
TYPE F F F F F F F
COUNT 1 1 1 1 1 1 1
WIDTH 556
HEIGHT 1
VIEWPOINT 0 0 0 1 0 0 0
POINTS 556
DATA ascii
-0.047543459 0.00096029253 -0.02383568 -0.70633376 -0.27712473 -0.65137893 0.0016422265
-0.045459267 -0.00022701919 -0.02511134 -0.48685244 -0.44555503 -0.75130254 0.0056721605
-0.023160096 0.0008212626 -0.024714196 0.34010085 -0.16740914 -0.92536777 0.028501479
-0.020584546 0.0010327483 -0.023862589 0.29866812 -0.058641724 -0.95255369 0.011143737
-0.017583929 0.001032411 -0.023309125 0.17306975 -0.053548466 -0.9834528 0.0045649121
-0.014574333 0.0010320712 -0.022766894 0.14311819 -0.013370893 -0.98961526 0.0069087986
-0.011944576 0.0012575451 -0.022375682 0.050157413 -0.03134818 -0.99824923 0.011604919
-0.0091364635 0.0012095857 -0.022417542 0.070143133 0.033725079 -0.99696666 0.007256933
-0.049308725 0.0040745162 -0.022834562 -0.81683737 -0.080828838 -0.57117724 0.0043011815
-0.04819889 0.0039132354 -0.02426446 -0.78292769 -0.15564425 -0.60232812 0.0035698793
-0.025298025 0.003807798 -0.024995528 0.74241644 -0.17195883 -0.64749372 0.039329328
-0.022730984 0.0043165423 -0.024468707 0.51095903 0.11673075 -0.85164243 0.021110108
-0.020442724 0.0040711216 -0.023472808 0.36066502 0.15587515 -0.91957802 0.014110325
-0.017531518 0.0040149903 -0.022951623 0.17080329 0.25375673 -0.95206821 0.0065018795
-0.01475409 0.0036117048 -0.022574518 0.15862539 0.21591929 -0.96344012 0.0037555122
-0.012651485 0.0029782255 -0.022342049 0.059640296 0.11785814 -0.99123788 0.0041885288
-0.0094342167 0.003147319 -0.022380199 0.10162188 0.21961889 -0.97027856 0.015724866
-0.049315859 0.0068652001 -0.022783719 -0.86197788 0.12436279 -0.49145505 0.0071338713
-0.048334826 0.0070957351 -0.024376631 -0.81324106 0.042214509 -0.58039361 0.0074007721
-0.022764228 0.0069324267 -0.024017248 0.73583525 0.1115505 -0.66790944 0.063343443
-0.020309784 0.0062149977 -0.022604339 0.26397076 0.64477497 -0.71734565 0.031196464
-0.018147763 0.0058546513 -0.022408418 0.12227356 0.50734103 -0.85302645 0.0071136863
-0.047972642 0.010068975 -0.023839742 -0.8667565 0.26342657 -0.42348522 0.0028019897
-0.023053546 0.010301238 -0.023742298 0.8955248 0.2708478 -0.35309616 0.010448096
-0.04682586 0.013092472 -0.023704514 -0.83307296 0.36610365 -0.41467768 0.0019558319
-0.025461566 0.014230574 -0.025051139 0.56337929 0.41980401 -0.71159571 0.026300011
-0.0240678 0.013114326 -0.023819162 0.75305885 0.40745643 -0.51660591 0.0117807
-0.046247311 0.015226997 -0.022975229 -0.82434827 0.38576162 -0.41429198 0.0022835589
-0.044797242 0.016794104 -0.024391396 -0.72463536 0.4260819 -0.54162508 0.009409707
-0.026103809 0.0161357 -0.024834238 0.71134681 0.20897228 -0.67105609 0.039601568
-0.02467702 0.014962807 -0.023283727 0.72483969 0.37520909 -0.57777643 0.0097780898
-0.04382256 0.019164056 -0.023985645 -0.79757822 0.41799852 -0.43490946 0.0020543814
-0.028560776 0.020444982 -0.025172569 0.28080484 0.44414145 -0.85081547 0.0012274553
-0.026753563 0.019195467 -0.024932003 0.66852379 0.30823311 -0.6768074 0.034277901
-0.034665737 0.023371518 -0.025131581 0.14258493 0.42719141 -0.89284766 0.00082619616
-0.032190349 0.022823036 -0.024849461 0.2060834 0.43575761 -0.87615353 0.0010204155
-0.029214699 0.022325926 -0.024276879 0.27961928 0.42849356 -0.85918933 0.001260326
-0.02739596 0.021306887 -0.024065303 0.61833984 0.48819342 -0.61589211 0.049183667
-0.040603366 0.02515224 -0.024753479 0.0623907 0.32251003 -0.94450766 0.0019973759
-0.038190093 0.025261577 -0.024734339 0.053122584 0.34666178 -0.93648469 0.0012049136
-0.035190288 0.025277797 -0.024462011 0.1385652 0.35593057 -0.92418242 0.0013662855
-0.032220483 0.02531464 -0.023843115 0.2294248 0.35429782 -0.90655243 0.0014079848
-0.029717047 0.025189359 -0.023106938 0.26711017 0.34051278 -0.90150058 0.0018349594
-0.040425293 0.028206237 -0.023824248 0.051233266 0.20587336 -0.97723657 0.0020712069
-0.038295802 0.028352246 -0.023802277 0.051233266 0.20587336 -0.97723657 0.0020712069
-0.035290781 0.028371643 -0.023513064 0.16072594 0.23927858 -0.95755571 0.0015462344
-0.032348473 0.028375771 -0.022910742 0.23623723 0.22921459 -0.94427359 0.0014000745
-0.030289676 0.027680028 -0.02246739 0.24843438 0.27071798 -0.93004954 0.0027319384
-0.040114552 0.030658085 -0.023394825 0.054878786 0.1905337 -0.98014551 0.0021060121
-0.038318481 0.031389985 -0.023283115 0.10572241 0.12470309 -0.9865455 0.0015282836
-0.035347223 0.031448778 -0.022979997 0.16668306 0.13545454 -0.9766621 0.0013910652
-0.032869954 0.031094246 -0.022538859 0.23212592 0.12814341 -0.96420783 0.00062273588
-0.037681811 0.033532444 -0.023071561 0.12164123 0.13532524 -0.98330593 0.0017522061
-0.035365123 0.033743378 -0.022810858 0.13756526 0.11667757 -0.98359656 0.0024797956
-0.033265583 0.033193137 -0.022438068 0.19712982 0.11757031 -0.97330219 0.00098530052
-0.038297605 -0.0097086076 -0.020314112 -0.15730821 -0.83115304 -0.533328 0.012762443
-0.035351165 -0.0096798409 -0.020530928 0.045740072 -0.79926288 -0.59923851 0.015045702
-0.032916196 -0.0095175449 -0.020230439 0.26864383 -0.80192959 -0.53360969 0.016626742
-0.049382344 -0.0074048769 -0.019579086 -0.45199028 -0.45045388 -0.76993251 0.030534908
-0.047374297 -0.0075614033 -0.02070763 -0.406454 -0.60219485 -0.68713641 0.03045854
-0.044558663 -0.0077538509 -0.021489087 -0.26057082 -0.63226902 -0.72961551 0.02344791
-0.041424505 -0.0081410017 -0.020917598 -0.11204889 -0.85651034 -0.50382042 0.010699612
-0.038487505 -0.0083685759 -0.020710709 -0.1206367 -0.79302728 -0.59712189 0.014618343
-0.035429105 -0.0082855783 -0.021249752 0.065461554 -0.7492789 -0.6590113 0.014546946
-0.032543838 -0.007996046 -0.020775076 0.27518159 -0.67693835 -0.68266362 0.016273703
-0.029494856 -0.0070865154 -0.021048032 0.24098672 -0.77136153 -0.58900493 0.017965747
-0.026423723 -0.0068742288 -0.020561505 0.10597752 -0.7963863 -0.59543061 0.0086137811
-0.023538426 -0.0067357542 -0.020190086 0.073007241 -0.77096057 -0.63268453 0.0055139493
-0.020202674 -0.0067410124 -0.019915834 0.030633539 -0.72928584 -0.683523 0.0092480816
-0.017353486 -0.0066810986 -0.020388991 0.10275349 -0.68803257 -0.71836817 0.01156984
-0.015513019 -0.006637156 -0.019618802 0.15833277 -0.63964218 -0.75218922 0.007651757
-0.049604677 -0.0044339779 -0.02000089 -0.67209774 -0.17403813 -0.71971887 0.0039748885
-0.047604978 -0.0047034291 -0.021452479 -0.53230363 -0.24603459 -0.81001222 0.0041786972
-0.045847993 -0.0055719018 -0.022157378 -0.44256121 -0.35378993 -0.8239978 0.0036840881
-0.028682239 -0.005724973 -0.022116039 0.15448274 -0.62811244 -0.7626335 0.0013401808
-0.026172969 -0.0054686097 -0.02183168 0.12496758 -0.62239569 -0.77266204 0.0010082528
-0.023281824 -0.0053265095 -0.021648103 0.096049152 -0.60730565 -0.78864092 0.0016805357
-0.020163715 -0.0049774996 -0.021475025 0.070914 -0.56075984 -0.82493609 0.0047467262
-0.017165016 -0.004606172 -0.021270825 0.16728057 -0.48035112 -0.86097622 0.0015448501
-0.014178223 -0.0045785601 -0.020681122 0.20054138 -0.55973977 -0.80403644 0.0084654158
-0.011284214 -0.004521355 -0.020350926 0.050394386 -0.5576914 -0.82851714 0.0067649744
-0.0085388459 -0.0044805538 -0.020496402 0.050140914 -0.54236984 -0.83864224 0.0045372448
-0.0056018084 -0.004257564 -0.020135524 0.14445545 -0.52722138 -0.83735901 0.003750972
-0.0025759544 -0.0039258469 -0.019811217 0.14622277 -0.52548176 -0.83814549 0.0036817964
0.00033155456 -0.0034858822 -0.019545034 0.15493447 -0.5133751 -0.84406239 0.0026750145
-0.049812041 -0.0016899281 -0.020466393 -0.71009415 -0.17819755 -0.68118429 0.0027005863
-0.04826254 -0.0021882583 -0.021837663 -0.65274316 -0.28147402 -0.70334816 0.0036791535
-0.016131174 -0.0027778894 -0.022167705 0.1829602 -0.32208657 -0.92886263 0.0051013171
-0.01417962 -0.0022713654 -0.022022098 0.18967447 -0.33515683 -0.92287242 0.0045545395
-0.011637005 -0.0018207319 -0.021671951 0.071089163 -0.32393208 -0.94340569 0.010148238
-0.008482255 -0.0018001772 -0.021800388 0.10475442 -0.2902503 -0.95119995 0.005661618
-0.0054923026 -0.0017690915 -0.021275451 0.17328903 -0.29926577 -0.93830216 0.0025205978
-0.0024512336 -0.0017732074 -0.020728067 0.15987056 -0.31728837 -0.93475634 0.004577809
0.00059804041 -0.0017773411 -0.020179015 0.15717703 -0.29287627 -0.94314301 0.003662243
0.003518506 -0.0016432358 -0.019699894 0.16127825 -0.27499536 -0.94782215 0.0036232991
0.006018566 -0.0010794927 -0.019421551 0.17777747 -0.27016494 -0.94625896 0.0052543501
-0.050166663 0.00098482729 -0.020856358 -0.765293 -0.18275218 -0.61719394 0.0016189223
-0.011268062 0.00088667509 -0.022194602 0.034795154 -0.025605958 -0.99906641 0.012081767
-0.0077187121 0.00080949417 -0.022151638 0.15803172 -0.017298613 -0.98728257 0.0058232672
-0.0054767448 0.001031428 -0.021762338 0.17907982 -0.017788623 -0.98367369 0.0038875178
-0.0024392875 0.001031089 -0.021216851 0.17753635 -0.092244342 -0.97978151 0.0068470989
0.00060634548 0.0010307455 -0.020669948 0.17351757 -0.07529629 -0.98194808 0.0053065773
0.0036601913 0.0010304009 -0.020121513 0.16364288 -0.05650425 -0.98490018 0.0035220943
0.006685765 0.0010666039 -0.01958104 0.15091395 -0.020824505 -0.98832756 0.0051088026
0.008511872 0.0015415325 -0.019295894 0.1726386 -0.01869831 -0.98480779 0.0056804065
-0.050600383 0.0040881541 -0.020898815 -0.85793132 -0.011300591 -0.51364011 0.0016467354
-0.015873976 0.0053488463 -0.022224002 0.17062363 0.39123622 -0.90433502 0.001761936
-0.014127751 0.0049809935 -0.0220668 0.15013705 0.30840641 -0.93933189 0.0063331639
-0.011511215 0.004209334 -0.021840531 0.076470494 0.25250879 -0.96456808 0.011707069
-0.008341494 0.0042693256 -0.021768043 0.13495353 0.32708442 -0.93530923 0.0086817192
-0.0054860972 0.004084792 -0.021469632 0.15761161 0.29382625 -0.94277501 0.0083887558
-0.002446474 0.004088562 -0.020922892 0.13977863 0.35124856 -0.92578959 0.020533284
0.00060135219 0.0040923413 -0.020374816 0.15772486 0.2708993 -0.94959801 0.012350297
0.0036210306 0.004059481 -0.019842304 0.18327603 0.25798514 -0.94860613 0.011338487
0.0063586375 0.0035194997 -0.019487705 0.19218379 0.20268013 -0.96020103 0.012540441
-0.050338671 0.0070489398 -0.020808477 -0.86696422 0.20832539 -0.45274013 0.0037775221
-0.022007193 0.0081513226 -0.021693118 0.63820869 0.63268048 -0.43863997 0.03766045
-0.020200294 0.007728646 -0.020731255 0.30568281 0.75159115 -0.58452439 0.012661477
-0.017195437 0.0068854 -0.021376638 0.15587306 0.69994456 -0.69698006 0.011829772
-0.014148449 0.0066319946 -0.021240257 0.13162157 0.61473125 -0.77767682 0.023107108
-0.011300282 0.0066754972 -0.020704703 0.081370927 0.62322003 -0.77780169 0.018931614
-0.0085303942 0.0066113337 -0.020285849 0.080364138 0.68278819 -0.72618306 0.011895001
-0.0056343051 0.0064948518 -0.020033849 0.093562134 0.67030495 -0.73616391 0.010004278
-0.0026743822 0.0060867034 -0.019970553 0.098708101 0.70975113 -0.69750279 0.011379551
0.000591408 0.0058842124 -0.019786946 0.1008011 0.60546976 -0.78945899 0.0075305109
0.0028857132 0.0058888691 -0.019373309 0.15820646 0.52928519 -0.83356339 0.0067872563
-0.049462806 0.0098066796 -0.02070158 -0.85760266 0.32295761 -0.40026993 0.0016682439
-0.048460074 0.011204213 -0.021633424 -0.86926526 0.32878134 -0.36916226 0.00072988932
-0.022309352 0.010155838 -0.020170003 0.85382867 0.4043248 -0.32786918 0.023169799
-0.021667413 0.0089584291 -0.019330643 0.33658612 0.66235977 -0.66932005 0.013480957
-0.047896743 0.013347618 -0.020795222 -0.8649357 0.37364694 -0.33507344 0.0002494973
-0.046511073 0.016313685 -0.020991988 -0.86234689 0.38041773 -0.33412614 0.00035671672
-0.025181219 0.016749755 -0.021973619 0.82389003 0.36457855 -0.43392143 0.01748638
-0.024425015 0.016023282 -0.021988856 0.81644708 0.36573267 -0.44682634 0.016102243
-0.046170641 0.018150136 -0.019705616 -0.85139227 0.40959775 -0.32765949 0.00091744831
-0.045115471 0.019548841 -0.021090185 -0.83855635 0.43000636 -0.33454111 0.0011050738
-0.025893584 0.019379519 -0.020819992 0.8567158 0.45848498 -0.23628262 0.012323517
-0.043830648 0.021678373 -0.020699069 -0.82746965 0.45686778 -0.32644427 0.00081439072
-0.031107284 0.029724956 -0.022258244 0.22656564 0.13419415 -0.9647072 0.000696456
-0.030436911 0.029052842 -0.022186439 0.32466826 0.21136944 -0.92190748 0.0016233246
-0.031569067 0.031369369 -0.022150092 0.22568341 0.12973486 -0.9655236 0.00066339778
-0.032379944 0.033028334 -0.022226907 0.19713145 0.11757779 -0.97330087 0.00099257403
-0.052255448 -0.0097875595 -0.016518526 -0.39043656 -0.74167132 -0.54542005 0.035502058
-0.050548881 -0.0097154947 -0.017299719 -0.24999683 -0.80093485 -0.54406339 0.050909381
-0.04722593 -0.0095031308 -0.017539758 -0.10440478 -0.87062067 -0.48074874 0.01465199
-0.044217758 -0.0095186625 -0.0169493 0.043794405 -0.97082603 -0.23575149 0.01499003
-0.040952556 -0.0099432161 -0.017541431 -0.2631703 -0.93432903 -0.24035524 0.029775053
-0.038464982 -0.010780822 -0.017784826 -0.29267168 -0.89659369 -0.33235985 0.027440891
-0.035413817 -0.010789268 -0.017498728 0.05699477 -0.9246912 -0.37642768 0.0062642996
-0.032012518 -0.010158779 -0.01813739 0.35429633 -0.84233016 -0.40614533 0.013035983
-0.030627843 -0.010046214 -0.016476236 0.32180962 -0.9247033 -0.20337719 0.036905896
-0.052211456 -0.0077209342 -0.016821079 -0.75500172 -0.11296242 -0.64591938 0.0060989056
-0.050784502 -0.0077815456 -0.018304408 -0.53777045 -0.31151748 -0.78342819 0.044363443
-0.046491534 -0.0089474842 -0.019210957 -0.12061363 -0.80108619 -0.58627069 0.020258609
-0.044494048 -0.008957237 -0.018821921 -0.041949373 -0.88525534 -0.46320963 0.0052763568
-0.041623827 -0.0089673549 -0.018418061 -0.16520691 -0.95366985 -0.25143692 0.035237871
-0.031221848 -0.0087123699 -0.018361017 0.44382587 -0.81249219 -0.37798816 0.01108192
-0.029104479 -0.0083944518 -0.017879065 0.26743326 -0.89239311 -0.36347467 0.014697344
-0.026381571 -0.0082090516 -0.017982442 0.076733626 -0.92911655 -0.36173815 0.0012065835
-0.023346692 -0.0079898629 -0.017858949 0.042103387 -0.89391756 -0.44624957 0.0054702647
-0.020454489 -0.0079107871 -0.018074235 -0.020225385 -0.91122496 -0.41141236 0.0011850172
-0.017319463 -0.0079804584 -0.018088788 0.096277155 -0.86244583 -0.49690831 0.013305058
-0.014359592 -0.007220082 -0.017971944 0.15776893 -0.83802313 -0.52232778 0.010610793
-0.01114037 -0.0070758751 -0.017831709 0.0076762331 -0.80720222 -0.59022504 0.0060118572
-0.0082258144 -0.0072202384 -0.01780992 0.030567922 -0.81761557 -0.5749526 0.0034721857
-0.0055013848 -0.0069623664 -0.017686311 0.087062806 -0.7978096 -0.59659022 0.0053074844
-0.0026120404 -0.0069104647 -0.017247939 0.10761487 -0.76427913 -0.63584316 0.0047995397
0.00054377085 -0.0066887056 -0.016970936 0.11886223 -0.72346562 -0.68005079 0.0040796162
0.003443535 -0.0065108566 -0.016653832 0.12394919 -0.67977154 -0.72287428 0.0052477028
0.0056853294 -0.006443359 -0.016328163 0.10979363 -0.6592446 -0.74386954 0.0029083602
-0.052322984 -0.0043736422 -0.016940005 -0.79630661 -0.062495824 -0.60165602 0.0018766173
-0.051046692 -0.0047625741 -0.018489586 -0.76862556 -0.1064591 -0.63077837 0.0021270786
-0.011443582 -0.005877832 -0.01919258 0.061356846 -0.60588062 -0.79318595 0.0095437262
-0.007348584 -0.0058771074 -0.019234262 0.067068085 -0.60846138 -0.79074436 0.0063996594
-0.0053099832 -0.0057536978 -0.018976919 0.12888724 -0.59853435 -0.79066092 0.0050374623
-0.0023725219 -0.0054382589 -0.01871541 0.13852254 -0.58572781 -0.79858279 0.0037012005
0.00065506203 -0.0049794223 -0.018510127 0.16160087 -0.55428165 -0.81649071 0.0035222787
0.0036422471 -0.0046140696 -0.018211976 0.15793216 -0.54741275 -0.82182527 0.0023766642
0.0067186812 -0.0046221237 -0.017653581 0.13585532 -0.55476683 -0.82083923 0.0052819252
0.0097610112 -0.0044200826 -0.01726155 0.1431212 -0.54259449 -0.82771218 0.0039033003
0.012579141 -0.0040756846 -0.016995981 0.14906998 -0.52232575 -0.83961535 0.0044383435
0.015314023 -0.0037595225 -0.016701225 0.15113266 -0.51145625 -0.84591454 0.0042954343
0.017895386 -0.0034538899 -0.016407328 0.16214159 -0.49693611 -0.85250491 0.0034490705
-0.052413557 -0.0015426483 -0.017201524 -0.8269816 -0.079495013 -0.55658054 0.0016598051
-0.051281299 -0.0020077149 -0.018689424 -0.75551635 -0.1336226 -0.6413579 0.0015715564
0.0045464109 -0.0026801005 -0.019165725 0.1761276 -0.34201384 -0.92304158 0.0033320063
0.0069769118 -0.0020424104 -0.018951356 0.20963773 -0.29875019 -0.93102109 0.004616545
0.0097954553 -0.0017897966 -0.018523317 0.20120926 -0.27114481 -0.94127327 0.003112216
0.012675114 -0.0016285051 -0.018047683 0.16458878 -0.32372069 -0.93172711 0.0052650245
0.015451702 -0.0015402418 -0.017571699 0.16486786 -0.30033514 -0.93947715 0.0046060868
0.018549021 -0.0015440839 -0.017014289 0.16065428 -0.27887401 -0.94679427 0.0037111077
0.021473914 -0.0011242449 -0.016619366 0.164168 -0.27190444 -0.94821769 0.0040388424
0.023847099 -0.00038872659 -0.016370729 0.16786104 -0.12415207 -0.9779616 0.0019475059
-0.052321192 0.0012854934 -0.017834384 -0.863509 -0.047795605 -0.50206345 0.0013429651
-0.051369995 0.00026197243 -0.01908851 -0.83451128 -0.098703302 -0.54207808 0.0015098545
0.0080003832 -0.00024911761 -0.019243233 0.15601304 -0.12021088 -0.98041284 0.0032204054
0.0098679923 0.00099960295 -0.019004015 0.20055638 -0.051671445 -0.97831857 0.0039960067
0.012557127 0.0011718334 -0.018534878 0.19088845 -0.028560674 -0.98119622 0.0030889984
0.015442886 0.0012857174 -0.018025476 0.17538372 0.032479394 -0.9839642 0.0065340875
0.018536743 0.0012857148 -0.017469931 0.16825271 0.030409377 -0.98527473 0.0051020766
0.021639004 0.0012857134 -0.016912945 0.16073628 -0.012500079 -0.98691821 0.0074479352
0.024189375 0.0013399693 -0.016457919 0.16080803 -0.015040434 -0.98687106 0.0036681374
-0.052305497 0.0041090385 -0.017942511 -0.89150363 0.081061028 -0.44570225 0.0031586543
0.0049305423 0.0053789169 -0.019225381 0.19743118 0.32824841 -0.92372823 0.01325455
0.0071275253 0.0047486527 -0.019035123 0.1873678 0.35008126 -0.91778892 0.012626497
0.0097943377 0.0041037439 -0.018721392 0.19225143 0.31606179 -0.92905557 0.0088862274
0.012618113 0.0041072429 -0.018213505 0.13798422 0.27939939 -0.9502086 0.0058882791
0.015449123 0.004110761 -0.017704383 0.1447484 0.40123519 -0.90446573 0.034807891
0.01854543 0.0041145952 -0.0171475 0.20008139 0.26473185 -0.94333678 0.01079745
0.021509722 0.0038945517 -0.016676974 0.16572922 0.279414 -0.94575989 0.015157633
0.023900818 0.0031992942 -0.016408019 0.17795002 0.12183674 -0.97646797 0.0033499463
-0.052098572 0.0064230459 -0.017597567 -0.89206558 0.20518447 -0.40263933 0.0050712246
-0.051414624 0.0076133111 -0.018186431 -0.88119358 0.27476224 -0.38471243 0.0037519706
-0.017082483 0.0083244871 -0.019017696 0.12676087 0.73092359 -0.67058349 0.003706709
-0.014288339 0.0082034264 -0.018613782 0.12280114 0.74668968 -0.65373886 0.005506455
-0.011239263 0.0082128104 -0.018058728 0.050044544 0.71804368 -0.69419652 0.0085289441
-0.0081818961 0.008222227 -0.017502423 0.025684893 0.68553388 -0.72758758 0.0099736815
-0.0052801063 0.0080012921 -0.017594617 0.11327665 0.6526413 -0.74915135 0.023314985
-0.0025302488 0.0074903667 -0.017979912 0.16421798 0.70241255 -0.69256699 0.019638203
0.000498957 0.006980679 -0.018330658 0.07766106 0.7321192 -0.67673498 0.018441644
0.0037504439 0.0067839329 -0.01805911 0.13832618 0.77351272 -0.61850137 0.012729374
0.0067187063 0.0066793635 -0.01766748 0.16849713 0.73086488 -0.66139644 0.016437467
0.0097092986 0.0066154487 -0.01718976 0.13031518 0.68538922 -0.71642137 0.01231626
0.012515206 0.006352229 -0.01693498 0.14016466 0.67667013 -0.72282177 0.014068446
0.015278902 0.0059893639 -0.016990956 0.15199511 0.74506599 -0.6494413 0.015297739
0.018561665 0.0059207845 -0.016545109 0.12072477 0.76065534 -0.63783151 0.01472608
-0.050328434 0.010351276 -0.018011708 -0.86277485 0.373142 -0.34115189 0.0006016292
-0.022455074 0.011522979 -0.019051395 0.54236692 0.58287579 -0.60505694 0.0094174957
-0.020440824 0.010303915 -0.018026542 0.3575871 0.62107813 -0.69741911 0.014406395
-0.017464664 0.010241163 -0.017543416 0.13842015 0.621099 -0.7714116 2.1468759e-06
-0.014445969 0.0099120531 -0.017266694 0.1384258 0.6210745 -0.77143031 2.0400121e-06
-0.011392904 0.0096209738 -0.01695339 0.081341282 0.61870617 -0.78140026 0.0032518702
-0.0080073187 0.010091779 -0.016847208 0.0010073243 0.51778924 -0.85550761 0.0039260662
-0.0054447195 0.0098927636 -0.016917001 0.079563543 0.48149806 -0.8728283 0.012006428
-0.0028090719 0.0097361561 -0.016630348 0.18379679 0.43880242 -0.87958586 0.015482006
1.9489788e-05 0.0095278621 -0.016442224 0.19149832 0.54595315 -0.81563681 0.026497122
-0.049237162 0.012836609 -0.017858826 -0.85821152 0.40255803 -0.31846491 0.0003664504
-0.048448052 0.014372319 -0.017998181 -0.86801714 0.40684694 -0.28464326 0.00017999719
-0.022935063 0.013371745 -0.017655678 0.57081771 0.54824167 -0.61122686 0.0086021982
-0.020687643 0.012173895 -0.016565293 0.30430445 0.61436743 -0.72797769 0.015422873
-0.047369376 0.016410097 -0.018389873 -0.87419069 0.4005011 -0.2745716 0.00031475507
-0.02405104 0.015575305 -0.016597345 0.53646922 0.57339716 -0.61920631 0.0079161553
-0.046303574 0.019445449 -0.017393105 -0.86751729 0.42649734 -0.25595629 0.00065734173
-0.045791164 0.01972881 -0.018696211 -0.85708463 0.43003953 -0.28367573 0.0011174721
-0.044101991 0.0227549 -0.018382326 -0.8379482 0.47023189 -0.27699223 0.0006946908
-0.027181789 0.021831695 -0.017637677 0.81955177 0.56096488 -0.11684693 0.003654453
-0.043871205 0.02413556 -0.016842602 -0.82406121 0.50655144 -0.25363126 0.0025429055
-0.053428445 -0.010340599 -0.014480698 -0.55445331 -0.67754483 -0.48323342 0.059575375
-0.05003779 -0.010478477 -0.014878597 -0.074756868 -0.84991014 -0.52159768 0.029741902
-0.047331769 -0.010351476 -0.014804937 0.076334551 -0.90707266 -0.41399536 0.010861601
-0.044603635 -0.010271657 -0.01457312 0.13279787 -0.93567264 -0.32692724 0.0066150543
-0.041480847 -0.01026688 -0.014724849 -0.21481235 -0.93533009 -0.28109318 0.03136684
-0.038266912 -0.011639575 -0.01494105 -0.26659164 -0.93322402 -0.24087718 0.020812772
-0.035208948 -0.011653103 -0.014509358 0.22549412 -0.95723027 -0.18128066 0.022266965
-0.032663666 -0.01129486 -0.014960421 0.35764867 -0.921561 -0.15103889 0.022269111
-0.029689513 -0.0097273029 -0.01461919 0.24159877 -0.93383139 -0.26379716 0.03590069
-0.026751943 -0.0096090948 -0.013513563 0.022390349 -0.95831752 -0.28482676 0.0048199827
-0.019716963 -0.0095965974 -0.013988316 0.025651049 -0.963355 -0.26700038 0.0036676035
-0.017412134 -0.0096084867 -0.013536219 0.087826446 -0.96783864 -0.23574315 0.0033445004
-0.053521845 -0.007762338 -0.014926692 -0.82403272 -0.082710758 -0.56047225 0.0083171371
-0.041141558 -0.0090611279 -0.014677308 -0.21481189 -0.93533272 -0.28108445 0.03136516
-0.030899048 -0.0090893209 -0.013552003 0.34419456 -0.90756989 -0.24051404 0.037392922
-0.029141247 -0.0090326248 -0.015814077 0.18091711 -0.96889442 -0.16885649 0.031937618
-0.026348379 -0.0090463134 -0.015268333 0.07703869 -0.94898731 -0.30575845 0.00045693212
-0.023093034 -0.0089821871 -0.014888849 0.011859304 -0.95189017 -0.30620998 0.001339819
-0.020617686 -0.0088945916 -0.015443918 -0.03320767 -0.94956976 -0.31179243 0.0010583121
-0.017558213 -0.0090430472 -0.015398425 0.10312472 -0.94696927 -0.30432621 0.0036991297
-0.013993978 -0.0083853742 -0.015144894 0.12647349 -0.94167525 -0.3118529 0.0050624423
-0.011328169 -0.0085755493 -0.015178385 -0.029818553 -0.9274677 -0.3727124 0.002712284
-0.0082865749 -0.0088008549 -0.014763078 0.03013278 -0.91619873 -0.39958975 0.0015011582
-0.0053285677 -0.0085403873 -0.014859631 0.057753544 -0.91211295 -0.4058502 0.0017118682
-0.0023718053 -0.0081879869 -0.015174046 0.091186956 -0.86608738 -0.49150541 0.0036626679
0.00050952099 -0.0080212494 -0.014945881 0.09398935 -0.85427278 -0.51125735 0.005162375
0.0035594658 -0.0076847738 -0.014976775 0.09214405 -0.84311527 -0.52977926 0.0064414013
0.006807379 -0.0073156962 -0.014979953 0.10176067 -0.83270651 -0.54428363 0.005203764
0.0097057503 -0.0071398234 -0.014709894 0.099906102 -0.812693 -0.57406348 0.0052191014
0.012666026 -0.00699805 -0.01439115 0.10065344 -0.78124917 -0.61605078 0.0052692955
0.015370973 -0.0068558184 -0.014092257 0.11669293 -0.74572527 -0.65595472 0.0041769259
0.018429598 -0.0066995751 -0.013740622 0.11038485 -0.71593904 -0.6893813 0.0038382106
0.021238551 -0.0064970553 -0.01347205 0.11794532 -0.66581863 -0.73673224 0.0045688539
-0.053595275 -0.0047899727 -0.014867028 -0.86627221 -0.026284346 -0.49888036 0.0016861733
0.010067098 -0.0059329364 -0.016052704 0.12991577 -0.60565132 -0.78505313 0.0045494186
0.012741303 -0.0056082495 -0.015858945 0.13340567 -0.59014291 -0.79619992 0.0051420671
0.015600288 -0.0052775973 -0.015607482 0.13975459 -0.57847667 -0.8036375 0.0044656172
0.01870187 -0.0048466423 -0.015352417 0.15079552 -0.56229979 -0.81306803 0.0031487138
0.021707248 -0.0046613645 -0.014933124 0.17518406 -0.56576687 -0.80574089 0.0054584472
0.024682686 -0.0045545786 -0.014476493 0.15165357 -0.55549186 -0.81757563 0.0051047676
0.027506895 -0.0043930043 -0.01409992 0.14567333 -0.52152455 -0.84070891 0.0044021453
0.030454129 -0.0040022768 -0.013833816 0.14533891 -0.51794791 -0.8429749 0.0044003902
0.033479463 -0.0035907612 -0.013537635 0.15280591 -0.50800717 -0.84769046 0.0034650723
-0.053800333 -0.0015591388 -0.014789008 -0.88296467 -0.041114174 -0.4676356 0.0013718059
0.022065822 -0.0025108759 -0.016082702 0.16921732 -0.34967598 -0.92146206 0.0038683144
0.024884239 -0.0016971887 -0.015835393 0.21135454 -0.28799596 -0.93401688 0.0035613335
0.027631067 -0.0015553581 -0.015379835 0.17415686 -0.29591486 -0.93920386 0.003185709
0.030500527 -0.0015589157 -0.014863428 0.15888122 -0.31504899 -0.93568206 0.0049496167
0.033638943 -0.0015628142 -0.014298592 0.15707496 -0.29141438 -0.94361275 0.0040226094
0.036667563 -0.0014202846 -0.013800884 0.22092009 -0.28921023 -0.93142456 0.0072463173
0.03902059 -0.00084720273 -0.01351224 0.45981976 -0.19220929 -0.866961 0.0098643173
-0.05375063 0.001285705 -0.015124192 -0.90058935 0.0088466266 -0.43458095 0.0017695156
0.025717553 0.0011920141 -0.016175605 0.21395777 -0.019421186 -0.97664982 0.0037325846
0.027608518 0.0012857188 -0.015841253 0.17793745 -0.0066097248 -0.98401958 0.003623401
0.030474704 0.0012857148 -0.01532643 0.17898263 0.024318745 -0.98355168 0.0054058819
0.033609509 0.0012857143 -0.014763562 0.17607234 0.026928581 -0.98400885 0.0051623792
0.03675288 0.0012857128 -0.014199261 0.17395264 -0.053050447 -0.98332399 0.0039348193
0.039118733 0.0012857098 -0.013737185 0.51712477 0.0036272453 -0.85590237 0.028246898
0.05884973 0.0023233593 -0.013517283 -0.1290127 -0.49883085 -0.85704345 0.012786822
0.060680233 0.002116017 -0.013403358 0.017641637 -0.46799034 -0.8835575 0.015677584
0.062511042 0.0023239106 -0.013293497 0.15845484 -0.49727139 -0.85300249 0.011489758
-0.053740233 0.0039233314 -0.014846029 -0.91412461 0.13823551 -0.38113931 0.002610716
0.022352375 0.0052379398 -0.016149919 0.17187136 0.28870153 -0.9418661 0.015961019
0.024971563 0.0043451069 -0.015937705 0.19669569 0.18059346 -0.96368915 0.0014471735
0.027624477 0.0041258587 -0.015514614 0.18547583 0.1865675 -0.96477526 0.0014587032
0.03049298 0.0041294205 -0.014998688 0.17628668 0.4107753 -0.89453161 0.043367494
0.033630345 0.0041333102 -0.01443439 0.18112105 0.39234924 -0.90180779 0.041819837
0.036737971 0.0041000191 -0.013886333 0.31458741 0.41809148 -0.85219377 0.038086455
0.038989235 0.0036437376 -0.013579527 0.47516802 0.28949022 -0.83090967 0.022835711
0.05552439 0.0050206543 -0.013560342 -0.37421983 -0.17497559 -0.91068274 0.013544285
0.057642341 0.0042835008 -0.013713676 -0.25165004 -0.27669629 -0.92742199 0.016113719
0.060644768 0.0041378625 -0.013679732 0.074738108 -0.14367983 -0.98679805 0.012849714
0.063246123 0.0043518515 -0.013442362 0.15125696 -0.10240237 -0.98317605 0.0089735202
-0.0528877 0.0071042827 -0.014838874 -0.88569933 0.31757388 -0.33864963 0.0018176126
-0.0017906027 0.0085030943 -0.01612892 0.13462582 0.55872244 -0.81835514 0.024093036
0.00064240163 0.0082731452 -0.015877735 0.19149981 0.54594892 -0.81563938 0.026499003
0.003615404 0.0082585448 -0.015355905 0.14038348 0.60245508 -0.78571016 0.025261434
0.0067133051 0.0082680844 -0.014792226 0.14268534 0.63209468 -0.76164114 0.022383083
0.0099652894 0.0081623439 -0.014513198 0.07197956 0.60515481 -0.79284722 0.017577507
0.012753863 0.0078914426 -0.014639122 0.17411032 0.6461677 -0.74306989 0.028361879
0.015480174 0.0072054379 -0.014210727 0.24778317 0.59418535 -0.76521057 0.034697156
0.018480469 0.0068854685 -0.013778973 0.17335697 0.6483264 -0.74136376 0.040156782
0.021497343 0.0062436974 -0.014748201 0.12611803 0.74337161 -0.65688109 0.021287451
0.024788875 0.0059334505 -0.015421557 0.064378574 0.7161333 -0.69498813 0.020780167
0.027654305 0.0059392867 -0.014904444 0.088535883 0.6109255 -0.78672194 0.0459079
0.030527141 0.0059451256 -0.014386244 0.14476779 0.64772886 -0.74799043 0.046581566
0.033669274 0.0059515238 -0.013819305 0.1358718 0.77735537 -0.61421287 0.019272275
0.036031257 0.005956322 -0.013393305 0.27832794 0.64159334 -0.7147668 0.037860822
0.055139791 0.0071842633 -0.013485754 -0.44702071 -0.0037212276 -0.89451587 0.022933427
0.057533484 0.0072498336 -0.013675643 -0.12513919 0.14191163 -0.98193747 0.010618841
0.060646754 0.0072499909 -0.013664199 0.056461167 0.089189745 -0.99441308 0.0019330367
0.063308619 0.006994315 -0.013393577 0.15802068 0.077763639 -0.98436898 0.0017007246
-0.051991563 0.0093030408 -0.014775954 -0.86707538 0.38623711 -0.31464449 0.00018862914
-0.051166367 0.010846652 -0.015123136 -0.86518103 0.40122417 -0.30080044 0.00026688725
-0.016219515 0.011593699 -0.016230427 0.13840251 0.62106669 -0.77144068 5.8522132e-06
-0.014170055 0.011427721 -0.015997361 0.13838238 0.62109607 -0.77142078 0
-0.011218964 0.011156072 -0.015685884 0.026696969 0.59804076 -0.80102086 0.0037822889
-0.0088452846 0.010914221 -0.015909459 -0.040119652 0.56987357 -0.82075244 0.0034319644
-0.0050619626 0.011429759 -0.0159159 0.064046107 0.54399782 -0.83663881 0.0033886468
-0.002257851 0.010775032 -0.015747521 0.19697157 0.46963653 -0.86060667 0.012857086
0.00058325939 0.010418886 -0.015497913 0.19855645 0.40940756 -0.8904835 0.012783557
0.0036124818 0.010332131 -0.015045304 0.19956002 0.44222015 -0.87442386 0.010595376
0.0067127272 0.010344414 -0.014486235 0.13647337 0.43144122 -0.89175868 0.0062186383
0.0097338706 0.010110649 -0.014102658 0.11351188 0.45707867 -0.88215309 0.0050939387
0.012619089 0.0097997468 -0.013775794 0.16593654 0.40033078 -0.90122151 0.0075577102
0.015165807 0.0096889688 -0.013582732 0.19303761 0.37099019 -0.90835166 0.012282633
0.017609954 0.0095903054 -0.013328753 0.1748545 0.40994516 -0.89519316 0.013903456
0.055763982 0.0090720654 -0.013285302 -0.44601086 0.22829606 -0.86542201 0.023116512
0.057775896 0.0092777498 -0.013388129 -0.056046829 0.35486692 -0.93323535 0.0063020317
0.060475498 0.0092778876 -0.013380979 0.071523756 0.33011046 -0.94122869 0.0071620825
-0.049971104 0.013170406 -0.015172379 -0.85880023 0.42535213 -0.28554806 0.00010595313
-0.022175275 0.014052155 -0.015320783 0.47610232 0.6024766 -0.64058447 0.0094498405
-0.020284213 0.013706031 -0.015260009 0.30226177 0.59562856 -0.74422067 0.010791774
-0.017475981 0.013114383 -0.015231888 0.13840646 0.62106818 -0.7714389 0
-0.014500019 0.013186811 -0.014639484 0.1384414 0.62108129 -0.77142209 0
-0.011494742 0.013039305 -0.014219564 0.072188117 0.65098745 -0.75564826 0.0050702784
-0.0082319062 0.012847401 -0.014990171 -0.044262569 0.6491462 -0.7593748 0.0042706681
-0.0051905997 0.013190215 -0.014521578 0.038628325 0.70445532 -0.70869642 0.0063078292
-0.0024020043 0.013002656 -0.014172209 0.13898002 0.62918198 -0.76473171 0.0025060279
0.00034775632 0.012717715 -0.013908241 0.13540655 0.60448927 -0.78502089 0.00017003315
0.0033915378 0.012385123 -0.013629375 0.13911414 0.59791619 -0.78939438 0.00015735543
0.0056724055 0.012184083 -0.013381906 0.16882589 0.54205841 -0.82320744 0.006117471
-0.049252193 0.015276805 -0.014007919 -0.86556178 0.43474549 -0.24859422 0.00041524091
-0.048287403 0.016392183 -0.015394166 -0.87230712 0.41725704 -0.25490561 0.00012030004
-0.023234054 0.016303129 -0.014960187 0.50340295 0.56905764 -0.65019912 0.01014461
-0.020195629 0.015491149 -0.013806432 0.21038501 0.60322106 -0.76932609 0.0071570994
-0.01751624 0.014998375 -0.013723021 0.13843463 0.62108535 -0.77142006 0
-0.015081658 0.014776204 -0.013464652 0.13844202 0.62111253 -0.77139688 0
-0.047363099 0.018750768 -0.014576666 -0.87622875 0.41199812 -0.24996141 0.00014210632
-0.025415346 0.019180421 -0.014480686 0.79462045 0.50536072 -0.33643559 0.017759826
-0.024030305 0.018388476 -0.013951687 0.49367011 0.65082884 -0.57681167 0.0081850709
-0.046388168 0.020971566 -0.014115922 -0.85832185 0.44887179 -0.24859159 0.00073192216
-0.045406729 0.022443131 -0.015709452 -0.83437437 0.49921745 -0.23366922 0.0030591916
-0.0281041 0.022950977 -0.015878342 0.81527388 0.55565208 -0.16303174 0.011067703
-0.043641459 0.025765285 -0.014541216 -0.86784339 0.47715417 -0.13846232 0.0088456767
-0.052515399 -0.01280201 -0.011144641 -0.39847225 -0.79808193 -0.4519791 0.024907568
-0.050406285 -0.012963389 -0.011981025 -0.059280191 -0.84775794 -0.52706009 0.013190188
-0.047335286 -0.012932495 -0.011700759 0.22408611 -0.81948179 -0.52747977 0.019346461
-0.045394942 -0.012811892 -0.010861542 0.29247299 -0.8556906 -0.42691121 0.015773488
-0.055001259 -0.010691783 -0.011959361 -0.79893482 -0.416345 -0.43400458 0.025544379
-0.053095154 -0.01156059 -0.011937081 -0.53166491 -0.63150799 -0.56438458 0.04503265
-0.050286498 -0.01164961 -0.012409475 -0.050954048 -0.81499559 -0.57722259 0.011081069
-0.047560919 -0.01166324 -0.012102947 0.17610864 -0.85129648 -0.49424702 0.021809371
-0.044323556 -0.011170482 -0.011794676 0.22554493 -0.90780842 -0.35357222 0.020734351
-0.041991122 -0.010954589 -0.011886306 -0.042079445 -0.89045769 -0.45311621 0.034696382
-0.03750195 -0.012237474 -0.012459032 -0.20741402 -0.94038779 -0.26953721 0.025077982
-0.036224641 -0.012244621 -0.012239737 -0.049523856 -0.99501359 -0.086575806 0.016125802
-0.029517941 -0.010355187 -0.011588387 -2.9278654e-06 -0.93052298 -0.36623356 0.01127297
-0.026194796 -0.010086954 -0.011860324 0.089234911 -0.92184174 -0.37715372 0.008715854
-0.023496687 -0.0099113733 -0.011943555 0.03273575 -0.95425016 -0.29721192 0.001729631
-0.021119479 -0.01001921 -0.011167425 0.021538824 -0.96069032 -0.27678555 0.0019982075
-0.01597698 -0.0096649379 -0.011392258 0.14537406 -0.95551819 -0.25661519 0.0016901122
-0.014169899 -0.0096742306 -0.011038485 0.020101242 -0.9549287 -0.29615369 0.0074027358
-0.011159395 -0.0098920604 -0.011582887 -0.05750731 -0.9473182 -0.31508905 0.0019719687
-0.0086642178 -0.0097869085 -0.011721462 0.004907974 -0.94877917 -0.31590185 0.0022740893
-0.0052827187 -0.0096615423 -0.011520632 0.051317006 -0.95272011 -0.29948443 4.538364e-05
-0.0021690889 -0.0096776308 -0.010909411 0.05349914 -0.94985479 -0.30808064 0.00019476941
0.00017182669 -0.0096897678 -0.010448031 0.057247713 -0.94902974 -0.30994397 0.00030648473
-0.054978758 -0.007824095 -0.012109024 -0.90047741 -0.11116372 -0.42045587 0.014202778
-0.015874252 -0.0090978146 -0.013213716 0.14550906 -0.95996082 -0.23937921 0.0012529396
-0.014332247 -0.0091053164 -0.012913965 0.064303428 -0.96420532 -0.25724167 0.0079341447
-0.012445263 -0.0089413673 -0.012542935 -0.038909864 -0.94247675 -0.33199915 0.0026219131
-0.0041945046 -0.0090993866 -0.013150297 0.055111811 -0.94869179 -0.31136253 0.0001537706
-0.0023853439 -0.0091083078 -0.01279491 0.065045796 -0.94413173 -0.32308561 0.0003082137
0.00046372833 -0.0091222469 -0.012238644 0.074278049 -0.93821836 -0.33797795 0.00043443739
0.003844542 -0.0089522339 -0.012115077 0.073799498 -0.93401086 -0.34953877 0.00081793312
0.00670776 -0.0088725556 -0.011829458 0.064055793 -0.92686194 -0.36989689 0.0011947077
0.0098520406 -0.0086525362 -0.011830473 0.078274839 -0.91659409 -0.39208201 0.0016391207
0.012694246 -0.008344342 -0.012140023 0.075340174 -0.9100098 -0.40768373 0.0019437543
0.015690465 -0.0081535792 -0.011963258 0.088358372 -0.86699784 -0.49041575 0.0044192253
0.018687081 -0.0079174051 -0.011860482 0.089567587 -0.85468239 -0.51136649 0.0059121326
0.021844503 -0.007427264 -0.012128638 0.11580238 -0.82196391 -0.55764258 0.0077366293
0.024609163 -0.0073500825 -0.011717292 0.090948321 -0.82786638 -0.5535031 0.0057403618
0.027553324 -0.0070531983 -0.011641727 0.11107805 -0.76260364 -0.63725775 0.0036925157
0.030575678 -0.0069973096 -0.011172337 0.11742103 -0.76488572 -0.6333735 0.0040938403
0.033593863 -0.0068069538 -0.01088462 0.11173674 -0.73432565 -0.6695376 0.0046122349
0.036480185 -0.0065496713 -0.01067366 0.12983818 -0.77304417 -0.62092245 0.0066338722
0.038333286 -0.0065560639 -0.010332964 0.33040506 -0.73947382 -0.58652443 0.01453956
-0.054974664 -0.0047004125 -0.012136267 -0.90737396 -0.010918061 -0.42018247 0.0011580117
0.025660444 -0.0059829056 -0.013203494 0.13731882 -0.7367478 -0.66207731 0.0031639487
0.027750071 -0.0058576856 -0.012943044 0.12281398 -0.73266906 -0.6694122 0.0046035876
0.030752048 -0.0055375434 -0.012680665 0.137409 -0.58397347 -0.8000586 0.0046102926
0.033836037 -0.0051167496 -0.012446367 0.14523524 -0.57169473 -0.80750972 0.0035037929
0.036632452 -0.0047004437 -0.01222389 0.17512928 -0.58984685 -0.78829587 0.0059004966
0.038929943 -0.0045467927 -0.011666803 0.45010838 -0.50781804 -0.73452246 0.010446331
0.043369912 -0.004010933 -0.010820935 -0.014166034 -0.3786484 -0.92543221 0.037033983
0.045359667 -0.0036767204 -0.010679481 0.16292258 -0.34584311 -0.92403936 0.039103985
-0.055278476 -0.0013724095 -0.011506652 -0.92220205 -0.0035613028 -0.38669208 0.00048208315
0.03773316 -0.0027382076 -0.013183028 0.25546551 -0.3298254 -0.90881938 0.0063306177
0.040043477 -0.0018878239 -0.012033919 0.42791176 -0.19843698 -0.88176769 0.013241773
0.042626448 -0.0013929969 -0.010820629 0.26608542 -0.097751573 -0.95898026 0.011543064
0.045449 -0.00080457726 -0.01051699 0.1602931 -0.13682333 -0.97754055 0.0091660013
0.047219999 -0.00028260052 -0.010340236 0.18374932 -0.081357598 -0.97960055 0.0064429156
0.051755514 -0.0010515682 -0.010641006 -0.16971445 -0.31746942 -0.93295771 0.014755759
0.054608375 -0.00065443735 -0.010714751 -0.035146747 -0.47505271 -0.87925518 0.0063202986
0.057825539 -0.00069082598 -0.010952184 -0.023907855 -0.64188784 -0.76642579 0.0062230267
0.060463004 -0.00062825973 -0.011030816 0.070745111 -0.71008158 -0.7005564 0.0057076574
0.063619696 -0.00028068828 -0.010847154 0.12582885 -0.7327261 -0.66878963 0.0033175268
0.066023737 -0.0002821486 -0.010457031 0.22580139 -0.74436218 -0.62844145 0.0040444708
-0.055085666 0.0011115646 -0.011977552 -0.92654914 0.039293595 -0.37411574 0.0005092764
0.040546212 0.0012856051 -0.012091125 0.53967685 0.042472649 -0.84080017 0.021193041
0.042697214 0.0012857276 -0.011280119 0.22634096 -0.012872179 -0.97396308 0.013984624
0.045613736 0.0012857289 -0.010757372 0.15664281 -0.0089230482 -0.98761499 0.010890529
0.047657002 0.0012857328 -0.010396374 0.18073057 -0.0098807067 -0.98348302 0.0063675856
0.051845815 0.0012856501 -0.011082875 -0.32023302 -0.093341596 -0.94272912 0.020059997
0.054652736 0.001285293 -0.011637093 -0.1667631 -0.27772388 -0.94607586 0.014551531
0.057681605 0.0012496811 -0.012078856 -0.1296605 -0.5151549 -0.84723288 0.0088869119
0.060697962 0.00090948853 -0.012137801 0.025914513 -0.58270085 -0.81227338 0.010098856
0.063627444 0.0011844487 -0.012123504 0.15627077 -0.52371007 -0.83744091 0.0080597484
0.066598184 0.0012844831 -0.011616666 0.26683187 -0.54882854 -0.7922045 0.010041154
0.068831347 0.0016573454 -0.011162772 0.37558573 -0.56122577 -0.73753715 0.0092061162
-0.055092126 0.0038941323 -0.011355178 -0.91549224 0.20292442 -0.34741285 0.0031699061
-0.054379314 0.0051851794 -0.012637921 -0.91341066 0.20715071 -0.3503848 0.0031614553
0.040123068 0.0044949176 -0.011175707 0.30231974 0.47281748 -0.82767528 0.029587485
0.04265973 0.0040391497 -0.01088048 0.17448127 0.31435239 -0.9331339 0.0056088287
0.045468781 0.003473877 -0.010555964 0.17220165 0.14607064 -0.97417146 0.0031388721
0.047396883 0.0030284722 -0.010312907 0.1584007 0.11348519 -0.98083144 0.002581056
0.051889289 0.0041115987 -0.011008834 -0.48073363 0.091525532 -0.87207705 0.018968001
0.054453082 0.0040079379 -0.011842821 -0.44220075 -0.12261626 -0.88849521 0.02101442
0.056768823 0.0029760525 -0.012469977 -0.24182744 -0.41079271 -0.87907267 0.014291473
0.064603232 0.0039250962 -0.013178511 0.23092796 -0.14503741 -0.96209997 0.009561561
0.066648342 0.00407953 -0.01272139 0.24697819 -0.15799944 -0.95605338 0.0078680422
0.069626808 0.0042220475 -0.011784759 0.41118497 -0.24388236 -0.87832129 0.015896155
0.071861409 0.0046272767 -0.010898562 0.59845388 -0.28607813 -0.74833965 0.012570789
-0.054011993 0.0071679456 -0.011607924 -0.88581258 0.3337529 -0.32240537 0.0012039134
0.015799388 0.0084276181 -0.013033167 0.2059225 0.3458547 -0.91541272 0.01153223
0.018820565 0.0081473887 -0.012716745 0.11037862 0.46190259 -0.88003552 0.019228365
0.021900304 0.0077661728 -0.012469264 0.051381119 0.64768791 -0.76017129 0.02687935
0.024665702 0.0075328806 -0.012154121 0.095609352 0.63882279 -0.76338995 0.026835483
0.027553935 0.0075407745 -0.011629028 0.16059062 0.65803653 -0.73566204 0.035492375
0.03062439 0.0073864395 -0.011200307 0.19345905 0.60279101 -0.77409077 0.044011317
0.033526849 0.0070941304 -0.010910856 0.12701206 0.72701633 -0.67477047 0.049836829
0.036537006 0.0066294903 -0.01071956 0.23671322 0.68913406 -0.68488044 0.021782741
0.03936388 0.0061628548 -0.010531229 0.20179416 0.62562358 -0.75357431 0.0084433882
0.052398138 0.0072914967 -0.010800308 -0.68007207 0.087908499 -0.72785574 0.012014477
0.053796545 0.007344896 -0.012302207 -0.55580872 0.034301855 -0.83060217 0.016755555
0.06405706 0.0074557271 -0.013152276 0.19170433 0.1104514 -0.97521788 0.001526023
0.066612028 0.0072879698 -0.012664794 0.25451156 0.10735403 -0.96109253 0.001534251
0.069630772 0.0072063408 -0.011758259 0.32979229 0.099682011 -0.93877614 0.0014421974
0.072034054 0.0073059215 -0.010724482 0.54753357 0.027428754 -0.83633405 0.02545785
-0.052499659 0.01024324 -0.011971794 -0.86188769 0.42004555 -0.28409734 0.00045601267
-0.051742882 0.011157677 -0.012896411 -0.86571944 0.41582182 -0.27860722 0.00037494872
0.010258993 0.011587163 -0.013039378 0.13591224 0.54700112 -0.82602519 0.004776869
0.012780618 0.011349689 -0.012778383 0.14146242 0.55376166 -0.82057077 0.0018825401
0.015687585 0.010645044 -0.012624368 0.16290911 0.48054785 -0.86170435 0.012054376
0.018738147 0.010439117 -0.012262519 0.1866015 0.42265955 -0.88687027 0.012814086
0.021738254 0.010341903 -0.011806073 0.13886011 0.44126028 -0.88657045 0.0054398598
0.024545509 0.010397509 -0.011270532 0.13758838 0.43349105 -0.89059252 0.0053365063
0.027503721 0.0099986326 -0.011002519 0.14155489 0.42451757 -0.89428574 0.0058187349
0.03044042 0.0097416434 -0.010668244 0.17302501 0.28778809 -0.94193435 0.010486339
0.033359326 0.009647917 -0.01045581 0.22553693 0.39048389 -0.89255548 0.016561719
0.052727941 0.0097484915 -0.010647736 -0.6986863 0.25985563 -0.66656762 0.0033737479
0.054525543 0.010426885 -0.012431923 -0.52901357 0.31427401 -0.78827435 0.020722397
0.05757831 0.010804716 -0.012644177 -0.060006849 0.45025396 -0.8908819 0.0041628331
0.060784597 0.010764843 -0.012832254 0.080969661 0.41646871 -0.90553731 0.0074411309
0.063585877 0.010426473 -0.012651931 0.18895794 0.35923097 -0.91391903 0.0074502327
0.066545449 0.01036072 -0.012041831 0.21666166 0.38457939 -0.89730507 0.0062415153
0.069524087 0.010111006 -0.011228191 0.28005895 0.37876356 -0.88210273 0.0088560181
0.071537755 0.0096465303 -0.010528519 0.37940338 0.38938966 -0.83930254 0.011644283
-0.050942954 0.013263953 -0.011935179 -0.84841412 0.46477905 -0.25332567 0.00027802624
-0.010945589 0.014267787 -0.01313109 0.090819106 0.6567142 -0.74865109 0.0054438235
-0.0084919883 0.014148745 -0.012787875 0.025147688 0.698677 -0.71499515 0.0060773743
-0.0021184832 0.014268711 -0.013101675 0.047531288 0.72637051 -0.68565786 0.0065170177
0.0006900914 0.013974121 -0.012834847 0.10918934 0.6314075 -0.76772535 0.0020390605
0.0036928288 0.013662552 -0.012547086 0.1397137 0.60874927 -0.78096378 0.00013069488
0.0067827124 0.013329615 -0.012260733 0.13855299 0.6104477 -0.77984399 0.00011766107
0.0096882684 0.013209746 -0.01183574 0.13514408 0.61062777 -0.78030109 0.000155267
0.012463847 0.013263004 -0.011294874 0.1418891 0.60688472 -0.782022 0.00026076651
0.01546667 0.012917412 -0.011034287 0.14234902 0.60935795 -0.78001267 0.00014133425
0.018617421 0.012575059 -0.010744583 0.14006034 0.60453498 -0.78416872 0.00027287359
0.021336906 0.012259644 -0.010510735 0.13759269 0.6018036 -0.78670239 0.0001281662
0.054885421 0.013236823 -0.010866923 -0.42544785 0.39839551 -0.81257319 0.016321924
0.057696395 0.013229273 -0.01113015 -0.061020959 0.40794536 -0.91096491 0.0050423658
0.060550768 0.013344743 -0.011074105 0.080964617 0.40317446 -0.91153449 0.0057661943
0.063556716 0.013223231 -0.010759566 0.18302177 0.43642333 -0.88093001 0.006215971
0.06585446 0.012610425 -0.010421771 0.26555845 0.42564255 -0.86504745 0.0071333796
-0.049582776 0.015880339 -0.011596434 -0.86024559 0.44843656 -0.24265651 0.0003094541
-0.022388227 0.017133702 -0.012876816 0.4787972 0.52606243 -0.70285958 0.011660519
-0.020246983 0.016912417 -0.012670841 0.23356874 0.59538978 -0.76873714 0.0078660622
-0.017139249 0.016531631 -0.012420112 0.13189407 0.61009717 -0.7812717 0.0014579853
-0.014264456 0.016310006 -0.012082916 0.1409996 0.61243063 -0.77784824 8.0462021e-05
-0.011490307 0.01609874 -0.011755325 0.14383188 0.61497915 -0.77531481 7.6032557e-05
-0.0085032638 0.015905779 -0.011374548 0.119018 0.67725068 -0.72606218 0.0037643192
-0.0053869393 0.01556105 -0.01123475 0.040749051 0.73017603 -0.68204278 0.0050378735
-0.0025411644 0.015223234 -0.011761712 0.058314029 0.76050293 -0.64671075 0.0032528122
0.00061316323 0.015246735 -0.011824613 0.09518934 0.75087488 -0.65354872 0.0061359955
0.0035754272 0.015479793 -0.011105454 0.084109083 0.73656183 -0.67112017 0.0061429329
0.0065563451 0.015237402 -0.010765896 0.083592899 0.69081986 -0.71817839 0.0044892435
0.009579232 0.01487225 -0.010517453 0.12593013 0.63372487 -0.76323944 0.00037865463
0.055842772 0.014877155 -0.010366671 -0.44421762 0.1815327 -0.87733495 0.023528732
0.057886958 0.0162705 -0.010393773 -0.10921228 0.11266717 -0.98761272 0.020479152
0.060343899 0.015246252 -0.010500147 0.071401179 0.1924312 -0.97870946 0.0049440805
0.062641196 0.014877826 -0.01034645 0.15992349 0.28516814 -0.94504154 0.00073299842
-0.025412556 0.020334058 -0.012960287 0.71430725 0.54061431 -0.44441116 0.015228797
-0.023188319 0.019592714 -0.012024228 0.34336773 0.65501481 -0.6730929 0.025869368
-0.020453788 0.01927381 -0.011282397 0.18514951 0.53461081 -0.82456708 0.0067835222
-0.017483924 0.019123949 -0.010895778 0.17537031 0.54521024 -0.81975049 0.0048401444
-0.014559421 0.018422991 -0.010586808 0.15977402 0.55709809 -0.81493193 0.0050338814
-0.012375326 0.018013418 -0.010372363 0.17331201 0.5194599 -0.83673435 0.0048650657
0.056112628 0.018277951 -0.010294072 -0.55746335 0.18895325 -0.80841279 0.083986849
0.057676066 0.018537655 -0.010336008 -0.12496489 0.064283021 -0.99007654 0.017964559
0.059704818 0.018603973 -0.010312747 0.051286776 0.11416616 -0.99213696 0.0029887103
-0.02560788 0.021092314 -0.011580311 0.62633479 0.5959745 -0.50251287 0.040741492
-0.024398565 0.021149993 -0.010369264 0.34336272 0.65502548 -0.67308521 0.025864745
-0.042913366 0.026486605 -0.01286947 0.87319547 -0.47950453 0.087206617 0.0060266345
-0.043147892 0.027471397 -0.01236585 0.8732025 -0.47949338 0.087198243 0.0060165017
-0.055335373 -0.012714645 -0.0085723223 -0.72860497 -0.5420894 -0.4186573 0.032627303
-0.053418409 -0.013548206 -0.0090327123 -0.48365963 -0.75605905 -0.4409627 0.014577528
-0.050324086 -0.014157089 -0.0091465693 -0.12118462 -0.89270949 -0.43403217 0.0089899581
