# .PCD v0.7 - Point Cloud Data file format
VERSION 0.7
FIELDS x y z normal_x normal_y normal_z curvature
SIZE 4 4 4 4 4 4 4
TYPE F F F F F F F
COUNT 1 1 1 1 1 1 1
WIDTH 549
HEIGHT 1
VIEWPOINT 0 0 0 1 0 0 0
POINTS 549
DATA ascii
-0.037562683 0.014059521 -0.013898166 -0.019684771 -0.0747912 -0.99700493 0.017753927
-0.034507856 0.013997052 -0.014021939 0.034921341 -0.17153002 -0.98455977 0.017695634
-0.031602297 0.014111839 -0.014065787 0.018090846 -0.35549641 -0.93450248 0.0012280369
-0.028507644 0.014055492 -0.014044108 -0.046055418 -0.3539871 -0.93411559 0.00073736574
-0.025843756 0.013817064 -0.014120499 -0.047905985 -0.33520657 -0.94092584 0.0079249302
-0.022639349 0.013438648 -0.014373094 -0.044119716 -0.30135766 -0.95248991 0.0081046307
-0.019452222 0.013439747 -0.01433656 0.0014481979 -0.27179027 -0.96235538 0.011414941
-0.016575472 0.013369404 -0.014380334 -0.044785596 -0.28689191 -0.9569155 0.0097441953
-0.01360473 0.013439054 -0.014359774 0.0034483445 -0.28386483 -0.95885813 0.0097062346
-0.010416253 0.013439547 -0.014343081 -0.005238574 -0.27099216 -0.96256733 0.010793996
-0.0074923076 0.013248678 -0.014378235 0.038859639 -0.28420261 -0.9579764 0.0092319753
-0.0045695244 0.013439383 -0.01434882 0.0060595805 -0.27326864 -0.96191871 0.01051258
-0.0013805481 0.013439219 -0.014354333 -0.0066160676 -0.2775242 -0.96069586 0.010098948
0.0015909118 0.013369285 -0.01438413 0.042436566 -0.28427151 -0.9578042 0.0096735945
0.004466122 0.013439657 -0.014339471 0.0049474356 -0.27173015 -0.9623608 0.011639891
0.0074332566 0.01347054 -0.014364559 -0.0036527833 -0.28497672 -0.95852751 0.009478135
0.01037322 0.013350973 -0.014375636 0.012003626 -0.2868779 -0.95789194 0.0087815169
0.013502023 0.013439801 -0.014334647 0.0068451483 -0.13748884 -0.99047959 0.018664902
0.016375741 0.013369765 -0.014368635 -0.011964585 -0.27924177 -0.96014631 0.010073904
0.019408673 0.013351263 -0.0143659 0.015020351 -0.27698547 -0.96075672 0.0097202836
0.02253776 0.013439739 -0.014336789 0.037193481 -0.21727768 -0.97540098 0.016580248
0.025771936 0.013877399 -0.014085338 0.073208056 -0.22203274 -0.972287 0.017802425
0.028404096 0.01405549 -0.014044145 0.0034563108 -0.30015418 -0.95388442 0.011694145
0.031595401 0.01405549 -0.014044216 4.9600407e-05 -0.37404656 -0.92740995 0.00031707264
0.034520779 0.01405549 -0.014044102 0.0072441003 -0.36985791 -0.92906004 0.00010807454
0.037446123 0.014055485 -0.01404443 0.036305137 -0.20543781 -0.97799653 0.044440661
0.040540364 0.014111845 -0.01406548 0.032873608 -0.20059732 -0.9791221 0.035856545
0.043446805 0.013997046 -0.014022177 0.11526895 -0.17477077 -0.97783858 0.059233233
0.045283001 0.014357086 -0.012875328 -0.5695172 -0.47847408 -0.66836572 0.084141269
0.05549527 0.014109032 -0.013982181 0.27834564 -0.20711567 -0.93788427 0.028666425
0.058455635 0.014055494 -0.014044015 -0.042466395 -0.18055797 -0.98264718 0.033119243
0.061380953 0.014055487 -0.014044395 -0.026875895 -0.20798694 -0.97776228 0.044584993
0.064572267 0.014055487 -0.014044324 0.053989444 -0.29788113 -0.95307505 0.0097935703
0.066648148 0.014062788 -0.013809808 0.52944446 -0.033692256 -0.84767526 0.092832103
-0.066124916 0.017010074 -0.013276175 -0.83492577 0.19698626 -0.51390213 0.022653244
-0.06546881 0.017778482 -0.014075302 -0.6861918 0.15584195 -0.71053088 0.051522702
-0.04455271 0.017424103 -0.014046833 0.33347398 -0.47912374 -0.81193316 0.055964712
-0.022638086 0.016171273 -0.014393762 0.013507832 -0.35897636 -0.93324894 0.021135487
-0.01945723 0.016177092 -0.014227614 -0.057596114 -0.35784471 -0.93200314 0.02049117
-0.013605759 0.016173709 -0.014324099 0.063080706 -0.35923371 -0.9311133 0.020854579
-0.010418529 0.016176227 -0.01425226 -0.061323293 -0.3555114 -0.93265802 0.020861402
-0.004570297 0.016175624 -0.014269426 0.061631542 -0.35579056 -0.9325313 0.021035852
-0.0013808275 0.016174678 -0.01429677 -0.06334202 -0.35852876 -0.93136728 0.020982087
0.0044672471 0.016176727 -0.014237806 0.043970983 -0.33639616 -0.94069344 0.022944616
0.0076545952 0.016172353 -0.014362708 0.0014945308 -0.36079544 -0.93264383 0.030104712
0.011109041 0.016171824 -0.014377698 -0.014876796 -0.29117745 -0.9565534 0.032131601
0.013505609 0.016177278 -0.014222786 0.0080711748 -0.36030716 -0.9327988 0.034874003
0.015894502 0.01617394 -0.014317706 -0.064292006 -0.32291776 -0.94424075 0.023499576
0.020147763 0.016174611 -0.014298424 0.063028805 -0.32466561 -0.94372648 0.023166772
0.022543551 0.016177092 -0.014227614 0.072138332 -0.34417406 -0.93613046 0.039729081
0.026015425 0.016452279 -0.013965741 0.049479526 -0.36290386 -0.93051201 0.028194051
0.045184392 0.016724067 -0.013800913 -0.61947179 -0.29939997 -0.72568196 0.082394913
0.06552764 0.017597215 -0.014171973 0.67561209 0.16328779 -0.71894747 0.052248754
0.066290416 0.017120101 -0.012690549 0.84003681 0.22410783 -0.4940789 0.025541682
-0.064703852 0.02042493 -0.013163751 -0.81183225 0.35218152 -0.46572164 0.0043209265
0.064740002 0.020432277 -0.01310638 0.84432399 0.31429261 -0.43397829 0.0051524583
-0.063828267 0.023066228 -0.012602597 -0.77123213 0.35427168 -0.52885979 0.0031862038
-0.062480632 0.023963451 -0.013783023 -0.72215146 0.36223504 -0.58930731 0.0057521402
0.062409639 0.024106983 -0.013832729 0.73479098 0.37904793 -0.56249875 0.0034634806
0.063723929 0.023115903 -0.012769952 0.77046436 0.3499611 -0.53283387 0.0033825079
-0.063107356 0.025604669 -0.012062222 -0.75578219 0.28052241 -0.59169286 0.0033222323
-0.061526086 0.026487594 -0.013396481 -0.67955601 0.32764485 -0.65639365 0.006574356
0.061573278 0.026467539 -0.013400484 0.67275482 0.32938805 -0.66249859 0.0064113871
0.063021839 0.02614614 -0.011940315 0.75591457 0.27976283 -0.59188336 0.0029676915
-0.061049212 0.029195417 -0.012870157 -0.66564041 0.23969854 -0.70673013 0.0037377174
-0.059428647 0.029472876 -0.014165975 -0.49992308 0.20688829 -0.84099591 0.0069889314
0.059296045 0.029668828 -0.014215443 0.49841923 0.20468892 -0.84242553 0.0069804071
0.061037228 0.029179564 -0.012895153 0.69259912 0.23633847 -0.6815061 0.0063746339
-0.060724776 0.032161202 -0.012421037 -0.69818407 0.19456282 -0.68897337 0.0028184496
-0.059118088 0.032420393 -0.013852656 -0.56259423 0.15126778 -0.81277663 0.0050119045
-0.037339844 0.033525974 -0.014006659 0.22761624 0.69387865 -0.68317139 0.011148927
-0.034503382 0.033516873 -0.013745457 0.05187358 0.76842827 -0.63783002 0.0055828821
-0.031595413 0.033463653 -0.013809171 0.00068246602 0.78139824 -0.62403226 0.0026154087
-0.028525557 0.033490293 -0.013776962 -0.041574452 0.80607975 -0.59034479 0.0057581021
-0.02578399 0.033538681 -0.014014151 -0.10487158 0.78085119 -0.61585164 0.0047117779
-0.022632342 0.033700492 -0.014505252 -0.050135072 0.70804614 -0.70438427 0.0033989325
-0.019444499 0.033700492 -0.014505252 0.00230687 0.70595366 -0.70825428 0.0041557727
-0.016522307 0.033700492 -0.014505252 -0.0022458397 0.7058208 -0.70838696 0.004303406
-0.013600115 0.033700492 -0.014505252 -0.0018156928 0.70569324 -0.70851511 0.0041070334
-0.01041227 0.033700492 -0.014505252 7.9066376e-05 0.70468456 -0.70952082 0.0040798201
-0.0074900785 0.033700492 -0.014505252 -0.0021912882 0.70578182 -0.70842582 0.0042949743
-0.0045678876 0.033700492 -0.014505252 -0.00068927469 0.70572948 -0.70848107 0.004130498
-0.0013800423 0.033700492 -0.014505252 0.000615547 0.70573384 -0.7084769 0.0041303937
0.0015421491 0.033700492 -0.014505252 2.0558595e-05 0.7057296 -0.70848137 0.0043325052
0.0044643404 0.033700492 -0.014505252 -0.00044699473 0.70572871 -0.70848203 0.0042630918
0.0073865321 0.033700492 -0.014505252 0.0011063254 0.7057721 -0.70843804 0.004245712
0.010308724 0.033700492 -0.014505252 0.00045392811 0.70572639 -0.70848435 0.0042026048
0.013496569 0.033700492 -0.014505252 0.00020603389 0.7056976 -0.70851314 0.0041064783
0.016418759 0.033700492 -0.014505252 0.0011312816 0.70574731 -0.70846277 0.0042618341
0.019340951 0.033700492 -0.014505252 -0.00099978305 0.70467347 -0.70953107 0.0041348613
0.022528797 0.033700492 -0.014505252 0.085604087 0.70846695 -0.70053303 0.0068043498
0.025925571 0.032909486 -0.013709413 0.32858643 0.77777463 -0.53581482 0.012218457
0.028471213 0.032480609 -0.013043147 0.18170543 0.76694769 -0.61544651 0.027519275
0.031543724 0.032427263 -0.013109516 -0.0016068366 0.7877323 -0.61601555 0.005329919
0.034462657 0.032534469 -0.012969602 -0.24333155 0.71381891 -0.65669799 0.019081026
0.037044354 0.033064719 -0.013716672 -0.39991587 0.69341677 -0.59936672 0.0094569391
0.059033021 0.032491762 -0.013944481 0.56353009 0.1465164 -0.81299865 0.0044104531
0.06066595 0.032116566 -0.012533431 0.69455081 0.19579932 -0.69228739 0.0031923945
-0.060532287 0.034782272 -0.012008483 -0.73087734 0.33389625 -0.59525758 0.0072805793
-0.058777697 0.035421818 -0.013274841 -0.65867501 0.30251837 -0.68893391 0.011427318
-0.056695629 0.03612788 -0.014059797 -0.59183198 0.28119335 -0.7554239 0.019450149
-0.042330299 0.036124043 -0.014106795 0.45444319 0.46973899 -0.75685316 0.024992472
-0.040333703 0.035712238 -0.013292836 0.5188275 0.60600054 -0.6029771 0.01944351
-0.038109232 0.034938708 -0.012737163 0.25612631 0.77173054 -0.58209211 0.011505009
-0.034489308 0.03439353 -0.012423927 0.066755988 0.80962682 -0.58313644 0.0051125861
-0.03155297 0.034393676 -0.012422081 -0.00051330065 0.82351524 -0.56729394 0.0030447359
-0.028614979 0.034392025 -0.012443403 -0.039599933 0.82243109 -0.56748474 0.0058841188
-0.025079541 0.034750529 -0.012642943 -0.10457058 0.79573107 -0.5965544 0.0049686301
-0.022555392 0.034864075 -0.01281615 -0.082083084 0.78019887 -0.62012267 0.0049263034
-0.019524721 0.034902498 -0.012751544 -0.013334928 0.75631422 -0.6540727 0.0015631017
-0.016492926 0.034941539 -0.012679826 0.0051076533 0.75077939 -0.66053325 0.0011911026
-0.013575336 0.034865752 -0.012819043 -0.0060552838 0.7498939 -0.66153038 0.0011568191
-0.010455129 0.034902498 -0.012751544 0.0060267174 0.7497955 -0.66164213 0.0011308361
-0.0075208494 0.034902498 -0.012751544 -0.0043767532 0.7501536 -0.66124904 0.0011687384
-0.0045865695 0.034902494 -0.012751544 -0.0050418763 0.75072324 -0.66059762 0.0011518444
-0.0013855369 0.034902498 -0.012751544 0.0050272807 0.75076103 -0.66055477 0.0011594614
0.001548743 0.034902498 -0.012751544 0.0053162323 0.75069314 -0.66062963 0.0012096339
0.0044830223 0.034902494 -0.012751544 -0.0049124905 0.7507599 -0.66055691 0.001195011
0.0074173021 0.034902498 -0.012751544 -0.0046210345 0.75078601 -0.66052943 0.0011947596
0.010351582 0.034902502 -0.012751544 -0.0045618522 0.75077766 -0.66053939 0.0011865529
0.013552615 0.034902498 -0.012751544 0.0059028757 0.75014359 -0.66124856 0.0011473786
0.016486894 0.034902502 -0.012751544 0.0044471426 0.75019878 -0.66119736 0.0011624236
0.019421173 0.034902498 -0.012751544 0.0068858187 0.75134224 -0.65987682 0.0012836806
0.02253994 0.034865752 -0.012819043 0.16841879 0.81349188 -0.55665612 0.021058299
0.024716113 0.034824133 -0.012777683 0.25007433 0.83239865 -0.49454549 0.013586712
0.038158052 0.034945801 -0.012717209 -0.54358518 0.60756832 -0.5791164 0.011308593
0.040208161 0.035624091 -0.013314622 -0.51862252 0.55106992 -0.65372211 0.019726966
0.042386778 0.036071405 -0.014100835 -0.3383038 0.39617056 -0.85358036 0.010200931
0.056576457 0.03611828 -0.014176793 0.47036836 0.2732724 -0.83909231 0.0078750132
0.058751371 0.035457321 -0.013263638 0.66175449 0.31037682 -0.68245673 0.014092296
0.060474206 0.034721218 -0.012136755 0.72920251 0.33801529 -0.59498686 0.0081041995
-0.058033489 0.038133774 -0.012781095 -0.53168714 0.53379339 -0.65755105 0.01794433
-0.055776052 0.038770117 -0.013363006 -0.2911078 0.65747923 -0.69496566 0.015598575
-0.052642379 0.039241526 -0.013657369 -0.1028986 0.7776987 -0.62015849 0.0016744069
-0.049545337 0.039342463 -0.013802046 -0.004044706 0.79027778 -0.61273533 0.0016990032
-0.046479229 0.039239217 -0.013683071 0.10076614 0.77528936 -0.62351638 0.0019508709
-0.043267902 0.038781501 -0.01338454 0.28711423 0.66098112 -0.69330317 0.014566004
-0.040881835 0.038158435 -0.012701314 0.54750019 0.52992845 -0.64762592 0.01284468
0.040916845 0.037968352 -0.012841861 -0.5522213 0.52887696 -0.64446944 0.012692356
0.043244138 0.038843054 -0.013310223 -0.30174553 0.65231234 -0.69529736 0.015263663
0.046364214 0.039190486 -0.013718382 -0.09992788 0.7765094 -0.62213141 0.0018090751
0.049441773 0.039342448 -0.013802156 -0.0010615377 0.78927666 -0.61403686 0.0017202664
0.052536115 0.039239578 -0.013679182 0.095578887 0.7792021 -0.61944228 0.0015310595
0.055726554 0.03875662 -0.013415059 0.28533629 0.65866697 -0.69623351 0.014919494
0.058007106 0.03822938 -0.012746518 0.54672581 0.52669138 -0.65091252 0.020129649
-0.054595295 0.040326666 -0.011767501 -0.21138117 0.78352189 -0.58430421 0.0022687253
-0.052397605 0.040283062 -0.012244084 -0.096939579 0.81953472 -0.56477046 0.001772237
-0.049590785 0.040533707 -0.012161719 -0.0039859563 0.82517451 -0.5648638 0.0014663921
-0.046702016 0.04037378 -0.012227108 0.095969528 0.82030314 -0.56381959 0.0019625854
-0.044432744 0.040324744 -0.011788512 0.2129382 0.7818355 -0.58599526 0.0022758024
0.044333968 0.040328946 -0.011742567 -0.21632639 0.82748228 -0.51814669 0.003929961
0.04640922 0.040275495 -0.012326815 -0.093661837 0.82002944 -0.56460536 0.002027754
0.049243867 0.04053323 -0.012166789 -0.0010144578 0.82398397 -0.56661218 0.0014629246
0.052372526 0.040361006 -0.012227438 0.094699711 0.81844819 -0.56672263 0.0018265637
0.054765511 0.040331308 -0.011716917 0.22326495 0.80527657 -0.54925615 0.0022252533
-0.025740372 -0.023327488 -0.011416063 0.0020840969 -0.3560535 -0.93446332 0.0008073572
-0.023070043 -0.023333434 -0.011312827 -0.0022556384 -0.37532723 -0.92688966 0.00086642505
0.023491373 -0.023322556 -0.011501923 -0.0051631453 -0.35508141 -0.93482107 0.00047513412
0.025633359 -0.02332418 -0.0114737 -0.0063173152 -0.35091615 -0.93638557 0.00049801759
0.01600311 -0.01743995 -0.011429116 -0.34466955 -0.38746542 -0.85502839 0.037240252
-0.051768158 -0.0051738056 -0.0085971504 -0.19447921 -0.51481873 -0.83494884 0.011528916
-0.049608275 -0.0051731444 -0.0086406134 0.0005012101 -0.58290136 -0.81254274 0.0082840258
-0.047189586 -0.0051738801 -0.008592099 0.29475716 -0.58012992 -0.75932038 0.040279996
-0.033452038 -0.0054432037 -0.0085956752 -0.050622851 -0.22273289 -0.97356427 0.012397788
-0.032122828 -0.005785055 -0.0088792546 -0.048895642 -0.24755888 -0.96763825 0.011996877
-0.028673355 -0.0060066436 -0.0089013325 -0.085532792 -0.26752663 -0.95974666 0.0098066013
-0.025697721 -0.0054929634 -0.0093770651 -0.09076196 -0.20441379 -0.97466779 0.0056644198
-0.022167163 -0.0057014399 -0.009275334 0.086177692 -0.17358643 -0.98104089 0.005944638
-0.019689105 -0.0063743009 -0.0088092005 0.09320946 -0.19408053 -0.97654742 0.010917523
-0.016493564 -0.0057086819 -0.0088411849 0.11657721 -0.13567713 -0.98387069 0.0091154901
0.016561911 -0.0057472601 -0.0088340379 -0.12716736 -0.18059984 -0.97530109 0.010063644
0.019952495 -0.0062180771 -0.0088764383 -0.097460262 -0.19023305 -0.97688931 0.0097843139
0.022412483 -0.0056181611 -0.0093074972 -0.095898658 -0.17239691 -0.98034829 0.005767738
0.025593514 -0.0054927976 -0.0093876952 0.094518833 -0.20413379 -0.97436929 0.0059168842
0.028511157 -0.0058751428 -0.0089400019 0.069469608 -0.25968462 -0.96319145 0.011414252
0.032002289 -0.0059155035 -0.0088669043 0.044986635 -0.26777342 -0.96243113 0.01250171
0.033347804 -0.0057124472 -0.0086045014 0.047675148 -0.24132898 -0.96927154 0.013129606
-0.054397225 -0.0032832506 -0.0091064423 -0.44166008 -0.27484068 -0.85404861 0.034877937
-0.052503541 -0.0035514706 -0.0091928644 -0.30635995 -0.24964027 -0.91859859 0.040537532
-0.04953206 -0.0035502468 -0.0093015805 0.0056389812 -0.33598757 -0.94184959 0.00097433996
-0.046584845 -0.003551384 -0.0092004156 0.30700061 -0.27599826 -0.91081047 0.033109691
-0.044717841 -0.0035531018 -0.0090493588 0.55784094 -0.38099805 -0.73732907 0.052503746
-0.033787303 -0.0034587472 -0.0086926389 -0.27146682 -0.071014859 -0.95982432 0.00076842227
-0.031518552 -0.0035503102 -0.0092564756 -0.085882664 -0.19142887 -0.9777419 0.013333512
-0.028498255 -0.0035032844 -0.0095064947 -0.11971841 -0.18800804 -0.97484374 0.0069084209
-0.025587745 -0.0035483222 -0.0094869928 -0.065512717 -0.17681652 -0.98206115 0.0046463334
-0.022513941 -0.003608705 -0.0094345072 0.071714915 -0.16976921 -0.982871 0.0053433049
-0.019580977 -0.0034476118 -0.0095611718 0.097186543 -0.16035724 -0.98226285 0.0089740157
-0.016465945 -0.0035530222 -0.0090171732 0.13966526 -0.17567052 -0.97449142 0.011035895
-0.014597105 -0.00274964 -0.0085940361 0.44137871 0.07937853 -0.89380312 0.018036682
0.014494249 -0.0027498412 -0.0085736364 -0.45178679 0.076304555 -0.88885677 0.019589787
0.016363269 -0.0035532848 -0.0089941937 -0.13813104 -0.16875669 -0.97593081 0.010560767
0.019579656 -0.0035109469 -0.0094910692 -0.10298792 -0.16216877 -0.98137391 0.0085192649
0.022527914 -0.0035484885 -0.0094748978 -0.080822945 -0.16965961 -0.98218292 0.0055735433
0.025483573 -0.0035482096 -0.0094972234 0.068782799 -0.17599463 -0.98198515 0.0051410752
0.028392863 -0.0035029715 -0.0095341895 0.1161641 -0.19089785 -0.97471219 0.0072766147
0.031412203 -0.003549872 -0.0092945341 0.06332431 -0.18779074 -0.98016566 0.01410429
0.033742294 -0.0034216354 -0.008726758 0.27046323 -0.070797287 -0.9601236 0.00082716171
0.046546757 -0.0033501028 -0.0098858122 -0.41896391 -0.41337582 -0.80844891 0.039547727
0.049482457 -0.0034840554 -0.0098684095 -0.0059270803 -0.64932269 -0.76048988 0.023334363
0.052276593 -0.0034030587 -0.009913398 0.3272903 -0.55760545 -0.76286125 0.025263919
-0.0644041 0.00021354645 -0.0087553151 -0.13423358 -0.46791846 -0.87351799 0.016510755
-0.0615413 0.0002472389 -0.0087691266 -0.0019107542 -0.37836304 -0.92565525 0.00057889888
-0.058480404 0.00021355296 -0.0087562725 0.023659525 -0.38430208 -0.92290419 0.00083208666
-0.055445321 7.9285121e-05 -0.0088032372 -0.019956054 -0.11507688 -0.99315608 0.059813622
-0.052414872 -0.00074958336 -0.010066554 -0.26656878 0.011193495 -0.96375084 0.044176158
-0.049557168 -0.00051449938 -0.010352256 -0.019220425 0.12209182 -0.9923327 0.051650923
-0.04653246 -0.00061157206 -0.010033257 0.31600642 0.049441617 -0.94746792 0.022869848
-0.04346529 4.3990789e-05 -0.0088294558 0.062589318 -0.14657626 -0.98721731 0.044317223
-0.040440217 0.00021355459 -0.008756334 -0.018439082 -0.38230526 -0.92385203 0.00077446399
-0.037478399 0.00021355459 -0.008756334 -0.015133574 -0.3584519 -0.93342555 0.00091651105
-0.034303892 -0.00037159678 -0.0087818038 -0.081942916 -0.21324012 -0.97355741 0.00871142
-0.031512734 -0.00059144152 -0.0093358681 -0.14427167 -0.082484052 -0.98609442 0.0052926946
-0.02852051 -0.00058926223 -0.0098491106 -0.078273699 -0.085539356 -0.99325532 0.0073154666
-0.025552999 -0.00058826292 -0.010069649 0.00067628588 -0.031317424 -0.99950927 0.0038269213
-0.022601914 -0.00058842124 -0.010035131 0.097642057 0.048378427 -0.99404508 0.010760042
-0.019662013 -0.00058973441 -0.0097444151 0.13099243 0.012354622 -0.99130636 0.017427234
-0.01665826 -0.00078959111 -0.0091492655 0.34025997 0.18965775 -0.92100656 0.023177991
-0.014593938 -0.0016715634 -0.0086876154 0.42504618 0.13146615 -0.89557379 0.023645341
0.0144911 -0.0016716975 -0.0086666942 -0.44196579 0.12541437 -0.88822156 0.026036944
0.016552608 -0.00084287627 -0.0091389194 -0.34440508 0.19047122 -0.91929632 0.024142055
0.019558802 -0.00058977166 -0.0097369272 -0.13827939 0.010566643 -0.99033684 0.017367147
0.022498235 -0.0005884124 -0.010037467 -0.10674097 0.04565686 -0.99323803 0.010756578
0.025448766 -0.00058821356 -0.010081103 0.0027629901 -0.03247181 -0.99946886 0.003600704
0.028415339 -0.00058915466 -0.009873529 0.076665752 -0.085369825 -0.99339539 0.0078860056
0.031406131 -0.00059127575 -0.0093775727 0.14223407 -0.080453083 -0.98655808 0.0056272089
0.034198329 -0.00037145102 -0.0088075362 0.099362671 -0.19476487 -0.97580415 0.0066556549
0.037374847 0.00021355459 -0.008756334 0.019918153 -0.33628812 -0.94154847 0.00043703883
0.040525604 0.00024526031 -0.0087678665 0.010871763 -0.36431322 -0.93121302 0.00029301312
0.043468144 0.00017984095 -0.0087423082 -0.066491857 -0.30232295 -0.95088357 0.069877811
0.046415031 -0.00064997235 -0.010534305 -0.48331153 -0.24545653 -0.84033388 0.060782183
0.049534954 -0.00058607385 -0.010703033 -0.0061802971 -0.23115964 -0.97289622 0.0014995611
0.052480645 -0.00058596116 -0.010725245 0.41007864 -0.20186231 -0.88943076 0.040150132
0.055415172 0.00021353457 -0.0087551661 0.15717685 -0.28264302 -0.94626015 0.050892286
0.058376968 0.00021353969 -0.008755425 -0.0087995427 -0.36277765 -0.93183416 0.00018642882
0.061527029 0.00024526031 -0.0087678665 -7.3434479e-05 -0.35691765 -0.93413585 7.2583754e-07
0.064470693 0.00017985771 -0.0087432005 5.9299131e-05 -0.35692763 -0.93413204 2.1900676e-07
0.066153727 0.00075247558 -0.0089609772 0.00019469419 -0.35693392 -0.93412966 4.513042e-07
-0.066443041 0.0026634815 -0.0096916463 -0.32643589 -0.4648293 -0.82302696 0.021780055
-0.064597033 0.0023204642 -0.0095609222 -0.23828726 -0.50945222 -0.82684797 0.018957423
-0.061626401 0.002060703 -0.0097560491 -0.01152258 -0.62831122 -0.77787673 0.018264493
-0.058511272 0.0022410876 -0.009591138 0.10114798 -0.52825868 -0.84303731 0.022521641
-0.055582274 0.002422729 -0.0096005164 0.1048524 -0.3966749 -0.91195118 0.0090431347
-0.052517507 0.0024646621 -0.0096485596 0.017177869 -0.32173628 -0.94667351 0.061642382
-0.049496751 0.0023222719 -0.0099787964 -0.023663219 -0.019487029 -0.99953002 0.074348673
-0.046544697 0.0024022693 -0.0096558351 -0.053404167 -0.3092818 -0.94946975 0.04228064
-0.043587886 0.0023651901 -0.0095779467 -0.062438849 -0.39047855 -0.9184922 0.0042306925
-0.040720113 0.0022456991 -0.0095916782 -0.10310616 -0.5287317 -0.84250331 0.021767406
-0.037390601 0.0020957612 -0.0097602047 -0.018154569 -0.61193466 -0.79069996 0.019161487
-0.034450635 0.0023651877 -0.0095784683 0.075168535 -0.45602316 -0.88678783 0.03562776
-0.031497307 0.0023652958 -0.0095391823 0.044966932 -0.25555921 -0.96574712 0.025609873
-0.028537273 0.0023657253 -0.0095953327 -0.035858151 -0.18337487 -0.98238885 0.0091771968
-0.025575768 0.0023659393 -0.0096859932 -0.0041718399 -0.16461247 -0.98634952 0.020037405
-0.022458268 0.0024242373 -0.009476658 0.13920557 -0.035746984 -0.98961806 0.017068768
-0.01967714 0.0023205522 -0.0091558816 0.19365039 -0.12380268 -0.9732278 0.032717783
-0.016577736 0.0030301753 -0.0088149039 0.051905986 -0.50402141 -0.86213005 0.0054311487
-0.013512794 0.0031751809 -0.0088134436 0.023042051 -0.5260939 -0.85011423 0.0029809782
-0.010551682 0.0031752368 -0.0088006202 0.0035478116 -0.5821014 -0.81310844 4.1275838e-05
-0.0075901137 0.0031752212 -0.0088038798 0.0080327895 -0.58652949 -0.80988801 0.00012907216
-0.0046286196 0.0031752207 -0.0088041248 -0.00064628804 -0.63378525 -0.77350873 0.0011342842
-0.0013979016 0.0031752058 -0.0088080661 0.00060252019 -0.59198344 -0.80594993 0.00022197553
0.0015635717 0.0031752093 -0.008806631 -0.00042544209 -0.6337083 -0.77357197 0.0012284396
0.0045249998 0.0031751932 -0.0088111851 -0.0050734859 -0.58900177 -0.80811584 0.00016412235
0.0074864719 0.0031752032 -0.0088095991 -0.0018148504 -0.58418399 -0.81161922 5.5424141e-05
0.010448122 0.0031752319 -0.0088013606 -0.0052479343 -0.5838964 -0.81181115 5.5548771e-05
0.013409249 0.0031751823 -0.0088133328 -0.022319054 -0.5284068 -0.84869784 0.0029893846
0.016474402 0.0030301765 -0.0088097416 -0.047449548 -0.50887877 -0.8595295 0.0050390079
0.019731607 0.0023880564 -0.0091256537 -0.19678426 -0.12015516 -0.97305638 0.032146893
0.022524534 0.0023665046 -0.0095368978 -0.14258383 -0.033448387 -0.9892174 0.017289033
0.025471529 0.0023659244 -0.0096974839 0.0065942639 -0.16203147 -0.98676354 0.019481136
0.028432921 0.0023657314 -0.0096076056 0.033220246 -0.17989695 -0.98312438 0.0092464248
0.031393852 0.0023653076 -0.0095380545 0.056974947 -0.24885105 -0.96686453 0.0068869977
0.034518044 0.002422733 -0.0095998943 0.097687975 -0.26019993 -0.96060038 0.0054276744
0.037383527 0.002214869 -0.0095206881 -0.13682383 -0.50873047 -0.84998381 0.069928236
0.040589653 0.0021505067 -0.0094958534 0.13039644 -0.62793577 -0.76726365 0.03322288
0.043484353 0.0023651919 -0.0095777642 -0.080148175 -0.55196947 -0.83000362 0.067699693
0.046486549 0.00240548 -0.011022792 -0.43103367 -0.15499559 -0.8889243 0.082882643
0.049461413 0.0023611747 -0.011337444 0.0014972464 0.026019877 -0.99966031 0.019643605
0.052323941 0.0022552051 -0.011133024 0.39869323 -0.25474706 -0.88099241 0.068193048
0.05552955 0.0024022423 -0.0095916055 0.091301538 -0.55678159 -0.82562602 0.054571185
0.058403399 0.0021784646 -0.0095064845 -0.13875191 -0.62061298 -0.77174306 0.032669134
0.061581675 0.0022000489 -0.0095148478 0.1210371 -0.59408998 -0.79524028 0.045048278
0.064446159 0.0023651915 -0.0095779886 0.00019134756 -0.35694715 -0.93412453 1.2209955e-07
0.066434972 0.002609293 -0.0096710436 0.00015946233 -0.35697627 -0.93411344 1.1927993e-06
-0.066881992 0.0053105382 -0.010703148 -0.5643267 -0.3287684 -0.75726265 0.029619534
-0.065600336 0.0046161111 -0.010437509 -0.33310172 -0.49306291 -0.80369902 0.027141886
-0.05747994 0.0039743003 -0.010193154 0.36959893 -0.50361371 -0.78087759 0.029499147
-0.055358287 0.0051999344 -0.010536889 0.20675501 -0.40969762 -0.88848197 0.038502421
-0.052536845 0.0052674208 -0.010687729 -0.066649362 -0.30848157 -0.94889253 0.0023399862
-0.049598433 0.0053487117 -0.010718064 0.0030332545 -0.39659271 -0.91798967 0.010503212
-0.046461854 0.0052724029 -0.010688869 0.045794327 -0.31603241 -0.94764251 0.0012301839
-0.043756761 0.0051929904 -0.010658354 -0.22032581 -0.40185517 -0.88880199 0.03015116
-0.041915402 0.0039743152 -0.010192081 -0.3476474 -0.45722988 -0.81858546 0.02851011
-0.033629727 0.004510608 -0.010255329 0.29739743 -0.46702015 -0.83273464 0.031804867
-0.031414002 0.0053108288 -0.010676619 0.10873289 -0.36805156 -0.92342579 0.024299577
-0.02846941 0.0053112851 -0.010615104 -0.021500636 -0.32420647 -0.94574195 0.0023272887
-0.025569391 0.0052745701 -0.010433894 -0.036453933 -0.39456525 -0.91814452 0.0094916923
-0.022600664 0.0047798562 -0.010061031 0.05627621 -0.44826925 -0.89212537 0.013254054
-0.019648466 0.0047797533 -0.010045566 0.10573594 -0.48527202 -0.86794645 0.012370266
-0.016428646 0.0047800583 -0.010005618 -0.017203113 -0.57324684 -0.81920207 0.010686897
-0.01347571 0.0047801109 -0.0099971453 -0.012699365 -0.58572471 -0.81041056 0.0097281206
-0.010522426 0.0047801035 -0.0099978447 -0.034456134 -0.57924092 -0.81442797 0.011620442
-0.0075691575 0.004780103 -0.0099983439 0.022103284 -0.59080666 -0.80651033 0.0099431193
-0.0046158973 0.0047801002 -0.0099985274 0.029400783 -0.59315687 -0.80454981 0.0099573368
-0.0013941623 0.0047800965 -0.0099989399 -0.031102007 -0.58525836 -0.81025016 0.010310823
0.0015590868 0.0047800909 -0.0099999839 0.0080945818 -0.61358964 -0.78958356 0.011047523
0.0045123259 0.0047800839 -0.010000803 -0.034136396 -0.58233523 -0.81223172 0.011562456
0.0074655619 0.0047800811 -0.010001022 -0.039611973 -0.5902189 -0.80627072 0.0096539455
0.010418802 0.0047800797 -0.010001032 0.031075444 -0.58447242 -0.81081837 0.010061911
0.013447066 0.0048179878 -0.010048812 0.02898957 -0.57966703 -0.81433755 0.010766561
0.016384982 0.0047454298 -0.0099621657 -0.011978293 -0.64435333 -0.76463407 0.0018450116
0.019545075 0.0047797677 -0.010042266 -0.022676211 -0.55172276 -0.83371919 0.016261682
0.022497907 0.0047799749 -0.010046093 -0.034464341 -0.44018203 -0.8972469 0.016041309
0.0254665 0.0052746744 -0.010422916 0.053011976 -0.42124569 -0.90539593 0.0084875068
0.028510476 0.0053841746 -0.010637565 -0.011968818 -0.34596005 -0.93817294 0.0006390913
0.031432822 0.005237761 -0.010667388 -0.0053304997 -0.35642427 -0.93430901 6.9827242e-05
0.034524854 0.0053105317 -0.010703843 -0.10163881 -0.36737359 -0.92450315 0.07353878
0.036626238 0.0050524012 -0.0096409768 -0.39682046 -0.45156056 -0.79914117 0.10157865
0.044495307 0.0039743003 -0.010193154 -0.026384363 -0.6074211 -0.79394174 0.080110461
0.046648979 0.0050034998 -0.010504933 -0.083662026 0.025886076 -0.99615788 0.044320349
0.049437821 0.0053775818 -0.011112369 -0.019671051 0.023544362 -0.99952924 0.033598837
0.052330192 0.0051961057 -0.010378001 -0.084563188 -0.36916465 -0.9255088 0.145557
0.054326404 0.0041526919 -0.010261262 0.035091646 -0.58496755 -0.81029725 0.081810899
0.062713556 0.0045093019 -0.010397399 0.32974172 -0.47239932 -0.81737953 0.035926677
0.064544767 0.0053105243 -0.010704516 0.2664741 -0.38646764 -0.88296902 0.026883157
0.06697835 0.0054589366 -0.010758226 0.00082940486 -0.35741639 -0.93394482 1.6754665e-06
-0.066706933 0.0077155568 -0.01125291 -0.5929783 -0.24653623 -0.76654851 0.022606511
-0.055323981 0.0076449523 -0.010861382 0.22486907 -0.36628643 -0.90292203 0.03903893
-0.052499197 0.0071777068 -0.011417136 0.092043035 -0.38955778 -0.91639113 0.030040737
-0.04955576 0.0071777119 -0.011416778 3.3160344e-05 -0.3568283 -0.93417001 1.8187382e-06
-0.04661224 0.0071777068 -0.011417136 -0.10587997 -0.3699252 -0.9230085 0.02338269
-0.043888487 0.0076410305 -0.011135546 -0.065438181 -0.29554403 -0.95308536 0.049332067
-0.032065913 0.0075865593 -0.010929637 0.16509384 -0.28217325 -0.94505143 0.059453845
-0.028685905 0.0071781389 -0.011385292 -0.035010386 -0.38933432 -0.9204309 0.0038739513
-0.025960179 0.0075002722 -0.011321058 -0.10729977 -0.3886466 -0.9151178 0.0043520564
-0.019594161 0.0077156764 -0.011230692 0.034492332 -0.52812618 -0.84846509 0.019234162
-0.016381929 0.007715669 -0.01123175 0.0066470983 -0.49131665 -0.87095565 0.024844578
-0.012899146 0.0077144322 -0.0113139 0.014250423 -0.50276911 -0.86430323 0.026545573
-0.010494081 0.0077167866 -0.011157244 0.0035756179 -0.49290812 -0.87007403 0.027829213
-0.0080816671 0.0077146408 -0.011298701 -0.011177997 -0.49283111 -0.87005317 0.027619386
-0.0046024364 0.0077154306 -0.011247545 -0.0017776351 -0.49243873 -0.87034523 0.024114564
-0.0013904708 0.0077158702 -0.011217624 0.00019137823 -0.49222484 -0.87046808 0.023548735
0.0020892811 0.0077139107 -0.011348709 0.0086553469 -0.49275917 -0.87012267 0.027452113
0.004500018 0.0077167791 -0.011157796 0.0038688898 -0.49242094 -0.87034857 0.029048987
0.0069078403 0.0077149835 -0.011275813 -0.01126719 -0.49268585 -0.87013423 0.027635286
0.01038802 0.0077151251 -0.011268198 -0.0014620998 -0.49219757 -0.87048227 0.024254428
0.013601839 0.0077160266 -0.011207834 -0.026018633 -0.53183299 -0.84644943 0.019142928
0.019493977 0.0077167493 -0.011160523 0.045969505 -0.50436372 -0.86226678 0.021056976
0.021898672 0.0077152816 -0.011258438 -0.031029627 -0.49504429 -0.86831349 0.023961987
0.025853647 0.0073923646 -0.011370644 0.052836455 -0.41767615 -0.90705836 0.011579392
0.028582454 0.0071781566 -0.011383841 -0.0020977987 -0.38556594 -0.92267787 0.0014312767
0.031523902 0.0071777366 -0.011414543 -0.0079500386 -0.36212802 -0.93209445 2.9550432e-05
0.034466777 0.00717763 -0.011422232 0.0092665572 -0.46706703 -0.88417333 0.093831606
0.036414541 0.0082617337 -0.010546168 -0.59240854 -0.27061364 -0.75882828 0.10464708
0.047490049 0.0084391301 -0.010614023 0.23263165 -0.16355386 -0.95871407 0.069123231
0.049214993 0.0075982953 -0.011149239 0.10399084 -0.080122404 -0.99134576 0.063754588
0.051535852 0.0078325057 -0.010559335 -0.21220915 -0.15416016 -0.96498811 0.061026242
0.064436086 0.0071776002 -0.011424229 0.3371523 -0.36264643 -0.86880141 0.030815218
0.067113042 0.0071777073 -0.011417136 0.0026401046 -0.35532379 -0.93473953 1.1922021e-05
-0.065903202 0.010124411 -0.011257872 -0.55571383 -0.20511252 -0.8056742 0.024293981
-0.042881969 0.010124411 -0.011257872 -0.28199634 -0.2572895 -0.92427278 0.054711767
-0.033237271 0.01039001 -0.011359558 0.2350947 -0.31968021 -0.91789711 0.052098341
0.036362559 0.0098588131 -0.011156186 -0.69691163 -0.1361376 -0.704117 0.091002554
0.046258375 0.010124404 -0.011258408 0.37631911 -0.0095805181 -0.9264406 0.048284553
0.049075034 0.0099916086 -0.011207297 -0.0012328671 -0.60221487 -0.79833317 0.066805057
-0.066737793 0.017560141 -0.010483259 -0.90372968 0.19020449 -0.38352969 0.020724362
0.066707149 0.017644484 -0.010590255 0.85303795 0.30040318 -0.42671308 0.012750602
-0.066128887 0.020362083 -0.0097937882 -0.88322443 0.31445199 -0.34790015 0.0014086704
-0.06559886 0.020759052 -0.010914102 -0.88461643 0.31853417 -0.34057269 0.0015406919
0.06557864 0.020845998 -0.01095368 0.88105381 0.31860352 -0.3496227 0.0015595986
0.066245034 0.020284178 -0.0095308367 0.88215667 0.31452978 -0.35052916 0.0014549078
-0.065013692 0.023436427 -0.010066412 -0.87017578 0.29946917 -0.39129573 0.001380374
0.065032445 0.023365406 -0.010144535 0.88038045 0.27499613 -0.38640302 0.0020740093
-0.064051181 0.026270444 -0.010152683 -0.83564788 0.2636368 -0.48185909 0.0030032124
0.064009845 0.026304238 -0.010287893 0.83748633 0.26641139 -0.47711799 0.0029371823
-0.063636892 0.029013565 -0.009521516 -0.83263022 0.24298686 -0.49767888 0.0021398545
-0.062615097 0.029692661 -0.010862146 -0.81630301 0.23041289 -0.5296784 0.0021077329
0.06254857 0.02986763 -0.010914062 0.82006925 0.25946629 -0.51006234 0.0023686034
0.063560553 0.029033255 -0.0096621551 0.83352906 0.2454378 -0.49496424 0.002691153
-0.063081622 0.032536324 -0.0085934848 -0.84618622 0.24126014 -0.47514462 0.001048322
-0.062183041 0.032356109 -0.010401895 -0.83013254 0.22368076 -0.51073158 0.0022775375
0.06217055 0.032401491 -0.010446666 0.83457613 0.2360248 -0.4977701 0.0032191377
0.063488632 0.030907046 -0.0087839216 0.84559798 0.26755264 -0.46193036 0.0010290365
-0.061349452 0.035403933 -0.010348573 -0.78397942 0.341537 -0.51839054 0.0059384555
-0.059549488 0.036667746 -0.010748819 -0.70538485 0.42150915 -0.56987906 0.0126798
-0.039439913 0.036659744 -0.010845825 0.59569484 0.50679898 -0.62313914 0.020379132
-0.037607387 0.03598544 -0.010353911 0.34962127 0.79435587 -0.49675325 0.023600942
-0.03460094 0.035036422 -0.011043687 0.1016404 0.82398039 -0.55742759 0.0047975723
-0.031386476 0.0350358 -0.011051674 0.0018054722 0.87049961 -0.49216583 0.00032996709
-0.028439857 0.035035055 -0.011061044 -0.039575901 0.82241023 -0.56751662 0.0059114271
-0.026297126 0.035034757 -0.011064753 -0.067469209 0.87022525 -0.48801211 0.0021913885
0.026507938 0.034020897 -0.01031445 0.24922158 0.81608319 -0.52143729 0.016794242
0.028385619 0.034020592 -0.010318384 0.14346789 0.81032354 -0.56814855 0.018914346
0.031334419 0.034018248 -0.010349035 -0.0057936832 0.82301813 -0.56798553 0.0014782805
0.034553472 0.03401817 -0.010349954 -0.26910457 0.7559759 -0.59672707 0.009753935
0.03756569 0.035749089 -0.01032423 -0.59050882 0.66293252 -0.46023875 0.014508312
0.039346289 0.036668565 -0.010738984 -0.7322284 0.48902014 -0.47402626 0.015530975
0.059473101 0.036683913 -0.010553584 0.77967632 0.45118845 -0.43420488 0.0099512814
0.061365947 0.035465911 -0.010303658 0.79732627 0.34047687 -0.49834359 0.0075252396
-0.060901817 0.037369967 -0.0087696165 -0.7783826 0.49949703 -0.38029373 0.0055689104
-0.059127904 0.03863328 -0.011031613 -0.62527716 0.56453484 -0.53882176 0.018613014
-0.039658796 0.038461976 -0.010844819 0.76901609 0.4409757 -0.46276852 0.020776503
-0.038594659 0.038141042 -0.0087478906 0.82358068 0.4769451 -0.30698237 0.026746552
0.038449898 0.037369233 -0.0087784082 -0.84220022 0.46840873 -0.26700559 0.015813893
0.039616492 0.038502164 -0.010707011 -0.74791956 0.45110357 -0.4869515 0.010684571
0.05902566 0.038593151 -0.011204292 0.67088091 0.46275654 -0.57946116 0.0097320015
0.061067123 0.037369732 -0.0087723583 0.81845468 0.44610593 -0.36210695 0.011585362
-0.058346596 0.04040527 -0.009739765 -0.5876857 0.71401536 -0.38053596 0.018144982
-0.055482179 0.041010302 -0.010168957 -0.25472406 0.78692085 -0.56202418 0.0035430277
-0.052394386 0.041457217 -0.010248792 -0.067268252 0.8476041 -0.52634799 0.0022429025
-0.049496379 0.041741874 -0.00999959 0.0092843045 0.84237027 -0.53881925 0.00099803775
-0.046534315 0.041511867 -0.010165444 0.066535436 0.84784639 -0.52605081 0.0023745862
-0.043494716 0.041065693 -0.010055259 0.27608499 0.79595608 -0.53873098 0.0042608394
-0.040730707 0.04040752 -0.009820452 0.57100803 0.6327188 -0.52308387 0.044588577
-0.038810577 0.040049564 -0.008912608 0.82354069 0.47700474 -0.30699715 0.026753183
0.040682059 0.040369146 -0.0098405648 -0.57455564 0.64476669 -0.50414461 0.036862589
0.043556094 0.041008092 -0.010192374 -0.25815722 0.83108497 -0.49259788 0.0064875879
0.046636123 0.04146301 -0.010249173 -0.091386653 0.86629933 -0.49109462 0.0015987008
0.049616277 0.04174209 -0.0099973157 -0.015642488 0.85777706 -0.51378387 0.001573822
0.052362356 0.041497279 -0.010225122 0.11215954 0.84986949 -0.51491952 0.0021545098
0.055500861 0.041010212 -0.010169116 0.25167316 0.80505723 -0.53716242 0.0035282446
0.058440097 0.040375296 -0.0097724125 0.58711022 0.67321211 -0.44954079 0.036372505
-0.034404278 -0.014619906 -0.0056484584 -0.29043698 -0.38332891 -0.87675834 0.00342997
-0.014515975 -0.01461996 -0.0056476938 0.17250039 -0.37891945 -0.9092105 0.014500387
0.014321753 -0.014438864 -0.005654573 -0.19836591 -0.34713036 -0.91659778 0.01737087
0.034303281 -0.014621083 -0.0056157056 0.28753617 -0.38738322 -0.8759321 0.0022790148
-0.036798786 -0.011781683 -0.0058400575 -0.34094793 -0.30052805 -0.890751 0.0021614097
-0.034798201 -0.012481855 -0.0060885744 -0.31389627 -0.32550439 -0.89191705 0.001572807
-0.015566867 -0.012056669 -0.0059623527 0.077625804 -0.34762257 -0.93441576 0.0094933612
-0.013640689 -0.012493847 -0.0061100293 0.20550698 -0.33338985 -0.92011857 0.015523421
-0.011765649 -0.011616357 -0.0057256725 0.30265287 -0.31517044 -0.89948249 0.025094809
0.011743441 -0.011589214 -0.0057271193 -0.30626643 -0.3033427 -0.90232146 0.027992638
0.01353624 -0.012493055 -0.0061337603 -0.16851793 -0.35233042 -0.92057854 0.015360207
0.01552974 -0.011852292 -0.0059951651 -0.070470095 -0.34963989 -0.93423009 0.0086832782
0.034802988 -0.012383221 -0.0061450689 0.23056816 -0.31696811 -0.91998345 0.0041292487
0.036812775 -0.011720328 -0.0058754231 0.38735846 -0.32149619 -0.86405641 0.0089454204
-0.039100692 -0.009013854 -0.0056975926 -0.62711412 -0.27795205 -0.72764724 0.038031798
-0.037373234 -0.0094952099 -0.0063429335 -0.52388316 -0.21813221 -0.82338619 0.031230491
-0.034409896 -0.0096220169 -0.0071363975 -0.20456173 -0.27772814 -0.93862748 0.0032122151
-0.032093816 -0.008789964 -0.0075453068 -0.026339483 -0.31033349 -0.95026278 0.006052
-0.018378424 -0.0084116049 -0.0083521456 0.095202371 -0.30968526 -0.94606102 0.010199235
-0.016285015 -0.0094100609 -0.0072431304 0.096972853 -0.36185017 -0.92717886 0.0070082275
-0.013625743 -0.0096412674 -0.007110599 0.1712961 -0.32044214 -0.93165141 0.0079715177
-0.011067968 -0.0094681345 -0.0061333734 0.57577956 -0.18040071 -0.79745436 0.017249694
0.011028211 -0.0094919242 -0.0061121071 -0.59826273 -0.17204003 -0.78261358 0.01799617
0.01352335 -0.0096421856 -0.0070736343 -0.20317502 -0.27702016 -0.93913776 0.0052184085
0.016201595 -0.0094557907 -0.0072432589 -0.098836891 -0.35965389 -0.92783636 0.0063072708
0.018277131 -0.0084128119 -0.0082992166 -0.094795093 -0.31168249 -0.94544584 0.0098669287
0.032417033 -0.0091231335 -0.0073140543 0.080807917 -0.32975599 -0.94060147 0.0048846886
0.034558684 -0.0096395109 -0.007189177 0.1705962 -0.29224476 -0.94100481 0.0036926277
0.03737596 -0.0094982963 -0.006359376 0.50565475 -0.20109415 -0.83897215 0.022008464
0.038990296 -0.0092832036 -0.0057734693 0.75785172 -0.26429188 -0.59649861 0.040260542
-0.060527526 -0.0053386348 -0.0066356058 -6.18782e-05 -0.35689789 -0.93414342 0
-0.0583901 -0.0060054925 -0.0063803969 -0.083849661 -0.40092203 -0.91226679 0.016855573
-0.055555288 -0.0065241144 -0.006181845 -0.18053927 -0.54376429 -0.81958896 0.010461909
-0.05253638 -0.0066883578 -0.0071698502 -0.15748601 -0.61875558 -0.76963615 0.0050982996
-0.049431507 -0.0068051121 -0.007830821 0.00057580031 -0.64814311 -0.76151836 0.0060127107
-0.046431411 -0.0067296396 -0.0071176724 0.24697727 -0.59769607 -0.76273298 0.037264463
-0.04357611 -0.0064972532 -0.0061921678 0.27170491 -0.62987363 -0.72762334 0.053390514
-0.040716149 -0.0060942196 -0.0063460195 -0.19504912 -0.55412555 -0.80925924 0.047855344
-0.037413407 -0.0065061473 -0.0070069171 -0.35339341 -0.29879865 -0.88647193 0.030526413
-0.034652669 -0.0066082799 -0.0080255074 -0.23939507 -0.23956233 -0.94090378 0.0066191819
-0.031287417 -0.0069549675 -0.0080301194 -0.02504441 -0.29729643 -0.95445663 0.0087915175
-0.029690836 -0.0051759514 -0.0084535629 -0.083810866 -0.28092721 -0.95606256 0.011140432
-0.018677771 -0.0062555275 -0.0083531188 0.11980398 -0.24251539 -0.96272182 0.012076997
-0.016492555 -0.0069882968 -0.0080378857 0.10647294 -0.22739874 -0.96796352 0.0097849397
-0.013545133 -0.006536027 -0.0077664452 0.30299777 -0.1783608 -0.93615162 0.009639658
-0.011214912 -0.0066519347 -0.0067971074 0.74182075 0.011467157 -0.6705001 0.02237769
0.011113359 -0.0066533773 -0.0067171543 -0.74567407 0.0064436104 -0.66627973 0.020405453
0.013442639 -0.0065366379 -0.0077328421 -0.3226074 -0.16912393 -0.931301 0.010543203
0.016277112 -0.0070209582 -0.0080648968 -0.11091743 -0.22599727 -0.96779263 0.0093351882
0.018618472 -0.006402764 -0.008336992 -0.1177417 -0.23699231 -0.96435034 0.010944029
0.029583946 -0.0051752361 -0.0085020512 0.095119581 -0.23841977 -0.96649277 0.012672919
0.03123462 -0.0068252985 -0.0080395686 0.044996444 -0.26777077 -0.96243131 0.012499058
0.034588866 -0.0066204225 -0.0080631422 0.23263349 -0.23608945 -0.94347411 0.0079957861
0.037402716 -0.006524744 -0.0070343516 0.37542033 -0.28197092 -0.88292247 0.031757869
0.040618025 -0.0060747019 -0.0063388464 0.2232987 -0.52413458 -0.82183981 0.05890714
0.043597065 -0.0065265303 -0.0061809011 -0.20115279 -0.59216052 -0.78030998 0.037062518
0.046539474 -0.0065655219 -0.0061662481 -0.22801538 -0.62710106 -0.74481755 0.03503551
0.049518455 -0.0065654195 -0.0061722915 -0.01510824 -0.56037796 -0.82809925 0.020440627
0.052498788 -0.0065655173 -0.0061665489 0.1566007 -0.60004604 -0.78448772 0.024398716
0.055437911 -0.0065265368 -0.0061805802 -0.0053384476 -0.34089315 -0.9400869 8.2859944e-05
0.058286689 -0.0060055093 -0.0063794148 -0.0075847227 -0.34475294 -0.93866283 0.00011754486
0.060455576 -0.0054203398 -0.0066033448 -0.0033617485 -0.35452038 -0.93504226 1.051811e-05
-0.063399181 -0.0026685279 -0.0076549696 -0.0096182581 -0.38033202 -0.92479998 0.00046093689
-0.061398607 -0.0035274643 -0.0073269168 -0.00011379749 -0.35686201 -0.93415707 7.1236187e-08
-0.058577519 -0.0035145544 -0.0073319795 0.016763143 -0.34611997 -0.93804049 0.00035652643
-0.055913635 -0.0036244127 -0.0072900415 -0.21791342 -0.24168943 -0.94556856 0.041196126
-0.043295562 -0.003574593 -0.0071370425 0.18311501 -0.44642147 -0.87588632 0.055543724
-0.040576238 -0.0035727131 -0.0073092533 -0.074423 -0.30835736 -0.94835478 0.0019373721
-0.037590541 -0.0035706363 -0.0074734683 -0.15895063 -0.25183359 -0.95462799 0.0052606785
-0.035131693 -0.0036382508 -0.0082902052 -0.25685856 -0.098636411 -0.96140236 0.0020367652
-0.029694406 -0.0046377811 -0.0084017664 -0.098959729 -0.2407681 -0.96552461 0.012004551
-0.019454274 -0.0046378109 -0.0084006637 0.093208082 -0.19408169 -0.97654724 0.010915124
-0.013441584 -0.0036337944 -0.008075444 0.50377828 0.071816504 -0.86084253 0.016610717
-0.011656936 -0.0038801134 -0.006622524 0.667822 0.019851798 -0.74405622 0.021480357
0.01155861 -0.0038824412 -0.0064271004 -0.67425591 0.0095833596 -0.73843557 0.02223626
0.013339558 -0.0036343178 -0.0080254041 -0.5064702 0.064530119 -0.85983944 0.016903983
0.019352665 -0.0046383771 -0.0083576888 -0.097455032 -0.19023712 -0.97688907 0.0097859772
0.029591998 -0.0046379897 -0.0083852261 0.0951197 -0.23841858 -0.96649307 0.012674095
0.035070222 -0.0036852979 -0.0083187846 0.25663856 -0.095029213 -0.96182436 0.0019139413
0.03748421 -0.0035702451 -0.0075061368 0.16490746 -0.24686509 -0.95491523 0.0055330275
0.040472649 -0.003572708 -0.0073096491 0.071993016 -0.30657369 -0.9491204 0.0021564846
0.043453388 -0.0035735159 -0.0072237179 -0.16135353 -0.41749296 -0.89423972 0.032579202
0.046023879 -0.004549867 -0.006936511 -0.24356161 -0.51850963 -0.81964964 0.032377496
0.052951086 -0.0046585579 -0.0068948711 0.24520786 -0.52178252 -0.81707782 0.031837724
0.055490669 -0.0036334349 -0.007238545 0.16933672 -0.4171927 -0.89290273 0.032713838
0.058525026 -0.0035352656 -0.0073237289 -0.01310498 -0.34999335 -0.93666053 0.00013729298
0.061407696 -0.0035274653 -0.0073268246 -3.4406039e-05 -0.35689664 -0.9341439 0
0.063345872 -0.0029215133 -0.0075581633 1.1862771e-05 -0.35684437 -0.93416387 7.4103127e-07
-0.063997306 -0.0013157763 -0.0081709493 -0.018505735 -0.37868825 -0.92533922 0.00048736951
-0.061530609 -0.0014058696 -0.0081376731 -0.0018048023 -0.38279533 -0.92383146 0.00052236393
-0.058564465 -0.0014058729 -0.0081380457 0.0084045241 -0.36583516 -0.93064171 0.00067574182
-0.055588104 -0.0012630401 -0.0079347752 -0.22907117 -0.1609083 -0.96001816 0.048017379
-0.053743523 0.00021176459 -0.0078752786 -0.041835982 0.012253252 -0.99904931 0.064932369
-0.045338668 0.0002124873 -0.0082639605 0.33704528 -0.1183717 -0.93401742 0.049777452
-0.043402411 -0.001311725 -0.0079700602 0.14500293 -0.16938686 -0.97482413 0.047987308
-0.040498402 -0.0014058677 -0.0081373854 -0.020416124 -0.36768359 -0.92972684 0.00085333828
-0.037532311 -0.0014058645 -0.0081374496 -0.072187766 -0.31861278 -0.94513214 0.005482452
-0.035250943 -0.0013280697 -0.0082440395 -0.13661432 -0.26015586 -0.95585322 0.0088384626
-0.015526881 0.0003912563 -0.0077023553 0.13712347 0.020278852 -0.99034637 0.050801978
-0.013493462 -0.00052454183 -0.0069419513 0.51093364 0.092962041 -0.85457879 0.025941325
-0.010611899 -0.00033486914 -0.0063367831 0.13729815 -0.45421654 -0.88024801 0.032004248
-0.0076334039 -0.00033487007 -0.0063367309 0.0195776 -0.58019 -0.81424588 0.00014907567
-0.0047687073 -0.00040277606 -0.0062533151 0.008165651 -0.58344418 -0.81211215 0.00035902756
-0.0014443296 -0.0002830429 -0.0063624638 0.0095969616 -0.58767796 -0.80903804 0.00086169818
0.0015730801 -0.00036503933 -0.0062601347 -0.0084121767 -0.5891118 -0.80800766 0.00092598802
0.0047048111 -0.00035837339 -0.0063196383 -0.025876084 -0.58237165 -0.81251073 0.00057272991
0.0075298552 -0.00033486821 -0.0063368622 -0.0045253709 -0.58171684 -0.81337887 3.9738276e-05
0.010508352 -0.00033486914 -0.0063368166 -0.12671386 -0.4648878 -0.87625504 0.027892727
0.013392036 -0.00052493019 -0.0068746898 -0.43342713 -0.095730215 -0.89608967 0.058733381
0.015602038 0.00044259499 -0.0077293152 -0.13432664 0.017250495 -0.99078691 0.052379947
0.035146706 -0.0013280185 -0.0082525285 0.15285307 -0.24004574 -0.95865214 0.0065420242
0.037428785 -0.0014058664 -0.0081372056 0.07428164 -0.29019737 -0.95407951 0.0048051914
0.040394887 -0.0014058705 -0.0081369467 0.02539805 -0.35208252 -0.93562424 0.00046303772
0.043383352 -0.0014072256 -0.0079218354 -0.11503214 -0.25283867 -0.96064574 0.062173657
0.045257956 0.00048175873 -0.0080470294 -0.65153122 -0.18976291 -0.7345047 0.057724621
0.055516768 -0.0014070608 -0.007964842 0.28632224 -0.39230871 -0.87413579 0.03675187
0.058461074 -0.0014058705 -0.0081369588 -0.011272525 -0.36048585 -0.93269658 0.00017249897
0.061427154 -0.0014058687 -0.0081370221 -3.894871e-05 -0.35685992 -0.93415791 1.6235355e-06
0.063893698 -0.0013157739 -0.0081714168 5.1400795e-05 -0.35688868 -0.93414688 1.5442947e-06
-0.052357081 0.0015601707 -0.0081870705 -0.19984241 0.012496008 -0.97974837 0.076501936
-0.050165523 0.002368432 -0.00848113 -0.068152562 -0.15350769 -0.98579437 0.085371956
-0.046393637 0.0012907502 -0.0084799975 0.14631894 -0.0085816011 -0.98920023 0.061519634
-0.01878407 0.0022341204 -0.0083204582 0.17939967 -0.14743139 -0.97266632 0.045791052
-0.016426409 0.0018617359 -0.0079838093 0.14593658 -0.3011204 -0.94235289 0.040824637
-0.013541448 0.0018300128 -0.0078990702 0.041780241 -0.31243137 -0.9490211 0.040705901
-0.01057372 0.0018300121 -0.0078990664 0.03807842 -0.54749769 -0.83594036 0.0021675676
-0.0076845307 0.0017916034 -0.0078022117 0.00982014 -0.58071899 -0.81404489 0.00010779034
