# .PCD v0.7 - Point Cloud Data file format
VERSION 0.7
FIELDS x y z normal_x normal_y normal_z curvature
SIZE 4 4 4 4 4 4 4
TYPE F F F F F F F
COUNT 1 1 1 1 1 1 1
WIDTH 556
HEIGHT 1
VIEWPOINT 0 0 0 1 0 0 0
POINTS 556
DATA ascii
-0.054561064 0.01097688 -0.02935205 -0.16786984 -0.15606987 -0.97337645 0.040087547
-0.052725501 0.011192923 -0.029055007 0.083103836 -0.25930935 -0.9622122 0.031856664
-0.057179764 0.013716121 -0.028984321 -0.48111552 -0.084892564 -0.87253708 0.056839604
-0.054847665 0.013953658 -0.029636648 -0.045578603 0.03078231 -0.99848634 0.030965475
-0.052166417 0.013874448 -0.029409457 0.081728131 -0.011781509 -0.99658507 0.023502428
-0.050149888 0.014430476 -0.02892139 0.27644515 0.038816452 -0.96024549 0.028357306
-0.057048589 0.016440231 -0.029307103 -0.37431383 -0.032690059 -0.92672569 0.058030944
-0.055456109 0.017092774 -0.029209204 -0.11584141 -0.017672125 -0.99311048 0.077949964
-0.052038297 0.016395006 -0.029553365 0.10155082 0.21814801 -0.97061777 0.032754995
-0.049825653 0.016468583 -0.029060315 0.50370443 0.16409497 -0.84814775 0.050944421
-0.056603827 0.019279175 -0.028824767 -0.43517083 0.19745177 -0.87842995 0.073518239
-0.054960914 0.019905804 -0.029453918 -0.12183944 0.033589721 -0.99198133 0.080789261
-0.052926131 0.020356644 -0.029020626 0.113863 -0.22887428 -0.96677393 0.017593715
-0.054327957 0.022606228 -0.029445145 -0.20260929 0.15720895 -0.96655828 0.057541888
-0.052216463 0.023062179 -0.029323295 0.11888269 -0.026381906 -0.99255776 0.019947574
-0.05027093 0.02372361 -0.02886506 0.10422616 -0.081885889 -0.9911769 0.021734418
-0.051649198 0.025436876 -0.029334107 -0.18875024 0.044550519 -0.98101407 0.043972757
-0.049612261 0.025911592 -0.029079983 0.068644471 0.01640076 -0.99750638 0.028984113
-0.048678778 0.027783731 -0.029020717 -0.06194631 0.25388971 -0.96524751 0.04354053
-0.04736425 0.028255463 -0.028861722 0.07258743 0.306573 -0.9490754 0.027631041
-0.054578818 0.0028246876 -0.026077706 -0.18815395 -0.44231871 -0.87689924 0.085109666
-0.053406812 0.0033853289 -0.02582725 0.072704308 -0.19834863 -0.9774313 0.032720704
-0.056857608 0.0059575224 -0.027016809 -0.41046619 -0.29830241 -0.86170363 0.1308952
-0.055012971 0.0049846922 -0.026636681 -0.12548882 -0.24228024 -0.96205664 0.11184008
-0.052864827 0.0052124229 -0.026019458 0.25429323 -0.16363488 -0.95318335 0.039228231
-0.05714602 0.0080112386 -0.027502745 -0.4207404 -0.43425924 -0.79649001 0.10114346
-0.055182412 0.0076466082 -0.027132617 0.044532705 -0.28066373 -0.95877254 0.063705884
-0.05216632 0.0078235632 -0.0274268 0.048761345 -0.54004771 -0.84022075 0.047527324
-0.049219355 0.008503478 -0.02731568 0.30000055 -0.51394182 -0.80365634 0.01810234
-0.047109641 0.0090560699 -0.026644608 0.4117057 -0.45784339 -0.78795797 0.030197481
-0.057406448 0.01086835 -0.027995417 -0.64363909 -0.23091184 -0.72966325 0.061694313
-0.056000412 0.010539362 -0.027453532 -0.1580444 -0.36978114 -0.91557842 0.091107674
-0.051634558 0.010337793 -0.028565137 0.26928598 -0.24622467 -0.93105233 0.0030522805
-0.049271621 0.010832501 -0.02794192 0.29343835 -0.23962286 -0.92545927 0.0036197219
-0.046883859 0.011010433 -0.027106205 0.60435599 -0.2859754 -0.74362087 0.022081532
-0.057908222 0.013928146 -0.027605122 -0.75525939 -0.11366132 -0.64549553 0.06534861
-0.055871792 0.013913223 -0.028090151 0.044424608 -0.19003193 -0.98077232 0.057957273
-0.048884548 0.013723993 -0.028387282 0.35965905 -0.07336925 -0.93019474 0.0095330598
-0.046731636 0.013952868 -0.027489942 0.55204153 0.10045659 -0.82774311 0.031436644
-0.057892211 0.017002091 -0.027321884 -0.74713367 0.068036459 -0.66118246 0.082513966
-0.054350615 0.016371462 -0.028141562 -0.11305907 0.11284897 -0.98715889 0.065336384
-0.052308902 0.017843952 -0.027909245 0.17482522 0.015067246 -0.98448426 0.041098412
-0.048693433 0.017338125 -0.027539195 0.36924013 0.1541359 -0.91646266 0.056014828
-0.046037048 0.017172083 -0.026429491 0.2930339 -0.1578564 -0.94298059 0.056878377
-0.044100642 0.018113598 -0.025857648 0.23016995 -0.17727913 -0.95686674 0.037496701
-0.057316631 0.019869959 -0.027054744 -0.79754198 0.2393209 -0.55376202 0.016953778
-0.056151994 0.02109579 -0.028384602 -0.58974975 0.29228979 -0.75283587 0.041931562
-0.051648021 0.01977874 -0.028512638 0.26757431 0.014762582 -0.96342415 0.030858457
-0.049283467 0.020092007 -0.027845306 0.25578377 -0.067811526 -0.96435273 0.023243118
-0.046307728 0.019877056 -0.026885778 0.33269829 -0.12712623 -0.93442541 0.043718025
-0.04335358 0.020240666 -0.026715351 -0.035558548 -0.27632219 -0.96040702 0.076085649
-0.040058807 0.019955289 -0.02677837 0.14110108 -0.5025456 -0.85295862 0.016972695
-0.037681438 0.020201623 -0.026111778 0.35454842 -0.47119454 -0.80763304 0.013211242
-0.056951374 0.021965979 -0.02634882 -0.80077231 0.30166033 -0.51745993 0.0076348628
-0.055720486 0.023057621 -0.027506033 -0.66257095 0.39079386 -0.63896775 0.018552139
-0.050974242 0.021849997 -0.028712859 0.22765562 -0.18872485 -0.95527798 0.002667601
-0.049101539 0.022801163 -0.028322957 0.28112036 -0.16882658 -0.94470572 0.00073203736
-0.046160795 0.022743683 -0.027337249 0.28033432 -0.19656202 -0.93956167 0.052807666
-0.043018468 0.022808695 -0.027871417 -0.1259573 -0.31748649 -0.93986017 0.0420302
-0.040065058 0.022683246 -0.02745524 0.047405507 -0.26337546 -0.96352786 0.031076606
-0.037062563 0.022730816 -0.026517941 0.39974347 -0.26829031 -0.87648475 0.0087190326
-0.035134286 0.023448462 -0.025957262 0.56959236 -0.26503304 -0.77802444 0.012670825
-0.054556258 0.025650896 -0.026990559 -0.63986713 0.46344498 -0.61301613 0.0032843363
-0.052671202 0.026358595 -0.02822366 -0.34609616 0.40927425 -0.84422278 0.022781197
-0.048345052 0.025291951 -0.028580694 0.25696659 -0.061611466 -0.96445435 0.020403769
-0.046137162 0.025708418 -0.027947139 0.27244043 -0.2478209 -0.92971021 0.023258798
-0.043054812 0.025774738 -0.028049191 -0.00802607 -0.12435468 -0.99220538 0.030636813
-0.040011495 0.025740735 -0.027992936 0.2082192 0.099547468 -0.97300315 0.026152167
-0.037012443 0.025794988 -0.02706204 0.42182392 0.080591053 -0.90308899 0.019459652
-0.034938231 0.025499227 -0.02622965 0.51698303 0.053657413 -0.85431224 0.020565638
-0.053896666 0.027921811 -0.026030263 -0.63564467 0.44755584 -0.6290068 0.003813955
-0.051906921 0.028772416 -0.026929002 -0.46460488 0.46087167 -0.75613463 0.0044614403
-0.04930871 0.029155539 -0.027918315 -0.22140566 0.39908496 -0.88978124 0.017452957
-0.046067931 0.028834486 -0.028321575 0.14733043 0.20984274 -0.96657109 0.017311394
-0.04313498 0.028849129 -0.027630443 0.15148804 0.24862713 -0.95667964 0.023192424
-0.040135562 0.028838618 -0.027457526 0.1639249 0.29507649 -0.94130677 0.024717901
-0.037457712 0.028921114 -0.026733622 0.32631069 0.28805748 -0.90030229 0.029279666
-0.050961845 0.030930759 -0.02609092 -0.42837054 0.42640102 -0.79666859 0.0037313555
-0.048805527 0.031729843 -0.026401548 -0.22513607 0.4371745 -0.87074226 0.0042875269
-0.046032213 0.032034684 -0.026633691 -0.006216201 0.44132638 -0.89732516 0.0038388052
-0.04322885 0.03167038 -0.026757525 0.12602878 0.43229216 -0.892883 0.0019256443
-0.040334493 0.031325959 -0.02652609 0.19114286 0.38799202 -0.90162444 0.026912725
-0.037783936 0.030925438 -0.02616705 0.29758883 0.3075361 -0.90380442 0.034113269
-0.021150237 -0.014975897 -0.023358991 -0.063727632 -0.38798317 -0.91946059 0.061887491
-0.019170329 -0.015754471 -0.023307577 0.049001798 -0.3682963 -0.92841625 0.054414228
-0.021683302 -0.012737979 -0.024282116 -0.063746445 -0.38797975 -0.91946083 0.061889559
-0.019145871 -0.012975364 -0.023576204 0.090056084 -0.2600804 -0.96137822 0.032896347
-0.016438797 -0.012472595 -0.023083465 0.2506263 -0.20992331 -0.94504952 0.0012995456
-0.021937132 -0.010081531 -0.024814965 0.017096369 -0.16196944 -0.98664773 0.02938083
-0.019120084 -0.010101633 -0.024118263 0.10995749 -0.26424477 -0.95816702 0.022880914
-0.016029596 -0.010118213 -0.023543205 0.23592409 -0.1862555 -0.95375502 0.00045529605
-0.01385208 -0.0098969964 -0.023007739 0.29562062 -0.19138697 -0.93593776 0.00083864987
-0.021820139 -0.007316988 -0.024855737 0.14070351 -0.032420862 -0.98952079 0.013156998
-0.019090412 -0.0072342614 -0.024723461 0.1241141 -0.0058677639 -0.99225056 0.015385756
-0.016013317 -0.0072510839 -0.023943037 0.24890283 -0.13871993 -0.95854276 0.00053818489
-0.013257782 -0.007193313 -0.023185614 0.31439444 -0.12340912 -0.94123662 0.00053362851
-0.048886605 -0.0030423186 -0.023113465 -0.12491853 -0.75812209 -0.64003611 0.060783394
-0.047558248 -0.0028507474 -0.022795817 -0.047045816 -0.47074059 -0.88101655 0.062125985
-0.042543538 -0.0029531063 -0.022954317 0.051263172 -0.48596904 -0.87247133 0.017197864
-0.021344827 -0.0048548011 -0.024044326 0.064839229 0.024218107 -0.99760181 0.012775981
-0.019038318 -0.0041560913 -0.025058404 0.11790508 0.10299035 -0.98766965 0.032179132
-0.01599337 -0.0041295625 -0.024427289 0.18062781 0.10909952 -0.9774819 0.036740284
-0.013031327 -0.00407195 -0.023492247 0.27673829 0.078439839 -0.95773852 0.047460925
-0.010395369 -0.003414653 -0.023129616 0.28315973 0.032927539 -0.95850736 0.056622531
-0.051884159 -0.00049820961 -0.024591686 -0.30366504 -0.67492056 -0.67251015 0.047932159
-0.049272485 -0.0010228145 -0.023683678 0.11286355 -0.54027313 -0.83388644 0.070480317
-0.046629027 -0.00063610426 -0.023186445 0.15921207 -0.14901382 -0.97593355 0.040230285
-0.043012224 -0.00098651904 -0.023581034 0.00070182327 -0.33839455 -0.94100404 0.020317959
-0.040621907 -0.00065135746 -0.023030678 0.28589833 -0.30454737 -0.9085775 0.0047674351
-0.01845355 -0.002148818 -0.02358976 0.062633358 0.18437496 -0.98085827 0.032933749
-0.015924977 -0.0018266703 -0.024250556 0.13384794 0.26837042 -0.95397174 0.044479735
-0.013031716 -0.0018649844 -0.023832032 0.21371758 0.39551207 -0.89324969 0.055234298
-0.010840399 -0.0023252505 -0.023282712 0.28317976 0.032941885 -0.95850092 0.056634385
-0.054831408 0.0017622112 -0.024583509 -0.521819 -0.52974176 -0.6686393 0.053252019
-0.052196898 0.0020172154 -0.02518376 0.21841565 -0.25524706 -0.94188297 0.014950012
-0.049206883 0.0018346064 -0.024226088 0.32196811 -0.16264097 -0.93267596 0.0074919369
-0.046225503 0.0017789515 -0.023563886 0.079774261 -0.035753243 -0.99617159 0.061857671
-0.042987458 0.0018346328 -0.024165312 -0.11272333 0.060130227 -0.99180532 0.04243993
-0.039998375 0.0018705361 -0.023355955 0.24944353 -0.133081 -0.95920146 0.0023525308
-0.038177103 0.0026155722 -0.022901213 0.40837947 -0.034030005 -0.91217774 0.018078977
-0.05739402 0.005036951 -0.023812696 -0.79079539 -0.47920918 -0.38079038 0.0083488245
-0.056356728 0.003905521 -0.02504996 -0.51080531 -0.36826074 -0.77682811 0.064814985
-0.051525004 0.0046507698 -0.025495289 0.33309594 -0.27298862 -0.90251005 0.012446912
-0.049141474 0.0046843388 -0.02476698 0.26542643 -0.14814946 -0.95268071 0.0010291286
-0.046172835 0.0047128843 -0.023857407 0.31795684 -0.23018292 -0.91973871 0.037363403
-0.042984068 0.0045930361 -0.024051191 -0.092607059 0.029330568 -0.99527061 0.053236868
-0.039956488 0.0046548089 -0.023703476 0.21746989 0.18513042 -0.95834935 0.036323279
-0.03778936 0.0043892944 -0.022998758 0.65888393 0.022652077 -0.75190347 0.03946206
-0.058414593 0.007671169 -0.024243152 -0.84397638 -0.32155606 -0.42930824 0.020241801
-0.053949639 0.0080397064 -0.025631567 0.18528414 -0.30241033 -0.93499613 0.077523313
-0.051382817 0.0070075728 -0.025489261 0.15076239 -0.32441726 -0.93382227 0.052667975
-0.048865035 0.0070690969 -0.025151206 0.28293243 -0.47957546 -0.83063626 0.021321559
-0.046035409 0.007761335 -0.024415553 0.43923026 -0.38087755 -0.81363934 0.017804338
-0.043056987 0.0078114141 -0.023507649 0.30363312 -0.15844247 -0.93952274 0.016320495
-0.040929154 0.008391927 -0.022965726 0.22906157 -0.093181983 -0.96894163 0.032061037
-0.060055189 0.01224769 -0.022782465 -0.91772681 -0.099525809 -0.38454151 0.0037026813
-0.059169166 0.010650751 -0.024406267 -0.87265164 -0.15378937 -0.46349537 0.012218492
-0.045423627 0.010740971 -0.024809977 0.5591222 -0.19649357 -0.80546421 0.014608921
-0.042994283 0.010916823 -0.024099711 0.2863141 -0.18104622 -0.94087541 1.8083812e-05
-0.040111616 0.011049629 -0.023237063 0.28993824 -0.20201233 -0.93548214 0.00034884346
-0.038184151 0.011986242 -0.022826156 0.28966108 -0.17988391 -0.94007355 9.1168629e-05
-0.032971244 0.01172385 -0.022912681 -0.081497021 -0.16197647 -0.98342353 0.027498705
-0.032283492 0.01207283 -0.022834551 -0.11392224 -0.27811971 -0.95376682 0.025646839
-0.060018897 0.013802584 -0.02302995 -0.91847259 0.0081975851 -0.39539978 0.0011617218
-0.059231453 0.014008982 -0.024867233 -0.87287623 -0.016779346 -0.48765308 0.016116777
-0.04522375 0.013966438 -0.02531275 0.44425699 -0.01913216 -0.89569503 0.04644474
-0.04293178 0.01401338 -0.024689985 0.26612559 -0.17652823 -0.94763654 0.00089226296
-0.039913282 0.014040624 -0.023764938 0.2896288 -0.18499683 -0.93909073 0
-0.037458882 0.014347499 -0.023067864 0.29551172 -0.18582365 -0.93709248 2.6912581e-05
-0.032949939 0.013538209 -0.023174224 -0.13431624 -0.097022615 -0.98617738 0.032052737
-0.031626422 0.014299952 -0.023034923 -0.15145618 0.1413579 -0.97830409 0.019095469
-0.059184216 0.017105162 -0.024175145 -0.91063178 0.13618447 -0.39013267 0.00037675505
-0.04776524 0.016836189 -0.025457999 0.50837183 -0.0097974259 -0.8610819 0.049960952
-0.045521662 0.016145557 -0.025481801 0.36479434 -0.072850503 -0.9282338 0.048195731
-0.042865247 0.016910616 -0.025239741 0.31275827 -0.23051399 -0.92143673 0.0085713202
-0.039904021 0.016841751 -0.02431358 0.24166244 -0.30585727 -0.92089665 0.023028944
-0.037142433 0.016947685 -0.02348258 0.27659887 -0.22125025 -0.93516916 0.003774717
-0.035206586 0.017239755 -0.022943219 0.33620772 -0.23908778 -0.91093433 0.0022482788
-0.030593529 0.016173951 -0.022999002 0.10194543 0.12087469 -0.98741907 0.020369356
-0.029335869 0.016932704 -0.022802999 0.44729882 0.15262337 -0.88126606 0.05197455
-0.058706924 0.019710226 -0.02411552 -0.89184403 0.20483208 -0.4033089 0.00069379341
-0.042497493 0.019221313 -0.025129026 0.20851648 -0.21631418 -0.95379722 0.057855189
-0.040269412 0.018511362 -0.024541777 0.17093645 -0.53783011 -0.82554197 0.019709839
-0.036781102 0.019280042 -0.024514973 0.34613052 -0.49394527 -0.79762876 0.013506387
-0.034412272 0.019915277 -0.023333371 0.34755823 -0.26017028 -0.90084118 0.0026944547
-0.032455355 0.021095179 -0.022855481 0.36176774 -0.21893774 -0.90619552 0.0013987101
-0.057767011 0.02284733 -0.024237145 -0.84239453 0.29550654 -0.45060787 0.0013175372
-0.056550801 0.024074994 -0.025517901 -0.79680264 0.35719591 -0.48735678 0.0013496692
-0.04463353 0.023030631 -0.025711676 -0.023600632 -0.35269704 -0.93543988 0.060478386
-0.044165157 0.021500938 -0.025266012 -0.035522237 -0.27630293 -0.96041393 0.076088667
-0.033936091 0.022709774 -0.024211865 0.54650676 -0.23634833 -0.80341136 0.014556731
-0.031737436 0.023193415 -0.023046548 0.32468215 -0.17491221 -0.92950916 0.0025911292
-0.057060152 0.025626728 -0.023725601 -0.78233242 0.31088895 -0.5397259 0.0015351508
-0.055831499 0.02646865 -0.024897987 -0.75300515 0.36131933 -0.54993778 0.0019380979
-0.033692367 0.026137842 -0.024144471 0.45095614 -0.005981592 -0.89252609 0.024270492
-0.031146668 0.026044015 -0.023425344 0.32154828 -0.14291053 -0.9360466 0.0020172675
-0.029029656 0.02681708 -0.022923447 0.27754086 -0.11043076 -0.95434588 0.0029796408
-0.05503808 0.028836844 -0.024278739 -0.66504788 0.35178018 -0.65875793 0.0025739104
-0.053124256 0.029947976 -0.025354505 -0.59472406 0.43522307 -0.67593205 0.0028365685
-0.039498605 0.029257966 -0.025354695 0.27239075 0.31441829 -0.90936482 0.032492161
-0.036452755 0.028992066 -0.025150286 0.36342967 0.22455029 -0.9041549 0.038487963
-0.034104511 0.029029561 -0.024890339 0.38058355 0.16949312 -0.90908098 0.017241092
-0.03111745 0.028887847 -0.023864169 0.28016424 0.05989033 -0.95808196 0.0091757867
-0.028732127 0.028890498 -0.023053894 0.25209659 0.017258462 -0.96754813 0.005508143
-0.054384738 0.031675242 -0.023402287 -0.64126617 0.34689826 -0.68442625 0.0018971906
-0.052152261 0.03194413 -0.024926784 -0.43040136 0.41833627 -0.79984337 0.0039212923
-0.049447402 0.033008989 -0.025602531 -0.2765604 0.43708718 -0.85584414 0.0065658074
-0.043089069 0.033271302 -0.025650384 0.15056576 0.37958843 -0.91282117 0.0070999474
-0.039971709 0.032599933 -0.025325945 0.21627162 0.38057929 -0.89910287 0.022597861
-0.037036337 0.032092124 -0.024933379 0.27143374 0.33610657 -0.90186262 0.028643666
-0.034169078 0.031935077 -0.024126275 0.28646007 0.34417456 -0.89413899 0.0077032312
-0.031280279 0.031491421 -0.023337509 0.26778159 0.32008177 -0.90875775 0.0034048059
-0.028980533 0.030807845 -0.022917112 0.26949039 0.20645365 -0.94061244 0.0097205779
-0.053786799 0.033842236 -0.022939717 -0.64685452 0.29446697 -0.70346892 0.0014138472
-0.051967174 0.034669589 -0.02387155 -0.49445018 0.29840267 -0.81637907 0.0046237721
-0.049181283 0.034882855 -0.024981471 -0.25872976 0.3338739 -0.90641439 0.0046009538
-0.045971319 0.034953423 -0.025311271 -0.0089583788 0.30354291 -0.95277572 0.0055616079
-0.042884834 0.034936521 -0.024898045 0.18647312 0.32345811 -0.92768663 0.00499791
-0.039999686 0.034808517 -0.02416636 0.22111897 0.34973374 -0.91038054 0.0061051338
-0.037170105 0.034767032 -0.023590557 0.24325003 0.3277646 -0.91290736 0.0039369082
-0.034666263 0.034209594 -0.023137521 0.30460998 0.35469958 -0.88396889 0.0026357158
-0.051262781 0.037908468 -0.023205929 -0.44963515 0.33528706 -0.8278954 0.0059413137
-0.049090415 0.037823524 -0.024223318 -0.32926694 0.33209935 -0.88390797 0.0066007809
-0.046031624 0.037845626 -0.024780525 -0.024756154 0.26705268 -0.96336389 0.0030741168
-0.042960979 0.037877295 -0.024414981 0.16470991 0.24537861 -0.9553324 0.002869671
-0.039940976 0.037958391 -0.023483757 0.24195953 0.21912599 -0.94521916 0.00058533176
-0.037513748 0.037716087 -0.022963807 0.29467601 0.25965968 -0.91964281 0.0029248595
-0.05065278 0.039818905 -0.023031196 -0.47186127 0.41933569 -0.77556723 0.00581754
-0.048582487 0.040516213 -0.023373431 -0.30917904 0.42045772 -0.85300851 0.0074247527
-0.046157353 0.040799554 -0.023674304 -0.16134575 0.49189728 -0.85557264 0.010269769
-0.043043293 0.040802848 -0.023639295 0.14760546 0.39448681 -0.90696895 0.0072851111
-0.040677339 0.040660258 -0.02317977 0.24858004 0.42867261 -0.86858952 0.0082860086
-0.046246625 0.042434853 -0.022884756 -0.11505254 0.73358774 -0.66978502 0.016986886
-0.044172384 0.042441942 -0.022812268 0.071507506 0.61098528 -0.78840584 0.0093380623
-0.01609851 -0.01799348 -0.02185908 0.067105152 -0.23839422 -0.96884733 0.044138413
-0.013254989 -0.018031292 -0.021065351 0.26336458 -0.16225411 -0.95095348 0.0010453551
-0.021378089 -0.015693776 -0.020705661 -0.54566514 -0.80781043 -0.22291687 0.050775725
-0.018242739 -0.016312599 -0.022517856 -0.069942459 -0.27672321 -0.95840091 0.053743571
-0.016088851 -0.016157448 -0.022083385 0.26984796 -0.18945748 -0.94408047 0.0013079026
-0.012991889 -0.01619917 -0.021118781 0.26336533 -0.16226342 -0.9509517 0.0010447176
-0.010292729 -0.015918318 -0.020506797 0.27274719 -0.16651431 -0.94756627 0.00077365944
-0.0083941426 -0.015101728 -0.020252516 0.29341435 -0.18027614 -0.93883353 0.0012468549
-0.022607099 -0.013462362 -0.022107702 -0.063727692 -0.38798428 -0.91946012 0.061887365
-0.015583187 -0.013664196 -0.022519188 0.27300763 -0.23069943 -0.93394041 0.00091006636
-0.012965538 -0.013035246 -0.021907873 0.30158871 -0.21791998 -0.92820001 0.00088135723
-0.010126468 -0.013076325 -0.020755319 0.3038137 -0.19458568 -0.93264872 0.0015632123
-0.0077379099 -0.012916707 -0.020324279 0.29074648 -0.18457139 -0.938829 0.0011587125
-0.012413679 -0.010287197 -0.022434196 0.32991198 -0.19770983 -0.9230758 0.00091206701
-0.010067257 -0.010117535 -0.021475522 0.32051486 -0.18669884 -0.92866242 0.0011789554
-0.0073282626 -0.009878275 -0.020654848 0.30440533 -0.16985384 -0.93727642 0.0010862352
-0.011770593 -0.0075404132 -0.02262179 0.33581501 -0.15661086 -0.92881715 0.0022664571
-0.010131015 -0.0072498107 -0.021948913 0.30968189 -0.16740569 -0.93598741 0.0023302226
-0.0075424383 -0.0070903292 -0.021356199 0.29839984 -0.11875305 -0.94702441 0.0094601298
-0.051247559 -0.0028783518 -0.020349732 -0.4212124 -0.73295021 -0.53419477 0.0087974845
-0.049053386 -0.0038156814 -0.020746168 -0.19636157 -0.80878657 -0.55435222 0.040304385
-0.046148337 -0.0037511562 -0.022022195 -3.8084105e-05 -0.72539663 -0.68833101 0.045228545
-0.043344319 -0.0040954361 -0.021173419 -0.025993979 -0.8018434 -0.59696871 0.026018862
-0.040246248 -0.0040343981 -0.021153361 0.22517145 -0.70935398 -0.66791826 0.019981114
-0.038213328 -0.0032623548 -0.021126872 0.35104766 -0.56149632 -0.74932462 0.023101987
-0.011636829 -0.0049341731 -0.022740593 0.36676824 -0.11809585 -0.92278624 0.013915475
-0.0098928194 -0.0045839744 -0.022351976 0.30861324 -0.1064509 -0.94521224 0.014611889
-0.0080100317 -0.0047074417 -0.021873044 0.30861908 -0.1064472 -0.94521064 0.014625026
-0.05459217 -0.0003161279 -0.020797955 -0.59318674 -0.69578731 -0.40498099 0.0059434483
-0.052557893 -0.001826531 -0.020922758 -0.45132017 -0.74079168 -0.49753174 0.010088817
-0.045738265 -0.0015702134 -0.022085197 0.074434087 -0.31374934 -0.94658381 0.030297549
-0.039404713 -0.0014073572 -0.022465533 0.32180911 -0.31470487 -0.89297241 0.0040521142
-0.037216067 -0.00084654964 -0.021825658 0.49297613 -0.32680228 -0.8063342 0.013726221
-0.015827125 -0.00090278196 -0.022110252 0.12204542 0.54670012 -0.82838637 0.02516257
-0.013021752 -0.0009831076 -0.02180849 0.25518376 0.35717389 -0.89850324 0.063658714
-0.010354104 -0.0020773064 -0.022012478 0.28314102 0.032915335 -0.95851332 0.056616198
-0.057249971 0.0024892066 -0.020493371 -0.62009573 -0.5146805 -0.59210241 0.011230391
-0.05586414 0.0013120556 -0.021335632 -0.67886347 -0.60774881 -0.41205075 0.0083678812
-0.045533367 0.0026169207 -0.022279223 0.13884035 -0.10992095 -0.98419541 0.072776504
-0.038712628 0.00079349545 -0.022743365 0.32726949 -0.2108101 -0.92111558 0.0029068771
-0.03684222 0.0017788472 -0.022240289 0.66356313 -0.067750186 -0.74504614 0.039364718
-0.034983285 0.0022934687 -0.019931367 0.48691913 -0.0034761576 -0.87344015 0.039844722
-0.058406346 0.0046110041 -0.020860501 -0.76729351 -0.43533272 -0.47089925 0.0064470987
-0.045014642 0.0039200569 -0.022256156 0.18958521 -0.10863315 -0.97583616 0.073477685
-0.043309592 0.005483483 -0.022354638 -0.0086354678 -0.05565631 -0.99841267 0.067094065
-0.038755693 0.0060049081 -0.022291204 0.62165838 0.13190509 -0.77210224 0.044111487
-0.036655195 0.0049228296 -0.021406861 0.58373719 -0.026747623 -0.81150198 0.052903522
-0.034220636 0.0049055973 -0.020210823 0.27022511 -0.18953347 -0.94395733 0.01979341
-0.032175906 0.0060298676 -0.019801905 0.25789544 -0.17160782 -0.95081055 0.03359776
-0.060016267 0.0083076088 -0.020820463 -0.88021541 -0.27035388 -0.39003804 0.0022969842
-0.059183516 0.0070553957 -0.021605661 -0.85495657 -0.28838661 -0.4311409 0.0031155553
-0.039708041 0.0076094111 -0.022188453 0.33079913 0.064282499 -0.94150931 0.022808701
-0.036989763 0.007838306 -0.021641454 0.38078919 -0.15461537 -0.91164339 0.041369848
-0.034037665 0.0077485507 -0.020714181 0.31131423 -0.16153733 -0.93647695 0.033529881
-0.031223057 0.0082799094 -0.021158721 -0.038419954 -0.4069472 -0.91264337 0.034809139
-0.028226798 0.0084071364 -0.020845631 0.27311191 -0.50078827 -0.8213532 0.016465418
-0.02603168 0.0088196388 -0.020212596 0.45695978 -0.40123945 -0.79384798 0.01885177
-0.060534507 0.011070007 -0.021101125 -0.90927678 -0.15846941 -0.38484177 0.0020356588
-0.038851909 0.010037557 -0.022647901 0.28623354 -0.16443364 -0.94394487 0.0024654362
-0.036862046 0.010897123 -0.022204215 0.16179383 -0.16069397 -0.97365296 0.020248218
-0.034249455 0.010887371 -0.021469049 -0.10199682 -0.44001162 -0.8921808 0.057420671
-0.031094741 0.010853951 -0.022287229 0.0029524753 -0.47857991 -0.87803906 0.044618171
-0.028126452 0.010974443 -0.02147015 0.2715804 -0.23703058 -0.93277043 0.0019255553
-0.025248365 0.011106047 -0.02048084 0.58142465 -0.1976891 -0.78921759 0.019804971
-0.060705788 0.014112235 -0.021316707 -0.92731303 0.019648286 -0.37377068 0.0012185532
-0.036159404 0.013718652 -0.02254355 0.15245552 -0.16230202 -0.9748925 0.020320648
-0.034340955 0.0140143 -0.021965547 -0.069458745 -0.10412654 -0.99213558 0.034924183
-0.03030953 0.013653476 -0.022635192 0.25239888 -0.15778954 -0.95467126 0.00025344326
-0.028156573 0.013972348 -0.022059247 0.34048942 -0.099921793 -0.93492389 0.0044476301
-0.025203397 0.013760366 -0.020990551 0.57525194 -0.061000813 -0.8156985 0.018142829
-0.060528778 0.016644584 -0.021140201 -0.91388512 0.12761366 -0.38539425 0.00024327623
-0.033808939 0.016608538 -0.022361184 0.097461186 -0.016613944 -0.99510068 0.034050062
-0.031471815 0.017292641 -0.021789804 0.087061226 0.11457868 -0.9895919 0.017705675
-0.028045164 0.016775412 -0.021892626 0.37900829 0.2094644 -0.90137523 0.050599694
-0.025646025 0.016775191 -0.020780293 0.50385374 0.063305207 -0.86146611 0.05277814
-0.060053028 0.019873133 -0.021016898 -0.90654886 0.17257383 -0.38521102 0.00013784827
-0.059297226 0.020064004 -0.022623962 -0.88933724 0.19253571 -0.41473997 0.00056153658
-0.03320045 0.018917041 -0.022655871 0.271137 -0.15366073 -0.95019633 0.029754218
-0.031166801 0.019784631 -0.022199137 0.22238502 0.0016443476 -0.97495759 0.025472082
-0.028139634 0.019861529 -0.021280928 0.34784606 -0.058404434 -0.93573081 0.04680172
-0.025099156 0.019938858 -0.020358652 0.24012971 -0.23375146 -0.94217724 0.022876851
-0.023046261 0.020812895 -0.019897463 0.2793856 -0.23263271 -0.93157166 0.0011816743
-0.059905261 0.02226481 -0.020232538 -0.88927692 0.20296168 -0.40986967 0.0003695456
-0.058991596 0.023235802 -0.021731742 -0.87001765 0.23120323 -0.43544728 0.00078912714
-0.030430717 0.022575743 -0.022521466 0.33734977 -0.18719891 -0.92257881 0.0018833319
-0.028098021 0.022966295 -0.02187925 0.26830959 -0.18811223 -0.94478768 0.0001839693
-0.025019383 0.023008458 -0.021044904 0.25693333 -0.22658408 -0.93949187 0.0012327253
-0.022210669 0.023276521 -0.020538945 0.31496486 -0.22515081 -0.92201102 0.0018734107
-0.058389954 0.025995759 -0.021378484 -0.84546155 0.26688951 -0.46256319 0.00092740776
-0.029858766 0.024743624 -0.022772154 0.28692269 -0.1649029 -0.94365376 0.00018213069
-0.027821727 0.025880033 -0.022366369 0.25985518 -0.15366119 -0.95334327 0.00066174893
-0.025018746 0.025894852 -0.02173667 0.22280335 -0.16925374 -0.96005821 0.00069110782
-0.021925602 0.025846392 -0.021075953 0.30573663 -0.18552294 -0.93386638 0.0025879669
-0.019813733 0.0263192 -0.020109763 0.34499663 -0.18232565 -0.92072505 0.0031507041
-0.057596914 0.028674526 -0.021221429 -0.79653275 0.29288793 -0.52891606 0.0013873894
-0.056325398 0.02958082 -0.022456972 -0.7151913 0.32844585 -0.61694801 0.0025639837
-0.027231231 0.028921427 -0.022579081 0.30224493 0.02113395 -0.95299596 0.0046917428
-0.02491851 0.028730744 -0.02207423 0.22754683 0.020135179 -0.97355896 0.0041613337
-0.022116384 0.028727833 -0.021542249 0.28586721 0.0073037283 -0.9582414 0.0044952091
-0.019560117 0.028800633 -0.020414758 0.35256287 0.0053662956 -0.93577272 0.0087746261
-0.056939103 0.031594433 -0.020577651 -0.77887779 0.32468125 -0.53659254 0.0017612528
-0.055735402 0.032059394 -0.021859908 -0.73574382 0.33487654 -0.58867538 0.0011441549
-0.030459205 0.032763362 -0.022576192 0.27045193 0.33621666 -0.90211648 0.0037151952
-0.027880874 0.032001119 -0.022257261 0.27904096 0.28409418 -0.91729313 0.0036046579
-0.024988119 0.031861398 -0.02154891 0.22699413 0.29975453 -0.92661798 0.0048405966
-0.022028144 0.031880319 -0.021063479 0.28956079 0.34065324 -0.89448863 0.0072439192
-0.019743534 0.031125737 -0.020240016 0.29630855 0.2350287 -0.9257229 0.0065575913
-0.054892018 0.034847569 -0.021354368 -0.69215274 0.32137066 -0.64625496 0.0029855361
-0.053181045 0.03582206 -0.022595583 -0.61686879 0.3100583 -0.7234202 0.00080998766
-0.035586052 0.036198102 -0.022771141 0.30906358 0.3354741 -0.88990825 0.0025057127
-0.033859536 0.035483349 -0.022312926 0.35764012 0.35011184 -0.86574548 0.003785559
-0.031284049 0.034949735 -0.021645565 0.31216869 0.47222856 -0.82434869 0.0059306906
-0.028205438 0.034741931 -0.02098535 0.23608626 0.53104115 -0.81379277 0.0044069248
-0.025239265 0.034383673 -0.020388031 0.21371484 0.54778898 -0.80885917 0.003579367
-0.022859475 0.033941183 -0.019955209 0.27722383 0.53410578 -0.79867262 0.0036453886
-0.054390058 0.037602052 -0.020566778 -0.70483929 0.33075058 -0.62753946 0.0035144044
-0.052764505 0.038051564 -0.022041904 -0.57776386 0.31519064 -0.75289029 0.0037978909
-0.036192678 0.03836666 -0.022491846 0.33244419 0.32143909 -0.88665539 0.0027978409
-0.033874594 0.03787668 -0.021428021 0.44053295 0.4484947 -0.77767807 0.0059532295
-0.031352125 0.037320796 -0.020281544 0.36738467 0.62717736 -0.68678749 0.01432521
-0.029276548 0.036426231 -0.020013085 0.29059681 0.66338557 -0.68954563 0.013062158
-0.053638183 0.040350392 -0.020087024 -0.69364971 0.43998891 -0.57031548 0.007045506
-0.051887602 0.040561456 -0.021267856 -0.58752197 0.48086974 -0.65083188 0.012947286
-0.049516551 0.04115507 -0.02210591 -0.34105647 0.45011237 -0.8252753 0.005203865
-0.039422378 0.041075215 -0.022469109 0.27720723 0.46750274 -0.83940297 0.0078193331
-0.03700839 0.041009922 -0.021432003 0.41448444 0.54465312 -0.72907859 0.0087997708
-0.034736559 0.040492322 -0.020520279 0.44913679 0.53401804 -0.71631074 0.0084058149
-0.051197328 0.042904977 -0.02075219 -0.46053356 0.63349998 -0.62176079 0.020705836
-0.049018793 0.043096285 -0.021469029 -0.31023309 0.68369168 -0.66054606 0.014124024
-0.045849927 0.043580018 -0.021108899 -0.10252947 0.82074356 -0.56202114 0.015188497
-0.043100446 0.043185018 -0.021563087 0.1337035 0.75100267 -0.64662069 0.010623478
-0.040309496 0.043070488 -0.021068482 0.214009 0.77971745 -0.58842236 0.0065114512
-0.037596978 0.042836025 -0.02031301 0.34050646 0.7057445 -0.62127292 0.0074581327
-0.026865849 -0.011895946 -0.016824907 0.044212047 -0.34687039 -0.93687046 0.01531595
-0.026069345 -0.011893726 -0.016892632 0.17138794 -0.18421409 -0.96782821 0.014012356
-0.030503534 -0.0097217709 -0.017058643 -0.43379879 -0.23116471 -0.87085104 0.026490113
-0.028072519 -0.010037482 -0.01719776 0.077395536 -0.14933634 -0.98575276 0.012723181
-0.025618944 -0.0096736206 -0.017225003 0.15052193 -0.17856564 -0.97234643 0.010323836
-0.051426224 -0.0060872603 -0.016797721 -0.089234278 -0.49176934 -0.8661409 0.0039224913
-0.049026601 -0.0060835918 -0.016993439 -0.07688012 -0.7620976 -0.64288151 0.012775411
-0.046096027 -0.0060790423 -0.017235538 -0.011181543 -0.71474814 -0.69929254 0.010695409
-0.043207064 -0.0060814088 -0.017109865 0.094559476 -0.78539217 -0.61173332 0.0090347752
-0.030512169 -0.0071286717 -0.017502673 -0.52546132 -0.085810021 -0.84647918 0.025764445
-0.028123595 -0.0071238009 -0.0177333 0.030455051 -0.12631291 -0.99152285 0.0060258689
-0.025217708 -0.0070727849 -0.017370561 0.12355738 -0.16498846 -0.9785257 0.0067303157
-0.023398204 -0.0066027362 -0.017430792 0.1380922 -0.14706087 -0.97944045 0.0059985234
-0.057614699 -0.0036377686 -0.017073151 -0.29266152 -0.26752773 -0.91802949 0.0050563379
-0.054983392 -0.0041363332 -0.017425906 -0.15595847 -0.47949725 -0.86357355 0.0043360577
-0.052193195 -0.0043721488 -0.017914791 -0.14865179 -0.6685794 -0.72863173 0.0095462613
-0.049200945 -0.0049460754 -0.01826328 -0.093060024 -0.74244708 -0.66340947 0.012850384
-0.046349116 -0.0053322529 -0.018500639 -0.073661998 -0.86604643 -0.49450722 0.0048619057
-0.04330308 -0.0055255806 -0.018709298 0.030071244 -0.87129021 -0.4898459 0.0027113897
-0.039545782 -0.0054043969 -0.018143734 0.18990822 -0.88959128 -0.41540632 0.0026161317
-0.037088893 -0.0039614709 -0.019349072 0.44485053 -0.72393769 -0.52727801 0.024004441
-0.034312084 -0.0034239844 -0.018598832 0.28793713 -0.75083542 -0.59442276 0.052137151
-0.030533316 -0.0042147236 -0.017681252 -0.27912045 -0.2211089 -0.93445313 0.077107444
-0.028105203 -0.0042215548 -0.017999679 0.02993357 -0.11906876 -0.99243468 0.0046321433
-0.025221404 -0.0042248946 -0.017781889 0.095829777 -0.10776106 -0.98954749 0.0047870106
-0.022537889 -0.0038705764 -0.017385405 0.21056858 -0.10944701 -0.9714331 0.0079565169
-0.059997357 -0.00057849917 -0.01700571 -0.42838123 -0.22177392 -0.87595987 0.005701879
-0.058152258 -0.0010637923 -0.017798137 -0.4077411 -0.37012601 -0.83471787 0.010077453
-0.055442438 -0.0015030724 -0.018699642 -0.41030082 -0.55232346 -0.72566658 0.015246521
-0.053218938 -0.0023654464 -0.019275388 -0.35625914 -0.67837328 -0.64256448 0.0087580336
-0.036174186 -0.0018386177 -0.019484757 0.58349484 -0.28032085 -0.7622034 0.012806186
-0.034078106 -0.001055165 -0.018992513 0.36809683 -0.18208967 -0.91178286 0.018442582
-0.030997412 -0.0010616665 -0.018048555 0.140379 -0.22683541 -0.96376312 0.04170059
-0.028104121 -0.001061395 -0.018015895 -0.084635831 -0.13356444 -0.98741955 0.026849154
-0.025203237 -0.0010609354 -0.018086463 0.12010488 -0.0071900925 -0.99273515 0.0051236884
-0.022147093 -0.0011056152 -0.017507767 0.18523863 -0.042427108 -0.98177719 0.005504895
-0.019637937 -0.001332144 -0.017036641 0.22939117 -0.082779348 -0.96980786 0.010908317
-0.060222559 0.0019562878 -0.017494371 -0.62958336 -0.22016269 -0.74508601 0.0069259126
-0.058216125 0.0016132889 -0.018919365 -0.60182941 -0.38706589 -0.6985566 0.012219523
-0.033685856 0.0016677388 -0.019408204 0.38234648 -0.10025135 -0.91856456 0.038942683
-0.030955561 0.0018345976 -0.018599473 0.2438115 -0.13479044 -0.96041 0.0028493674
-0.028114464 0.00183483 -0.017862076 0.1350054 -0.064973913 -0.98871225 0.0067761024
-0.025218375 0.0018350227 -0.017841984 0.1398821 0.010938925 -0.99010772 0.0056120893
-0.022069104 0.0018350481 -0.017623799 0.1649482 0.050224286 -0.98502266 0.011149272
-0.019069666 0.0019162575 -0.017170688 0.17945944 -0.017043157 -0.98361772 0.014005907
-0.017094582 0.0013068106 -0.016854545 0.25250867 0.020399911 -0.96737951 0.010724233
-0.060677804 0.0047312668 -0.01794247 -0.70678222 -0.18340655 -0.68324298 0.0069330311
-0.05930531 0.004144704 -0.019303866 -0.73430043 -0.33029911 -0.59304756 0.0055126604
-0.036396205 0.0042833076 -0.019515365 0.58858132 0.13567211 -0.79697245 0.045722168
-0.033012416 0.0039330851 -0.019646967 0.19871278 -0.16967487 -0.9652583 0.01222858
-0.030877335 0.0046856729 -0.019136978 0.32395181 -0.27407181 -0.90550524 0.010294999
-0.028085103 0.0047290176 -0.018284343 0.23968795 -0.22786133 -0.94373131 0.025476433
-0.02523784 0.0047345553 -0.017523145 0.19613536 -0.0064112819 -0.98055589 0.0090402886
-0.022128714 0.0045086863 -0.017176704 0.13704535 0.12693551 -0.98239803 0.0051123002
-0.01973113 0.0039468152 -0.016930889 0.19220044 0.1615129 -0.96797341 0.0075738998
-0.061263502 0.0077315727 -0.018138789 -0.81862736 -0.17733952 -0.54625994 0.0058457768
-0.03299921 0.008921572 -0.019346451 0.18284789 -0.41495562 -0.89127916 0.05109277
-0.030685382 0.0070416355 -0.019283773 0.14695725 -0.31550232 -0.93747634 0.053818461
-0.027962649 0.0069015557 -0.018673968 0.25052404 -0.49758935 -0.83044726 0.020182949
-0.025019778 0.0076989401 -0.017923879 0.38102737 -0.37909701 -0.84326959 0.019018471
-0.022458252 0.0081259608 -0.017183971 0.31465769 -0.14316046 -0.93834728 0.0051634512
-0.061784193 0.010942334 -0.018175565 -0.87977016 -0.11463153 -0.46137202 0.002161325
-0.02398961 0.010363563 -0.018130781 0.51126593 -0.15599912 -0.84514582 0.022932442
-0.022066465 0.011057936 -0.017664962 0.4137308 -0.17121135 -0.8941552 0.018735996
-0.019902557 0.011336083 -0.017023519 0.29828295 -0.20903912 -0.93130553 0.00022661392
-0.062099189 0.013803698 -0.017989459 -0.90182579 0.036335323 -0.43056932 0.0030010655
-0.023988111 0.014587496 -0.018604411 0.61092782 -0.087186389 -0.78687084 0.020015486
-0.022035576 0.013940522 -0.018231824 0.3826907 -0.17149654 -0.90781975 0.022049863
-0.019010065 0.013915047 -0.017284557 0.23265018 -0.20979425 -0.94966322 0.0019520465
-0.0161216 0.014152846 -0.016974604 0.18909629 -0.2339159 -0.95369071 0.0012007306
-0.061718524 0.016923374 -0.018222895 -0.91648167 0.13872984 -0.37525383 0.00052936305
-0.02722962 0.01758597 -0.019274851 0.54312718 -0.014601003 -0.83952349 0.043906387
-0.024517419 0.016768953 -0.019273261 0.32194445 -0.071366109 -0.94406492 0.056701887
-0.022005199 0.016815387 -0.018789176 0.33096996 -0.20728809 -0.92059249 0.0077185053
-0.018896047 0.016849384 -0.01783748 0.23371115 -0.19127779 -0.95330578 0.0012447285
-0.016017806 0.016866095 -0.017371122 0.22482464 -0.16788505 -0.95982736 0.0028232923
-0.013880767 0.017143864 -0.016988572 0.27291486 -0.16777478 -0.94729567 0.002210038
-0.061178714 0.019925969 -0.018264679 -0.9168154 0.18214054 -0.355351 0.00034589929
-0.023792153 0.018619157 -0.019695481 0.22656181 -0.19903275 -0.95344412 0.023788765
-0.021798925 0.019802766 -0.019314079 0.29666764 -0.23161827 -0.92646712 0.0013457239
-0.01912689 0.019980665 -0.01852544 0.24267767 -0.18318154 -0.95265532 0.00058212545
-0.016259581 0.020007202 -0.017911408 0.22335246 -0.18577079 -0.95687145 0.0024052919
-0.013166433 0.020113809 -0.017353339 0.25100157 -0.19191369 -0.94877154 0.0026499422
-0.011152432 0.020975217 -0.016901581 0.26808923 -0.20509647 -0.94130957 0.0022238914
-0.060531974 0.022970876 -0.018337419 -0.91012061 0.20246378 -0.36150911 0.0006559235
-0.021058561 0.022354187 -0.019588573 0.32085177 -0.22610901 -0.9197439 0.0018536439
-0.019100415 0.02284579 -0.019081315 0.27080286 -0.19580416 -0.94251078 0.001835698
-0.01623401 0.022873186 -0.018534981 0.20770726 -0.18631479 -0.96028352 0.00024821135
-0.0131011 0.022908675 -0.017828215 0.29186061 -0.15963902 -0.94304442 0.0099789947
-0.010429436 0.023006083 -0.017056094 0.31325966 -0.12862913 -0.940916 0.0092206234
-0.060002528 0.025737239 -0.018116154 -0.89894128 0.23111162 -0.37214518 0.0013202181
-0.059491284 0.025713049 -0.019470265 -0.86961937 0.24351075 -0.42949355 0.001014825
-0.018740645 0.025423672 -0.019477813 0.31208262 -0.15826015 -0.93678069 0.0037034785
-0.016213125 0.025736637 -0.019048076 0.21060398 -0.15137112 -0.96578091 0.00087265257
-0.013081185 0.025771873 -0.018429475 0.28154594 -0.15743281 -0.94654465 0.0073098852
-0.0099179894 0.025841568 -0.017478878 0.28059414 -0.16249865 -0.94597101 0.0097527541
-0.0077375914 0.026722258 -0.016978109 0.23554084 -0.17823464 -0.95538104 0.0081989747
-0.059862345 0.027707793 -0.016895792 -0.89325905 0.25550717 -0.36987081 0.001479969
-0.058833659 0.028941359 -0.018824473 -0.84440565 0.28817278 -0.4515923 0.0017549593
-0.018021014 0.028844893 -0.019729385 0.34543049 0.0031023743 -0.93843919 0.0087554473
-0.016198408 0.028865542 -0.019409524 0.21477897 0.0035700304 -0.97665614 0.0062315315
-0.013067727 0.028902695 -0.018833911 0.28193402 -0.055436909 -0.95783085 0.010518006
-0.0099390158 0.028965086 -0.017867418 0.24736929 -0.089151621 -0.96481103 0.013062344
-0.0073552197 0.029073797 -0.017072773 0.26865107 0.0015015948 -0.96323639 0.0035861873
-0.057774812 0.03186449 -0.018882111 -0.83301717 0.30319926 -0.46276617 0.0018445665
-0.020907596 0.033305883 -0.019689729 0.29183835 0.54910731 -0.78314209 0.0033715479
-0.018823816 0.032410685 -0.019383134 0.28169888 0.31632125 -0.90586227 0.012233363
-0.016221337 0.031922273 -0.01904255 0.19892563 0.27719983 -0.93999404 0.0066330605
-0.013079904 0.031820059 -0.018466894 0.22173271 0.28436124 -0.93272358 0.0055936794
-0.009993745 0.031852126 -0.017508399 0.27926281 0.27447766 -0.92014909 0.005376027
-0.007737807 0.031323511 -0.016967669 0.28787038 0.23573583 -0.92820221 0.0048979945
-0.057203345 0.034224246 -0.017988598 -0.77956146 0.31241003 -0.54284787 0.0015386469
-0.056296006 0.035602927 -0.018850645 -0.76978964 0.32742947 -0.54791778 0.0014572269
-0.026938794 0.035927482 -0.01970174 0.27117428 0.65569323 -0.70464945 0.0015498053
-0.024819119 0.035676181 -0.019273052 0.21612933 0.71028137 -0.66991687 0.0032466876
-0.021862462 0.035090715 -0.018816337 0.27156922 0.57758087 -0.76983792 0.0015709255
-0.019069327 0.034991082 -0.018031213 0.17122069 0.61445749 -0.77014637 0.0069189803
-0.016133662 0.034731239 -0.017764965 0.15119229 0.52444297 -0.83791441 0.0035314409
-0.01328902 0.034308106 -0.01747134 0.2052139 0.50334531 -0.83936328 0.0039839274
-0.010664743 0.033681821 -0.017030567 0.26328513 0.4281196 -0.86451983 0.0012498837
-0.055453129 0.037818898 -0.018714186 -0.78763157 0.37934452 -0.48552471 0.010340799
-0.030779438 0.038415402 -0.018843075 0.4674761 0.65350515 -0.59531265 0.017742127
-0.028189087 0.037226792 -0.018573193 0.28455931 0.78946793 -0.54384404 0.011340837
-0.025369173 0.037018333 -0.017954815 0.16968991 0.78756171 -0.59241188 0.0058152829
-0.022350505 0.036826737 -0.017298676 0.19294851 0.73082888 -0.65472126 0.0032019054
-0.020264225 0.036689527 -0.016830167 0.1089161 0.79205412 -0.60065585 0.0066900891
-0.054563724 0.0401159 -0.01863729 -0.76132232 0.45941845 -0.45751831 0.0093723387
-0.052493908 0.041784067 -0.018787285 -0.58443034 0.66460723 -0.46555167 0.02596006
-0.033704955 0.041157696 -0.018587139 0.56500041 0.62411922 -0.53967547 0.010120991
-0.031756848 0.039712999 -0.018438399 0.54652083 0.63743329 -0.54313332 0.015550434
-0.051983781 0.043571353 -0.018659001 -0.58309215 0.74538022 -0.32312825 0.018567331
-0.048971817 0.044502109 -0.018556317 -0.28422806 0.81874806 -0.49886477 0.021446133
-0.046333238 0.044756718 -0.018637145 -0.05974412 0.89446747 -0.44312364 0.0020371976
-0.042949617 0.044736404 -0.018426022 0.11521188 0.89231783 -0.43645754 0.0010256473
-0.040035777 0.044467688 -0.018247809 0.20560507 0.86906689 -0.44994363 0.0069308328
-0.037069693 0.043711681 -0.018352138 0.33334351 0.8130762 -0.47727275 0.0087077357
-0.03443861 0.042995512 -0.017823426 0.5355078 0.70527303 -0.46456572 0.011256537
-0.027358714 -0.018237183 -0.014267171 -0.3722643 -0.64250571 -0.66978037 0.02032881
-0.024994617 -0.018392589 -0.01414012 -0.054410357 -0.53937411 -0.84030658 0.017619332
-0.022139262 -0.018072203 -0.014120987 0.15631855 -0.36026755 -0.91965854 0.015022162
-0.020139402 -0.017835319 -0.014017096 0.16964406 -0.39601254 -0.90243828 0.014911092
-0.030250281 -0.015365846 -0.014610179 -0.64779133 -0.4932858 -0.58054757 0.017666822
-0.027990304 -0.016155869 -0.015158014 -0.18479186 -0.47943962 -0.85789835 0.019431546
-0.025115363 -0.016189372 -0.015230726 0.1454107 -0.32124385 -0.9357661 0.0082040885
-0.022711996 -0.016260648 -0.014678258 0.19610442 -0.28767663 -0.93743551 0.011305671
-0.063362673 -0.012200546 -0.014004316 -0.26182958 -0.28165787 -0.92310029 0.0040927241
-0.061008893 -0.012569676 -0.014180902 -0.070807703 -0.37534112 -0.92417818 0.002805924
-0.058130972 -0.012514477 -0.014158422 0.043060295 -0.41597608 -0.90835559 0.0015451938
-0.055438951 -0.012200049 -0.014019974 0.0882916 -0.45018727 -0.88855839 0.0010928528
-0.053120941 -0.011992729 -0.013854569 0.1007266 -0.48615563 -0.86804771 0.00055487634
-0.030681765 -0.0130149 -0.015701827 -0.51547766 -0.36644846 -0.77459556 0.024653347
-0.028022461 -0.013314526 -0.016266458 -0.10916522 -0.37012285 -0.92254651 0.0052296598
-0.025035216 -0.013293964 -0.015931534 0.14509097 -0.29670304 -0.94388336 0.0064252927
-0.023515444 -0.013532431 -0.015397182 0.26442704 -0.26819983 -0.9263624 0.0065931189
-0.065606192 -0.0093315057 -0.013936123 -0.40538904 -0.17439151 -0.89735574 0.0026530845
-0.063902423 -0.010070287 -0.014409261 -0.27538565 -0.20084019 -0.94012022 0.003493425
-0.061058104 -0.010173083 -0.01495716 -0.12351904 -0.25956696 -0.9577933 0.0027033838
-0.058143422 -0.010024322 -0.015108451 -0.012118547 -0.33059368 -0.94369537 0.0018788873
-0.055105023 -0.010101634 -0.014937002 0.032403722 -0.39301699 -0.91896009 0.00151507
-0.052031003 -0.010171213 -0.014689375 0.057128724 -0.45277986 -0.88979024 0.0011291043
-0.049189977 -0.009844386 -0.014650274 0.063657634 -0.51897371 -0.85241657 0.00067571882
-0.046250559 -0.0096058697 -0.014459779 0.13183837 -0.5337463 -0.83530444 0.00062726135
-0.04334034 -0.0091489386 -0.0141441 0.21741703 -0.61736494 -0.75603598 0.0034968471
-0.032804806 -0.010036043 -0.014082184 -0.80045658 -0.25381476 -0.54299849 0.0026794281
-0.031660438 -0.010340188 -0.015808042 -0.65818727 -0.25995448 -0.70655018 0.02208815
-0.029246176 -0.011369518 -0.01677092 -0.10337942 -0.20498072 -0.97329116 0.021320326
-0.024934778 -0.010297532 -0.016361061 0.20944476 -0.20787069 -0.95546991 0.01058874
-0.066141978 -0.007205165 -0.013910368 -0.49983069 -0.064221911 -0.86373883 0.0028642009
-0.064148664 -0.0071867732 -0.014776204 -0.34032685 -0.10980228 -0.93387431 0.0032268311
-0.061107673 -0.0071691591 -0.015606517 -0.21108119 -0.19191845 -0.95844251 0.003062357
-0.05814226 -0.0071613239 -0.015981093 -0.085737132 -0.27503932 -0.9576025 0.0035799106
-0.05504173 -0.0072149597 -0.016130975 -0.078452952 -0.36361557 -0.92823964 0.0030474395
-0.052226804 -0.0072228797 -0.016204663 -0.013116704 -0.46573028 -0.88482952 0.0022109398
-0.049135201 -0.0074239913 -0.016074454 0.02169922 -0.56496489 -0.82482952 0.0040705795
-0.045982547 -0.0074284589 -0.015877789 0.079002708 -0.65605772 -0.75056434 0.0071584689
-0.042989694 -0.0074901506 -0.015269902 0.18746904 -0.69744563 -0.69168264 0.012603515
-0.04028894 -0.0069618896 -0.015005467 0.23939559 -0.78971535 -0.56483579 0.008333426
-0.037435994 -0.006423411 -0.014339956 0.18329327 -0.70174056 -0.68845028 0.018225949
-0.033154234 -0.0072002206 -0.014142426 -0.63179445 -0.20489433 -0.74756551 0.040474672
-0.032228917 -0.0071651312 -0.015782259 -0.73320979 -0.11878772 -0.66954672 0.0080044661
-0.025553018 -0.0076738112 -0.016705969 0.12650354 -0.15220602 -0.98021948 0.0085710902
-0.066132411 -0.0042794663 -0.013970992 -0.54322463 0.0047364007 -0.8395741 0.0027337654
-0.064120203 -0.0042652683 -0.01496225 -0.39961934 -0.044374384 -0.91560656 0.0025376899
-0.061046749 -0.0042501753 -0.016023058 -0.28664422 -0.12985148 -0.94919634 0.0038140961
-0.05848702 -0.004911324 -0.016516896 -0.16713034 -0.25194618 -0.95320016 0.003577366
-0.05592709 -0.0055606356 -0.016711077 -0.10635775 -0.41047561 -0.9056477 0.0028417178
-0.038752936 -0.0055595255 -0.016775122 0.1933047 -0.86138523 -0.46973273 0.0074253748
-0.036740035 -0.0054029971 -0.015645279 0.17188208 -0.84407771 -0.50792658 0.020429678
-0.034088999 -0.0048514884 -0.014830558 -0.069450453 -0.75974339 -0.64650339 0.042240791
-0.032052033 -0.0042752586 -0.015701732 -0.41913497 -0.47149503 -0.77589834 0.079194985
-0.066146024 -0.0013558215 -0.013884827 -0.58142877 0.040686306 -0.81257933 0.0026303919
-0.064119615 -0.0010825207 -0.014967205 -0.45456767 -0.015523965 -0.89057684 0.002432859
-0.061289698 -0.0012232058 -0.016247734 -0.39735952 -0.10992463 -0.91105545 0.0053592077
-0.021327822 -0.00063040457 -0.016688684 0.21309698 -0.07131163 -0.97442514 0.0091953669
-0.018731585 -0.00024394155 -0.016473372 0.22670591 -0.12163144 -0.96633852 0.012314185
-0.016207658 -0.00014957925 -0.01592174 0.31540686 -0.055125467 -0.94735408 0.0095510278
-0.013048362 -0.00018252479 -0.014617966 0.37379661 -0.017470023 -0.92734611 0.0040634414
-0.01038147 -0.00045462488 -0.014182681 0.41318864 -0.016303638 -0.91049951 0.0049668099
-0.065594934 0.0023665414 -0.014007976 -0.63535869 0.057985395 -0.77003706 0.0034111626
-0.063962638 0.0017758117 -0.015029833 -0.52551818 -0.010660855 -0.85071558 0.0028186499
-0.061661601 0.001702681 -0.016335845 -0.55482662 -0.09469448 -0.82655936 0.0048727118
-0.018047418 0.0013053988 -0.016213378 0.16287148 -0.023213513 -0.98637414 0.013878317
-0.016021689 0.0018564881 -0.016164415 0.29845607 -0.0084812446 -0.9543857 0.01137168
-0.013185829 0.001834836 -0.015277823 0.35385334 0.038381118 -0.93451309 0.0048445305
-0.010704708 0.0017412038 -0.014231978 0.43122035 0.091802344 -0.89756411 0.0095584504
-0.065618008 0.0039621876 -0.013860652 -0.67370862 0.075377651 -0.73514277 0.0055635795
-0.063835651 0.0047514103 -0.015089761 -0.61822629 -0.026512619 -0.78555292 0.0032509989
-0.061968006 0.0045532542 -0.016432744 -0.67318505 -0.092378914 -0.73368108 0.0054232278
-0.021954507 0.0058869356 -0.016493475 0.22943732 0.10991653 -0.9670971 0.0090722619
