# .PCD v0.7 - Point Cloud Data file format
VERSION 0.7
FIELDS x y z normal_x normal_y normal_z curvature
SIZE 4 4 4 4 4 4 4
TYPE F F F F F F F
COUNT 1 1 1 1 1 1 1
WIDTH 550
HEIGHT 1
VIEWPOINT 0 0 0 1 0 0 0
POINTS 550
DATA ascii
-0.024321418 -0.015629679 -0.055498712 0.88780642 0.10720834 -0.44755569 5.92428e-05
-0.023545038 -0.015684975 -0.05392297 0.88574404 0.10454182 -0.45224845 7.4243049e-05
-0.024558816 -0.012652932 -0.055310905 0.89874172 0.09603592 -0.4278321 6.0362036e-05
-0.023807172 -0.012814052 -0.053788565 0.89126712 0.1064675 -0.44080347 6.6239532e-05
-0.024645304 -0.0095561408 -0.054806314 0.9030329 0.096242905 -0.41865134 3.0020879e-05
-0.0238091 -0.010735026 -0.053275969 0.89989448 0.098235466 -0.42489964 7.4780866e-05
-0.024877179 -0.0066058263 -0.054648936 0.90465152 0.10398687 -0.41327035 2.5112398e-05
-0.024937911 -0.0038367768 -0.054063227 0.9052037 0.11047441 -0.41036764 3.1810054e-05
-0.02485553 -0.0018360077 -0.05335496 0.91094548 0.11015201 -0.39754871 3.1506403e-05
-0.021188766 -0.030450324 -0.052070986 0.83116746 -0.11607148 -0.5437721 0.016007787
-0.020461863 -0.030334124 -0.050909251 0.81383115 -0.23464236 -0.53162193 0.0093075391
-0.021364585 -0.027269443 -0.052552145 0.84727019 0.05049653 -0.52875638 0.0017670486
-0.020396749 -0.027623741 -0.051091757 0.85865617 0.034862418 -0.51136506 0.0020015119
-0.02142697 -0.024535285 -0.051995993 0.85146743 0.112904 -0.51210922 0.00010496317
-0.020583324 -0.024676602 -0.050701272 0.84565258 0.1266274 -0.51849514 5.1024505e-05
-0.021743655 -0.021718003 -0.051902037 0.86274487 0.1125794 -0.49294734 0.00015146418
-0.02065701 -0.022403931 -0.050267171 0.84951395 0.12476984 -0.51259971 9.9226978e-05
-0.02201641 -0.018666055 -0.051732283 0.87086761 0.11334641 -0.47827008 0.00010378916
-0.022361457 -0.015548956 -0.051647101 0.87748814 0.1128021 -0.46614411 7.3088369e-05
-0.022763314 -0.012611449 -0.051657215 0.8867709 0.11892075 -0.44664881 7.6047414e-05
-0.02322289 -0.0095872432 -0.051802456 0.89654398 0.11452674 -0.42789307 0.00018684108
-0.024333455 -0.0052404758 -0.053098094 0.90393776 0.10731121 -0.41398174 3.668389e-05
-0.02343951 -0.0067202831 -0.051548131 0.90734333 0.10724205 -0.40648156 3.3797591e-05
-0.024335446 -0.0036715504 -0.0527009 0.9085533 0.1120526 -0.40246129 3.1756328e-05
-0.023619588 -0.0038791487 -0.051119652 0.90841734 0.11573754 -0.40172479 2.2071665e-05
-0.024413439 -0.00082549616 -0.052064557 0.91074878 0.12014119 -0.39509842 4.4748016e-05
-0.023818903 -0.00078713731 -0.050668351 0.91076988 0.12012023 -0.39505613 5.8902973e-05
-0.020472964 -0.032480244 -0.048298709 0.79857862 -0.41719484 -0.43384397 0.011993378
-0.019239919 -0.030503156 -0.048795 0.81551343 -0.35601625 -0.4562788 0.013138345
-0.017992886 -0.029445028 -0.047478836 0.81639344 -0.34088039 -0.46615702 0.014053268
-0.01909668 -0.027674234 -0.049062874 0.82922924 0.035228316 -0.55779719 0.0023968173
-0.017992696 -0.027853781 -0.047459837 0.84119594 -0.0058341664 -0.54069889 0.011041611
-0.019365013 -0.024636537 -0.048728827 0.83534396 0.13523029 -0.53283519 6.7034925e-05
-0.019796921 -0.021576544 -0.048609052 0.84404016 0.14106008 -0.51739562 6.8521833e-05
-0.021183589 -0.017932868 -0.050005734 0.86148047 0.12206804 -0.49290043 8.0106853e-05
-0.020186488 -0.018786415 -0.048516333 0.85845476 0.13423957 -0.49501014 6.1013299e-05
-0.02131441 -0.015309272 -0.049587023 0.8702091 0.12444498 -0.47670698 8.2789753e-05
-0.02040782 -0.015743844 -0.048126187 0.86656845 0.13784941 -0.47964215 9.9875244e-05
-0.021421202 -0.01253901 -0.049043939 0.88021874 0.13301693 -0.45554513 0.00013940813
-0.020647131 -0.012722149 -0.04763962 0.87224692 0.14742079 -0.46631801 8.185723e-05
-0.021739844 -0.0097030103 -0.048756652 0.88597029 0.13798136 -0.44273886 0.00021661744
-0.022171725 -0.0064760596 -0.048628278 0.89544493 0.13409489 -0.42449611 0.00016044929
-0.022634832 -0.0035643859 -0.048762627 0.9060297 0.12874916 -0.40315488 5.6642602e-05
-0.022918662 -0.00093743694 -0.048570283 0.90919852 0.13264866 -0.39466739 4.0857023e-05
-0.023349321 0.001807204 -0.048664086 0.9095093 0.13765889 -0.39222822 3.645504e-05
-0.01957624 -0.032644905 -0.046081834 0.76314038 -0.4671765 -0.4465006 0.011578992
-0.018693363 -0.031716876 -0.046642911 0.82221437 -0.40790299 -0.39696166 0.010771967
-0.017240282 -0.030404845 -0.045591757 0.79875672 -0.41100928 -0.43938473 0.01505784
-0.016779594 -0.027579179 -0.045585118 0.85377032 -0.0080547752 -0.52058762 0.0051999078
-0.018520221 -0.023627518 -0.047092091 0.83638263 0.14126831 -0.52962947 8.5030581e-05
-0.017306965 -0.024744568 -0.045628179 0.82570773 0.15676178 -0.54187864 6.1286388e-05
-0.018649094 -0.021258378 -0.046641804 0.83948272 0.15227814 -0.521613 0.00012293925
-0.017588217 -0.021747332 -0.045176409 0.83275926 0.16896395 -0.5272221 0.00010187484
-0.018850453 -0.018522441 -0.046164997 0.84908134 0.14837478 -0.50699687 0.0001343083
-0.017875502 -0.018859467 -0.044661246 0.84314173 0.16752347 -0.51092845 8.9127934e-05
-0.019096339 -0.015636049 -0.04572425 0.85816568 0.15172513 -0.4904398 8.8423592e-05
-0.017960522 -0.017094215 -0.044251096 0.85561883 0.16711399 -0.48988709 6.5347253e-05
-0.01966209 -0.012508525 -0.045734718 0.87052059 0.15605173 -0.46673512 6.9968934e-05
-0.020143811 -0.0096556507 -0.045629103 0.87460214 0.16277227 -0.45670164 8.1430218e-05
-0.021175141 -0.0066341097 -0.04663524 0.88642156 0.14895168 -0.43825817 0.00014640887
-0.02042412 -0.0068671666 -0.045174994 0.88374233 0.15922469 -0.44005349 8.4387502e-05
-0.021439681 -0.0034464521 -0.046094105 0.89863229 0.14203276 -0.41507438 6.0522696e-05
-0.020635631 -0.003989676 -0.044581171 0.8886252 0.15576872 -0.43137157 0.00010730255
-0.021704882 -0.00051808008 -0.045684334 0.90456969 0.14166741 -0.40209946 4.5301691e-05
-0.022202387 0.0024663508 -0.045713205 0.90585005 0.15307993 -0.39497125 5.322168e-05
-0.022238711 0.0045541544 -0.045012068 0.90866625 0.16145329 -0.38504353 7.8710596e-05
-0.018493924 -0.032614194 -0.044094753 0.70836627 -0.58727324 -0.39157042 0.0022354233
-0.017406937 -0.032368306 -0.042582542 0.66175312 -0.6543026 -0.36602038 0.00071184791
-0.015800593 -0.030692069 -0.042892296 0.75598127 -0.43978056 -0.48485613 0.014989211
-0.014572418 -0.029967541 -0.041694198 0.78349906 -0.41259739 -0.46464232 0.014487414
-0.01545365 -0.027297776 -0.04355333 0.81942505 -0.007725711 -0.57313424 0.0052737505
-0.014445145 -0.027655544 -0.042099938 0.85491389 -0.019440563 -0.5184055 0.0068830866
-0.015669085 -0.024512125 -0.043067336 0.82610857 0.16874972 -0.53765059 0.00013240716
-0.014615906 -0.024905421 -0.041616865 0.82577163 0.1782392 -0.53510004 0.00010638325
-0.016065892 -0.021713289 -0.042728022 0.83261043 0.18414889 -0.52234966 8.9593377e-05
-0.016681183 -0.018552596 -0.042585976 0.84212726 0.18139958 -0.50785416 4.9390059e-05
-0.017339926 -0.015609985 -0.042677462 0.85187417 0.17734089 -0.49280891 7.4238451e-05
-0.01856689 -0.012371751 -0.043700784 0.86374569 0.17314196 -0.47324967 6.8813395e-05
-0.017625337 -0.012829518 -0.042127982 0.85965228 0.18379921 -0.47667167 0.00010599839
-0.018825691 -0.0095333923 -0.043065932 0.8708877 0.17705356 -0.45848292 4.7404275e-05
-0.017933343 -0.0099304821 -0.041540097 0.8669259 0.18725018 -0.46192735 2.9661795e-05
-0.01923882 -0.006701936 -0.042741913 0.87741631 0.1739381 -0.44708622 6.1068633e-05
-0.019822307 -0.0034667647 -0.042643517 0.88661593 0.17264768 -0.42907456 0.00010105858
-0.021168759 0.00055391504 -0.044089328 0.90241235 0.15002204 -0.40391254 3.6080866e-05
-0.020285767 -0.00061153458 -0.042549331 0.89923823 0.16468145 -0.40527865 0.00014969832
-0.021243677 0.0026229369 -0.043488923 0.90885687 0.16154987 -0.38455278 9.1021182e-05
-0.020548915 0.0022521089 -0.041973978 0.90725988 0.17043528 -0.38448852 8.3556726e-05
-0.021365913 0.0051903389 -0.042631663 0.90999901 0.17297354 -0.37680504 0.00011154902
-0.016304817 -0.03233882 -0.040523719 0.73567545 -0.50923049 -0.44661599 0.0083333235
-0.015217911 -0.03183452 -0.040031742 0.74768353 -0.45301238 -0.48554024 0.0086298343
-0.013587082 -0.030331774 -0.039526619 0.77212667 -0.41689503 -0.4796029 0.0090353396
-0.013091172 -0.027613597 -0.040054046 0.84131902 0.027851079 -0.53982079 0.0068941736
-0.011936792 -0.027619099 -0.038320564 0.82708502 -0.073945947 -0.55719161 0.016635315
-0.013460699 -0.024550581 -0.039670356 0.82679653 0.18651003 -0.53068024 0.0001580626
-0.015234048 -0.02071788 -0.041022237 0.83296418 0.19563684 -0.51758748 4.6137524e-05
-0.014058961 -0.021666894 -0.039480254 0.83178538 0.20766309 -0.51479024 8.2095889e-05
-0.015403072 -0.018319244 -0.040366068 0.84429747 0.19148104 -0.50049651 5.5482022e-05
-0.014442702 -0.018861862 -0.038983375 0.84072423 0.20767361 -0.50005448 9.0602676e-05
-0.015716024 -0.015561104 -0.03985652 0.85186708 0.19535342 -0.48596245 9.0147892e-05
-0.014648372 -0.016502677 -0.038351756 0.85126793 0.20637715 -0.48244309 5.1642786e-05
-0.016292281 -0.012671739 -0.039689332 0.85820931 0.20177779 -0.47197732 8.8547677e-05
-0.016987169 -0.0097378474 -0.039672952 0.86807591 0.19696327 -0.455686 0.00010551705
-0.018466325 -0.0059010489 -0.040948711 0.87900108 0.18171632 -0.44083592 7.7201694e-05
-0.017526342 -0.0068824766 -0.039521977 0.87613255 0.19535294 -0.44071412 0.00010338554
-0.018675964 -0.0032636209 -0.040264718 0.8859989 0.188008 -0.42386183 0.00015058192
-0.017815134 -0.0039394181 -0.038765311 0.88365465 0.20330469 -0.42168918 7.6504934e-05
-0.019040477 -0.00055570365 -0.039745022 0.89659244 0.18771483 -0.40110478 0.00019210807
-0.019612841 0.0023849071 -0.039699398 0.90756345 0.1774683 -0.38057014 7.9841717e-05
-0.02021111 0.0052999584 -0.03968855 0.91010493 0.19605373 -0.3650642 9.2791874e-05
-0.020343769 0.007068241 -0.039057713 0.91172904 0.2032066 -0.35701156 0.00015058763
-0.013088266 -0.031220788 -0.037213556 0.76235366 -0.44428986 -0.47055653 0.0050057741
-0.01155049 -0.029983817 -0.036406077 0.80503565 -0.39518544 -0.44243196 0.0037844107
-0.010967076 -0.027562307 -0.036634848 0.84685415 -0.060482558 -0.52837485 0.016715758
-0.012469172 -0.023846423 -0.037884962 0.8344245 0.19130298 -0.51685482 0.00018965088
-0.011459928 -0.024784094 -0.036608744 0.85022438 0.19423912 -0.48927459 0.00029917748
-0.012669816 -0.02143793 -0.037152003 0.8411181 0.22089148 -0.49368745 0.00016137016
-0.011719837 -0.022010269 -0.035759829 0.84381568 0.22908078 -0.48528048 0.00010038979
-0.013211801 -0.018654741 -0.036790416 0.84562945 0.21827528 -0.48710045 0.00011820604
-0.013846584 -0.015559329 -0.036513783 0.85531443 0.21740648 -0.47028896 8.5128238e-05
-0.015268702 -0.012274971 -0.037598759 0.86253142 0.21352454 -0.45874476 5.5667293e-05
-0.01443119 -0.012852108 -0.036335923 0.86183035 0.22245508 -0.45580935 7.2363298e-05
-0.015663652 -0.0096028838 -0.037073974 0.87038922 0.21312693 -0.44384626 6.8101435e-05
-0.014926499 -0.0094544645 -0.035544142 0.86809969 0.2226992 -0.4436304 5.9050129e-05
-0.016252603 -0.0066085523 -0.036787733 0.87846935 0.21064189 -0.42886081 0.00010504303
-0.016940191 -0.0034822791 -0.036658749 0.88651359 0.2186835 -0.4077636 7.3120544e-05
-0.018440496 0.00030555739 -0.038004588 0.89986026 0.20282 -0.38615465 0.00013425891
-0.017534561 -0.00060493336 -0.036388021 0.89210552 0.21858576 -0.39543396 9.9209399e-05
-0.018613564 0.0027556196 -0.037103236 0.90542912 0.20421405 -0.37214884 0.0001180761
-0.01787452 0.0019498819 -0.035673331 0.90024108 0.21940219 -0.37607011 6.7315144e-05
-0.019026032 0.0054816725 -0.036560401 0.91057074 0.2113837 -0.35521528 0.00011864909
-0.019593954 0.0078146569 -0.036589466 0.90875101 0.23930947 -0.34191018 0.00054836011
-0.012399203 -0.031662799 -0.034783375 0.74169117 -0.60363698 -0.2924321 0.028147722
-0.010506282 -0.03049208 -0.033506736 0.79776269 -0.44243726 -0.40966329 0.0039082444
-0.009794482 -0.027580207 -0.034503181 0.87193692 -0.063610725 -0.48546854 0.010676278
-0.0088792471 -0.027586533 -0.03289295 0.89810985 -0.18324035 -0.39977705 0.022006698
-0.010052712 -0.024463162 -0.033968247 0.85615963 0.20062794 -0.4761712 0.0005192344
-0.009054997 -0.025220906 -0.032643341 0.86474067 0.20432997 -0.45877323 0.00061897258
-0.010695914 -0.021555671 -0.033637807 0.8560729 0.24239531 -0.45649058 0.00013776685
-0.012402181 -0.017718365 -0.034915399 0.85445505 0.22901826 -0.46632296 3.3416854e-05
-0.011411297 -0.01872991 -0.033543948 0.8600347 0.23563257 -0.45256796 8.8939734e-05
-0.012602383 -0.015340272 -0.034092844 0.86451036 0.22973935 -0.44703645 8.0804377e-05
-0.011711847 -0.016062645 -0.032721855 0.86572164 0.23781066 -0.44042256 4.6865491e-05
-0.013197423 -0.012557039 -0.033775773 0.8670761 0.23241319 -0.44063956 5.5464596e-05
-0.013944382 -0.0096369581 -0.033672698 0.87300664 0.23732854 -0.42606872 5.9876827e-05
-0.015683437 -0.005421197 -0.035075735 0.88108504 0.22137454 -0.41795048 7.1678645e-05
-0.014701569 -0.0066687809 -0.033612452 0.88051677 0.23200485 -0.41335699 6.5220171e-05
-0.015852012 -0.0032400645 -0.034166068 0.88587403 0.23091145 -0.40237683 7.5561162e-05
-0.014990693 -0.0042354912 -0.032835081 0.88497025 0.24090731 -0.39848629 2.3015762e-05
-0.016308349 -0.0005526531 -0.033596031 0.89069647 0.23570929 -0.38871714 5.7110788e-05
-0.017094588 0.0023637046 -0.033652067 0.89839226 0.22864603 -0.37498322 6.9125788e-05
-0.018410722 0.0060583991 -0.034610759 0.90588683 0.22133113 -0.36108395 7.9627738e-05
-0.017644864 0.0051198322 -0.033301149 0.9029938 0.2327777 -0.36113241 0.00013575671
-0.018676976 0.0082641281 -0.033765752 0.89545232 0.30017892 -0.32872164 0.0015510611
-0.017842717 0.0071914885 -0.03250144 0.89545298 0.30018395 -0.32871515 0.0015540443
-0.020859277 -0.035255484 -0.03075723 0.34961957 -0.92544258 -0.14602114 0.0022081765
-0.020303069 -0.034782633 -0.029726367 0.34960672 -0.92544574 -0.14603178 0.0021900665
-0.013578618 -0.03274513 -0.029866608 0.37723142 -0.91972381 -0.10864928 0.0027447958
-0.010209672 -0.031509262 -0.030682074 0.59350199 -0.78581321 -0.17393368 0.033806313
-0.0086008497 -0.02990335 -0.030657303 0.84052795 -0.31680474 -0.43948558 0.010239367
-0.007794179 -0.027430976 -0.03076735 0.91291618 -0.068457574 -0.402365 0.0094926143
-0.0082451859 -0.024621692 -0.030642996 0.88848883 0.1975832 -0.41418424 0.00089977239
-0.009665058 -0.021241654 -0.03156887 0.86405987 0.24842153 -0.43782112 0.00025366864
-0.0088440301 -0.021901337 -0.030227698 0.86984861 0.25259727 -0.42374292 0.00020600251
-0.010057068 -0.018655859 -0.03083224 0.87530917 0.24904764 -0.4144986 0.00019532068
-0.010796467 -0.015656311 -0.030634524 0.87996978 0.2426101 -0.40840364 0.00015689328
-0.012330855 -0.012059432 -0.0317537 0.87863582 0.24287227 -0.41111079 0.00010898824
-0.011502591 -0.01276776 -0.030405384 0.88281697 0.24611902 -0.40007454 0.00011536467
-0.012691535 -0.0093242573 -0.030841254 0.88149476 0.24726951 -0.40227455 9.1902228e-05
-0.011729965 -0.010729989 -0.029634874 0.88427013 0.25160047 -0.3934001 8.5516847e-05
-0.013411179 -0.0065679131 -0.030760137 0.88582748 0.24650581 -0.39312163 9.1560658e-05
-0.014238082 -0.0035340984 -0.030740391 0.88837165 0.24512812 -0.38821134 3.6462803e-05
-0.01563183 5.0469302e-05 -0.031644404 0.89218956 0.24240428 -0.38110095 3.2422813e-05
-0.014852161 -0.00070541375 -0.030311275 0.8909905 0.24818538 -0.38018396 1.9346238e-05
-0.015861545 0.0023832759 -0.030634755 0.89709103 0.24238569 -0.36942774 4.191299e-05
-0.015046711 0.0011619271 -0.029524069 0.89346611 0.24861568 -0.37404352 2.5816973e-05
-0.016722487 0.00529199 -0.030853424 0.90165013 0.24709129 -0.35492653 0.00013332329
-0.018384269 0.0094110463 -0.031595539 0.87111676 0.37484226 -0.31725201 0.0040638722
-0.01745536 0.0082084145 -0.030610237 0.87676173 0.37966618 -0.29519895 0.0037094976
-0.018373154 0.0099934582 -0.030328583 0.87676203 0.37966326 -0.29520175 0.0037098504
-0.021683656 -0.036019571 -0.02806754 0.37576205 -0.91394931 -0.15329596 0.0015663763
-0.02001477 -0.035522096 -0.027326237 0.37576157 -0.91394836 -0.15330233 0.001564879
-0.018904701 -0.034661517 -0.027676648 0.34961787 -0.92544127 -0.14603408 0.0022065213
-0.015036384 -0.033184461 -0.028890204 0.32479072 -0.93915957 -0.11176022 0.00090539682
-0.0077220462 -0.030242776 -0.027892737 0.85172594 -0.37115616 -0.36987299 0.0077895797
-0.0068007084 -0.027859325 -0.028389307 0.90774161 -0.15653427 -0.38923287 0.016097784
-0.006100649 -0.027484236 -0.026927602 0.93924326 -0.14753772 -0.30992702 0.015375809
-0.0070476206 -0.024517946 -0.028000239 0.89609724 0.19768247 -0.39740574 0.0010009988
-0.0060876952 -0.025834313 -0.026571196 0.96805722 0.093462564 -0.23265852 0.0082593746
-0.0077958182 -0.02160348 -0.027735936 0.89179897 0.26054001 -0.36988318 0.00037861051
-0.0094918963 -0.017400054 -0.028743278 0.88637525 0.26501498 -0.37961298 0.00027265004
-0.0085792057 -0.018783938 -0.027616149 0.89367586 0.25545606 -0.36889797 0.00018985897
-0.0096717291 -0.015283586 -0.027766302 0.89481115 0.26354358 -0.36035791 0.00019278836
-0.0088769728 -0.016361205 -0.026724782 0.89660066 0.26074031 -0.35794103 0.00020385413
-0.0103184 -0.012819098 -0.027655374 0.89717597 0.25485188 -0.36072972 0.00018941122
-0.011167136 -0.0096853077 -0.027565612 0.89542013 0.25215268 -0.36693558 5.7578967e-05
-0.012411391 -0.0063603809 -0.028306887 0.89399832 0.25178528 -0.37063614 4.5009601e-05
-0.011663907 -0.0068943407 -0.026860807 0.8966611 0.25303224 -0.36328161 4.192899e-05
-0.01296416 -0.0034443529 -0.027653603 0.89548171 0.25245106 -0.36658013 4.0135506e-05
-0.01385152 -0.00049565849 -0.027788766 0.89466232 0.25514489 -0.36671564 3.1986739e-05
-0.014560651 0.0022322044 -0.027633468 0.89697182 0.25361121 -0.36210898 2.9800347e-05
-0.015765332 0.0056078425 -0.028238589 0.89868635 0.26423901 -0.35005796 0.00018982842
-0.01500451 0.0047926772 -0.02693389 0.89694929 0.26057407 -0.35718784 5.6599554e-05
-0.016404407 0.0083941566 -0.027640142 0.85806757 0.38027251 -0.34512728 0.0034920506
-0.018357303 0.0105932 -0.028521847 0.85438526 0.41004628 -0.31919867 0.00291079
-0.017518956 0.010053122 -0.027947944 0.84850872 0.41574004 -0.3274036 0.0030321802
-0.020278132 -0.036048487 -0.024152126 0.39840156 -0.90436453 -0.15297392 0.00079736393
-0.017095452 -0.034365516 -0.024942713 0.36168182 -0.91886103 -0.15773563 0.0011513969
-0.013827294 -0.03357514 -0.023515593 0.31950572 -0.93828791 -0.1324081 0.0020124386
-0.0099069634 -0.032440923 -0.023696851 0.45591208 -0.87185007 -0.17894621 0.019000323
-0.0070352312 -0.030786762 -0.024970483 0.73626018 -0.62095171 -0.26896083 0.021383278
-0.0060067186 -0.029877273 -0.024343219 0.86949813 -0.40090853 -0.28852284 0.012411271
-0.0055531599 -0.027795522 -0.025048377 0.92712325 -0.20347701 -0.31470558 0.011383979
-0.0066294782 -0.023349917 -0.026139539 0.92803144 0.21880068 -0.30146968 0.0017429841
-0.0057786526 -0.024621852 -0.024673307 0.93872488 0.18486993 -0.29089281 0.0011256859
-0.0067442106 -0.021496333 -0.024864877 0.91228515 0.27885848 -0.29995623 0.00029253805
-0.0059862584 -0.02290774 -0.023780327 0.91640186 0.26624849 -0.29886347 0.00042851185
-0.007578223 -0.018630566 -0.024864396 0.91167527 0.27007875 -0.30968627 0.00053412822
-0.0083977897 -0.015660537 -0.024758454 0.91964036 0.25676548 -0.29720882 0.00038136262
-0.0094775567 -0.012134379 -0.025021883 0.91291571 0.26302344 -0.31209564 0.00035303095
-0.0087927384 -0.013375994 -0.023924362 0.91974038 0.25315672 -0.29998225 0.00039698376
-0.010149411 -0.009575706 -0.024895485 0.91808313 0.25637451 -0.30231693 0.00037080131
-0.010930836 -0.0067045633 -0.024798345 0.91542584 0.24823956 -0.31681633 0.00027774638
-0.012188111 -0.0030046052 -0.025426153 0.90715992 0.2542811 -0.33526406 0.00017313876
-0.011510429 -0.0040354934 -0.024339419 0.91558409 0.24872054 -0.31598085 0.00017429129
-0.012809209 -0.00042227306 -0.025109332 0.90546227 0.25816581 -0.33688045 9.8627723e-05
-0.012144832 -0.00077047036 -0.023507666 0.91093594 0.25326812 -0.32565472 0.00013993906
-0.013411816 0.0023678117 -0.024585297 0.90578967 0.25545004 -0.33806852 4.0547853e-05
-0.014315054 0.0053810207 -0.024698613 0.89984286 0.27151221 -0.34141457 0.00011071831
-0.015644405 0.0088971434 -0.025052868 0.8608225 0.4192943 -0.28840411 0.013288866
-0.014844534 0.0080239773 -0.024000436 0.8612386 0.4200018 -0.28612322 0.013050347
-0.016365726 0.010134639 -0.024695214 0.82257581 0.49355164 -0.28244632 0.010292698
-0.020546721 -0.036582805 -0.020934116 0.39698678 -0.90878171 -0.12851988 0.0011443932
-0.0177477 -0.035294987 -0.02302463 0.38298684 -0.91185689 -0.14777687 0.0016745862
-0.015858436 -0.034450673 -0.021793723 0.357169 -0.92300451 -0.14315382 0.0021015969
-0.012937789 -0.033743478 -0.021200012 0.31233409 -0.94275457 -0.11688136 0.0019256012
-0.0074260971 -0.031800471 -0.02213365 0.5327732 -0.82765812 -0.17645074 0.030104339
-0.0052249432 -0.030008232 -0.021438155 0.91745502 -0.29639804 -0.26537591 0.017947078
-0.0045831203 -0.027498128 -0.021964144 0.9553079 -0.10583204 -0.27601895 0.010687361
-0.0049724746 -0.024603926 -0.021715265 0.95009667 0.19554242 -0.24306276 0.0010386378
-0.0065099653 -0.020150205 -0.022733819 0.93247944 0.2647225 -0.24577251 0.00019740545
-0.0057462109 -0.021725835 -0.021607149 0.93689394 0.26141503 -0.23214613 0.00013224034
-0.0067600822 -0.018499326 -0.021850526 0.93038207 0.27278009 -0.24490863 7.4376672e-05
-0.0075128404 -0.015615746 -0.021520153 0.93230766 0.26563844 -0.24543554 6.2765735e-05
-0.0084030963 -0.012553435 -0.021674864 0.93140757 0.25809705 -0.25664335 3.5504745e-05
-0.0093927681 -0.0093014324 -0.022057679 0.92992133 0.25395533 -0.26599467 5.4883556e-05
-0.0086899418 -0.010365596 -0.02050681 0.93403804 0.24681307 -0.25817868 5.278481e-05
-0.0099279629 -0.0067640087 -0.021560602 0.93018383 0.24511488 -0.27327052 5.4968939e-05
-0.010855586 -0.0035527607 -0.021825973 0.92552549 0.2430231 -0.29041731 6.2812265e-05
-0.011607893 -0.0004173799 -0.021571539 0.91748679 0.2498101 -0.30953652 5.4026452e-05
-0.012681409 0.0026040243 -0.022372168 0.91288275 0.24994871 -0.32275504 4.7538426e-05
-0.012090448 0.0020505839 -0.021097001 0.9179762 0.24015044 -0.31566978 5.5564175e-05
-0.013176378 0.0053999638 -0.021598078 0.90641284 0.26250342 -0.33091947 4.8130998e-05
-0.014102416 0.0084615387 -0.021534145 0.83015406 0.46881646 -0.30175358 0.01305999
-0.01660762 0.010497214 -0.021486741 0.53685069 0.8227002 -0.18696436 0.013512594
-0.014901442 0.010237107 -0.020607989 0.70323884 0.68346834 -0.19577041 0.025666257
-0.021671107 -0.037377723 -0.018055122 0.378521 -0.91672295 -0.12783208 0.0010296766
-0.019406691 -0.036474802 -0.018724348 0.38348237 -0.914343 -0.13006936 0.0011872996
-0.01714557 -0.03557118 -0.019411724 0.38112453 -0.91793704 -0.11016211 0.0020995983
-0.015440116 -0.03447777 -0.018896934 0.3644118 -0.92333364 -0.1210748 0.0028248227
-0.01148801 -0.033302587 -0.019481312 0.30783799 -0.94397491 -0.11894171 0.0018802431
-0.0046522152 -0.030362839 -0.018285375 0.9325549 -0.28114012 -0.22649866 0.016186327
-0.0038146749 -0.027835971 -0.018641289 0.97596937 -0.058006 -0.21004561 0.0080663143
-0.0043285005 -0.024628857 -0.018718135 0.95754343 0.20735505 -0.20028585 0.00038293071
-0.0051128995 -0.021465031 -0.018479262 0.94600028 0.25643253 -0.19830732 0.0001551523
-0.0063959528 -0.017742237 -0.019484904 0.93881273 0.26665837 -0.21799995 5.8013549e-05
-0.0058010751 -0.01918838 -0.018685203 0.94281065 0.26049295 -0.20796981 8.8992929e-05
-0.006729533 -0.015519371 -0.018215381 0.94294113 0.25299886 -0.2164567 8.7178938e-05
-0.0076665487 -0.012545921 -0.01878754 0.93931472 0.24609309 -0.23901071 7.7477933e-05
-0.008343651 -0.0095582111 -0.018433906 0.93958437 0.2342547 -0.24961156 5.8745802e-05
-0.0093247881 -0.0062614763 -0.019025356 0.93338192 0.23556967 -0.27074921 7.7840799e-05
-0.0086018536 -0.0075851586 -0.01757827 0.93788594 0.227329 -0.26209053 7.5198543e-05
-0.0098962737 -0.0036329452 -0.018760439 0.92976475 0.22900417 -0.28826132 8.4826577e-05
-0.010616004 -0.00048379437 -0.01858595 0.92544931 0.22954579 -0.30141717 5.7521171e-05
-0.011343361 0.0022866833 -0.018713545 0.92100453 0.22890326 -0.31520459 5.4560507e-05
-0.012618345 0.0063061109 -0.019412231 0.8940503 0.29754746 -0.33487254 0.0030556973
-0.011864962 0.0049465494 -0.018298555 0.91310608 0.24023065 -0.32943353 0.00020365437
-0.013105646 0.0087116919 -0.018655449 0.86501586 0.37703106 -0.3310515 0.0038776777
-0.012006607 0.0069073085 -0.017380487 0.87387478 0.35349515 -0.33374241 0.0034029633
-0.01713212 0.01105235 -0.018259726 0.43298638 0.87902659 -0.19958705 0.010769495
-0.014008574 0.010300176 -0.018091422 0.59464693 0.77864146 -0.20028105 0.034200549
-0.019673038 -0.03701888 -0.015427943 0.36531866 -0.92200363 -0.12826423 0.0013129663
-0.016533587 -0.035852276 -0.015735131 0.38310668 -0.91011691 -0.15784918 0.0022271366
-0.014809533 -0.035339542 -0.014966827 0.40078312 -0.9068836 -0.13013493 0.0033342505
-0.0148175 -0.034731887 -0.015455823 0.35883078 -0.92101556 -0.15156111 0.0020835954
-0.0043770615 -0.030501889 -0.016119562 0.97061813 -0.10266026 -0.21762639 0.010310515
-0.0034323353 -0.027265137 -0.016231578 0.97795409 -0.074717075 -0.19499522 0.013142449
-0.003823394 -0.0243199 -0.015340257 0.96474308 0.20594113 -0.16388705 0.00022148878
-0.004549345 -0.021592638 -0.015645497 0.95600927 0.24121958 -0.1669112 0.00010249126
-0.0053564217 -0.018731689 -0.015875522 0.95017654 0.25101849 -0.18480867 0.00012990118
-0.0062591629 -0.015031936 -0.015586887 0.94855303 0.2383599 -0.20840304 0.00015410385
-0.0056611188 -0.016770905 -0.01483449 0.95103633 0.23635224 -0.19916719 0.00012431073
-0.0069515491 -0.012458866 -0.015817564 0.9452557 0.22733882 -0.23411255 0.00014135308
-0.0075899558 -0.0095166964 -0.015571684 0.94398564 0.21647651 -0.24905609 0.00012631797
-0.0082597099 -0.0067569045 -0.015700206 0.938411 0.21183531 -0.27296633 0.00010845597
-0.009725092 -0.0021886139 -0.017100763 0.93020445 0.21952839 -0.29415458 7.2733274e-05
-0.0088988813 -0.0037615078 -0.015606381 0.93585986 0.21238677 -0.28117281 4.6356086e-05
-0.0097875632 -0.00029010675 -0.015925728 0.926875 0.21582112 -0.30712199 5.9722392e-05
-0.0090803467 -0.0013369231 -0.014466148 0.93006629 0.20327598 -0.30603197 4.6555797e-05
-0.010326624 0.002443874 -0.015652798 0.92265534 0.21296658 -0.32148466 6.6260349e-05
-0.010949854 0.0052906233 -0.015541229 0.91767466 0.22622111 -0.32664534 4.7406331e-05
-0.012549185 0.0094938595 -0.016166221 0.84462738 0.46942768 -0.25737563 0.016224721
-0.011681417 0.0080798399 -0.0156282 0.86253512 0.43298572 -0.26183289 0.018561125
-0.016672535 0.011508921 -0.015435342 0.41236001 0.89340061 -0.17831062 0.0062170867
-0.013106424 0.010364363 -0.015531253 0.61962742 0.73582894 -0.27316228 0.029597444
-0.019372564 -0.037164472 -0.013567101 0.3608188 -0.92180514 -0.14172162 0.0012964669
-0.016778324 -0.036394835 -0.012393605 0.38431785 -0.91511488 -0.12192018 0.0031196871
-0.014172245 -0.035621591 -0.011215936 0.3813006 -0.91494179 -0.13225462 0.0026594787
-0.004171256 -0.031163802 -0.013291974 0.92077738 -0.36044329 -0.14916354 0.0050702896
-0.0026844051 -0.029232195 -0.012053411 0.96456724 -0.17682311 -0.19581524 0.011412933
-0.0027090143 -0.027759658 -0.012630943 0.9876976 -0.0066333679 -0.15623513 0.013435051
-0.0032775961 -0.024895666 -0.012490224 0.97212386 0.18568155 -0.14317004 0.00075293268
-0.004067203 -0.021900615 -0.013087105 0.962093 0.23146978 -0.14421792 0.00010993879
-0.00476804 -0.018521652 -0.012404919 0.96050453 0.21994074 -0.17046139 0.00021406103
-0.0055810409 -0.015122792 -0.012631249 0.95450443 0.20705776 -0.21458875 0.0001766104
-0.0063273516 -0.012662066 -0.013451036 0.94640923 0.2168546 -0.23934001 0.00014024398
-0.0061271181 -0.011696024 -0.011824083 0.95018977 0.20454411 -0.23516206 0.00019199966
-0.006829042 -0.0094729969 -0.012740932 0.94334799 0.20142169 -0.26367381 0.00013397855
-0.0073765619 -0.0067231152 -0.012666307 0.94159448 0.19203274 -0.2766284 0.00010880676
-0.0079896906 -0.0035215078 -0.012525771 0.9346419 0.19580238 -0.29682642 8.1086662e-05
-0.0086646462 -0.00026071095 -0.0125173 0.9282611 0.19997089 -0.3135967 5.562809e-05
-0.0096257329 0.0026761831 -0.01349717 0.92391187 0.20154282 -0.32521895 4.6635687e-05
-0.0090123331 0.0021124089 -0.012106668 0.92695773 0.19255619 -0.32198045 3.6792564e-05
-0.0098895039 0.0052671265 -0.012663171 0.91852677 0.21409476 -0.33237323 0.00016881959
-0.010807603 0.008396402 -0.012840472 0.82923341 0.46928453 -0.30355215 0.016244674
-0.016036235 0.01181474 -0.012684576 0.37568551 0.90464282 -0.20120104 0.0025225973
-0.013631303 0.010715755 -0.012981381 0.50457549 0.84486496 -0.1777831 0.014285279
-0.011886375 0.010451579 -0.012050878 0.53139347 0.82556218 -0.18991603 0.018071797
-0.019639391 -0.037719406 -0.010192301 0.37704226 -0.91729152 -0.12812212 0.0016152757
-0.016153676 -0.036687315 -0.0085988007 0.3785207 -0.91783679 -0.11957302 0.0021892057
-0.014141291 -0.035175852 -0.0094518773 0.40805295 -0.90418226 -0.12628241 0.0021258434
-0.0037345476 -0.031698532 -0.0095571987 0.91167074 -0.39186409 -0.12368888 0.0071550873
-0.0028728768 -0.030534377 -0.0096860938 0.9659 -0.22332901 -0.13100116 0.027066218
-0.002269756 -0.027387826 -0.0091274194 0.98848814 0.074680381 -0.13158302 0.0057578012
-0.0031999592 -0.024128279 -0.010612976 0.96800798 0.20973749 -0.13773456 3.2696604e-05
-0.0028453339 -0.024786731 -0.0090419017 0.96972334 0.20505737 -0.13261986 3.7810554e-05
-0.0037567355 -0.021264847 -0.010110468 0.96609503 0.21282528 -0.14617072 8.8186935e-05
-0.0031012949 -0.023088029 -0.0082274191 0.96862406 0.20781831 -0.13630499 2.717566e-05
-0.0043101944 -0.018110873 -0.0094900914 0.96472251 0.19623007 -0.17551175 0.00037872736
-0.0049038157 -0.01549527 -0.0098964982 0.9584288 0.18738414 -0.21517742 0.00030960824
-0.0053798687 -0.012803383 -0.0097551495 0.95379823 0.17709464 -0.24270628 0.00024636276
-0.0058860639 -0.0099702189 -0.0096742995 0.95123559 0.17075019 -0.2568953 0.00014889702
-0.0066452641 -0.0065369289 -0.010131743 0.94332612 0.17494708 -0.28200948 9.4570132e-05
-0.0060164928 -0.0077135991 -0.0086716674 0.94508684 0.16716753 -0.2808308 8.2904029e-05
-0.0069863703 -0.0037978517 -0.0095426813 0.93963248 0.17082089 -0.29649794 6.2685423e-05
-0.0075634234 -0.00068932981 -0.009506546 0.93267572 0.17777288 -0.31386745 6.0264112e-05
-0.0082370006 0.002352664 -0.009740755 0.92677426 0.18180282 -0.3286902 5.7016161e-05
-0.0095597422 0.0064411107 -0.01110379 0.9082399 0.25059292 -0.33511725 0.0033898454
-0.0087222587 0.0050928928 -0.0095798224 0.92119569 0.19532754 -0.33651987 0.00013541254
-0.0096941721 0.0084406147 -0.010000259 0.86206162 0.36524788 -0.35134569 0.0043015992
-0.0089149475 0.0076387217 -0.0087282173 0.88743055 0.33910221 -0.31221256 0.0034053898
-0.01587986 0.012533257 -0.0097246282 0.39477915 0.89780653 -0.19517417 0.0022565594
-0.014143789 0.011283327 -0.0096211731 0.45597377 0.86840469 -0.19483627 0.0086707352
-0.010671588 0.010226516 -0.0094961785 0.61924553 0.74712795 -0.24152583 0.033644602
-0.019911708 -0.038283087 -0.0067679994 0.36270127 -0.92418182 -0.119732 0.00049738656
-0.018159345 -0.037765317 -0.0059575252 0.38589722 -0.91098118 -0.14559086 0.001546688
-0.013490181 -0.036045127 -0.0055834763 0.37522814 -0.91689426 -0.13604672 0.0020391156
-0.0042536482 -0.032379828 -0.0080346279 0.90110409 -0.40922618 -0.14333667 0.0081256656
-0.0021813251 -0.030118709 -0.0070755892 0.95967668 -0.24511467 -0.13762049 0.020755356
-0.0018763673 -0.028005397 -0.0067437105 0.98292989 -0.018354859 -0.18306273 0.011848425
-0.0024630576 -0.025188519 -0.0068589114 0.97078341 0.19452283 -0.14050041 0.00010102328
-0.0036784522 -0.020191273 -0.0081585161 0.96602637 0.20065512 -0.16288213 0.00014090375
-0.0030213464 -0.022014728 -0.0062943622 0.97023004 0.17559226 -0.16679618 0.00034831022
-0.0036010165 -0.018522473 -0.0062277429 0.96744007 0.16373168 -0.19300714 0.00035512325
-0.0042083915 -0.015590444 -0.0068698227 0.96245384 0.15433861 -0.22329858 0.00029839895
-0.0045859367 -0.012787387 -0.0066143647 0.95514894 0.14863823 -0.25611949 0.00023144658
-0.0050249565 -0.0096995719 -0.0064971857 0.94907433 0.15455365 -0.27453774 0.00015748358
-0.0056249797 -0.0064810226 -0.0067391656 0.9412505 0.16265342 -0.29595831 6.732138e-05
-0.0065617226 -0.0027926175 -0.0076629519 0.93623072 0.1664841 -0.30944312 5.80985e-05
-0.0059248116 -0.0033807305 -0.0060591027 0.93742144 0.16054754 -0.30897492 5.292373e-05
-0.0066952603 -0.00021971273 -0.0067066886 0.9306128 0.16728596 -0.3255384 4.8771853e-05
-0.0071832864 0.0025122946 -0.0067042336 0.92789239 0.16759983 -0.33305559 5.419095e-05
-0.0076914942 0.0053489232 -0.006679941 0.92305154 0.18616395 -0.33662865 6.5253204e-05
-0.0082701473 0.0081153642 -0.0065666549 0.8896693 0.3224223 -0.32331479 0.0033383106
-0.01386232 0.011862377 -0.0068278313 0.45999974 0.86947495 -0.18003772 0.0062365308
-0.0097334459 0.010291124 -0.0068533681 0.49801099 0.83212793 -0.24402478 0.022195812
-0.008813425 0.010039428 -0.0052062683 0.53133523 0.81280243 -0.23882018 0.02329788
-0.015841071 0.013294061 -0.0069200322 0.60470212 0.75982708 -0.23874274 0.00042537873
-0.019305596 -0.038594864 -0.0028804354 0.33224592 -0.93819124 -0.097004145 0.0012344846
-0.016400933 -0.037245236 -0.0051506571 0.37801197 -0.91240609 -0.15691401 0.0016091128
-0.014041666 -0.036177687 -0.0038116686 0.37801835 -0.91240323 -0.15691535 0.0016164227
-0.0034938622 -0.032682948 -0.0035558753 0.92720848 -0.33515722 -0.16719495 0.00892263
-0.0019740034 -0.030800747 -0.0036530904 0.92970729 -0.33804345 -0.14618799 0.010133052
-0.001527844 -0.027233219 -0.0032603368 0.98627663 -0.063096114 -0.1525692 0.019957991
-0.0023524985 -0.023860987 -0.0042643361 0.97042316 0.18324897 -0.15715818 0.0001606789
-0.0027286597 -0.021342576 -0.0039467439 0.97167856 0.14323597 -0.18794753 0.00038784865
-0.002883995 -0.018645326 -0.0029734001 0.96639031 0.13644962 -0.2178791 0.00029794927
-0.0035148226 -0.015678193 -0.0040784962 0.96173882 0.1187267 -0.24690567 0.00019614199
-0.0037416089 -0.012685057 -0.003487356 0.95590448 0.12617718 -0.26519042 0.00014433519
-0.0041791908 -0.0096412729 -0.0036129206 0.94861084 0.13574073 -0.28585297 7.3741539e-05
-0.0046735518 -0.0066133402 -0.0037830845 0.94448066 0.14190656 -0.29634246 5.8657664e-05
-0.0050871707 -0.0036445979 -0.003657598 0.93838257 0.14790198 -0.31235102 5.8496935e-05
-0.0055807345 -0.00059516146 -0.0036861748 0.93329448 0.15182504 -0.32543895 4.6130652e-05
-0.0064572711 0.0027487071 -0.0045761652 0.9295128 0.15511498 -0.3345823 4.4518289e-05
-0.0058154697 0.0024689974 -0.0029432699 0.92951274 0.1551152 -0.33458233 4.4742643e-05
-0.0066492222 0.0056092627 -0.0037725642 0.91949016 0.18716155 -0.34569994 0.00026291216
-0.0072717993 0.0083838394 -0.003669586 0.86499977 0.34712845 -0.36232215 0.0026312228
-0.01272884 0.011824274 -0.0039986931 0.47417042 0.87043738 -0.13229141 0.0052352124
-0.011688767 0.011257241 -0.0032914095 0.44188175 0.87791717 -0.18439575 0.0072559961
-0.0081758825 0.01008206 -0.0034165196 0.55580199 0.81604558 -0.15859941 0.02069338
-0.015599821 0.014180874 -0.0035261214 0.68052357 0.64456463 -0.3484596 0.025859224
-0.014428005 0.01320366 -0.0035444498 0.61023593 0.75083119 -0.25271437 0.00061640603
-0.01665033 -0.037811317 -0.0016467385 0.3322427 -0.93819249 -0.097003728 0.0012286105
-0.013982479 -0.037024595 -0.00040061399 0.40551388 -0.91111344 -0.073693536 0.0012153469
-0.0024603158 -0.032638177 0.00014020875 0.92090148 -0.33195025 -0.20432684 0.010769057
-0.0011980999 -0.030745024 -0.00024163723 0.93040538 -0.27554607 -0.24170302 0.0082569588
-0.0010076482 -0.027589059 -0.00038403273 0.97868019 -0.066887245 -0.1941936 0.013121911
-0.0016140155 -0.024620496 -0.00076286867 0.96985346 0.15430827 -0.18860881 0.00016671896
-0.0020981673 -0.02166287 -0.0010708086 0.97104907 0.11726785 -0.20811538 0.00033877726
-0.0021783169 -0.018750772 -0.00017675012 0.96485817 0.098825961 -0.24347904 0.00020152863
-0.002627831 -0.016032618 -0.0008626096 0.95899916 0.10102294 -0.26479241 0.0001043241
-0.0034291483 -0.01163139 -0.0019422583 0.95488954 0.11498412 -0.27379692 6.6567838e-05
-0.0027677044 -0.012850966 -0.00016159937 0.95579159 0.10612845 -0.27422479 6.2448773e-05
-0.0033912491 -0.0095902663 -0.00099724531 0.94992793 0.12129773 -0.28796494 5.1940246e-05
-0.0027325377 -0.010804025 0.00068866089 0.95115179 0.11430401 -0.28678361 3.243285e-05
-0.003705794 -0.006485993 -0.00069114938 0.94477808 0.12851416 -0.30146053 4.7931782e-05
-0.0041916035 -0.0031871072 -0.00076289475 0.94007045 0.13592608 -0.31271666 3.9154005e-05
-0.0045560524 -0.00046204613 -0.00065990165 0.93678629 0.13591166 -0.32242745 4.3939814e-05
-0.0049198214 0.00226536 -0.00053422153 0.9311471 0.14365314 -0.33515501 4.7959722e-05
-0.005476376 0.0053004879 -0.00075794384 0.92143184 0.17658754 -0.34609285 0.00035496653
-0.0064556655 0.008843678 -0.0010504648 0.86723822 0.41434368 -0.2760748 0.013964589
-0.0057205372 0.0077983532 -0.0002379939 0.87623155 0.40224022 -0.26536974 0.014289855
-0.012521644 0.01249321 -0.0010808222 0.61926031 0.74172509 -0.2576054 0.00065359985
-0.011039217 0.011523231 -0.00064783543 0.47405279 0.84833986 -0.23578247 0.0083013019
-0.0072097247 0.010146642 -0.0007048659 0.5662961 0.8135727 -0.13194002 0.012100089
-0.015177773 0.01483643 -0.0014534108 0.68968225 0.59043521 -0.41919523 0.038767152
-0.013980646 0.014089308 -0.00029446185 0.71448183 0.55220884 -0.42962888 0.035526279
-0.014077783 0.01684319 -0.00025044382 0.87632364 0.29192314 -0.38319421 0.02065997
-0.021645244 -0.039626412 0.0025808699 -0.35915881 0.93180054 0.052466672 0.0010956238
-0.0014216304 -0.032573991 0.0036229677 0.8989135 -0.3794964 -0.21894535 0.010053992
-0.00048236363 -0.030322449 0.0024860203 0.94105703 -0.26218075 -0.21371238 0.016271131
-0.00043275952 -0.027900847 0.0024853386 0.9768126 0.016576935 -0.2134535 0.0031675096
-0.0008708071 -0.024792187 0.0026488788 0.96627718 0.11478645 -0.23050459 0.00056295481
-0.0013774373 -0.02179409 0.0019186921 0.96338481 0.095170848 -0.25066376 0.000228455
-0.0014736652 -0.018849125 0.0024367571 0.96098173 0.081120536 -0.2644496 8.7760083e-05
-0.0016903374 -0.015664639 0.0025559515 0.95676506 0.090130173 -0.27654514 3.9591327e-05
-0.00207562 -0.012614284 0.0022333115 0.95429558 0.10069531 -0.28139013 1.7919649e-05
-0.0023625791 -0.0093574077 0.0024461858 0.95068789 0.10874616 -0.29045954 2.9730554e-05
-0.0033082273 -0.005192047 0.0010728128 0.94541609 0.12073024 -0.30267566 3.0013205e-05
-0.0026510041 -0.0063924454 0.0026600622 0.94800156 0.11351167 -0.29733512 1.6148873e-05
-0.0032761618 -0.0034206479 0.0018723086 0.94135976 0.12579565 -0.31307703 3.1269268e-05
-0.0026123989 -0.0043219756 0.0035934635 0.9445895 0.11790815 -0.30634671 3.2117565e-05
-0.003518302 -0.00032568234 0.0023946799 0.93922293 0.12507717 -0.31971225 4.7530397e-05
-0.0040271599 0.0027605728 0.0021455772 0.93202615 0.13182694 -0.33756316 3.771397e-05
-0.0043726191 0.005397765 0.0022437349 0.92722619 0.1629702 -0.33718297 0.00033845234
-0.0049736407 0.0083061233 0.0022513717 0.85621953 0.40712315 -0.31802347 0.016691802
-0.010479449 0.0118946 0.0021351017 0.52121687 0.83755153 -0.16383019 0.0059147356
-0.0073995832 0.010525258 0.0027128644 0.51911664 0.82900006 -0.20803048 0.012133081
-0.013342952 0.014499516 0.0022228733 0.84581369 0.43538967 -0.30827761 0.031849816
-0.013171562 0.017421784 0.0023320019 0.94898456 0.031392992 -0.31375605 0.0085284254
-0.01332278 0.019158432 0.0033211596 0.94318253 0.11870337 -0.31034848 0.0094783213
-0.011476343 -0.035729744 0.0061248429 -0.37694702 0.92411053 0.062695876 0.0024859065
-0.0085513275 -0.034376822 0.0038862117 0.26617739 -0.95816553 -0.10520671 0.0018361208
-0.0019797869 -0.033226945 0.0044823177 0.82904559 -0.52114111 -0.20271982 0.0017262718
-0.00050423667 -0.031419843 0.004175324 0.94007874 -0.26257011 -0.21750613 0.016400108
0.00032683089 -0.03019161 0.0060053654 0.95305568 -0.21094163 -0.21722914 0.012848816
-0.00020269118 -0.026958084 0.0042568035 0.96453899 0.034202233 -0.26171511 0.0030279479
0.0005013328 -0.027979767 0.006534107 0.9652229 0.017370377 -0.26085052 0.0025076768
-0.00016744621 -0.025508236 0.0050168931 0.95916176 0.10225684 -0.26372758 0.00032982454
-0.00013405643 -0.02375282 0.0057368763 0.95601875 0.089413263 -0.27934465 7.6885495e-05
-0.00080162659 -0.021296719 0.0041821711 0.95790625 0.081664875 -0.27522102 3.6693305e-05
-0.00010199472 -0.021691741 0.0064283051 0.95595586 0.086201794 -0.2805666 7.0477305e-05
-0.00076410361 -0.018349575 0.0050138123 0.95813602 0.077685505 -0.27557284 1.8245151e-05
-0.00083490275 -0.015187485 0.0056434758 0.9585489 0.083529107 -0.27240926 1.8590048e-05
-0.0012609456 -0.012583833 0.0050118715 0.95735383 0.09155713 -0.2740272 3.1238862e-05
-0.0014356133 -0.0092129614 0.0055661798 0.95353514 0.10199524 -0.28349197 1.4973477e-05
-0.0018516425 -0.0066201864 0.0051483363 0.95064193 0.10395478 -0.29235819 4.5266748e-05
-0.0021650624 -0.0032150971 0.0053751916 0.94651556 0.10783365 -0.30410588 7.2473646e-05
-0.0024351049 -0.00065300218 0.0054674074 0.94332206 0.1090792 -0.31344083 5.2259646e-05
-0.0031723306 0.002524537 0.0044612661 0.9340269 0.119069 -0.33677337 4.6806465e-05
-0.0024983212 0.0025387108 0.0063517094 0.93486983 0.10877179 -0.33791569 6.3070649e-05
-0.0037837233 0.0060930541 0.0040605962 0.91607547 0.20910117 -0.34217313 0.0053237611
-0.0031254105 0.00551973 0.0056312345 0.9299323 0.14944288 -0.33599535 0.0007261578
-0.0040832162 0.0087512992 0.0051181726 0.88064182 0.32775265 -0.34212303 0.0047300826
-0.0030907467 0.0076255221 0.006495554 0.89165717 0.32373801 -0.31645101 0.0048365705
-0.010009073 0.012372205 0.005062554 0.5999791 0.77829957 -0.18513496 0.0040520965
-0.0086551104 0.011488104 0.0054636039 0.50330448 0.83925825 -0.20574297 0.0058060833
-0.0052450541 0.010277705 0.0047995634 0.59735459 0.73915315 -0.31115928 0.036046024
-0.012693498 0.015056967 0.005060859 0.91183299 0.26416275 -0.31429064 0.033500805
-0.011490795 0.013577795 0.0054675452 0.7981689 0.54176545 -0.26347011 0.037949126
-0.012893602 0.017041195 0.0049771443 0.94664502 0.10510346 -0.30465785 0.010817415
-0.012096683 0.017444072 0.0050721169 0.94664508 0.10510373 -0.30465767 0.010817518
-0.01268018 0.019260863 0.0057249852 0.94664598 0.10509801 -0.30465683 0.010813219
-0.012610066 -0.036556624 0.0092215128 0.39973986 -0.89619935 -0.19244416 0.0060515245
-0.009661193 -0.035189994 0.0069388039 0.33078474 -0.93421322 -0.13351835 5.2115516e-05
-0.0078397961 -0.034648485 0.0077569373 0.29879093 -0.9426235 -0.14894654 0.0016585449
-0.0060115028 -0.034106441 0.0085970648 0.22109063 -0.95939547 -0.17515536 0.0071069426
-0.00094713271 -0.033139005 0.0076098628 0.77699095 -0.59145373 -0.21556336 0.0076196138
-4.8235059e-05 -0.032237627 0.0075876303 0.89201623 -0.33717224 -0.30103472 0.0082504852
0.00096081942 -0.030500418 0.0086042546 0.91291744 -0.22527245 -0.3403441 0.010726037
0.0010255296 -0.027234063 0.0085180067 0.9518488 0.034543913 -0.30461541 0.00098007009
0.00081475824 -0.024704879 0.0083745681 0.94474936 0.084785715 -0.31663865 0.0001338343
0.00049510971 -0.021280928 0.0084992275 0.94588405 0.080053344 -0.3144756 0.00017921932
6.3631684e-05 -0.018652923 0.0078350008 0.94758403 0.082140289 -0.30876768 0.00022266211
-1.9595027e-06 -0.015474226 0.0085855238 0.94835877 0.08713419 -0.304997 0.00038210666
-0.00066346303 -0.01213791 0.0072444119 0.95280772 0.082505412 -0.29214764 0.00034454631
3.9104372e-05 -0.013394048 0.0094711073 0.93125886 0.092218347 -0.35249501 0.0035735588
-0.00061379373 -0.0094600469 0.0083452575 0.94939435 0.097970694 -0.29841596 0.00029116761
-0.00091397949 -0.0064574368 0.0083334297 0.94519454 0.10170092 -0.31026468 0.00032300246
-0.0012174211 -0.0034528908 0.0082783774 0.94143003 0.095030248 -0.32354102 0.00055551418
-0.0014762916 -0.00031654141 0.0084502436 0.93553674 0.093085542 -0.34074336 0.00056491815
-0.0018168278 0.0025533736 0.0083065592 0.9335618 0.093104474 -0.34611261 0.00022213065
-0.0021140352 0.0055574048 0.0083669387 0.91489869 0.16198829 -0.36975685 0.0025932502
-0.003642872 0.0097465608 0.0076859482 0.73588741 0.5891369 -0.33374763 0.055277139
-0.0027119387 0.0085626952 0.0084487945 0.87802058 0.30596134 -0.36805928 0.0048127305
-0.0096521219 0.012734303 0.007283438 0.62832457 0.74592251 -0.22092511 0.0012445464
-0.0077153584 0.011669978 0.0085673369 0.45395979 0.84866786 -0.27144685 0.0098764133
-0.0039084572 0.010367462 0.0085688271 0.56822306 0.75505418 -0.32713267 0.023980025
-0.011429699 0.014561677 0.0081795789 0.84298837 0.48047918 -0.24188928 0.039044812
-0.01164235 0.017743079 0.0076311603 0.93261099 0.24735966 -0.26277366 0.020619284
-0.010785388 -0.036013789 0.010032345 0.32319489 -0.92188978 -0.2136924 0.0048398888
-0.0089541553 -0.035470091 0.010859657 0.32897776 -0.91964751 -0.21452762 0.0056027318
-0.0046615303 -0.035599269 0.012667913 0.035916295 -0.75991935 -0.64902437 0.03576171
-0.007116612 -0.034924485 0.01168989 0.21207826 -0.92578882 -0.31295049 0.031795446
-0.0043881573 -0.034635089 0.011879656 0.037648208 -0.9192028 -0.39198059 0.046442311
-0.0014875382 -0.034513623 0.011988398 0.07668899 -0.60944003 -0.78911442 0.027289197
0.00087407604 -0.033239294 0.011809859 0.53668249 -0.62613004 -0.56562638 0.065120824
0.0017612204 -0.030921308 0.011230741 0.87403578 -0.17227617 -0.45429331 0.018305529
0.0020350944 -0.027439097 0.011239026 0.89379007 -0.0048568142 -0.44845924 0.0099137286
0.0017536506 -0.024352629 0.011082929 0.88867396 0.059804238 -0.45462298 0.0090544038
0.001649579 -0.021612504 0.011588592 0.88199806 0.068593986 -0.46623403 0.0084199058
0.001387462 -0.018499929 0.01151612 0.87451178 0.076858424 -0.47887561 0.0082529895
0.0010375641 -0.015560348 0.011437859 0.86684006 0.1044298 -0.48752713 0.0063130758
0.00083371811 -0.012400886 0.011540037 0.90343553 0.072857134 -0.42248774 0.0027679119
0.00042724796 -0.0095124822 0.011314873 0.88658899 0.075843215 -0.45629779 0.0021327054
-0.0005403515 -0.005270144 0.009973038 0.89939332 0.10198097 -0.4250783 0.0025499016
0.00045395643 -0.0064969324 0.011884559 0.84990448 0.071570836 -0.5220536 0.0049255528
-0.00051911734 -0.0034639325 0.010443661 0.89527351 0.086120993 -0.43711388 0.0037839955
0.00033313595 -0.0037320761 0.012076955 0.86153412 0.069680497 -0.50289524 0.0043957466
-0.00048847683 -0.00044651632 0.011122789 0.88774395 0.076118328 -0.45400068 0.0043268497
0.00016901828 -0.00044521387 0.01227266 0.84339023 0.054651469 -0.5345149 0.0051383907
-0.00079642236 0.0025732815 0.010981422 0.8752929 0.069312662 -0.4786002 0.0058890912
0.00018442608 0.0025853217 0.012604956 0.70672888 0.048037704 -0.70585179 0.0048904875
-0.00077126734 0.0056010308 0.011548851 0.83579385 0.093757972 -0.54097879 0.011462061
0.00019303709 0.0047085006 0.012790639 0.68232626 0.087267853 -0.7258203 0.003520251
-0.0013149884 0.008624672 0.01155002 0.74680507 0.11883861 -0.65433896 0.027262762
-0.0074287616 0.012247046 0.011355828 0.38204664 0.78424197 -0.48888135 0.054152582
-0.0046364013 0.011967006 0.012166601 0.038405653 0.17882104 -0.98313183 0.04018699
-0.0021551233 0.01129748 0.012389798 0.12902108 0.15601547 -0.97929192 0.025380014
-0.010274342 0.014298413 0.011208478 0.59512055 0.72352797 -0.34976962 0.012607942
-0.0075153243 0.014217624 0.012493376 0.17751668 0.35575598 -0.91756493 0.063870519
-0.0045867004 0.014025291 0.012642 -0.054144893 0.1045541 -0.99304414 0.014607728
-0.0020317771 0.01420526 0.012745176 0.094941355 0.079951681 -0.99226707 0.003716253
-0.0016245637 0.015925372 0.012818534 0.015709719 0.090597048 -0.99576378 0.0035962199
-0.010654737 -0.041290797 0.015527491 -0.1665736 -0.25597969 -0.95222241 0.037812725
-0.0076157935 -0.041264426 0.015208896 -0.083151162 -0.36142242 -0.9286871 0.013707455
-0.0045794435 -0.04124137 0.014930125 -0.062860169 -0.41924912 -0.9056924 0.01151623
-0.002137484 -0.041252673 0.015066791 0.086811222 -0.40501371 -0.91017997 0.01452381
-0.012689733 -0.039043296 0.015372258 -0.27399015 -0.22154196 -0.93586785 0.033654407
-0.010607042 -0.03950249 0.015395936 -0.20587195 -0.094860792 -0.97397029 0.027603401
-0.0076179504 -0.039431073 0.015136924 -0.14907694 -0.26456681 -0.95277512 0.020683706
