# .PCD v0.7 - Point Cloud Data file format
VERSION 0.7
FIELDS x y z normal_x normal_y normal_z curvature
SIZE 4 4 4 4 4 4 4
TYPE F F F F F F F
COUNT 1 1 1 1 1 1 1
WIDTH 554
HEIGHT 1
VIEWPOINT 0 0 0 1 0 0 0
POINTS 554
DATA ascii
-0.039762691 -0.034068126 -0.012074962 -0.056256685 -0.9466874 -0.31720373 0.0023390024
-0.036766283 -0.034027733 -0.012537882 0.012496243 -0.95361167 -0.30078012 0.0016909142
-0.034322228 -0.034076005 -0.01198463 0.046281807 -0.94616234 -0.32036659 0.0021526059
-0.050987344 -0.031289477 -0.011632152 -0.45964098 -0.73654503 -0.49621731 0.0039759232
-0.048629086 -0.031880032 -0.012559934 -0.36220169 -0.8057251 -0.46863317 0.0044545331
-0.045850184 -0.032695431 -0.012887343 -0.24105361 -0.88418597 -0.40013537 0.0011431283
-0.042906214 -0.033319209 -0.013112055 -0.17326005 -0.89177173 -0.41800025 0.0010298976
-0.039812222 -0.033468779 -0.013762349 -0.091710068 -0.88655299 -0.4534457 0.0014886077
-0.036936976 -0.033445682 -0.014030429 0.0008718149 -0.89996475 -0.43596181 0.0013217365
-0.033735026 -0.033495106 -0.013456803 0.08262711 -0.9293465 -0.35984409 0.0012309187
-0.030489109 -0.033419017 -0.012766106 0.11774422 -0.9284085 -0.35241154 0.00086733419
-0.02775633 -0.032990351 -0.012744834 0.15647517 -0.91963214 -0.36026677 0.0017714001
-0.02465317 -0.03226478 -0.012840338 0.20380417 -0.90716338 -0.36812827 0.0010137641
-0.021905303 -0.031678885 -0.012533156 0.24998695 -0.90800583 -0.3362022 0.0014732539
-0.019355845 -0.031149108 -0.011679565 0.30178761 -0.88990796 -0.34203523 0.001387706
-0.053910516 -0.028684622 -0.011893984 -0.61979556 -0.55316466 -0.55665278 0.0042501078
-0.052013744 -0.029570034 -0.012887729 -0.50800091 -0.62102038 -0.59688258 0.0068226466
-0.049657736 -0.030650083 -0.013672267 -0.40323764 -0.75815499 -0.51244557 0.004251441
-0.020592969 -0.030752175 -0.013809343 0.31824341 -0.86261427 -0.3932147 0.0039890115
-0.018613044 -0.030349756 -0.013180178 0.31350169 -0.86808097 -0.38490519 0.00092438725
-0.015694367 -0.029420294 -0.012801412 0.3311443 -0.86423731 -0.37873113 0.00071421656
-0.013040956 -0.028447321 -0.012377255 0.38005331 -0.83995253 -0.38734904 0.0015205793
-0.054703277 -0.026255682 -0.012463384 -0.68159336 -0.30965722 -0.66298032 0.0055157235
-0.052998323 -0.027439617 -0.013770719 -0.65313119 -0.38254952 -0.65351015 0.0067734737
-0.012089598 -0.027457831 -0.013518313 0.3974269 -0.81407344 -0.42348126 0.0007215846
-0.0097505748 -0.026634753 -0.012894114 0.4136171 -0.79326564 -0.44682276 0.0013061
-0.0069491183 -0.025397923 -0.012298746 0.45842758 -0.77316219 -0.43825155 0.0012273808
-0.055137098 -0.023373246 -0.012507284 -0.78172404 0.016884942 -0.62339592 0.0036640607
-0.0062108599 -0.024297757 -0.013412505 0.44777626 -0.74362791 -0.49650174 0.002138423
-0.0038887314 -0.023368672 -0.012594645 0.47633532 -0.75178051 -0.45599413 0.0010898726
-0.0017254534 -0.022470098 -0.011685492 0.5118196 -0.71603161 -0.47469935 0.0013467864
-0.054614592 -0.020465061 -0.012580171 -0.73080617 0.230726 -0.64240783 0.0026878552
-0.053142797 -0.019223394 -0.013815616 -0.70946389 0.24719442 -0.65996653 0.0022645397
-0.002734984 -0.021709591 -0.013821875 0.48190892 -0.65581501 -0.58109409 0.0012563339
-0.00049300678 -0.020739973 -0.012905806 0.51757109 -0.69576144 -0.49803221 0.00092166435
0.0018521273 -0.019567797 -0.012153903 0.53388149 -0.67238873 -0.51270252 0.0015408354
-0.053959817 -0.017802108 -0.011930474 -0.71369678 0.47411737 -0.51560605 0.0023312808
-0.052483816 -0.017020036 -0.013117254 -0.69936252 0.46455795 -0.54321069 0.0073638102
0.0026594577 -0.018015005 -0.01311738 0.54040831 -0.63071132 -0.5569219 0.0013202243
0.0047808774 -0.016920127 -0.012225848 0.55871767 -0.60049415 -0.57205015 0.0017835279
0.0070021851 -0.015952641 -0.011102368 0.57740128 -0.63442379 -0.51392037 0.0013938273
-0.051193874 -0.01482445 -0.012461489 -0.65748054 0.6099326 -0.44238171 0.0040187743
-0.049553782 -0.013645958 -0.013208856 -0.64474857 0.65065455 -0.40118319 0.0027820668
0.0057329647 -0.014719977 -0.013406645 0.56234562 -0.48764995 -0.66780597 0.0012085947
0.0077456869 -0.014051351 -0.012167122 0.59025627 -0.51285368 -0.62336081 0.0014600122
-0.048378918 -0.012222433 -0.012477074 -0.58534235 0.71771997 -0.3771635 0.0035793977
-0.046107344 -0.010789422 -0.012973364 -0.53920805 0.73497909 -0.41116968 0.0026398895
0.0087019941 -0.011505284 -0.013126618 0.57134271 -0.40995151 -0.71099037 0.00091259822
0.010655121 -0.010994635 -0.011770334 0.60059422 -0.45534369 -0.65722811 0.001111353
-0.044780191 -0.0094089555 -0.011865725 -0.53031021 0.7609008 -0.37389961 0.0010025305
-0.042861853 -0.0085138362 -0.012771226 -0.47943151 0.8135072 -0.3291679 0.0031312075
-0.040669486 -0.0073721912 -0.0131442 -0.4709301 0.812132 -0.34447992 0.0053647333
0.0095472904 -0.0089781024 -0.01375325 0.55529857 -0.27953792 -0.78326374 0.0018847201
0.011299602 -0.0084041255 -0.012676651 0.58393967 -0.30705476 -0.75148642 0.0011490131
0.013060716 -0.0078285374 -0.0115008 0.61376423 -0.36730871 -0.69884032 0.0014979185
-0.039167166 -0.0064249705 -0.012811042 -0.4539023 0.83513737 -0.31067371 0.0030279399
-0.036695443 -0.0050546885 -0.012327759 -0.42067048 0.86672097 -0.26801327 0.0014230338
-0.034456193 -0.0042646229 -0.013495309 -0.40377271 0.86137295 -0.3082276 0.0026621674
0.011649637 -0.0055796253 -0.013360973 0.5551722 -0.16951667 -0.81427759 0.0014909107
0.013703845 -0.0052601416 -0.011903148 0.59121436 -0.21181995 -0.7782017 0.0028406754
-0.033053793 -0.0034577074 -0.012984283 -0.39013073 0.87235004 -0.29462424 0.0026267893
-0.030803267 -0.002417672 -0.012808638 -0.34884343 0.88225788 -0.31611592 0.0016200044
-0.027926076 -0.0012822433 -0.013103478 -0.35129055 0.88660657 -0.30087173 0.0025466285
0.011849669 -0.0021603745 -0.013549101 0.51566601 0.003546583 -0.85678232 0.0026420236
0.014171434 -0.0022315807 -0.012083407 0.55042821 -0.037157021 -0.8340553 0.0035416919
-0.026835889 -0.00047619804 -0.011919443 -0.37039581 0.88676596 -0.27650142 0.0017807628
-0.024742573 0.00014499924 -0.012638586 -0.34941402 0.88181269 -0.31672716 0.0026657458
-0.02177041 0.0012389871 -0.012764418 -0.312576 0.88196939 -0.35274109 0.0024658728
-0.019617988 0.0017073692 -0.013468845 -0.31131563 0.87294114 -0.37557465 0.0020017491
0.0093948925 0.0014974212 -0.013891578 0.37454021 0.29632929 -0.87858331 0.0044361064
0.01135479 0.00071952236 -0.013324985 0.37586042 0.2864511 -0.88129151 0.003752515
0.014230727 0.00063163112 -0.011919272 0.46787706 0.15029986 -0.87091964 0.0069223442
-0.018537592 0.0025410417 -0.012420326 -0.31583831 0.86877102 -0.38142246 0.0019367794
-0.01567529 0.0033837089 -0.012632265 -0.26912698 0.84901476 -0.45469183 0.0028755993
-0.012812132 0.0041618831 -0.012763805 -0.20737964 0.83160156 -0.51520145 0.0022072317
-0.0099140313 0.0045894645 -0.013208659 -0.16024472 0.7991246 -0.57941484 0.0025289056
-0.0069094868 0.0047582388 -0.01371582 -0.10531339 0.75384766 -0.64855427 0.0021818255
-0.0038653482 0.004963072 -0.013824359 -0.039730471 0.69721925 -0.71575606 0.0018571772
-0.0007000491 0.0049627908 -0.013877615 0.022796826 0.64578778 -0.76317656 0.0023670276
0.0023246836 0.0046851588 -0.013785217 0.10143423 0.55171984 -0.82783836 0.0011717952
0.0053128479 0.0041959742 -0.013534393 0.16372848 0.50826734 -0.84549236 0.00063372124
0.0083970111 0.0036672719 -0.013051406 0.26528633 0.43468711 -0.86062199 0.00095426542
0.011308479 0.0036115304 -0.012107943 0.32484782 0.39883801 -0.85755587 0.0018407833
0.013667165 0.0030059859 -0.011494323 0.39727083 0.33582735 -0.85404676 0.0032961033
-0.011652152 0.0054325666 -0.011128982 -0.27765751 0.87618279 -0.39396712 0.0024804405
-0.0094692484 0.005655529 -0.011803143 -0.22249979 0.81454146 -0.53573871 0.0023041877
-0.0067494949 0.0060097864 -0.012200781 -0.16725701 0.80195922 -0.57348627 0.0020382521
-0.0038526892 0.0063058473 -0.012417115 -0.094608076 0.75860661 -0.64464366 0.0020735236
-0.00068352837 0.0065314034 -0.012470401 -0.010100781 0.6935935 -0.72029579 0.0020479735
0.0022310289 0.0065594558 -0.012410536 0.042695131 0.65617448 -0.75340039 0.0035849181
0.005180263 0.0065621072 -0.01210695 0.11337737 0.5857774 -0.80250263 0.0033955858
0.0080693383 0.0062729726 -0.011726419 0.18882364 0.53596818 -0.82285094 0.0030255006
0.010431937 0.005761927 -0.011352884 0.28661314 0.45214605 -0.84464002 0.00068967941
-0.046470422 -0.033868514 -0.0091228979 -0.26434106 -0.90901405 -0.32220671 0.0012732192
-0.043127749 -0.034214236 -0.010400066 -0.11954153 -0.95908117 -0.25665757 0.0018992982
-0.038693067 -0.034777574 -0.0091819661 -0.04251647 -0.96085483 -0.27377069 0.00075838616
-0.037777305 -0.034776155 -0.0091980593 -0.011313213 -0.96808225 -0.25037751 0.00075537642
-0.032828096 -0.034170017 -0.010906984 0.069464318 -0.95252436 -0.29643223 0.0015671912
-0.031974733 -0.034228176 -0.010240425 0.085119516 -0.9519152 -0.29429945 0.00148415
-0.053572088 -0.031134911 -0.0090070711 -0.50910658 -0.74834973 -0.4251861 0.0051423903
-0.051785368 -0.031763177 -0.0097215911 -0.41020644 -0.82822049 -0.3818135 0.0045758919
-0.048975255 -0.03288329 -0.0099728089 -0.3366915 -0.87522107 -0.34731379 0.0013797494
-0.045842584 -0.033630382 -0.010565166 -0.25621921 -0.90162528 -0.34845889 0.0014146212
-0.028512895 -0.03372512 -0.010787209 0.14892468 -0.93359935 -0.32590437 0.00098155625
-0.024893962 -0.03299588 -0.010434866 0.23454106 -0.92402077 -0.30195388 0.00048936263
-0.021130152 -0.032132074 -0.0098526375 0.28790453 -0.92549807 -0.24609849 0.0012488416
-0.0185204 -0.031258259 -0.010320236 0.32551327 -0.89735037 -0.29799911 0.0030281916
-0.056915868 -0.028450537 -0.0088968603 -0.63057655 -0.55461717 -0.54293001 0.0052248421
-0.054978412 -0.029574608 -0.0097740926 -0.60948306 -0.60595948 -0.51121759 0.0084949881
-0.053136107 -0.03055764 -0.010533501 -0.47959512 -0.76226193 -0.43467829 0.0046493281
-0.015506479 -0.030201284 -0.010429056 0.35510498 -0.88522589 -0.30045906 0.0021985036
-0.012623663 -0.029197764 -0.0095773488 0.3831341 -0.88776964 -0.25509462 0.0019540931
-0.010439872 -0.028205376 -0.0099870162 0.4190501 -0.86268842 -0.28313535 0.0015605579
-0.057426963 -0.02631036 -0.0094824294 -0.7197544 -0.26196319 -0.64290655 0.0083726458
-0.056059122 -0.026666541 -0.010802847 -0.71134949 -0.25562796 -0.6547032 0.0061937957
-0.0092462813 -0.027448893 -0.0104682 0.41903847 -0.86269659 -0.28312784 0.001549862
-0.0065564262 -0.02625829 -0.0098059857 0.44983223 -0.82768118 -0.33555147 0.00093767897
-0.0045012971 -0.025355227 -0.0092853382 0.45766661 -0.82277393 -0.33702269 0.0013049248
-0.057607695 -0.023327312 -0.009558348 -0.78835636 0.058879577 -0.61239475 0.0053512775
-0.056261342 -0.021874808 -0.010981043 -0.76065499 0.21711996 -0.61177021 0.002838582
-0.0031599291 -0.02435386 -0.0098372679 0.49296078 -0.80108881 -0.33947966 0.00067246758
-0.00075022504 -0.022892315 -0.0096350973 0.50079656 -0.78653663 -0.36133486 0.0018601334
0.0012980551 -0.022007093 -0.0087064402 0.52141386 -0.77214122 -0.36321551 0.0014697611
-0.057099719 -0.020479508 -0.0093298499 -0.78225535 0.33432364 -0.52564651 0.002897382
-0.055962514 -0.020069979 -0.010682133 -0.78623801 0.29554009 -0.54266548 0.0052169962
0.00062884949 -0.021434076 -0.010728617 0.52905643 -0.74910158 -0.39868048 0.0010465566
0.0023665591 -0.020680701 -0.0098248357 0.54344666 -0.72523022 -0.42273724 0.00206925
0.0043297373 -0.019519195 -0.0092516625 0.5605998 -0.71462917 -0.4183695 0.0010566483
-0.056607243 -0.01858204 -0.0085662799 -0.73928159 0.51272446 -0.4365505 0.01114544
-0.055000275 -0.017376689 -0.0098563908 -0.72543287 0.56856549 -0.38791811 0.0046955589
0.0057554748 -0.01794493 -0.0099193528 0.57727957 -0.69074643 -0.435451 0.0010054114
0.0076659806 -0.016680136 -0.0094178431 0.59095222 -0.66013265 -0.46368137 0.0015582589
-0.053534582 -0.015347609 -0.0092807012 -0.67704827 0.64369309 -0.35674196 0.0021278101
-0.052211791 -0.01441328 -0.009776582 -0.67827255 0.64324552 -0.35522056 0.0020316616
0.0088319108 -0.014869638 -0.010225237 0.59636772 -0.5882054 -0.54622334 0.0026957577
0.010610291 -0.01400344 -0.0091424845 0.61985666 -0.59085542 -0.51639873 0.0013642048
-0.050569702 -0.012835825 -0.0092388587 -0.61584079 0.73762053 -0.27686828 0.0012826388
-0.048569802 -0.011646552 -0.010614042 -0.59243649 0.74513638 -0.30625275 0.00073806767
-0.046330247 -0.010061869 -0.01029553 -0.56276542 0.75580376 -0.33474734 0.0011548671
0.011728032 -0.011812269 -0.010133098 0.6190806 -0.48342437 -0.61890227 0.0011350596
0.013530866 -0.010813739 -0.009067147 0.64363545 -0.50704682 -0.57326859 0.0013476388
-0.040882844 -0.0068756286 -0.010078599 -0.47006068 0.83485675 -0.28645629 0.0019373612
0.01447817 -0.0083901314 -0.0098365536 0.63478756 -0.42097664 -0.64793783 0.0022768299
0.016346518 -0.0075406907 -0.0085159997 0.65141094 -0.43945435 -0.61850113 0.0013127268
-0.03989492 -0.0064039174 -0.010803242 -0.46537796 0.83551109 -0.2921378 0.0022252579
0.015177549 -0.005640049 -0.010582992 0.62618357 -0.26024938 -0.73495877 0.0018956647
0.017039146 -0.0051499307 -0.0091594653 0.65867788 -0.31440502 -0.68358833 0.0016016978
-0.034026533 -0.0034521387 -0.010230978 -0.39211687 0.88186485 -0.26183733 0.0016637685
-0.029419515 -0.0013949515 -0.010838349 -0.39769894 0.89014107 -0.2224512 0.0010485706
-0.02855194 -0.00094441487 -0.010283728 -0.36851126 0.88927102 -0.27091798 0.0015095078
0.015652377 -0.0032150885 -0.010915378 0.58354694 -0.10560183 -0.80518401 0.0018832032
0.01728053 -0.0023179939 -0.0098173376 0.63529617 -0.1774831 -0.75159729 0.0016429169
0.019079227 -0.0018769559 -0.0083714817 0.64995992 -0.20117089 -0.73285902 0.0022898072
-0.027239915 -0.00026573404 -0.0095320838 -0.37013191 0.89683759 -0.24224925 0.00084647746
-0.024441846 0.00087982486 -0.010380347 -0.37287509 0.89407951 -0.24816525 0.0007790025
-0.02262589 0.0016391284 -0.010273138 -0.3430267 0.89129227 -0.29653123 0.000173208
0.015650552 0.0017924218 -0.010983129 0.51533991 0.10892778 -0.85003501 0.0037592151
0.017273247 0.00065014628 -0.010049308 0.54564691 0.055690337 -0.83616269 0.0048681838
0.019322127 0.00075714733 -0.0085219489 0.60813743 -0.016199438 -0.79366648 0.0037173482
-0.021015219 0.0024290204 -0.009766276 -0.34701136 0.89530158 -0.2793175 0.00024992955
-0.018750176 0.003362206 -0.0098232292 -0.33333707 0.89747953 -0.28881985 0.00046431273
-0.015918331 0.0044939937 -0.0097360853 -0.3557103 0.89054865 -0.28353715 0.00090487371
-0.013718543 0.004979996 -0.010684852 -0.32476974 0.88462573 -0.33460721 0.0015689353
0.014750733 0.0040697139 -0.010575532 0.39311391 0.33254367 -0.85724914 0.0033563711
0.017291944 0.0036169586 -0.0094324881 0.47372335 0.26727852 -0.83913547 0.0037552393
0.019172467 0.0033369896 -0.0083919112 0.52399409 0.19590662 -0.82888526 0.0038590357
-0.014491166 0.0054485407 -0.0086574452 -0.35294607 0.87695777 -0.32615054 0.0020804619
-0.012594717 0.0058657844 -0.0094289677 -0.33319488 0.87934166 -0.34020513 0.0017071771
-0.00981123 0.0066752145 -0.0097020511 -0.27634323 0.86558872 -0.41760096 0.0025579415
-0.0068342932 0.0073707392 -0.010147919 -0.23317145 0.84175336 -0.486911 0.0026986119
-0.0036975564 0.0077120271 -0.010744706 -0.14682889 0.77616197 -0.61319965 0.001642399
-0.0020984295 0.007708123 -0.011072566 -0.096448563 0.75706023 -0.64618683 0.0036339099
0.0083700456 0.0075972527 -0.010826849 0.1564884 0.55572861 -0.81650299 0.0016721257
0.01134248 0.0068628257 -0.010498647 0.25778106 0.48212436 -0.83732021 0.0020088351
0.014319719 0.0065851603 -0.0095588984 0.32780856 0.42341712 -0.84454691 0.0015519673
0.016970579 0.0062855156 -0.0085380562 0.39430285 0.37018567 -0.84112298 0.0015482791
-0.006052603 0.0083223972 -0.0088722901 -0.27323112 0.84677482 -0.45641768 0.0013393067
-0.0036333711 0.0087351073 -0.0093003651 -0.21656884 0.82271868 -0.52557772 0.0018917739
-0.00064294459 0.0090827644 -0.0096350191 -0.15639658 0.80023289 -0.57893646 0.0021047452
0.0022178423 0.0093233511 -0.0097315274 -0.046176072 0.73250228 -0.67919672 0.0030666341
0.005234112 0.0094951391 -0.0096317939 0.020964997 0.66884297 -0.74310797 0.0023290422
0.008127708 0.0095237447 -0.0093818456 0.085516639 0.62744713 -0.77394897 0.0027468125
0.011018877 0.0091905864 -0.0090857912 0.21951386 0.54354781 -0.8101663 0.00096874736
0.013910477 0.0087043894 -0.0085636619 0.29279602 0.49137643 -0.82025588 0.001565203
0.01572736 0.0082012173 -0.0081305103 0.35374051 0.44355994 -0.8234818 0.000767452
-0.056811742 -0.030950926 -0.0055310028 -0.51800174 -0.73588872 -0.43605283 0.0022951583
-0.054557003 -0.031537347 -0.0068414356 -0.46387246 -0.79692745 -0.38694841 0.0020840759
-0.052005839 -0.032557003 -0.007015367 -0.38587093 -0.86616099 -0.31759825 0.00068140263
-0.048965026 -0.033553652 -0.0074508386 -0.34518418 -0.88669163 -0.30761334 0.00050949649
-0.059785809 -0.028635187 -0.0056799608 -0.56563234 -0.5903253 -0.57582653 0.012392699
-0.057979163 -0.02928506 -0.0068513174 -0.60461098 -0.58546209 -0.54007375 0.011640742
-0.055694062 -0.030646019 -0.0074660974 -0.48574668 -0.7690438 -0.41547787 0.0041687922
-0.015919115 -0.030796431 -0.0074962871 0.33812568 -0.90967625 -0.24116433 0.00062218553
-0.0095185246 -0.028325908 -0.0067634778 0.42165667 -0.86483628 -0.27251416 0.0012120918
-0.060372166 -0.026259139 -0.0061952299 -0.72819966 -0.17804919 -0.66183364 0.011754761
-0.058904786 -0.026650235 -0.0077356333 -0.74886721 -0.19343917 -0.63386053 0.0064182864
-0.0071963794 -0.027114673 -0.0076505342 0.43972149 -0.86255366 -0.25029224 0.001043932
-0.0035227933 -0.02526734 -0.0078368979 0.47572187 -0.81811386 -0.32307652 0.0014856049
-0.060184304 -0.023521025 -0.0064030574 -0.80494279 0.1515632 -0.5736686 0.0064543858
-0.058994249 -0.02342871 -0.0079048518 -0.79008043 0.097591616 -0.60518497 0.004917236
-0.0026151803 -0.024846561 -0.0072526829 0.49642581 -0.80772114 -0.31803784 0.00046816567
-0.00055383844 -0.023726838 -0.0067988927 0.51760429 -0.81526798 -0.25966117 0.0012502535
0.0017455081 -0.02234007 -0.0069283964 0.51940745 -0.81292671 -0.26337445 0.0016394197
-0.059771236 -0.021163609 -0.0057774321 -0.78299457 0.40970159 -0.46804282 0.0033334568
-0.058514733 -0.020369241 -0.0070901569 -0.78560311 0.3600595 -0.50317484 0.0051955981
0.0028945403 -0.021485345 -0.0071482458 0.52738154 -0.80524004 -0.27102977 0.001893445
0.0051920135 -0.020055961 -0.0066853147 0.55898803 -0.77450681 -0.29609388 0.0015791287
0.0070337644 -0.018930057 -0.0062156217 0.56243706 -0.7634632 -0.31747207 0.0017643723
-0.056907162 -0.018187588 -0.0072734328 -0.72640574 0.56756687 -0.38755974 0.0041433475
-0.055406678 -0.016578043 -0.0073320265 -0.72015965 0.56677228 -0.40017411 0.0042031654
0.0083760945 -0.017480889 -0.0070260921 0.58882982 -0.71653277 -0.37397882 0.0015990929
0.010103212 -0.016478367 -0.0061556497 0.59735113 -0.71469712 -0.36384019 0.0016422315
-0.054577839 -0.015687922 -0.0066853659 -0.68925023 0.65089899 -0.31822097 0.0016624654
0.011682133 -0.014767225 -0.0067261318 0.62402195 -0.65403271 -0.4275955 0.0019322733
0.013480113 -0.01341092 -0.0061177239 0.64379323 -0.63155377 -0.43205336 0.0010559625
0.014575555 -0.011615391 -0.0069173095 0.64924306 -0.5982492 -0.469661 0.00092735054
0.016146291 -0.010707036 -0.0058861766 0.66713041 -0.57362401 -0.47528154 0.0023559143
0.017306987 -0.0084038749 -0.0067722299 0.66214478 -0.47430137 -0.58017451 0.0010183706
0.019175198 -0.0071302047 -0.0056166444 0.68622702 -0.45584792 -0.56682909 0.0011848228
0.018265013 -0.005842343 -0.0076013217 0.67216593 -0.32875201 -0.66341174 0.0015537542
0.019727308 -0.0051976615 -0.0062988074 0.70295596 -0.37832603 -0.60226446 0.0025818995
0.02039757 -0.0024776482 -0.0069253249 0.68338257 -0.26052108 -0.68199486 0.0027563325
0.022042453 -0.0018658983 -0.0055210898 0.69882023 -0.29927158 -0.64968199 0.0019308194
0.020705368 0.00054525933 -0.007379334 0.64370745 -0.069828123 -0.76207924 0.0023520556
0.022402577 0.00071378308 -0.0059333704 0.68129504 -0.12220263 -0.72173649 0.003060898
-0.018203752 0.0040790793 -0.0076720114 -0.34765717 0.8932606 -0.28499144 0.00081200723
-0.016404893 0.0050001498 -0.0069415765 -0.35698661 0.90152687 -0.24456042 0.00036075932
0.020509824 0.0037473266 -0.0074452544 0.55646068 0.14260842 -0.81854409 0.0050909612
0.02246315 0.0036239314 -0.0059867641 0.6307798 0.056322992 -0.77391511 0.0035339633
-0.015032088 0.0056139529 -0.0068126912 -0.35951507 0.90036929 -0.24512042 0.00033148233
-0.012734415 0.0066098664 -0.0068074362 -0.36062679 0.89593798 -0.2593134 0.0011361358
-0.01003458 0.0075990781 -0.0073711718 -0.33836469 0.89171338 -0.30059376 0.0027026646
0.017960873 0.0071481224 -0.0077314456 0.41755068 0.33588392 -0.84429461 0.0013508642
0.02012787 0.0066095348 -0.0068737124 0.46012267 0.29469013 -0.8375231 0.003083698
0.022299733 0.0064159306 -0.0056074802 0.55650169 0.22365412 -0.80017793 0.0029214791
-0.0089543825 0.0083384756 -0.0064233737 -0.35612872 0.88797808 -0.29097652 0.0015201637
-0.0067088935 0.0090623228 -0.0067688073 -0.32064375 0.87702125 -0.35780066 0.0021268195
-0.0037076904 0.010196251 -0.0066079046 -0.28068918 0.86771125 -0.41023263 0.0034341752
-0.0010240432 0.010661988 -0.0072366851 -0.21052459 0.84780544 -0.48672915 0.0041437242
0.0022083693 0.010956536 -0.0078169946 -0.11732111 0.80329573 -0.5839107 0.0022670527
0.0040429821 0.010951979 -0.0080512064 -0.075523399 0.76416987 -0.64057845 0.0033944731
0.0093131252 0.010951569 -0.0080722766 0.048726272 0.68879646 -0.72331542 0.0019916589
0.011495247 0.010728176 -0.0077722864 0.15748964 0.62783253 -0.76224887 0.0015789729
0.014293705 0.010238378 -0.0073993849 0.22970285 0.54869568 -0.80384678 0.0014401772
0.017170735 0.0096266558 -0.0068268618 0.33427343 0.47791395 -0.81231737 0.0019716069
0.019967806 0.0092726899 -0.0057698558 0.39546266 0.42667365 -0.81336266 0.0018222525
0.021802682 0.0084693637 -0.0052325325 0.46083152 0.3848868 -0.79968518 0.0019676206
-0.00033444725 0.011608043 -0.0058962135 -0.26937848 0.84451985 -0.46284068 0.0021543533
0.0022932701 0.011998477 -0.0063258233 -0.1888997 0.82031107 -0.53982097 0.0023079608
0.0052616186 0.012306479 -0.0065397401 -0.11409615 0.79321408 -0.59815836 0.0022031583
0.0082443282 0.012487738 -0.0065481942 -0.010653489 0.73198837 -0.68123388 0.0020982954
0.011101288 0.012475328 -0.0063586463 0.090871319 0.68466234 -0.72317344 0.0029800907
0.01410851 0.01230925 -0.0059514698 0.20280585 0.61084247 -0.76533735 0.0012442648
0.01684301 0.011800299 -0.0055195922 0.29050902 0.55150515 -0.78195053 0.0007843271
-0.057663415 -0.031276859 -0.0033504167 -0.49038476 -0.76359183 -0.42005989 0.0012916229
-0.056229461 -0.031473778 -0.0047551887 -0.47118494 -0.79121906 -0.38981685 0.0025016863
-0.062853113 -0.028230587 -0.0027553933 -0.66473716 -0.31526476 -0.67729795 0.027482327
-0.060910538 -0.02926751 -0.0037048766 -0.55370724 -0.57716382 -0.60024178 0.013762294
-0.058729503 -0.030474246 -0.004244213 -0.56819916 -0.67515594 -0.4704403 0.0085107395
-0.063085042 -0.026306458 -0.0031121243 -0.7775445 -0.0667703 -0.62527299 0.017215077
-0.061695885 -0.02666229 -0.0045804745 -0.76340377 -0.11496418 -0.63560838 0.010786241
-0.062840343 -0.024012098 -0.0029374827 -0.75861531 0.22290635 -0.61222184 0.014502402
-0.061593942 -0.023147181 -0.0042728814 -0.81064016 0.23840143 -0.53481507 0.0098394779
0.0014978088 -0.022966012 -0.0041412311 0.52008337 -0.82712448 -0.21302223 0.0004819335
-0.060636088 -0.021073777 -0.003867914 -0.7730279 0.41565034 -0.47923139 0.0039257035
-0.058783423 -0.019239696 -0.0046609091 -0.76850593 0.48290798 -0.41976002 0.0027644802
0.0033483999 -0.021776281 -0.004733284 0.53102636 -0.82376045 -0.19856925 0.00022979603
0.0055075902 -0.020608621 -0.0035500424 0.54178154 -0.824413 -0.16375564 0.0002357695
0.0075098025 -0.019185523 -0.0042102933 0.57002765 -0.79416585 -0.21063966 0.0009513353
0.0090134731 -0.018112371 -0.0040970417 0.57859105 -0.78922462 -0.20580785 0.00099490071
0.011170805 -0.016703505 -0.0034183394 0.59793842 -0.76802349 -0.22936763 0.0017482151
0.012132104 -0.015636344 -0.0043032961 0.61934513 -0.73809725 -0.26762661 0.0016288635
0.014228274 -0.01404523 -0.0036189775 0.6354785 -0.70476025 -0.31540465 0.00040547064
0.015880611 -0.013084838 -0.0024389224 0.65473306 -0.68982071 -0.30898544 0.0023105864
0.015365385 -0.012550542 -0.004407485 0.65615332 -0.6677556 -0.35151857 0.0014348828
0.01711195 -0.011294798 -0.0035498519 0.65865386 -0.65598834 -0.36858442 0.00078543206
0.018294547 -0.0094704889 -0.0043619722 0.68559265 -0.595667 -0.41850138 0.0010998782
0.019912895 -0.0081070736 -0.0034494908 0.70301551 -0.54201186 -0.46042627 0.0017330348
0.021071538 -0.0056976099 -0.0042723464 0.72006929 -0.4106608 -0.55933714 0.0014792465
0.02238429 -0.0050246976 -0.0031144042 0.71131915 -0.4752259 -0.51786619 0.0024885156
0.023416277 -0.002405169 -0.0036622938 0.72027874 -0.32610071 -0.61225557 0.0012906679
0.025175929 -0.0010135414 -0.0022626715 0.74223042 -0.36592928 -0.56141764 0.0017192716
0.024067212 0.00052874745 -0.0041558938 0.71730244 -0.15873127 -0.67844045 0.0017174202
0.025478669 0.00084602111 -0.0026506176 0.73021263 -0.22178887 -0.64621919 0.002745271
0.024144512 0.0036269643 -0.0044799303 0.67605031 -0.0050745183 -0.73683804 0.0023736516
0.025786668 0.0037195075 -0.0029239543 0.70268452 -0.063779742 -0.70863724 0.0030714809
-0.011885763 0.0073192474 -0.0049315887 -0.35608736 0.8976025 -0.25982988 0.0012225386
-0.010968257 0.0077828076 -0.0047683911 -0.36955625 0.88927603 -0.26947409 0.00081033906
0.023880307 0.0067860428 -0.0043669762 0.60904717 0.15272959 -0.77828997 0.0023478202
0.025814004 0.0065955641 -0.0028411993 0.64562756 0.10927279 -0.75579399 0.0033569054
-0.009592399 0.0084797125 -0.0044656144 -0.35612985 0.88797748 -0.29097697 0.0015170518
-0.0066486439 0.0099215824 -0.0039200741 -0.36114287 0.88975501 -0.27912697 0.0012964042
-0.0042832321 0.01091106 -0.0042034732 -0.33215678 0.89148486 -0.30810156 0.0020648239
0.020776823 0.01059807 -0.0046503088 0.37433365 0.44065461 -0.81590313 0.0027358802
0.023312125 0.0096965926 -0.0037542516 0.51807523 0.33950779 -0.78506839 0.0021880995
0.025527798 0.0092023099 -0.0025318079 0.5573644 0.30778193 -0.77111298 0.0031960227
-0.0030233294 0.011619377 -0.0035035657 -0.35172847 0.88003922 -0.31908956 0.0023181494
-0.00068400009 0.012479954 -0.0037252591 -0.33243644 0.87586254 -0.349787 0.0038769383
0.0021429015 0.013378507 -0.0038653053 -0.28822133 0.87358183 -0.39215201 0.0020879966
0.0049392367 0.013689638 -0.0045507848 -0.1483708 0.83283174 -0.53327054 0.0020428759
0.0075032637 0.013781018 -0.0049848752 -0.047754355 0.76597226 -0.64109749 0.0016317697
0.011887896 0.013780097 -0.0050205635 0.038943846 0.71514171 -0.6978938 0.001559103
0.014432798 0.013671507 -0.0047569135 0.14826679 0.67576039 -0.72205609 0.0017028861
0.01740589 0.013096771 -0.0043132082 0.25794384 0.59398282 -0.76200354 0.0017954222
0.020250242 0.012660795 -0.0035741217 0.313977 0.54023433 -0.78074664 0.00049748184
0.022678427 0.012292783 -0.0027373205 0.40676954 0.4862617 -0.77336156 0.0023001721
0.0031115506 0.014307632 -0.0025706338 -0.30087543 0.86194497 -0.40807456 0.0019753238
0.005459642 0.01463879 -0.0031966781 -0.21975526 0.84201944 -0.49265692 0.0021718098
0.0082595246 0.014948062 -0.0034991866 -0.10705005 0.81232673 -0.57329363 0.0030111971
0.011221162 0.015212254 -0.0034302967 -0.025790861 0.76386774 -0.64485723 0.0017383752
0.014236796 0.015217275 -0.0032523111 0.099180929 0.70919901 -0.69799709 0.0025069963
0.01717006 0.014940691 -0.0029281629 0.20070778 0.65255076 -0.73068035 0.0017611521
0.019804295 0.014571073 -0.0023715459 0.29367441 0.58874983 -0.75307959 0.00076515554
-0.065937236 -0.028663771 0.00029449072 -0.64335304 -0.22099037 -0.73298031 0.037123077
-0.063918605 -0.029179685 -0.00085605215 -0.56524104 -0.62124121 -0.54273564 0.030038724
-0.061197504 -0.030451085 -0.0012282152 -0.53799367 -0.68851835 -0.48631814 0.016105361
-0.066174574 -0.026503228 0.00010489859 -0.66984451 0.051836986 -0.74068981 0.030995507
-0.064717896 -0.026345463 -0.0013445532 -0.7110492 0.021768047 -0.70280528 0.0175303
-0.065379731 -0.024410106 0.00046102237 -0.76311493 0.33428407 -0.55309105 0.021037458
-0.063954867 -0.023603095 -0.0007958645 -0.77283037 0.41086239 -0.48365825 0.0083652576
-0.062213246 -0.021938734 -0.0018875496 -0.79872894 0.37809202 -0.46805814 0.0061408733
-0.0617298 -0.021467023 -0.0020085769 -0.78365308 0.38347605 -0.48870647 0.0054357876
0.0089341057 -0.018742377 -0.00071366597 0.58383024 -0.79059756 -0.1846559 0.00062302774
0.011035756 -0.017353566 -0.00049676467 0.59660888 -0.78460085 -0.16869919 0.00036848034
0.01459702 -0.01460843 -0.0011103 0.61204988 -0.76221514 -0.21076782 0.001599583
0.016399555 -0.013311053 -0.00050385762 0.62497246 -0.74449188 -0.2348218 0.0021496459
0.017785423 -0.011917939 -0.00091564376 0.66049129 -0.69373411 -0.28720075 0.0016982383
0.019425426 -0.010430501 -0.00065848185 0.67391121 -0.6664235 -0.31894097 0.0013649316
0.021006919 -0.0086095305 -0.00087503996 0.69435602 -0.60320699 -0.39244246 0.0023942331
0.022310246 -0.0074049025 -0.00043745805 0.70852458 -0.58851451 -0.38941431 0.00089817512
0.023493018 -0.0056054373 -0.00079072407 0.73322707 -0.53871804 -0.41492289 0.00086864049
0.024996005 -0.0044649434 0.00045200251 0.73712379 -0.50975591 -0.4436186 0.0023711685
0.024272043 -0.0035764517 -0.0017191367 0.74105984 -0.47900644 -0.47051358 0.0015698203
0.025726974 -0.0022785952 -0.00053303875 0.75118577 -0.39890328 -0.52592403 0.0014825272
0.026856359 0.00052037858 -0.00082646497 0.75822544 -0.25542045 -0.59987879 0.0021864888
0.028228808 0.0014171696 0.00044549536 0.774216 -0.32068655 -0.54566443 0.0023698001
0.027224172 0.0034879555 -0.0014203852 0.73214835 -0.10098054 -0.67361832 0.0017042503
0.028477024 0.0037920896 2.5844201e-06 0.77462059 -0.14698614 -0.61510819 0.0025393707
0.027252037 0.0067474907 -0.0015268223 0.70665228 0.056956492 -0.70526481 0.0016319185
0.02854782 0.0066708373 -0.00012386125 0.74402452 0.013881057 -0.66800815 0.0029877522
0.026788607 0.0099198986 -0.0012530284 0.62824464 0.2083912 -0.74958771 0.002644622
0.028546147 0.0096416213 0.0002650097 0.67247087 0.1666508 -0.7211175 0.0036972042
-0.0036495475 0.011788084 -0.0009552734 -0.37488756 0.89285421 -0.24954081 0.0025775242
-0.0006986158 0.013344838 -0.00084100617 -0.38863006 0.89609122 -0.21444649 0.0021438743
0.001017129 0.013862706 -0.0018242197 -0.35659289 0.90085167 -0.24760406 0.0041100546
0.023655683 0.013247504 -0.0016387161 0.37677553 0.51066077 -0.77282971 0.0010307117
0.02609909 0.012653545 -0.00051054871 0.52263713 0.38587585 -0.76023036 0.0021706938
0.02830812 0.011961744 0.00061189383 0.58138102 0.32906333 -0.74411923 0.0037444835
0.0023606117 0.014729469 -0.00076471129 -0.36676753 0.88519907 -0.28618905 0.0041732923
0.0052289627 0.015829312 -0.0007541799 -0.29570773 0.87462848 -0.38416392 0.0042901305
0.0081397975 0.016384378 -0.0012712218 -0.18819746 0.85994035 -0.47443053 0.0038780388
0.01125051 0.016659943 -0.0016007577 -0.067780659 0.79251772 -0.60607046 0.0018888733
0.014272851 0.016657049 -0.001690303 0.042065192 0.7457701 -0.66487402 0.0015267049
0.01744565 0.016341425 -0.0015641423 0.14913236 0.68386507 -0.71420455 0.00153826
0.020504091 0.015812997 -0.0011425368 0.25970674 0.61344135 -0.74581641 0.0020819558
0.023078941 0.015443885 -0.00031791301 0.33495829 0.57584846 -0.74578911 0.00071444869
0.025500525 0.014816505 0.0004101051 0.43675417 0.51305068 -0.73893493 0.0015468413
0.008476384 0.017302623 0.00021320116 -0.25514323 0.85337704 -0.45458731 0.0025633383
0.011342295 0.017614109 -0.00025060493 -0.13275169 0.82677925 -0.54663795 0.0022583739
0.014306891 0.017872365 -0.00021535717 -0.01695228 0.78834343 -0.6150018 0.0023202039
0.017060719 0.017846556 -7.879734e-05 0.099600129 0.73813897 -0.66725618 0.0022367276
0.020004366 0.01757808 0.00029368047 0.20211428 0.67987573 -0.7049247 0.0017862304
0.022277117 0.017200187 0.00064530503 0.31582475 0.62334186 -0.71533185 0.0015440186
-0.061289262 -0.031014599 0.0012349589 -0.41873494 -0.80431354 -0.42159322 0.0046814387
-0.069560871 -0.028860003 0.0032009855 -0.51797462 -0.24655961 -0.81909138 0.051156498
-0.066991389 -0.029603777 0.0022394899 -0.56048691 -0.42018691 -0.71365076 0.022000555
-0.064403027 -0.030463047 0.0016770391 -0.48096508 -0.62904924 -0.61071235 0.023466134
-0.069342248 -0.026582116 0.0029077251 -0.68791908 0.13440168 -0.7132346 0.037586801
-0.067479104 -0.026116943 0.0015364327 -0.70536572 0.13461058 -0.69594485 0.029952142
-0.068761334 -0.02462595 0.0039164228 -0.32990521 0.82474869 -0.45929536 0.021908453
-0.066541359 -0.024111237 0.0025735255 -0.60844511 0.61731476 -0.49871525 0.013001797
-0.064707756 -0.022988237 0.0021230234 -0.70336711 0.51166707 -0.49342838 0.013687241
0.013163672 -0.016016314 0.00093768071 0.59435338 -0.78427356 -0.17793009 0.00050602836
0.01459618 -0.015129754 0.0021439595 0.60800594 -0.77694386 -0.16336174 0.00050932565
0.016455024 -0.013697335 0.0014920337 0.61508471 -0.77152562 -0.16253926 0.00055929238
0.01835027 -0.012313971 0.0021405919 0.63328469 -0.75530559 -0.16871238 0.00080051098
0.020102762 -0.010723368 0.0019250168 0.66003901 -0.72482145 -0.1974397 0.0013451218
0.021387324 -0.0094886292 0.0017933501 0.67235434 -0.70449692 -0.22720879 0.0015193692
0.022930969 -0.0079816421 0.001952311 0.71220195 -0.63015074 -0.30931917 0.0010438974
0.02432188 -0.0063260291 0.0018878458 0.72461915 -0.59501916 -0.34767714 0.0020309065
0.025735013 -0.0049575418 0.0025551673 0.74608409 -0.54904628 -0.37670499 0.00080349093
0.027013756 -0.0025729006 0.001791751 0.77018404 -0.44244722 -0.45940948 0.0014132604
0.028194141 -0.0018233506 0.0030110842 0.7752943 -0.4720926 -0.41958004 0.0016523115
0.027672488 -0.00057336106 0.00096694659 0.77699369 -0.33694786 -0.53173959 0.0019023631
0.029087238 0.00061331806 0.0023732381 0.80718958 -0.35004419 -0.47530416 0.0027464645
0.02996685 0.0035234734 0.0021639718 0.80237418 -0.20635878 -0.56001043 0.0038005314
0.03110189 0.004349893 0.00346494 0.81037271 -0.25254485 -0.52869391 0.0022472909
0.030051641 0.0066866754 0.0016200449 0.7676236 -0.032134496 -0.64009476 0.001811229
0.031319335 0.0067007784 0.0031731054 0.79164451 -0.082307525 -0.60541266 0.0019371245
0.029987298 0.0096646193 0.0017210301 0.71314818 0.090933986 -0.69509047 0.0014094204
0.031374674 0.0095055001 0.0031892071 0.75332773 0.053282451 -0.65548325 0.0018355631
-0.0018167342 0.013006947 0.001308213 -0.42910808 0.8855772 -0.17781782 0.00056804548
0.027523257 0.013782111 0.0010926826 0.4960171 0.42169636 -0.75903833 0.0046756803
0.029581957 0.012812437 0.0020852322 0.64103603 0.28107664 -0.71419096 0.0039564529
0.031269275 0.012329598 0.003402547 0.69601268 0.23777151 -0.67751831 0.0053063347
0.00051368214 0.014447859 0.0026379032 -0.41948101 0.87916386 -0.22606763 0.0016310383
0.0023944676 0.015468643 0.0021979855 -0.4323982 0.87757337 -0.20711568 0.0011220925
0.0047405027 0.016582293 0.0018027285 -0.35185528 0.88788557 -0.29640692 0.0027275987
0.024248559 0.01659262 0.0011433763 0.39607343 0.55512804 -0.7314086 0.00079037045
0.026383702 0.015906187 0.0017547123 0.40925175 0.53970015 -0.73568797 0.0011165645
0.028806761 0.015448692 0.0029961336 0.52421808 0.4619351 -0.71540993 0.0021920742
0.0060725221 0.017424101 0.0026558693 -0.37568897 0.87045074 -0.31807747 0.0027692863
0.0083405757 0.01825829 0.0023225909 -0.32339039 0.86933583 -0.37372983 0.0042961799
0.01131275 0.019132426 0.0022549145 -0.2123297 0.86070496 -0.46271271 0.0036209081
0.014197665 0.019622041 0.0021814751 -0.10253746 0.83343714 -0.5430181 0.003726186
0.017232649 0.019539608 0.0019342173 0.045448378 0.77670383 -0.62822407 0.0014353767
0.020317052 0.019247718 0.0021024952 0.15864223 0.7218526 -0.67361814 0.0009434566
0.023283519 0.018631384 0.0024152966 0.29038078 0.65950292 -0.69335049 0.0015642702
0.025907382 0.017988611 0.0031162938 0.39978248 0.58089709 -0.70903635 0.00059352798
0.02781726 0.017300688 0.0036553545 0.45546994 0.53755599 -0.70963413 0.00039909026
0.01462935 0.020592796 0.0035530971 -0.148688 0.84429413 -0.51483911 0.0023276017
0.017406024 0.020779395 0.0035071503 -0.010690245 0.81105506 -0.58487213 0.0022999803
0.020279534 0.020592919 0.0035554999 0.12653401 0.74387634 -0.6562295 0.0019724732
-0.072280005 -0.030951679 0.0065363375 -0.17757504 -0.85262108 -0.49143094 0.02675543
-0.069842689 -0.031079598 0.0061416281 -0.20827115 -0.86388296 -0.45861676 0.013644353
-0.074997358 -0.029050188 0.0064567951 -0.55675423 -0.15000045 -0.81702185 0.056993075
-0.072713576 -0.029274169 0.0054591065 -0.36645237 -0.36836359 -0.85441267 0.02982473
-0.070248879 -0.029898433 0.0045844242 -0.49309978 -0.48528975 -0.72204328 0.04471973
-0.067417726 -0.030783923 0.0043424768 -0.46851948 -0.60322267 -0.64545482 0.019707825
-0.074987188 -0.026736155 0.0065079667 -0.53748637 0.14220247 -0.83119607 0.046638433
-0.072749607 -0.026335975 0.0054196948 -0.41543758 0.40780294 -0.81308568 0.037945252
-0.070750013 -0.025934082 0.0042727124 -0.59894466 0.28411126 -0.74869621 0.053367201
-0.072311319 -0.024601778 0.0063755615 -0.29099712 0.82531863 -0.48391098 0.029939592
-0.069730565 -0.024328759 0.0054740859 -0.27799052 0.80137122 -0.52964652 0.01786867
-0.067252308 -0.023685431 0.0052568316 -0.48194861 0.77068943 -0.41684943 0.020707713
0.017943915 -0.012854839 0.0041549904 0.62945431 -0.76204509 -0.15190311 0.00039240479
0.019851465 -0.011460314 0.0047679944 0.64865571 -0.73944664 -0.18017918 0.00051357073
0.021789849 -0.010080496 0.0060221953 0.64967191 -0.74347198 -0.15866883 0.00038764943
0.023634985 -0.0082766647 0.0049029281 0.68265271 -0.70104319 -0.20621316 0.0015898872
0.025119141 -0.0072469953 0.0063414974 0.68446398 -0.69532472 -0.21916337 0.0012930107
0.026485741 -0.0054415278 0.0052565457 0.73130959 -0.61780918 -0.28896031 0.0012695087
0.027951829 -0.0041647051 0.0061542643 0.73507065 -0.607526 -0.30097046 0.0013973583
0.029057682 -0.0021934672 0.0053583886 0.77935773 -0.52122426 -0.34774539 0.0015490749
0.030233398 0.00034196186 0.0046957424 0.81920689 -0.38473579 -0.42529815 0.0020854326
0.031201892 0.00091409148 0.0059477594 0.80587602 -0.43141252 -0.40552083 0.0029642584
0.032082215 0.0037265036 0.0053049289 0.8189705 -0.281515 -0.50003666 0.0014242682
0.03283561 0.0067710821 0.0052464213 0.82845956 -0.13392183 -0.54380101 0.0024892057
0.032891862 0.0095646912 0.0051643066 0.81806046 -0.013098958 -0.57498306 0.0016755193
0.032750867 0.012718602 0.0052268729 0.76448292 0.17388815 -0.62074858 0.0053258832
0.0042721359 0.016851611 0.0043309731 -0.4339112 0.86798096 -0.24151623 0.00058509101
0.030129921 0.016082017 0.0043951757 0.57689667 0.4121927 -0.70518601 0.0024957254
0.03211163 0.01561509 0.0057263849 0.59800971 0.40086287 -0.69404137 0.0019742216
0.005808535 0.017953347 0.0055024056 -0.43721366 0.86796933 -0.23552795 0.00066174252
0.0084064417 0.019300418 0.0051639704 -0.39156935 0.87424058 -0.28701359 0.0029329068
0.00993028 0.01967714 0.004221241 -0.32767525 0.88542396 -0.32962617 0.0072729625
0.026585136 0.019251971 0.0045520235 0.34631726 0.62796742 -0.69693696 0.00097747368
0.029034443 0.018482611 0.0053958613 0.44098517 0.56621897 -0.6963678 0.00068050739
0.031104676 0.017925816 0.0064033782 0.53051841 0.5191046 -0.67013472 0.0009206176
0.0094840918 0.020233832 0.006358753 -0.41258886 0.85929471 -0.30229613 0.0027919605
0.01132905 0.020709416 0.0054991581 -0.32389399 0.87271583 -0.36532146 0.003344832
0.014302525 0.021572074 0.0053602615 -0.23188441 0.85420299 -0.46536744 0.0033084741
0.017277051 0.022171304 0.0055041946 -0.084431961 0.8508299 -0.51861328 0.0042930413
0.020108957 0.022086278 0.0053576473 0.02981863 0.81090128 -0.58442277 0.0020172449
0.023221388 0.021538343 0.0053910222 0.22430664 0.7162348 -0.66082847 0.00073235331
0.026124462 0.020966008 0.0059077134 0.31937459 0.66400713 -0.67608768 0.0012686605
0.028328598 0.020359796 0.0065458892 0.42702582 0.60933125 -0.66810507 0.00049376982
-0.074630961 -0.031402037 0.0077584116 -0.16633984 -0.73122776 -0.66154134 0.074662194
-0.07294374 -0.031834185 0.008184555 -0.17128022 -0.8576656 -0.48484308 0.026512314
-0.07031092 -0.031668562 0.007911603 -0.13312073 -0.89503556 -0.42566434 0.01567233
-0.075467408 -0.030205769 0.0071257455 -0.22810969 -0.31724659 -0.9205001 0.054033391
-0.075656801 -0.025628431 0.0072972085 -0.69204879 0.43463457 -0.5763343 0.050053112
-0.074976891 -0.02426805 0.0080964556 -0.21823888 0.80907929 -0.54567623 0.032152552
-0.073034316 -0.023897942 0.0079726866 -0.21826813 0.8090753 -0.54567039 0.032153405
-0.070502989 -0.023883972 0.0072387485 -0.29442212 0.87526959 -0.38369101 0.020722713
-0.067441158 -0.023418032 0.007387857 -0.25293931 0.91746306 -0.3070558 0.013293042
0.023786582 -0.0087203775 0.0083530946 0.66738564 -0.72752517 -0.15907086 0.00051077345
0.026899513 -0.0061102267 0.0087301536 0.69046259 -0.70524055 -0.16092633 0.00091619289
0.028561398 -0.0043224264 0.0086280359 0.73965782 -0.62904477 -0.2391838 0.00045777831
0.029926907 -0.0026402315 0.0084469328 0.77658367 -0.56985062 -0.26867855 0.0017390659
0.031112783 -0.0012678595 0.0088127656 0.76685041 -0.57847494 -0.27804169 0.0016572725
0.032167397 0.00057657785 0.0084025888 0.81049681 -0.48180631 -0.3331027 0.00079281302
0.033202998 0.0032365907 0.0076915463 0.85314244 -0.33413067 -0.40063027 0.0023256792
0.034111548 0.0040846216 0.0090047037 0.85257906 -0.37456089 -0.36443529 0.0015128885
0.03369166 0.0055497494 0.0070034368 0.84980732 -0.1660109 -0.50026786 0.0018960999
0.034682345 0.0068680858 0.0084626051 0.8635006 -0.196041 -0.46468768 0.0034591148
0.034937367 0.009654996 0.0082900403 0.85938352 -0.071958892 -0.50624293 0.00087443134
0.034947786 0.012645279 0.008373755 0.80527192 0.065546639 -0.58927137 0.0034783897
0.033331383 0.016377788 0.0072968826 0.6883049 0.30247536 -0.659352 0.0053046597
0.034898523 0.015762707 0.0086054979 0.75405687 0.22948478 -0.61541456 0.0071395109
0.0078384047 0.019581683 0.0078814579 -0.47655928 0.85782158 -0.19244064 0.0023994683
0.030223437 0.019634394 0.0071983542 0.43748799 0.60008812 -0.66970032 0.00075936463
0.03235887 0.018827831 0.0081525454 0.56779563 0.5126763 -0.64402717 0.0018450128
0.034214295 0.018018391 0.0092715947 0.63316876 0.4435434 -0.63432384 0.0022280994
0.0092704734 0.020553164 0.0083927466 -0.46483395 0.86343026 -0.19600432 0.002726208
0.011358588 0.021739777 0.0083015105 -0.43316099 0.87095708 -0.23195975 0.0058010481
0.013837921 0.022608075 0.0077849803 -0.31452557 0.87562728 -0.36653847 0.0050473716
0.016378999 0.023118302 0.0072569801 -0.13679396 0.85325241 -0.50323725 0.0020137927
0.023498211 0.023036284 0.0071938932 0.16457008 0.75637227 -0.63310164 0.0013042771
0.02668253 0.022341443 0.007577206 0.27850226 0.70611197 -0.65103173 0.0013434071
0.029328667 0.021603083 0.0083319293 0.41715151 0.62514573 -0.65967995 0.0017604223
0.031584404 0.02078082 0.0092006857 0.50406164 0.57781315 -0.64191425 0.001048591
0.014635171 0.023370707 0.0088475933 -0.37370843 0.86679411 -0.33016673 0.0026768965
0.017384391 0.024081515 0.008683932 -0.22434716 0.86565888 -0.44755238 0.0022057369
0.020274714 0.024337081 0.008519874 -0.043056078 0.83420897 -0.54976511 0.0026645947
0.023106549 0.024296716 0.0086839413 0.11625385 0.78472114 -0.60884959 0.0021236106
0.026065025 0.02380258 0.0089247981 0.25527093 0.73281246 -0.63073188 0.0015693528
0.02849251 0.023343667 0.0095458357 0.37571257 0.67181391 -0.63836217 0.0012378715
-0.072048329 -0.032706276 0.010709281 -0.17132984 -0.85766798 -0.48482129 0.026513034
-0.070297718 -0.032192163 0.01025639 -0.11272953 -0.88410056 -0.45349547 0.016456587
-0.074563123 -0.023097925 0.01004983 -0.21817993 0.80908501 -0.54569137 0.032159042
-0.073406205 -0.02311055 0.010266597 -0.21812496 0.80909187 -0.54570293 0.032163247
-0.071237162 -0.023582168 0.010158936 -0.1769032 0.90617889 -0.38411614 0.012787225
0.025841501 -0.0073630009 0.011470209 0.67937607 -0.71682578 -0.15687259 0.00061326969
0.029445563 -0.0042499024 0.01163141 0.70672977 -0.68603945 -0.17286642 0.0016720416
0.030426409 -0.0032959373 0.012003864 0.74159276 -0.64550006 -0.18267396 0.0011634418
0.03144649 -0.0018467882 0.011030014 0.77347922 -0.58987504 -0.23189959 0.00071384979
0.033027325 0.00022616866 0.01140816 0.80238307 -0.54393494 -0.24559386 0.0012713115
0.034025747 0.0015025868 0.012006651 0.81928229 -0.5010094 -0.27886569 0.0015559945
0.034948796 0.0036610349 0.011468886 0.85042655 -0.40081364 -0.34076831 0.002611611
0.035996497 0.0067184232 0.011165679 0.86653733 -0.23436652 -0.44066465 0.0016157244
0.036936898 0.0077464189 0.012440438 0.88171196 -0.28267601 -0.37772787 0.0021271997
0.036248699 0.0094668111 0.010505964 0.87089622 -0.078134909 -0.48521614 0.0013274373
0.03712697 0.0097707575 0.012052917 0.89250559 -0.13342088 -0.4308511 0.0024270262
0.036316101 0.012507371 0.010494282 0.8602826 0.0097515071 -0.50972426 0.0004727956
0.037140667 0.012539442 0.011943067 0.87981892 -0.0082931388 -0.47523665 0.0006997225
0.036259387 0.015796324 0.010536271 0.82029593 0.14353111 -0.55363649 0.0061390479
0.037125282 0.015695777 0.011985083 0.85046375 0.085737072 -0.51899952 0.0052934843
0.035408553 0.018934211 0.011182138 0.66434228 0.4123303 -0.62340444 0.0062752943
0.037093796 0.018153118 0.012395595 0.7619437 0.27881247 -0.5845558 0.009891523
0.0085879667 0.020445563 0.011672179 -0.50759715 0.84313554 -0.17739074 0.0017520624
0.010972493 0.022084538 0.010757002 -0.48327219 0.85355473 -0.19465952 0.0025313676
0.030565921 0.022781588 0.01030923 0.44333291 0.62866569 -0.63893306 0.00027813998
0.032547548 0.021955611 0.011089462 0.51517051 0.58073771 -0.6303516 0.0015115506
0.034575902 0.021145729 0.012026629 0.57515377 0.52293682 -0.62907493 0.0010973261
0.012438715 0.023359336 0.012461702 -0.53166449 0.82978553 -0.16967283 0.0024000381
0.014285783 0.024120081 0.011292215 -0.44084808 0.85109484 -0.28511485 0.0048940936
0.017174534 0.025283316 0.011240897 -0.3098729 0.8799929 -0.35998806 0.0032517889
0.020124204 0.025592688 0.01052072 -0.081407681 0.85309678 -0.51536268 0.0020032458
0.023332119 0.025588403 0.010437853 0.074168988 0.81233561 -0.57845473 0.0017770602
0.026368827 0.025193715 0.010731994 0.2104954 0.76086837 -0.6138168 0.0012506177
0.029321559 0.024573946 0.011414782 0.336537 0.7092362 -0.61945689 0.0013426602
0.031768385 0.023783108 0.012183116 0.46684238 0.61938047 -0.63120991 0.00057286408
0.018438183 0.026232846 0.012294601 -0.31249061 0.85264975 -0.41873387 0.0052085016
0.020453539 0.026430294 0.011899292 -0.14184783 0.86997873 -0.47224578 0.0029360161
0.023222093 0.02655326 0.011864574 0.023035236 0.84143865 -0.53986144 0.0024340218
0.026009869 0.026448144 0.01223557 0.18598528 0.79039115 -0.58368778 0.0022953197
0.028065529 0.026255675 0.012727524 0.26554772 0.75467098 -0.59996349 0.0005105426
0.028820042 -0.0049986038 0.013338546 0.70672989 -0.68603957 -0.17286579 0.0016721104
0.032206252 -0.0016313733 0.013601602 0.7546742 -0.63227385 -0.17520484 0.0013991622
0.033440951 -0.00019098236 0.014085854 0.79612249 -0.56309515 -0.22161406 0.0005560292
0.034491766 0.0010608525 0.014648871 0.81709522 -0.52612287 -0.23569076 0.00087063637
0.036014646 0.0037544796 0.014212268 0.84777051 -0.46072859 -0.26270571 0.0010574284
0.037173931 0.005121937 0.015676897 0.86645794 -0.42598233 -0.26036462 0.0024961887
0.036502626 0.0055890139 0.013079177 0.88170916 -0.28267837 -0.3777326 0.002125819
0.037464313 0.0069965478 0.014365201 0.89447719 -0.28712559 -0.34273818 0.0012617867
0.038181588 0.0097653363 0.014455798 0.90898353 -0.15776707 -0.38582188 0.0022949954
0.03847805 0.012717272 0.01452824 0.90129238 -0.033002365 -0.43195245 0.0010824092
0.038266324 0.01550199 0.014336617 0.8869012 0.0084061949 -0.46188277 0.00068594381
0.036504861 0.020021759 0.013110082 0.70330495 0.35891128 -0.61363256 0.0037336273
0.038218334 0.018901864 0.014284571 0.76519334 0.27110097 -0.58393782 0.0087406132
0.011263401 0.02271115 0.014068882 -0.55888283 0.81667209 -0.14386304 0.0008800762
0.035775468 0.022069348 0.013923504 0.60590237 0.50961685 -0.61087894 0.0010175061
0.037577476 0.021268539 0.015134324 0.65952325 0.46195158 -0.59298384 0.0025477372
0.014332744 0.02495987 0.014277031 -0.51788718 0.82911843 -0.2106076 0.0041282894
