# .PCD v0.7 - Point Cloud Data file format
VERSION 0.7
FIELDS x y z normal_x normal_y normal_z curvature
SIZE 4 4 4 4 4 4 4
TYPE F F F F F F F
COUNT 1 1 1 1 1 1 1
WIDTH 551
HEIGHT 1
VIEWPOINT 0 0 0 1 0 0 0
POINTS 551
DATA ascii
0.025398709 0.023004487 -0.0039641373 0.8096568 -0.21709874 -0.54527426 0.0033068142
-0.00066558056 0.026188286 -0.0036885792 -0.78977531 -0.34382519 -0.50797564 0.0032180548
0.00063568569 0.02528399 -0.0049285521 -0.69173324 -0.40168339 -0.60012972 0.0030050797
0.025922928 0.025945097 -0.0041207173 0.85940307 -0.1429795 -0.49090037 0.0018808106
-0.001804595 0.02895833 -0.0040626321 -0.83872491 -0.3857995 -0.38431659 0.0026288158
0.026354993 0.028917156 -0.0038169981 0.91278082 -0.050247151 -0.40534729 0.00154112
-0.0034109619 0.032385606 -0.0038377014 -0.89424121 -0.3771759 -0.24097937 0.0032771374
-0.0026666755 0.031230427 -0.0045680897 -0.85359454 -0.42958319 -0.29467717 0.0031082411
0.026508495 0.031793151 -0.003634095 0.93702716 0.0030650652 -0.3492431 0.00168762
-0.0042454777 0.034647025 -0.0044126688 -0.89691192 -0.39591679 -0.19697434 0.0017743143
0.026097208 0.035134692 -0.004177704 0.94322002 0.089343384 -0.31992775 0.0021463514
-0.0060278629 0.039406404 -0.0053189178 -0.89590573 -0.41275784 -0.16426742 0.00076566008
-0.0053423843 0.037405357 -0.0041227569 -0.89443666 -0.4045946 -0.19048959 0.0013652205
0.025762105 0.037953779 -0.0041133342 0.95002669 0.13615628 -0.28091067 0.00081182137
0.025141647 0.04116597 -0.004029098 0.94865394 0.16070582 -0.27245051 0.00085324253
0.024375051 0.043161854 -0.0051739295 0.93038177 0.20318139 -0.30513465 0.00083033234
0.022038983 0.049717113 -0.0051176925 0.90985918 0.35020617 -0.22251284 0.00048442133
0.0084444163 0.0030189166 0.00044572656 -0.27467591 -0.28733724 -0.91760033 0.0014122854
0.010803182 0.0023963249 0.00017542439 -0.14155367 -0.32558727 -0.93485588 0.0016493109
0.01353734 0.0022622827 5.5949204e-05 0.016647749 -0.35662332 -0.93409991 0.0016147809
0.016382564 0.002669231 0.0001851581 0.18560761 -0.37554744 -0.90802753 0.0021881638
0.018686272 0.0032926328 0.00054960651 0.381219 -0.4115746 -0.82781547 0.0038460956
0.0057314089 0.0060564857 0.00049728854 -0.42561802 -0.29069203 -0.85694069 0.0021946121
0.007714693 0.0051805503 -4.5381486e-05 -0.32594836 -0.29989871 -0.89655912 0.0014193658
0.010676963 0.0050922064 -0.00079416204 -0.16712838 -0.37080607 -0.91354853 0.0015913273
0.013503843 0.0050887042 -0.0010725621 -0.0044029141 -0.39457208 -0.91885448 0.0016039158
0.01658234 0.0050916569 -0.00082979118 0.15527539 -0.3850458 -0.90974134 0.0015347581
0.019513702 0.0052750199 -5.1611569e-05 0.36745217 -0.39011446 -0.84426862 0.0035211961
0.021363996 0.0062917303 0.00038307114 0.55525744 -0.40212354 -0.7280013 0.0041127345
0.0049849814 0.0081596887 6.4169522e-05 -0.48049673 -0.30876648 -0.82084477 0.0021048191
0.0076611075 0.0080639161 -0.0011458891 -0.33075967 -0.35871595 -0.87288082 0.0016811209
0.010514744 0.0076719401 -0.0018374906 -0.18210222 -0.39770588 -0.8992601 0.0011183416
0.013413724 0.0072472026 -0.0020229346 -0.021012347 -0.42737162 -0.90383184 0.0014588018
0.01668198 0.0074262307 -0.0019173812 0.14143893 -0.44545212 -0.88406307 0.0019444363
0.019676168 0.008080706 -0.0013901506 0.33940208 -0.41878414 -0.84227437 0.0033938165
0.022050705 0.0081767337 -0.00011298712 0.55656964 -0.38758135 -0.73485434 0.0030020939
0.00262403 0.011764919 0.00034145708 -0.63724273 -0.29855287 -0.71048421 0.0020489525
0.0045341612 0.010998605 -0.00077156594 -0.51193666 -0.33893773 -0.78933018 0.003378083
0.006881387 0.01060643 -0.0018708948 -0.35361466 -0.38620946 -0.85193837 0.0018761333
0.020419562 0.010139411 -0.0021538665 0.35206926 -0.3955265 -0.84829593 0.0046190359
0.022585377 0.010877594 -0.0011280235 0.54596645 -0.38931817 -0.74185711 0.0033450627
0.024457868 0.011759945 0.00016233185 0.68459356 -0.33345798 -0.64818007 0.0023218137
0.0021071904 0.014205978 -0.00038514333 -0.65850496 -0.31282589 -0.68447876 0.0028218857
0.0041181706 0.01371565 -0.0017902402 -0.52154779 -0.37584022 -0.76598436 0.0021403607
0.023317479 0.013385296 -0.0019070287 0.62482685 -0.36474186 -0.69032949 0.0025494955
0.024850877 0.014208253 -0.00064042746 0.72521609 -0.31366277 -0.61292523 0.002591775
4.5028515e-05 0.01766008 0.00034357305 -0.77071756 -0.27344644 -0.57551843 0.0016400348
0.0015451454 0.016972208 -0.0011932648 -0.67706925 -0.32881668 -0.65837431 0.0019337758
0.0033447018 0.01567292 -0.0021818061 -0.60559595 -0.32808864 -0.72499061 0.0050489996
0.024061413 0.015668167 -0.0023117443 0.66856158 -0.33793229 -0.6624403 0.006266457
0.025585148 0.01698002 -0.0010418673 0.78553402 -0.27250791 -0.55558598 0.0031638786
-0.0004026074 0.020218404 -0.00038755103 -0.80730259 -0.28032193 -0.51930934 0.0030199285
0.00075430673 0.019835701 -0.0017838588 -0.7018345 -0.3343122 -0.62901801 0.0020066525
0.026471576 0.01999297 -0.0009600725 0.86716092 -0.18968037 -0.4604924 0.00096111366
-0.00098880508 0.022956776 -0.001014855 -0.83934098 -0.28189945 -0.46480036 0.003181051
0.026785305 0.022779755 -0.0013858424 0.89624244 -0.15800138 -0.41446963 0.0013884759
0.027516982 0.023341455 0.00028796005 0.93405825 -0.07331717 -0.34951365 0.0029913238
-0.0019257693 0.025902562 -0.0011517589 -0.89375716 -0.28020367 -0.35026288 0.0035921859
0.02690188 0.026041836 -0.0020572664 0.91698784 -0.081504613 -0.39050013 0.0029204718
0.027460041 0.026127338 -0.00063952745 0.94917321 -0.040215429 -0.31217465 0.0010823029
-0.0032611066 0.029897328 -0.00080053799 -0.93280655 -0.27395299 -0.23414032 0.0021924463
-0.0027073026 0.028376834 -0.0011692871 -0.91375583 -0.29334626 -0.28106618 0.0037834558
0.02746884 0.029209981 -0.00049623149 0.96805423 0.026405452 -0.24934667 0.0012306396
-0.0038125045 0.032021958 -0.00084247987 -0.91715616 -0.3367123 -0.21318831 0.0018048981
0.026890416 0.032859221 -0.0022473265 0.95708227 0.076065697 -0.27965596 0.0027311963
0.027493047 0.031129232 -0.00010190206 0.96812743 0.031967454 -0.24840952 0.0012490121
-0.0046668639 0.035016675 -0.0017620602 -0.91552067 -0.35395584 -0.19114715 0.00092990336
0.026847281 0.03476359 -0.0014010151 0.9647845 0.10312103 -0.24198544 0.0012331376
0.026230235 0.038107835 -0.0014618565 0.95262909 0.14651904 -0.26651472 0.00067841378
0.0083920415 -0.0084527452 0.0035531144 -0.11755425 -0.20926303 -0.97076774 0.0019185827
0.010539013 -0.0084524946 0.0035400782 0.018924294 -0.24847546 -0.96845329 0.0028597903
0.0055764653 -0.0059712045 0.0035297135 -0.26640832 -0.18096814 -0.94671917 0.0019778167
0.0075276261 -0.0066854111 0.0033096303 -0.13775516 -0.19646895 -0.97078496 0.0018164589
0.01052883 -0.0067763194 0.0030909167 0.0029900963 -0.24747962 -0.96888846 0.0024813442
0.013504774 -0.0065718428 0.0032441975 0.13451543 -0.29589948 -0.94570029 0.0019625197
0.015624982 -0.0059063504 0.003430895 0.32356089 -0.35464391 -0.87723202 0.0034480793
0.0050923536 -0.0037659444 0.0032943329 -0.32427275 -0.19084477 -0.92651248 0.0016735536
0.0074242819 -0.0039132009 0.0027130558 -0.19452851 -0.21096505 -0.95794177 0.0026041083
0.010510663 -0.0039098663 0.0022898074 -0.05341582 -0.26972747 -0.96145403 0.0016632938
0.013605765 -0.0039105113 0.0023589311 0.089066193 -0.30982459 -0.94661283 0.0011321316
0.01638644 -0.0038208826 0.0028879303 0.29880342 -0.35713241 -0.88497061 0.0021861834
0.01848506 -0.0030438025 0.0033771517 0.4344658 -0.37292346 -0.81985825 0.0024953049
0.0029043332 -0.00034089072 0.0035051527 -0.45838386 -0.16386515 -0.87351733 0.0011140394
0.0046023154 -0.0010218143 0.0029166192 -0.3667874 -0.19256382 -0.9101572 0.0021104827
0.007457146 -0.0010223115 0.0019435971 -0.23996308 -0.26499945 -0.93391281 0.0020001426
0.010525452 -0.0010825568 0.001412444 -0.09332107 -0.31154478 -0.94563794 0.0018536854
0.013575385 -0.0010535485 0.0013367115 0.062724777 -0.35245472 -0.9337244 0.0019207477
0.01644065 -0.0010543573 0.0017888998 0.23648152 -0.37395266 -0.89679199 0.0019434441
0.019308466 -0.00090170023 0.0028218888 0.43899509 -0.3739197 -0.81698674 0.0032540727
0.0025849899 0.0022975418 0.003260076 -0.5518378 -0.17682606 -0.81498927 0.0018982518
0.0045617223 0.0020372225 0.002210719 -0.43251237 -0.22552978 -0.87296581 0.0026842058
0.007400238 0.0017445777 0.0011751109 -0.25659177 -0.30191323 -0.91815531 0.0013546925
0.010382184 0.00084462872 0.00080167758 -0.11573066 -0.34491047 -0.93147367 0.0015120626
0.013557073 0.00060739677 0.00072085555 0.037416033 -0.33761409 -0.94054061 0.0017375409
0.016701786 0.001137778 0.00091411523 0.21350153 -0.40987137 -0.88680464 0.0021518928
0.019679952 0.0018794417 0.0016731373 0.3755655 -0.41240382 -0.82998413 0.0020368337
0.022099704 0.0024498592 0.0029719393 0.58112037 -0.38523871 -0.71686131 0.0036398901
0.0021190899 0.005262055 0.0028853109 -0.60345787 -0.19759341 -0.77252543 0.0027456614
0.0044844644 0.0050637424 0.0013985862 -0.47156668 -0.24101266 -0.84825569 0.002401419
0.0063670431 0.0040849228 0.00078556151 -0.38733095 -0.28869492 -0.87557411 0.00090386521
0.0205993 0.0042443951 0.00092703314 0.52766502 -0.4147214 -0.74133384 0.0022118974
0.022592014 0.0051478441 0.0019529019 0.59077269 -0.37815854 -0.71272981 0.0030025772
0.024360493 0.0060963612 0.0032421718 0.70934027 -0.34139878 -0.61667103 0.0027735822
0.0018156265 0.0080522886 0.0023893877 -0.62708771 -0.20734589 -0.75084531 0.003018473
0.0037667935 0.0075787748 0.0010352102 -0.55987209 -0.28585091 -0.77770972 0.0018888547
0.023336738 0.0075924871 0.0012261043 0.64667845 -0.36178681 -0.67150378 0.0012436319
0.024802618 0.0081732823 0.0026026866 0.74005318 -0.31332284 -0.59510511 0.0023958867
-7.7383847e-05 0.011580303 0.0032619904 -0.76032901 -0.19642876 -0.61912471 0.0024147776
0.0014538259 0.010862824 0.0017511467 -0.69198704 -0.28117743 -0.6649009 0.0029908449
0.025521889 0.010998965 0.0020342311 0.78672922 -0.31179801 -0.53276557 0.0032017895
-0.00037436263 0.014299747 0.0025884095 -0.81270051 -0.24595392 -0.52822775 0.002887964
0.00077750988 0.013857059 0.0012713918 -0.73729193 -0.28451878 -0.61273944 0.0010137565
0.026324 0.013913682 0.0016869665 0.84631699 -0.25736248 -0.46638197 0.0015427606
0.027210578 0.014434399 0.0030609765 0.87698901 -0.22191557 -0.42619681 0.0021506252
-0.00082230452 0.01697275 0.0020357929 -0.82198542 -0.26239669 -0.50545818 0.0015820817
0.00051874173 0.015776856 0.00065656705 -0.72295088 -0.30287462 -0.62097418 0.0011801455
0.026613584 0.01626477 0.0010292053 0.86000562 -0.21750472 -0.46160817 0.0038469711
0.027379686 0.017133132 0.002272449 0.90426576 -0.17738709 -0.38837779 0.00099475158
-0.0016342115 0.019954739 0.0019882633 -0.89158154 -0.2087969 -0.40185344 0.0041073468
0.027741173 0.020065581 0.0019953172 0.91096145 -0.16221799 -0.37925526 0.0010404924
-0.0022946959 0.023034245 0.0019312548 -0.93331474 -0.19982007 -0.29832119 0.0030015793
0.028053617 0.022852663 0.0022451128 0.95092177 -0.070898354 -0.3011995 0.0013441772
-0.0032964279 0.027080541 0.0032989602 -0.95504761 -0.20987202 -0.20937468 0.0010775202
-0.0027266475 0.025620552 0.0014586567 -0.93984044 -0.23965845 -0.24344169 0.0023041507
0.028099706 0.026051085 0.0020340802 0.95983911 -0.034979284 -0.27836201 0.00068671891
-0.0033783452 0.028839258 0.0017742496 -0.95320868 -0.22887965 -0.19750288 0.0011546344
0.028107161 0.028199267 0.0021533589 0.96760833 0.01731295 -0.25186199 0.0012378281
-0.0037492116 0.030957488 0.00081136031 -0.94170034 -0.26917014 -0.2018612 0.0010189713
0.027614133 0.032221533 0.0018704901 0.96970689 0.041872349 -0.24065614 0.00096827315
-0.0020038232 -0.032653686 0.0066341902 -0.010631202 -0.037909623 -0.9992246 0.0016658253
-0.00092256529 -0.030847991 0.006577007 -0.045984879 -0.0214986 -0.99871075 0.0012069469
0.0014155979 -0.030096324 0.0065925424 0.040005762 -0.094763778 -0.9946956 0.0017283328
0.0034016927 -0.029650869 0.0066374461 0.10271178 -0.079254851 -0.99154878 0.0028452883
-0.00068227528 -0.027962333 0.0065276609 -0.10932297 -0.013651107 -0.99391252 0.0013348055
0.0017194285 -0.027955847 0.0064209658 0.023961373 -0.04849004 -0.99853623 0.001306532
0.0041213343 -0.027600275 0.0064974665 0.12039544 -0.12345718 -0.98501945 0.0021109225
-0.00068219879 -0.025078427 0.006497378 -0.17590527 -0.0076287272 -0.98437756 0.0018532857
0.0017187812 -0.025063766 0.0062322426 -0.069739446 -0.05448091 -0.99607641 0.0013274846
0.0045995559 -0.025065506 0.0062615317 0.063769147 -0.10342397 -0.99259102 0.0017176216
0.0069228518 -0.024516024 0.0064595346 0.20809077 -0.16076322 -0.96480745 0.0021814757
-0.00048557649 -0.022019075 0.0064428975 -0.24380884 0.0021983241 -0.9698208 0.0018675965
0.0017182732 -0.021936325 0.006085455 -0.1280448 -0.052526139 -0.99037647 0.00203076
0.004596191 -0.021927366 0.0058980421 0.023788353 -0.11083274 -0.99355435 0.002721621
0.0074484884 -0.021902293 0.0061032376 0.14392902 -0.14388882 -0.9790712 0.0016865836
0.0098042954 -0.021153172 0.0064430297 0.28182387 -0.23710145 -0.92970872 0.003870703
-0.00038191103 -0.018952362 0.0064565721 -0.3107565 -0.0010135759 -0.95048898 0.0016981543
0.0017178567 -0.018811202 0.0059466767 -0.19113114 -0.048428472 -0.98036909 0.0019670881
0.0045930231 -0.018795617 0.005568271 -0.087480068 -0.10749598 -0.99034935 0.0024979222
0.0074693472 -0.018795978 0.0055748778 0.10685271 -0.16424565 -0.98061508 0.0028806292
0.010524349 -0.018767994 0.0060559302 0.21918166 -0.20977768 -0.95286554 0.0028483579
0.01264625 -0.017991817 0.0064563523 0.39116859 -0.28312799 -0.87568575 0.003883593
-0.00030466326 -0.015812458 0.006433615 -0.37983808 -0.0053502386 -0.9250375 0.0022120895
0.0017172716 -0.015927246 0.0057898085 -0.25072405 -0.056892149 -0.96638548 0.0017938204
0.0045900177 -0.015908459 0.0052512772 -0.15002686 -0.11034083 -0.98250538 0.0026021968
0.0074619683 -0.0159034 0.0051039848 0.06399098 -0.19038554 -0.97962159 0.0040005986
0.010581546 -0.015913956 0.0054021045 0.18677218 -0.22203106 -0.95698404 0.0031151669
0.013440882 -0.015715705 0.0060894308 0.33549133 -0.2669605 -0.90342557 0.0033389039
-0.00038180425 -0.013186893 0.0063882186 -0.43969595 -0.0162453 -0.8979997 0.0022300831
0.0017167974 -0.013045756 0.0056494731 -0.31261155 -0.070106477 -0.94729042 0.0021116349
0.0045869886 -0.013025185 0.004923922 -0.20455883 -0.12391379 -0.97097939 0.0023673922
0.0074536619 -0.013015368 0.0045772241 -0.036862474 -0.19789146 -0.97953057 0.0020941943
0.010565155 -0.013018527 0.0046849377 0.11122679 -0.24531589 -0.96304137 0.0020076337
0.013694358 -0.013037366 0.0053414591 0.28920114 -0.27737105 -0.91620308 0.0029936498
0.016056545 -0.012720632 0.0062023778 0.45265839 -0.30884171 -0.83649099 0.0030234181
-0.0002014449 -0.0099423341 0.006248551 -0.50036567 -0.021235514 -0.8655538 0.0024277484
0.0017160891 -0.0099242274 0.0054010279 -0.3724075 -0.074972875 -0.92503613 0.0025576507
0.004582895 -0.0099046193 0.0044862698 -0.2435091 -0.15819678 -0.95691019 0.0021666854
0.0073970449 -0.0099662142 0.004016811 -0.10961411 -0.17610842 -0.97824872 0.0017464089
0.010549132 -0.010132726 0.0039841603 0.08187861 -0.26411286 -0.96101004 0.001473333
0.013664993 -0.0099022016 0.00435548 0.22089212 -0.30660909 -0.92584962 0.0020661561
0.016540272 -0.0098887105 0.0053521325 0.41860199 -0.32836208 -0.84672946 0.0033190202
0.018544592 -0.0091940099 0.0061585126 0.56798971 -0.34736988 -0.74613804 0.0031307656
-0.00041348691 -0.0067520752 0.0063063563 -0.56363142 -0.033159275 -0.8253606 0.0026944352
0.0017151899 -0.0068055997 0.0051210816 -0.40121341 -0.090248078 -0.91152793 0.0018012553
0.0044173538 -0.0069214688 0.0040832553 -0.30663502 -0.13809972 -0.94175553 0.0017218824
0.0064065652 -0.0078199925 0.003759108 -0.14597446 -0.197955 -0.96928084 0.0016508475
0.0142848 -0.0078206453 0.0037974091 0.19011107 -0.32830855 -0.92524123 0.0025677301
0.016705275 -0.00696859 0.0042643468 0.354415 -0.35449809 -0.86528665 0.0021642535
0.019290304 -0.0066806423 0.0055475938 0.55176926 -0.36261368 -0.75104064 0.00344165
0.021173738 -0.0056246836 0.0065046172 0.68792772 -0.35857683 -0.63101363 0.0026075493
-0.00044136497 -0.0039405255 0.006127411 -0.61531603 -0.04241791 -0.7871384 0.0029188793
0.0017141625 -0.0039298427 0.0047991858 -0.47420257 -0.11038711 -0.87346816 0.0022480499
0.0037590002 -0.0041611479 0.0038819169 -0.35872468 -0.14559601 -0.92201865 0.0018185419
0.017547619 -0.0049561681 0.003807934 0.32356036 -0.35464638 -0.8772313 0.0034480323
0.019583462 -0.0041030701 0.0045037447 0.47815907 -0.38750058 -0.78816706 0.0019006105
0.021590797 -0.0036346838 0.0058386545 0.62236065 -0.36877385 -0.69041514 0.0026115328
-0.00044105676 -0.0010605761 0.0059417444 -0.63357741 -0.055716574 -0.77167046 0.0024169788
0.0016047144 -0.0011234576 0.0045048879 -0.4995937 -0.14576133 -0.85390854 0.0012620935
0.0033826237 -0.002250107 0.0036865394 -0.42867652 -0.17803986 -0.88574159 0.0055748844
0.020660086 -0.0016146916 0.0040077935 0.5878337 -0.38335466 -0.71238393 0.0020127741
0.022385392 -0.00096866291 0.0051865024 0.66406959 -0.3754783 -0.6465506 0.0035132947
-0.00044060059 0.0020564436 0.005702686 -0.69503069 -0.068182126 -0.71573991 0.0037054443
0.0012263824 0.0019071334 0.0042743119 -0.58768743 -0.12597224 -0.79922128 0.002597339
0.023345005 0.001640602 0.0046788901 0.72339445 -0.36397851 -0.58670282 0.0019188714
0.024658501 0.0025360729 0.0058063422 0.77741718 -0.34446591 -0.52627546 0.0020645268
-0.0006803791 0.0051714694 0.0055817966 -0.75715667 -0.078135446 -0.64854342 0.0034390755
0.00077914883 0.0048702355 0.0040322952 -0.63476998 -0.14709933 -0.75857025 0.0026624941
0.023914127 0.0041948985 0.0038194875 0.6645149 -0.37435141 -0.6467464 0.002018162
0.025234859 0.0052221473 0.0050669205 0.79868019 -0.31929529 -0.51005924 0.0028618039
-0.00067910179 0.0080382079 0.005084544 -0.76708853 -0.16389827 -0.62025207 0.0031296844
0.00051874173 0.0072988449 0.0038446407 -0.69161874 -0.1754836 -0.70062047 0.0026862998
0.026232366 0.007967189 0.0050409166 0.86598212 -0.26991242 -0.42097765 0.0019803066
-0.0011291639 0.010880203 0.0049975365 -0.86495215 -0.13366234 -0.48372728 0.005718343
0.026675137 0.010449135 0.0043721078 0.87460095 -0.25879481 -0.40999827 0.0012617895
0.027362026 0.011162577 0.0055720429 0.91440827 -0.21183425 -0.34494039 0.0020673187
-0.0016360203 0.014072936 0.0049605984 -0.90710855 -0.13763908 -0.39775574 0.0058141095
0.027816948 0.01402639 0.0051678857 0.94019806 -0.18248513 -0.28762263 0.0014711701
-0.0021350137 0.017014876 0.0047819777 -0.92553288 -0.16354863 -0.34152693 0.0039456468
0.028206812 0.01695518 0.0048407577 0.93083835 -0.17762414 -0.31935799 0.00094241189
-0.0025939082 0.020009026 0.0050560753 -0.91910005 -0.21548703 -0.32987946 0.0034737983
0.028214933 0.018998658 0.00387866 0.92653179 -0.14281593 -0.34805533 0.00031451817
-0.0028300819 0.022621738 0.0046983282 -0.94645423 -0.16219766 -0.2791349 0.001586166
-0.0033082291 0.025969185 0.0046686353 -0.95688593 -0.18706468 -0.22220732 0.0010030807
-0.030358246 -0.06358286 0.0095372368 -0.11017412 -0.10865939 -0.98795485 0.0063118744
-0.028222475 -0.063800089 0.0093500093 -0.079686351 -0.19604315 -0.97735214 0.0033392375
-0.025376534 -0.063612908 0.0091934968 -0.002216696 -0.30726659 -0.95162082 0.0051743677
-0.022540027 -0.063304104 0.0092159249 0.10399795 -0.41617191 -0.90331906 0.0060612885
-0.020188287 -0.062865138 0.009370245 0.22833399 -0.50531924 -0.83217549 0.0046471297
-0.03029226 -0.061168265 0.0095046703 -0.21561919 0.00099001871 -0.97647703 0.0063047456
-0.028223548 -0.06096473 0.0090202857 -0.17180756 -0.06658569 -0.98287767 0.0031408607
-0.025297849 -0.060901124 0.0085484106 -0.10210151 -0.16914028 -0.98028916 0.0039870176
-0.022394778 -0.060881294 0.0084006079 0.0091612237 -0.25732467 -0.96628153 0.0033668499
-0.019513968 -0.060923092 0.0087083988 0.14063691 -0.34304163 -0.92873234 0.0050267708
-0.016700035 -0.060482141 0.0090943594 0.24884795 -0.4384802 -0.86360282 0.0060821413
-0.014472096 -0.059820622 0.0095005259 0.34679824 -0.52109265 -0.77986753 0.0052076699
-0.029950505 -0.058861092 0.0095594153 -0.42380533 0.13623969 -0.89544833 0.0038363992
-0.028257603 -0.058022868 0.0090390425 -0.2884697 0.050064608 -0.9561792 0.0031310944
-0.02528007 -0.05796558 0.0082373098 -0.18873894 -0.03459068 -0.98141795 0.0024358339
-0.022368779 -0.057920977 0.0078900885 -0.06333442 -0.14070933 -0.98802316 0.0040553855
-0.019476457 -0.057917845 0.0078645237 0.040134411 -0.21180023 -0.97648853 0.0035200182
-0.01655121 -0.057989437 0.0081659667 0.14058788 -0.29875124 -0.94391882 0.0042306068
-0.013634712 -0.057853449 0.0088096224 0.3122468 -0.43048859 -0.84686571 0.0028105844
-0.011243667 -0.057219759 0.009327691 0.3879284 -0.46367317 -0.79656684 0.0060028224
-0.027824121 -0.055126324 0.0091579799 -0.3813611 0.15115632 -0.91198438 0.0030446528
-0.025338564 -0.054999299 0.0083696824 -0.25770858 0.083528571 -0.96260548 0.0022739507
-0.022363771 -0.055017415 0.0077892211 -0.16972576 0.022264175 -0.9852398 0.0031310387
-0.019460056 -0.054981507 0.0074944203 -0.070773728 -0.06454841 -0.99540174 0.0035296278
-0.016571747 -0.054982793 0.0075037139 0.080578879 -0.2055288 -0.97532815 0.0065139909
-0.013453446 -0.055026956 0.007863516 0.16811961 -0.2712957 -0.94769955 0.0048490427
-0.010435864 -0.055028647 0.0086544771 0.33576477 -0.39300144 -0.85604429 0.0024506433
-0.0079198703 -0.054096505 0.009225525 0.40960497 -0.44255221 -0.79772884 0.0046128901
-0.027235601 -0.052658122 0.0094532408 -0.44504261 0.27017796 -0.85378039 0.0037939835
-0.025201472 -0.051995948 0.0088553503 -0.34882528 0.22758688 -0.90913433 0.00099639141
-0.022376448 -0.051914152 0.0080342721 -0.24196553 0.12679538 -0.96196443 0.00285231
-0.019492662 -0.052047145 0.0074932254 -0.15998949 0.0512405 -0.98578793 0.0031252974
-0.016562119 -0.052064467 0.0072479961 -0.055098146 -0.03822533 -0.99774897 0.0034509837
-0.013435926 -0.052070197 0.0072963475 0.0999595 -0.18414912 -0.97780222 0.0066987644
-0.010318837 -0.052122291 0.0077447086 0.19422889 -0.24706048 -0.94933462 0.0049044029
-0.0074211615 -0.051843595 0.008491952 0.32617453 -0.32556933 -0.88747662 0.0056234458
-0.0052798819 -0.051303077 0.00917775 0.43380722 -0.41441667 -0.80004382 0.0057486929
-0.02461659 -0.049421258 0.0093091168 -0.40033412 0.29584667 -0.8672989 0.003242698
-0.022407185 -0.048845846 0.008632509 -0.30137488 0.21112655 -0.929838 0.0024559074
-0.019444132 -0.048960276 0.0077894633 -0.2235975 0.1614635 -0.96121466 0.0034757378
-0.01656408 -0.048941974 0.0072956881 -0.1452789 0.058558524 -0.9876563 0.0031978243
-0.01342926 -0.048918288 0.0070762015 0.0086660236 -0.031525251 -0.99946541 0.0035334947
-0.01030524 -0.048929419 0.0071764416 0.12770984 -0.12360363 -0.98407942 0.0045775236
-0.0074767317 -0.048822667 0.0075924792 0.24503298 -0.21812417 -0.94465905 0.0053020325
-0.0045811627 -0.048795834 0.0084807146 0.40036288 -0.3538447 -0.84528309 0.0033428208
-0.0024879694 -0.048235435 0.0091890078 0.49644348 -0.38321322 -0.77890402 0.0058785272
-0.022027299 -0.046293605 0.0092201512 -0.38093609 0.2811206 -0.88082856 0.0028588327
-0.01950028 -0.045924913 0.0083858371 -0.32387292 0.24353822 -0.91421849 0.00092113914
-0.016576512 -0.045846853 0.0076175793 -0.22915015 0.14583163 -0.96240497 0.0037038024
-0.013431262 -0.045797713 0.0071335589 -0.10574933 0.068813287 -0.99200898 0.0027373859
-0.010300046 -0.045779824 0.0069562797 -0.0021898674 -0.019645404 -0.99980462 0.0026751293
-0.0074174181 -0.045794614 0.0071002576 0.12428645 -0.10943952 -0.98619264 0.0035248103
-0.0045373417 -0.045849454 0.0076377126 0.25188875 -0.2335851 -0.93914324 0.0043582614
-0.0015991429 -0.045810524 0.0087045357 0.44226193 -0.3577016 -0.82246816 0.0031669184
0.00051874173 -0.045068972 0.0094735548 0.53830075 -0.38979959 -0.74718714 0.0051293857
-0.021244073 -0.044350073 0.009540163 -0.44934186 0.32398212 -0.83254278 0.0018482619
-0.019288659 -0.043207422 0.0090574063 -0.35166314 0.28145102 -0.89281487 0.0023962599
-0.016597357 -0.043009169 0.0081599094 -0.28279141 0.19649133 -0.93883985 0.0023811732
-0.013439548 -0.042936355 0.0073945797 -0.2199669 0.14138867 -0.96520662 0.0041555734
-0.010300457 -0.042895738 0.006967287 -0.057529476 0.04143206 -0.99748367 0.0034126441
-0.0074138036 -0.042888351 0.0068884739 0.031592257 -0.063390642 -0.99748868 0.0026677381
-0.0045317998 -0.042912066 0.0071356543 0.13254815 -0.13924348 -0.98134714 0.0047693751
-0.0014079629 -0.042985614 0.0079052858 0.32077956 -0.21798182 -0.92172909 0.0049406299
0.0013171866 -0.042807437 0.0090125892 0.45056579 -0.31789306 -0.83422685 0.0054805013
-0.018459747 -0.040957037 0.0094558299 -0.43137068 0.33587229 -0.83732265 0.0026817133
-0.016510705 -0.04005345 0.0088834725 -0.36761567 0.27270669 -0.88909489 0.00088982936
-0.013519483 -0.039979793 0.0078890678 -0.27556694 0.17556486 -0.94511366 0.0027341701
-0.010305422 -0.040028516 0.0071690115 -0.1630744 0.086056404 -0.98285353 0.0021703467
-0.0074132439 -0.040000316 0.0068505439 -0.052710999 0.007951607 -0.99857819 0.0023250543
-0.0045290007 -0.040002305 0.0068716505 0.043808542 -0.068492979 -0.99668926 0.0042227507
-0.0014056537 -0.04004126 0.0073082321 0.24237466 -0.15739308 -0.95733064 0.0042338129
0.0017577825 -0.040086225 0.0083251446 0.36864212 -0.25391042 -0.89422172 0.0047759111
0.003931331 -0.039387818 0.0091304649 0.49291053 -0.34166929 -0.8001883 0.0049422672
-0.015498079 -0.037111476 0.0093395039 -0.43165269 0.2677626 -0.86138207 0.002258922
-0.013225155 -0.0369578 0.0084346998 -0.32825562 0.20676434 -0.92168146 0.0018404857
-0.010314866 -0.036932714 0.007551569 -0.25822851 0.1404247 -0.95582372 0.0024995459
-0.0074162544 -0.036888901 0.0070139826 -0.16415218 0.070754617 -0.98389423 0.0029992026
-0.0045279488 -0.037109591 0.0067722122 -0.016413372 -0.021357123 -0.99963713 0.002924578
-0.0014042913 -0.03712368 0.0069417185 0.12757929 -0.10401209 -0.98635948 0.0038294636
0.0016933545 -0.03689561 0.0075203418 0.29615965 -0.19649467 -0.93470812 0.0051103402
0.0045869863 -0.036742251 0.0085842777 0.45821902 -0.30886355 -0.83344984 0.0030139617
0.0065127616 -0.03601468 0.0093230698 0.55674106 -0.33790159 -0.75885558 0.004380072
-0.012992329 -0.034108605 0.0090955384 -0.39812562 0.23823537 -0.8858555 0.0020627684
-0.010328162 -0.033843953 0.0080964975 -0.31690055 0.17447661 -0.93227249 0.0021319971
-0.0074212276 -0.033783335 0.0072851111 -0.19781446 0.11150843 -0.97387642 0.0023923945
-0.0045288042 -0.033990026 0.0068344115 -0.095183179 0.025209963 -0.99514049 0.0030625802
-0.0013502168 -0.03410086 0.0067437836 0.061938819 -0.077148348 -0.99509382 0.001812426
0.0017212394 -0.033762448 0.0070008212 0.1541567 -0.16556732 -0.9740755 0.0033363807
0.0046137259 -0.033819284 0.0077580144 0.31410295 -0.21146834 -0.92553794 0.0016474298
0.0072088605 -0.033735827 0.0089143328 0.48371425 -0.29885638 -0.82262105 0.0053406507
-0.012213915 -0.031688794 0.0094469059 -0.48330975 0.25059307 -0.83881754 0.0023580538
-0.010343648 -0.030994581 0.0087265559 -0.37932551 0.19105922 -0.90532237 0.0018276096
-0.0074283588 -0.030923275 0.0076817092 -0.29804331 0.12491947 -0.94634312 0.0023081077
-0.0045305574 -0.030875502 0.0069811433 -0.18233703 0.075888477 -0.98030311 0.0017199286
-0.0023646613 -0.030856451 0.0067017875 -0.087536462 0.016504079 -0.99602461 0.0013687756
0.0019377043 -0.031396177 0.0067288312 0.12225661 -0.13850312 -0.98278695 0.0017926721
0.004642352 -0.030922087 0.0071549811 0.22680046 -0.17952371 -0.95725274 0.0016043528
0.0075104074 -0.030956706 0.0081603751 0.42670962 -0.27461138 -0.86168873 0.0039378349
0.0096260114 -0.030636197 0.0091842245 0.5535627 -0.31434074 -0.77120566 0.0037407449
-0.0098993927 -0.028211735 0.0091539156 -0.44842863 0.20959517 -0.86889672 0.0024427674
-0.0074359402 -0.028059509 0.0081006251 -0.35383365 0.14255369 -0.92438102 0.0017444319
-0.0045331307 -0.02800345 0.0071941721 -0.25209066 0.090139933 -0.96349627 0.0025077173
-0.0023649256 -0.027975563 0.0067417505 -0.14666131 0.033531852 -0.98861825 0.0017961574
0.0052055204 -0.028431011 0.0068175211 0.19045179 -0.18454881 -0.96419388 0.0024591652
0.0074974606 -0.02801346 0.007347384 0.32317311 -0.24107286 -0.91511911 0.0017787918
0.010277266 -0.027985945 0.0086080171 0.50143015 -0.28659517 -0.81635225 0.0037200707
0.012366964 -0.02669693 0.0095221922 0.59914297 -0.35276309 -0.71873903 0.0023790277
-0.0092473496 -0.025771165 0.0094011109 -0.52634031 0.22415021 -0.82019663 0.0027182428
-0.0074467966 -0.024958834 0.0087011922 -0.4209637 0.16023085 -0.89281332 0.0023736027
-0.0045660236 -0.024928361 0.0075005419 -0.31885293 0.10091913 -0.94241613 0.0020545272
-0.0023654045 -0.025095578 0.0068083177 -0.21736401 0.044528 -0.97507441 0.0019521972
0.0078905383 -0.025500672 0.0068856529 0.27475241 -0.22338444 -0.93520612 0.0024681415
0.010448695 -0.025016312 0.0077068084 0.3932043 -0.26767471 -0.8796252 0.0021685739
0.012744268 -0.024594046 0.0088380054 0.57167763 -0.32086453 -0.75513619 0.0037506721
-0.007104218 -0.021919956 0.009074619 -0.50274926 0.15883885 -0.84971374 0.003521827
-0.004507673 -0.021823604 0.0077961818 -0.37535742 0.089962751 -0.92250395 0.0013393399
-0.0021526499 -0.021924043 0.0069380361 -0.28567538 0.049830563 -0.95703 0.001786946
0.0086873407 -0.023405122 0.0066505293 0.25742349 -0.23306736 -0.93777013 0.0077663073
0.010746497 -0.022182941 0.0069770501 0.35391611 -0.26386037 -0.8972854 0.0025351439
0.013541033 -0.021802139 0.0082863458 0.53875047 -0.32888719 -0.77561671 0.0030178954
0.015505008 -0.020886602 0.009363614 0.56420469 -0.3328543 -0.75556678 0.0020613961
-0.00663401 -0.01909209 0.009229742 -0.565135 0.15880652 -0.8095696 0.002921982
-0.0045438618 -0.018900692 0.0081105456 -0.46812582 0.095171399 -0.87852192 0.0022816565
-0.0020339154 -0.01878087 0.0070005446 -0.35384145 0.051421229 -0.93389088 0.0020702574
0.012054103 -0.019806826 0.0067751179 0.34381258 -0.26752755 -0.90012324 0.0016920117
0.013890963 -0.018977284 0.0074051148 0.447366 -0.31816149 -0.83584505 0.0025436634
0.016154718 -0.018712975 0.0088377688 0.61948377 -0.34932804 -0.70300055 0.0028349217
-0.0062511209 -0.016781839 0.0094877593 -0.62733352 0.17022447 -0.75991863 0.002013128
-0.0045485068 -0.016022136 0.0085102879 -0.53312731 0.11587931 -0.83806157 0.0032405718
-0.0019553695 -0.016041577 0.0070994697 -0.41499636 0.047769886 -0.90856814 0.002386916
0.014568851 -0.01663469 0.0069225817 0.45870617 -0.31485116 -0.83093762 0.00080435065
0.016629018 -0.015968686 0.0079422668 0.53264701 -0.33630198 -0.77665192 0.0014225345
0.018563779 -0.015405377 0.0092891268 0.68157214 -0.35933951 -0.63744378 0.001330374
-0.0042465953 -0.013030857 0.0086808652 -0.60149086 0.10479867 -0.79197598 0.0032118815
-0.0020356143 -0.013017797 0.0072653401 -0.47545007 0.035616744 -0.87902147 0.0025556944
0.017244978 -0.013472741 0.0072178249 0.50833774 -0.33902979 -0.79161334 0.0024689252
0.019094931 -0.012841849 0.0084873512 0.66973144 -0.35529727 -0.6520918 0.0040645725
-0.0038961407 -0.0099282386 0.0088047553 -0.6677829 0.079640403 -0.74008346 0.0022343162
-0.0018877194 -0.0099641494 0.0072627612 -0.53843278 0.031805281 -0.84206808 0.0024718039
0.017816998 -0.011392521 0.0066516916 0.50098395 -0.3643555 -0.78502244 0.0021329534
0.019752374 -0.010097524 0.0076646856 0.64983475 -0.37121269 -0.66326165 0.0053299516
0.021450991 -0.0091164978 0.0090125278 0.72901309 -0.37207964 -0.57454032 0.0018730016
-0.0038009931 -0.0069335634 0.0090521201 -0.72499716 0.072406471 -0.68493539 0.002709097
-0.002081309 -0.0068873954 0.0074585774 -0.59652203 0.017005442 -0.80241656 0.0026328659
0.020523939 -0.0076505137 0.0070094331 0.65165228 -0.36348006 -0.66575629 0.0011435121
0.022053214 -0.0067363009 0.0082721468 0.72388172 -0.37687719 -0.57789177 0.0024863984
-0.0035880925 -0.0039642882 0.009096127 -0.74238604 0.073779911 -0.66589755 0.0030092523
-0.0021302942 -0.0039522196 0.0075943391 -0.71758693 0.01069034 -0.69638681 0.0028472256
0.022943299 -0.0041225692 0.0077738217 0.77661395 -0.35203135 -0.52244109 0.0014860611
0.024194796 -0.0032402645 0.0091378111 0.81131327 -0.3416191 -0.4744125 0.0023511888
-0.0034159871 -0.0012381775 0.0091553684 -0.79236412 0.060339525 -0.60705703 0.0030533783
-0.0021307026 -0.0010632281 0.0076598148 -0.76568609 0.0069461167 -0.64317679 0.0028168994
0.02348464 -0.0019040686 0.0070719491 0.72955012 -0.36195585 -0.58029699 0.0016473921
0.024630411 -0.00091981853 0.0082437657 0.83347553 -0.32435304 -0.44734067 0.0024211479
-0.0033491957 0.0018350538 0.0094232578 -0.87856096 0.069772877 -0.4725064 0.0085586859
-0.0021305673 0.0020668427 0.0076113767 -0.82831442 0.020774839 -0.55987817 0.0049978727
0.025605479 0.0020417254 0.0079547279 0.86469704 -0.30288985 -0.40069544 0.0020888038
-0.0023733259 0.005201031 0.0079491008 -0.87061435 0.015485801 -0.49172232 0.0048503815
0.026531287 0.0050649871 0.0077673546 0.89084065 -0.28953955 -0.35009953 0.0010788626
0.027094122 0.0054574143 0.0091415569 0.940346 -0.24111217 -0.24002957 0.0013895102
-0.002372938 0.0080909757 0.0078696758 -0.90224814 -0.012145633 -0.43104631 0.0079528894
0.026983593 0.0071172919 0.0072755883 0.91610038 -0.25114685 -0.31254646 0.0021864781
0.02760379 0.0082728807 0.0084360894 0.94613945 -0.21169409 -0.24496061 0.0016468198
-0.0026179291 0.010997438 0.0084892232 -0.92869723 -0.040065702 -0.36866814 0.0048572859
0.027892226 0.010800306 0.0075188498 0.95473558 -0.17725316 -0.23887531 0.00094573275
-0.002638028 0.013774244 0.0082112495 -0.93436056 -0.10072242 -0.34179735 0.0040195389
0.028475508 0.013877666 0.0080500767 0.95389861 -0.17378721 -0.24469467 0.0008534462
-0.0028584797 0.017026531 0.0084650777 -0.92965364 -0.13669641 -0.34213775 0.0024958358
-0.0028473157 0.019374408 0.0069842753 -0.94754452 -0.15440996 -0.27985162 0.001699177
-0.0366874 -0.072159149 0.012079807 -0.38505244 -0.66538066 -0.63953364 0.045523379
-0.034761168 -0.072117038 0.011887534 -0.029166097 -0.68789071 -0.72522801 0.038660038
-0.032594614 -0.071924128 0.012644164 0.30759647 -0.73258549 -0.60720909 0.012010579
-0.037257839 -0.069800667 0.011034518 -0.50098759 -0.36953717 -0.7825942 0.024797035
-0.034466293 -0.069973007 0.01072965 0.018496577 -0.42171422 -0.9065401 0.014055661
-0.031483065 -0.069829874 0.011316057 0.26943931 -0.58482361 -0.76510376 0.0077164406
-0.02858427 -0.069354251 0.011758657 0.19860834 -0.66997951 -0.71531963 0.012078606
-0.025759252 -0.068874978 0.012339246 0.26752052 -0.7506057 -0.60417193 0.0087984139
-0.039540261 -0.066506237 0.01189241 -0.77685392 -0.082571886 -0.62424344 0.026515037
-0.037532598 -0.066990234 0.010566024 -0.46541968 0.011189313 -0.88501936 0.027177131
-0.034583431 -0.066913851 0.010049226 -0.15282781 -0.11138715 -0.98195547 0.015171588
-0.031435452 -0.06691274 0.010039946 0.028020406 -0.2464045 -0.96876198 0.011264412
-0.028306657 -0.066955328 0.010325253 0.10229538 -0.39659664 -0.91227561 0.0092837568
-0.025484269 -0.066954717 0.010800727 0.16754888 -0.57857245 -0.79823637 0.0093877492
-0.022709647 -0.066668652 0.011395337 0.25659281 -0.64679575 -0.71820283 0.0047730356
-0.019949336 -0.066077925 0.01201628 0.35115319 -0.704799 -0.61640078 0.0050062714
-0.03950021 -0.064687207 0.012264483 -0.7343123 0.36089724 -0.57492489 0.021913452
-0.037507616 -0.064031683 0.011226697 -0.52269369 0.40176338 -0.75191593 0.012593777
-0.034628708 -0.063984841 0.010206524 -0.23492374 0.14770731 -0.96072543 0.0097913733
-0.031883851 -0.064127952 0.0097724013 -0.16320729 0.044763505 -0.98557574 0.0075008082
-0.028506104 -0.065162964 0.0096599981 0.0068443101 -0.24425745 -0.96968621 0.0057358211
-0.02519425 -0.065107353 0.0097535476 0.093865335 -0.38608158 -0.91767663 0.0055614808
-0.022334335 -0.064833812 0.01006208 0.18991701 -0.49223709 -0.84949052 0.0049031409
-0.019420646 -0.064206079 0.010552784 0.29530242 -0.60232544 -0.74162018 0.0055626663
-0.0166185 -0.063571684 0.011388091 0.39764747 -0.64781761 -0.64977604 0.0045588668
-0.014193398 -0.062716343 0.012084581 0.45824671 -0.65244395 -0.60359496 0.0022807086
-0.036609262 -0.061342239 0.012115691 -0.56543821 0.4356364 -0.7003575 0.01032948
-0.03445949 -0.060998738 0.011073157 -0.40540227 0.35877445 -0.84079123 0.013711318
-0.032002062 -0.060927179 0.010058353 -0.32364345 0.16691814 -0.9313395 0.0067990734
-0.016036561 -0.061811529 0.010134522 0.31842458 -0.50296479 -0.80351245 0.0035775444
-0.013289758 -0.06089763 0.010954186 0.44594055 -0.58264184 -0.67945975 0.0049412819
-0.010944651 -0.060090922 0.011844616 0.52410024 -0.62187004 -0.58189046 0.0024699862
-0.033750236 -0.058183864 0.011824546 -0.59733987 0.36023414 -0.7165308 0.010638331
-0.031261861 -0.057837527 0.010348948 -0.48632479 0.18755393 -0.85341179 0.0025933448
-0.012452889 -0.059003633 0.0099092647 0.34616116 -0.49219137 -0.79869908 0.0037609248
-0.01010844 -0.058066972 0.010613227 0.46599036 -0.55323607 -0.69049454 0.0053338725
-0.0080633834 -0.057341978 0.011566725 0.53722149 -0.58033258 -0.61205161 0.0025004495
-0.033184525 -0.055944987 0.01239156 -0.66913599 0.34419173 -0.65862668 0.0044925455
-0.031240299 -0.054980669 0.011179142 -0.58620507 0.331141 -0.73939788 0.0051957672
-0.029169651 -0.054473437 0.009939637 -0.44688556 0.2106 -0.8694486 0.0028489649
-0.0091569619 -0.055976123 0.0096952841 0.42445314 -0.42006695 -0.8021118 0.0042674965
-0.007146968 -0.055282798 0.010496691 0.50717229 -0.50083113 -0.70138747 0.0044115214
-0.0051466161 -0.054409467 0.011420174 0.57741892 -0.55986243 -0.59425712 0.0029293951
-0.03073244 -0.052286215 0.011865936 -0.62436271 0.37514833 -0.68515325 0.0044812658
-0.028477117 -0.05181279 0.010411123 -0.48312142 0.2976284 -0.82341427 0.001396101
-0.026575586 -0.050900735 0.0097343996 -0.41348773 0.26711926 -0.87044537 0.0030640718
-0.0041591241 -0.052245989 0.010540001 0.5089891 -0.49668404 -0.70301849 0.0043416005
-0.0023265483 -0.051563371 0.011608517 0.6028468 -0.52923238 -0.59706682 0.0029232511
-0.02817129 -0.049132045 0.011543475 -0.58181942 0.40205342 -0.70699304 0.0034456826
-0.025836775 -0.048671551 0.010191992 -0.45272085 0.33908045 -0.82466251 0.0018997389
-0.0033516949 -0.050172716 0.0097133145 0.52306116 -0.48120171 -0.70345706 0.0040598609
-0.0012260773 -0.049173549 0.010757187 0.55733371 -0.49491957 -0.6666587 0.0057985312
0.00086613256 -0.048132427 0.011982573 0.63709486 -0.53074056 -0.55894959 0.0024412954
-0.027337626 -0.046686832 0.012284502 -0.60926956 0.44945565 -0.65328431 0.0024746025
-0.025334492 -0.046028625 0.011167159 -0.54431504 0.37643087 -0.74968058 0.0029799382
-0.023240514 -0.045437563 0.010099569 -0.42627364 0.34575957 -0.83590734 0.001884012
-0.00028805464 -0.04698224 0.010048904 0.57331932 -0.47021738 -0.6709699 0.0019801285
0.0016875655 -0.045859076 0.010998523 0.61539549 -0.45769975 -0.64171576 0.0048744855
0.0035998404 -0.044771835 0.012188347 0.64599544 -0.45795977 -0.61070675 0.0029088408
-0.024730911 -0.043499086 0.012138991 -0.59692383 0.45991787 -0.6573869 0.0024588779
-0.022503501 -0.042912394 0.010870267 -0.4768132 0.36204854 -0.80098069 0.0007796365
-0.020338358 -0.042098679 0.00991611 -0.42767209 0.30893382 -0.8495037 0.0026767212
0.0024120063 -0.043573279 0.010147635 0.58998483 -0.4162094 -0.6918726 0.00406778
0.0043058484 -0.042553406 0.011213187 0.64685369 -0.44498411 -0.61932987 0.0030033374
-0.022025876 -0.040311184 0.011936728 -0.58388132 0.43124264 -0.6878317 0.0022820311
-0.019695045 -0.039752703 0.010599716 -0.49376506 0.34427509 -0.79854292 0.0015190586
-0.017748795 -0.038932428 0.0098092929 -0.4275575 0.30598384 -0.85062832 0.0021990151
0.0051954435 -0.040101737 0.010440608 0.58958548 -0.41977042 -0.69005919 0.0060992395
0.0068012406 -0.03956176 0.011674555 0.68051988 -0.45240727 -0.57638562 0.0029125735
-0.021391794 -0.038319096 0.012588106 -0.58338732 0.43700558 -0.68460596 0.0032139563
-0.01942198 -0.037204273 0.011688961 -0.56472325 0.40791047 -0.71742368 0.0021231461
-0.017011683 -0.036704496 0.010225479 -0.46492845 0.31969807 -0.82561171 0.0018238061
0.0058422172 -0.038089097 0.0098504648 0.61742318 -0.38995272 -0.68317324 0.0032174904
0.0076454105 -0.037040491 0.010902369 0.61900347 -0.38830754 -0.68268001 0.0033332612
0.0094351573 -0.03600597 0.012069635 0.69711596 -0.43804419 -0.56757969 0.0025730394
-0.018414361 -0.034679327 0.012214895 -0.62244534 0.40651277 -0.66881174 0.001751425
-0.016271848 -0.033969738 0.010980055 -0.55281198 0.35408857 -0.75433427 0.0025713143
-0.014182731 -0.033313032 0.0098919049 -0.43625456 0.30108526 -0.84795618 0.001953674
0.008482975 -0.034511622 0.010178724 0.64023727 -0.36190826 -0.67758298 0.0045997803
0.010061341 -0.03377939 0.011316586 0.69499254 -0.39730293 -0.59927934 0.0033492751
-0.0156723 -0.031242134 0.011886006 -0.60267681 0.3515836 -0.7163586 0.0031019917
-0.013551312 -0.030843241 0.01049022 -0.51203072 0.29752809 -0.80579251 0.0020192971
0.010876186 -0.031301644 0.010628765 0.64403087 -0.37273812 -0.66804975 0.0058258357
0.012537112 -0.030254018 0.011776382 0.70911199 -0.41032991 -0.57340175 0.0018270183
-0.015057047 -0.029058712 0.012441985 -0.6532203 0.36071724 -0.66572243 0.0019895895
-0.013132526 -0.028015219 0.011312595 -0.59082186 0.3424814 -0.73050392 0.0027399156
-0.01116048 -0.027511034 0.0099935569 -0.49036399 0.2618455 -0.8312521 0.0020152389
0.011531766 -0.029023109 0.0099757686 0.65474427 -0.33730027 -0.67641586 0.0044733034
0.013259981 -0.027726365 0.010983013 0.68719333 -0.39689285 -0.60847467 0.0038620518
-0.012579545 -0.025207445 0.012043646 -0.66323847 0.33213368 -0.67067271 0.0020956702
-0.010525525 -0.024714584 0.010596156 -0.55505311 0.26978797 -0.78684843 0.0017757368
0.014225801 -0.024962135 0.010303527 0.69626212 -0.37805852 -0.61015642 0.0033101507
0.015623 -0.024679573 0.011770479 0.71839797 -0.4086048 -0.56298006 0.0019703673
-0.012140338 -0.023224549 0.012575947 -0.66120958 0.37617156 -0.64907378 0.0012481239
-0.010273232 -0.022059035 0.011443349 -0.64611268 0.28063545 -0.7097761 0.0033016459
-0.0085191904 -0.021644162 0.010054607 -0.62173277 0.21828564 -0.75219655 0.0027092551
0.015039994 -0.022848854 0.0099335685 0.67384911 -0.37867719 -0.6344533 0.0020920481
0.01653102 -0.021825291 0.010999698 0.72261196 -0.37362382 -0.58158171 0.0045497231
-0.0096893841 -0.019240761 0.011831008 -0.69195783 0.26104593 -0.6730895 0.0019301435
-0.0080661913 -0.018894169 0.010460094 -0.60448664 0.20819126 -0.7689293 0.0018981816
0.017514708 -0.019307943 0.010512544 0.74032718 -0.39494157 -0.54400074 0.0018056944
0.018769044 -0.018537354 0.011705248 0.76098764 -0.39869335 -0.51180214 0.0017724313
-0.0093352888 -0.017007345 0.012322553 -0.74848402 0.28211778 -0.600151 0.0043943394
-0.0076155835 -0.015993094 0.010947194 -0.67221397 0.24370413 -0.6990971 0.0029696429
0.01793384 -0.017272191 0.0096652135 0.64361691 -0.35162166 -0.67979366 0.0034435294
0.019648273 -0.016005322 0.011180647 0.79515445 -0.36313212 -0.48565879 0.00099245668
-0.0070666913 -0.013065173 0.011330687 -0.76058137 0.21368191 -0.61307091 0.0046051517
-0.0056290855 -0.012636213 0.0099652801 -0.63350415 0.15447278 -0.75816268 0.0022034391
0.020416712 -0.013294164 0.010379292 0.75311869 -0.36699826 -0.54600781 0.003530378
0.021678958 -0.012216632 0.011579217 0.80981308 -0.362703 -0.46113914 0.0015276434
-0.0066736005 -0.0099623995 0.011701195 -0.79141569 0.18559694 -0.58242172 0.0043353215
-0.0053545875 -0.0096649406 0.010242479 -0.76886499 0.132566 -0.62551814 0.0036241564
0.02234846 -0.0097999256 0.01090337 0.80400097 -0.36267668 -0.47121981 0.0020709857
-0.006289314 -0.0073916926 0.012020744 -0.83894634 0.21205479 -0.50120044 0.0038585784
-0.0052486649 -0.0068219141 0.010659596 -0.81504726 0.15668052 -0.55780751 0.0049052583
0.023446996 -0.0071313288 0.010835724 0.83839661 -0.35992062 -0.40932673 0.0016955824
0.02434296 -0.0061756987 0.011945378 0.86619115 -0.3345449 -0.37120429 0.0025710398
-0.00491643 -0.0040768189 0.011017626 -0.87581992 0.16385348 -0.45397311 0.0049905307
0.023743847 -0.005179422 0.0097614154 0.7926566 -0.37474608 -0.48089585 0.0011525255
0.024781754 -0.0039807241 0.011058899 0.87494147 -0.32372856 -0.36010733 0.0016211645
-0.0044142487 -0.0010684795 0.010947002 -0.89105624 0.13585855 -0.43308342 0.0055897268
0.025700884 -0.0012143599 0.011005918 0.89549905 -0.30508518 -0.32404387 0.0021631531
-0.0039969138 0.0020098635 0.010921951 -0.92501485 0.12258938 -0.35961011 0.0028423192
0.026569091 0.0017369159 0.010802358 0.91718668 -0.28871527 -0.27461258 0.001128141
0.027237743 0.0033025127 0.01156611 0.93711424 -0.25184748 -0.2416397 0.0012289798
-0.0035824133 0.0051269932 0.010848206 -0.94231939 0.072213903 -0.32683232 0.0031759264
0.027428703 0.0052352282 0.010692857 0.95605952 -0.20790112 -0.20670575 0.00071978971
-0.003362525 0.0081500094 0.010970311 -0.96857321 0.074070945 -0.23744355 0.0026699887
0.028171584 0.0086338576 0.010951035 0.96508962 -0.18537948 -0.18503104 0.00027617518
-0.003370638 0.010598293 0.011911921 -0.96927291 0.016856357 -0.24540967 0.0017771831
0.028638676 0.012022054 0.010662131 0.96291846 -0.17562281 -0.20480397 0.0003777995
0.028577453 0.01272097 0.0096820816 0.95591706 -0.1861811 -0.22706665 0.0010617722
-0.037407182 -0.073015794 0.014138196 -0.61337543 -0.62228781 -0.48634192 0.027263472
-0.034323651 -0.073329948 0.013694242 0.075352333 -0.84263176 -0.53319204 0.045830179
-0.03158075 -0.072221093 0.013956403 0.37001207 -0.77799171 -0.50775975 0.0051498236
-0.029586982 -0.071811728 0.015026189 0.34575573 -0.83062428 -0.43648168 0.0022294999
-0.039577786 -0.069687016 0.014516329 -0.79668242 -0.40285471 -0.45056114 0.00079370337
-0.038512122 -0.070840545 0.01350271 -0.72389364 -0.448668 -0.52409446 0.014209866
-0.030177761 -0.070991524 0.012908719 0.37469101 -0.78349012 -0.49573168 0.0054209707
-0.028359799 -0.070748985 0.013697267 0.33558387 -0.8332904 -0.43932968 0.0021908949
-0.025532497 -0.069866098 0.014039231 0.31810215 -0.80823398 -0.49554908 0.005389858
-0.02311419 -0.068921275 0.014119774 0.35806522 -0.81969196 -0.44709545 0.0024436279
-0.020555416 -0.068464287 0.015555494 0.42713714 -0.81605035 -0.38937864 0.0013254767
-0.040642429 -0.066784143 0.014123345 -0.88308454 -0.07717669 -0.46282339 0.028000059
-0.021741079 -0.067976117 0.013515685 0.38654783 -0.80794257 -0.44475788 0.0028923727
-0.019174211 -0.066906944 0.013845591 0.42735577 -0.77395159 -0.46729642 0.0047183465
-0.017174397 -0.066031516 0.014321921 0.4489738 -0.78448707 -0.42778805 0.0017245477
-0.039815366 -0.063925169 0.013691084 -0.79827231 0.44331822 -0.40771341 0.014103209
-0.038449805 -0.062690519 0.012779437 -0.72551316 0.50588393 -0.46659631 0.011658946
-0.015856799 -0.064868495 0.013629403 0.47836515 -0.7660678 -0.42930984 0.0018843611
-0.013646906 -0.06361822 0.014054447 0.51148415 -0.73723829 -0.44143367 0.0036256642
-0.01123972 -0.062562726 0.015406214 0.54817206 -0.73929 -0.39109802 0.0014420619
-0.039067421 -0.062408064 0.014275514 -0.70316553 0.54951662 -0.4512091 0.0075184191
-0.037486341 -0.060777895 0.013822436 -0.74334008 0.56814325 -0.35307038 0.0022911055
-0.012402397 -0.062265713 0.013234995 0.53284633 -0.73133904 -0.42569724 0.0034271555
-0.010485883 -0.061186392 0.013853811 0.54626787 -0.71221811 -0.44083646 0.0027425131
-0.0083862236 -0.059936229 0.01480379 0.60004729 -0.6963864 -0.39368656 0.0017673022
-0.036320604 -0.058777511 0.014550788 -0.73628414 0.47426513 -0.48265758 0.010895757
-0.03511326 -0.057631418 0.013706656 -0.74288732 0.46740615 -0.47921798 0.011333373
-0.007213735 -0.058224458 0.013600707 0.56716043 -0.68632931 -0.45528144 0.003749257
-0.0054677408 -0.057031628 0.014271498 0.62848383 -0.6497345 -0.42761326 0.001267128
-0.033952635 -0.055039126 0.0141652 -0.81861991 0.38541651 -0.42581162 0.0022773221
-0.032627668 -0.053716235 0.01309552 -0.77689844 0.3913863 -0.49319923 0.0059120189
-0.0043592677 -0.055364296 0.013477033 0.65663999 -0.59309274 -0.4659023 0.0027638369
-0.0025758687 -0.053932797 0.014238231 0.68484545 -0.59117001 -0.42603368 0.0028991951
-0.033240851 -0.052937143 0.014787428 -0.80959916 0.43195692 -0.39744493 0.0059494516
-0.031941727 -0.051647235 0.01371864 -0.74497598 0.43599826 -0.50489241 0.0053681815
-0.0010068396 -0.051948547 0.013887234 0.68534172 -0.60001308 -0.41266328 0.0032366174
0.00051874173 -0.050745502 0.014876448 0.69936001 -0.62738001 -0.3424761 0.0029370387
