# .PCD v0.7 - Point Cloud Data file format
VERSION 0.7
FIELDS x y z normal_x normal_y normal_z curvature
SIZE 4 4 4 4 4 4 4
TYPE F F F F F F F
COUNT 1 1 1 1 1 1 1
WIDTH 556
HEIGHT 1
VIEWPOINT 0 0 0 1 0 0 0
POINTS 556
DATA ascii
0.013456728 -0.02328578 -0.0050767334 -0.88040107 -0.43498161 -0.18890475 0.0016543688
0.011868889 -0.019894343 -0.0048281294 -0.89711773 -0.34387642 -0.27736035 0.0026006806
0.012813777 -0.021533631 -0.0058970125 -0.89820188 -0.35959324 -0.25283599 0.0030873127
0.011056927 -0.017171776 -0.0048486022 -0.89833558 -0.25221795 -0.35969323 0.0019361802
0.0095879147 -0.013671208 -0.0036739579 -0.88650656 -0.20304073 -0.41578919 0.001454117
0.0104071 -0.014476247 -0.0049246838 -0.88736373 -0.15019527 -0.43592086 0.0030233429
0.0093682297 -0.011214908 -0.0038628276 -0.86082137 -0.047800891 -0.5066573 0.0033878773
0.010259715 -0.011288419 -0.0053217853 -0.84424287 0.026123935 -0.53532374 0.0031461178
0.0093998276 -0.0084677506 -0.003702 -0.80940861 0.12973964 -0.57273501 0.0027866517
0.010627846 -0.0081544118 -0.0052379128 -0.79238147 0.1755046 -0.5842343 0.0017765209
0.0095937848 -0.0066448227 -0.0033332976 -0.75824404 0.22797915 -0.61081219 0.0053962725
0.0112261 -0.0052641314 -0.0046865195 -0.71922171 0.31565765 -0.61893487 0.0020126665
0.013123645 -0.0041243974 -0.0059303516 -0.60181475 0.50376892 -0.61970627 0.00131155
0.011970337 -0.0027621067 -0.0038267102 -0.58773232 0.48336813 -0.64878798 0.0012337916
0.013946034 -0.0019645789 -0.0049592899 -0.54536283 0.54260874 -0.63887018 0.0029821775
0.016227841 -0.0011712834 -0.0060655843 -0.51348424 0.60178971 -0.61170506 0.0013320046
0.035644095 -0.0010159835 -0.0061404677 0.51221913 0.84263408 -0.16613068 0.00086131477
0.014888864 -0.00011804956 -0.0040351618 -0.49610856 0.60240352 -0.62528902 0.0011364518
0.017203115 0.00077314337 -0.0046905591 -0.39093232 0.68987155 -0.60930216 0.0026722986
0.019858455 0.0016090944 -0.0052135801 -0.28099945 0.78125489 -0.55738682 0.00096519297
0.022800425 0.002109596 -0.005730215 -0.15878494 0.84087926 -0.51740652 0.0017086945
0.026089974 0.0022463526 -0.0061410093 -0.0061418409 0.89256197 -0.450883 0.0025216925
0.029418794 0.0021475281 -0.0055100988 0.21183294 0.91755623 -0.33647799 0.0057444614
0.032347716 0.0013219193 -0.0047256323 0.44096547 0.87608981 -0.19497724 0.0033852737
0.034555431 -8.226186e-05 -0.0051302286 0.51436454 0.84063971 -0.16956986 0.00082499144
0.020367261 0.0028507803 -0.003687528 -0.23479667 0.79662621 -0.55700731 0.002251752
0.023143684 0.0029613876 -0.0044215121 -0.098039694 0.86891842 -0.4851484 0.0025436878
0.026045263 0.0031021978 -0.0044126799 0.057486571 0.9072867 -0.41656485 0.0032685872
0.028576018 0.0028636658 -0.0041340818 0.26250204 0.90963101 -0.32196915 0.0038897095
0.016226662 -0.027878217 -0.0012943419 -0.8196646 -0.56565243 -0.090483382 0.00088512857
0.014095856 -0.025266163 -0.00165042 -0.82675844 -0.54237163 -0.14934357 0.0020201574
0.012330776 -0.022560678 -0.001627137 -0.84736979 -0.49386093 -0.19510469 0.0011785568
0.013062319 -0.023590727 -0.0021899613 -0.86096418 -0.47563559 -0.18030922 0.0010340348
0.01110281 -0.0202039 -0.0018615236 -0.88004738 -0.41096911 -0.23795176 0.0022084042
0.0094543351 -0.016867828 -0.0011573406 -0.8789289 -0.34616628 -0.328105 0.0019510014
0.010195235 -0.017465062 -0.002513689 -0.89304966 -0.30793276 -0.32808492 0.0021971001
0.0088805836 -0.014198154 -0.0017473258 -0.88104779 -0.24744523 -0.40314478 0.0013390648
0.0080751395 -0.011039843 -0.0016166724 -0.86575127 -0.1224804 -0.48525587 0.003175626
0.0080633955 -0.0082414672 -0.0017032435 -0.82646489 0.038549095 -0.56166697 0.0041505769
0.0085631134 -0.0053329086 -0.0015795642 -0.76356 0.1978171 -0.61469066 0.0015223303
0.010186294 -0.004184559 -0.0029988708 -0.69546515 0.30605778 -0.65012068 0.0014789501
0.0091071473 -0.0024859244 -0.00096802745 -0.6482628 0.359878 -0.67100167 0.0029727006
0.010928528 -0.001937259 -0.0022458525 -0.60527116 0.44557753 -0.65962678 0.004311325
0.0096464437 -0.00054361671 -0.00027745683 -0.56057066 0.44639465 -0.69749004 0.00041705996
0.011535377 0.00030455738 -0.0011517603 -0.49839401 0.53234076 -0.68426371 0.0017211036
0.013808088 0.00090191956 -0.0022472483 -0.44503373 0.62169075 -0.64455068 0.0028925645
0.016469752 0.0019777715 -0.0028505037 -0.33096483 0.72673434 -0.60192984 0.0019317496
0.032020781 0.0019611742 -0.0023594471 0.44866183 0.86677247 -0.21773361 0.0028481476
0.035011064 -7.5347722e-05 -0.0021735998 0.51302832 0.84273386 -0.16310017 0.00074746372
0.014352549 0.0026567888 -0.00088772963 -0.38033292 0.67220658 -0.63520473 0.0017634942
0.017244877 0.0034090301 -0.0015239518 -0.2641612 0.75997943 -0.59384352 0.00060588098
0.020225257 0.0041266866 -0.0016958233 -0.2018456 0.80788565 -0.55369586 0.0016372207
0.023158414 0.0043613873 -0.0018781133 -0.018526549 0.88839859 -0.4586989 0.0024694412
0.026131915 0.0042894408 -0.001697603 0.14303808 0.91113842 -0.38648009 0.0043926323
0.029090391 0.0035205991 -0.0018066195 0.33666575 0.90243912 -0.26881197 0.0051034777
0.031285018 0.0025944833 -0.0016262702 0.45780194 0.86390615 -0.20996122 0.0027661794
0.011761595 -0.022543613 0.0013970701 -0.8266145 -0.54305989 -0.1476298 0.00089964928
0.013207566 -0.024436995 0.00046043377 -0.81703258 -0.5605011 -0.13526338 0.0011026899
0.0092223622 -0.019088067 0.0027111499 -0.83961046 -0.48156938 -0.25128731 0.00093052565
0.010263318 -0.020150101 0.0011589145 -0.85805684 -0.45001718 -0.24743289 0.0013655284
0.0086564925 -0.017166112 0.0012534417 -0.85867608 -0.40681604 -0.31173074 0.0024635775
0.0063680522 -0.012903206 0.0026263325 -0.82910287 -0.3604511 -0.42739144 0.001618515
0.0075007789 -0.014136694 0.001186198 -0.86805046 -0.32216758 -0.37775189 0.0016108811
0.0061021326 -0.010942744 0.0019321416 -0.84789723 -0.23903954 -0.47321278 0.0016397596
0.0069797393 -0.011429945 0.0006343585 -0.85295409 -0.17489411 -0.49181437 0.0020321023
0.0057466226 -0.0082656769 0.0014978987 -0.82160616 -0.10108831 -0.56102079 0.0050891037
0.0068158899 -0.0083433259 5.8763049e-05 -0.80608958 -0.016382733 -0.59156686 0.0046414444
0.0056462353 -0.005285495 0.0016472666 -0.73438019 0.086162671 -0.67324716 0.0045857164
0.0070538484 -0.004917121 0.00021160921 -0.7227208 0.15430275 -0.67369539 0.0028666269
0.0059471866 -0.0023218002 0.0021055331 -0.65399969 0.25831786 -0.71102482 0.0026819578
0.0076357536 -0.0020003249 0.00064865511 -0.65071076 0.28572994 -0.70351541 0.0021718591
0.0062089702 -0.00038204831 0.0025694398 -0.57255965 0.36013299 -0.73653227 0.001893505
0.0082394062 0.00051912584 0.0015129537 -0.56499076 0.40707159 -0.71768945 0.001700119
0.010503124 0.0013836569 0.00043602783 -0.48693073 0.51483303 -0.70558149 0.0017710759
0.0088367052 0.0025007441 0.0023795632 -0.47403565 0.50727648 -0.71969485 0.0018666346
0.011325233 0.0033598403 0.0015950877 -0.39353836 0.61207092 -0.68592757 0.002924622
0.01405023 0.0042469343 0.0010042005 -0.3268072 0.69294721 -0.64266723 0.0024879617
0.016974591 0.0048189121 0.00038810453 -0.22279823 0.76976699 -0.59818029 0.001844484
0.019576726 0.0051285252 -7.0404785e-06 -0.11312848 0.8450399 -0.5225988 0.0016729386
0.026550815 0.0049983254 0.00033674773 0.22513777 0.92201245 -0.31496975 0.0046008546
0.028876809 0.0044370564 0.0013701745 0.38973063 0.89034921 -0.23534718 0.0033196434
0.031736854 0.0027775094 0.001560214 0.52297974 0.83975482 -0.14595936 0.00068357075
0.014823332 0.0057316348 0.0023380725 -0.24995863 0.72969669 -0.63644594 0.0019918499
0.017177412 0.0059693316 0.0019017358 -0.15046118 0.81044638 -0.56616092 0.0025666398
0.020111069 0.0060987929 0.0015008647 -0.037894629 0.87453622 -0.48347738 0.0027523343
0.023044474 0.0060015125 0.0013512539 0.078876391 0.891119 -0.44686168 0.0036078668
0.025618905 0.0057652071 0.0018645639 0.25665364 0.90431327 -0.34109578 0.0046206443
0.01188377 -0.023234613 0.0047962992 -0.80766356 -0.57971692 -0.10774027 0.00051619764
0.0090944441 -0.019645311 0.004645261 -0.79429704 -0.57699376 -0.19018547 0.0025447691
0.010075541 -0.020804927 0.0038806004 -0.81253421 -0.55935466 -0.16404398 0.0027425056
0.0063958783 -0.015852027 0.0054969816 -0.81311494 -0.48136848 -0.32730487 0.0027486244
0.0077032708 -0.017163733 0.0041066045 -0.83059162 -0.49300888 -0.25895911 0.0012060886
0.0059066666 -0.013903782 0.0043194685 -0.83656079 -0.36907282 -0.40490901 0.0014108524
0.006851647 -0.015067004 0.0033788709 -0.85406971 -0.35125569 -0.38364613 0.0012050223
0.0049510868 -0.011276169 0.0042339843 -0.83659339 -0.31983972 -0.444763 0.0011523741
0.0032285883 -0.0077837473 0.0050814087 -0.79101384 -0.24433212 -0.56089121 0.0021495447
0.0043589827 -0.0083331382 0.0036237426 -0.81297874 -0.15567037 -0.56109917 0.002275862
0.0029480259 -0.0049813841 0.0047447439 -0.75034869 -0.027567066 -0.66046715 0.0026454946
0.0042309053 -0.0050626113 0.0031834869 -0.76187491 0.017822249 -0.64747888 0.0041593122
0.0029076713 -0.0023133932 0.0049985149 -0.68151331 0.12065197 -0.72179139 0.003786349
0.0045655267 -0.0021114876 0.0034754439 -0.68569106 0.1772259 -0.70598781 0.0014248053
0.0032627417 0.00037586887 0.0053104055 -0.60951495 0.26138994 -0.74844295 0.0023517373
0.0050942646 0.00074797496 0.0040290095 -0.59952891 0.30143222 -0.74142003 0.0019371633
0.0069666021 0.0014826283 0.0030074818 -0.57041734 0.38429922 -0.72590506 0.0029461021
0.0055303918 0.0032680859 0.0050343685 -0.48355493 0.45144767 -0.74991316 0.0026793079
0.0079407487 0.0039225719 0.0040107234 -0.42626753 0.53494942 -0.729469 0.00055129454
0.010512828 0.0047714226 0.0032515049 -0.33185929 0.64147091 -0.69165349 0.0018438066
0.028774366 0.005020258 0.0035937952 0.45222133 0.86850339 -0.20297222 0.0028965194
0.030675059 0.0037484244 0.00350866 0.45783851 0.87242293 -0.17106192 0.0020883388
0.0085721184 0.0059461505 0.0052422248 -0.35718787 0.59000707 -0.72409141 0.0020300439
0.011305597 0.0064829369 0.0045757075 -0.28758067 0.66975278 -0.68463755 0.0016772213
0.014191713 0.0070010484 0.0041424106 -0.21733433 0.74365312 -0.63225454 0.0013970896
0.017026583 0.0073969401 0.0040034773 -0.07213676 0.8439737 -0.53151172 0.0018051168
0.020145671 0.0075480808 0.0040939837 0.064469054 0.89020252 -0.45098028 0.004102556
0.023279142 0.0072256289 0.004279336 0.19148193 0.90509754 -0.37964857 0.0041779969
0.026000848 0.0063788574 0.0040815389 0.29806408 0.90785909 -0.29487222 0.0018217909
0.027878363 0.005670242 0.0045738546 0.41906688 0.88649106 -0.19625622 0.0043039643
0.010976074 -0.0223943 0.0072025536 -0.78149813 -0.61310297 -0.11560917 0.0007976155
0.0083308937 -0.019263295 0.0070022671 -0.77863771 -0.61299378 -0.13402236 0.001500547
0.0060308063 -0.016305558 0.0075645652 -0.80213666 -0.54503721 -0.24394928 0.0024330863
0.0072100814 -0.017742047 0.0069661369 -0.79939854 -0.57113117 -0.18647017 0.0012811205
0.0035342935 -0.013063066 0.0085626571 -0.80871207 -0.48387837 -0.3344346 0.00084472686
0.0048670247 -0.014190301 0.0071044825 -0.8216908 -0.43997794 -0.36227575 0.0018005943
0.0030193168 -0.011020272 0.0074353768 -0.81304771 -0.38898692 -0.43317738 0.0026505864
0.0041018231 -0.011945345 0.0062058237 -0.83292371 -0.33432269 -0.44098359 0.0015262581
0.00064308359 -0.0070392191 0.0085346727 -0.77497023 -0.33465004 -0.53612542 0.0012929809
0.0020301307 -0.0082609309 0.007210454 -0.79412055 -0.27355748 -0.5427143 0.0014721419
0.00026653288 -0.0048659812 0.0079591107 -0.76242757 -0.21116386 -0.61164868 0.0034360597
0.0015486609 -0.0052132872 0.0065115402 -0.7730605 -0.13477741 -0.61984873 0.0038633128
-4.5592664e-05 -0.002166423 0.0078418124 -0.71602446 -0.037361763 -0.69707471 0.0047713863
0.0015130232 -0.0020708796 0.0063298214 -0.70417607 0.04525556 -0.70858169 0.0028775737
2.5474234e-05 0.00056559674 0.008032714 -0.63861531 0.13561855 -0.75748146 0.0036186043
0.0019153457 0.00078776246 0.0065218522 -0.62036425 0.18129277 -0.76307344 0.0018004015
0.00029322202 0.0031002196 0.0083580045 -0.5128305 0.2914699 -0.80749625 0.0029836127
0.00232797 0.0037907336 0.0073495707 -0.52417541 0.33141121 -0.78447872 0.0017327192
0.0047109341 0.0045113717 0.0062466958 -0.43156227 0.44902706 -0.78238654 0.0032322258
0.03038702 0.004260011 0.0064736037 0.46204638 0.86752182 -0.18417133 0.0020202352
0.0028292534 0.006207488 0.0082559958 -0.40081879 0.45004517 -0.79799968 0.0028505302
0.0052694716 0.0068466049 0.007510175 -0.33476415 0.56434816 -0.75461519 0.0011065222
0.0079170456 0.0072123865 0.0066236607 -0.30309647 0.6153025 -0.72769177 0.0026940734
0.010835527 0.0078511368 0.0061623431 -0.21241976 0.70615798 -0.67543972 0.0016461991
0.013102293 0.0080822632 0.0057501523 -0.12594359 0.79068089 -0.59913433 0.0016346176
0.023441924 0.0080207828 0.006654439 0.284742 0.90474463 -0.3167949 0.0040528849
0.026180193 0.006951584 0.0067503899 0.41837606 0.88428795 -0.20735551 0.003218963
0.0059436793 0.0086218994 0.008572273 -0.30514559 0.59541088 -0.74321741 0.0014349772
0.0082501024 0.0089971684 0.0081057437 -0.22804843 0.66568464 -0.71053344 0.0019372909
0.011166527 0.0092555285 0.0075947931 -0.14538543 0.74177772 -0.65469754 0.0025164739
0.014208624 0.009350121 0.0071681836 -0.037708815 0.80785799 -0.58816963 0.0026159715
0.017216057 0.009310158 0.0070297322 0.012868232 0.85871875 -0.51228547 0.0046132687
0.019976215 0.0090087838 0.0069959285 0.15617579 0.89627028 -0.41510087 0.005084327
0.022369472 0.0087638237 0.0077080354 0.29886591 0.8990013 -0.32011831 0.0035285323
0.010286017 -0.021750502 0.0088551966 -0.76263559 -0.63645482 -0.11537828 0.00048938248
0.0083743818 -0.019874442 0.010125401 -0.75250065 -0.63710785 -0.16684222 0.00050339132
0.0098095061 -0.021283247 0.0091851978 -0.76264167 -0.63644642 -0.11538476 0.00049222709
0.0058216453 -0.017055022 0.010461214 -0.76257646 -0.60651851 -0.2249722 0.0011911107
0.0069330577 -0.018455856 0.010937783 -0.75203586 -0.63436919 -0.17893516 0.00052043214
0.0031947989 -0.013739552 0.010560098 -0.77159733 -0.55563122 -0.30969578 0.0024523758
0.0043434864 -0.014949091 0.0098024439 -0.78008091 -0.56886017 -0.26052228 0.0006981882
0.00051373988 -0.010101814 0.0110525 -0.77810371 -0.44138652 -0.44691452 0.0026209913
0.0019067393 -0.011534222 0.010141538 -0.78575885 -0.49718636 -0.36795202 0.0018839819
-0.00019923411 -0.0079434039 0.010345424 -0.77359492 -0.39083254 -0.49879944 0.0025837785
0.0012442053 -0.0093390159 0.0091258613 -0.80739057 -0.36871192 -0.46062124 0.0015779212
-0.0027607966 -0.004168205 0.011404398 -0.73601317 -0.35081813 -0.57897431 0.001677504
-0.0012787683 -0.005182331 0.010125753 -0.74172807 -0.26711822 -0.61521327 0.0018978525
-0.0031805981 -0.0021063583 0.01099334 -0.69627643 -0.22109838 -0.68287235 0.0049502198
-0.0017245804 -0.002287101 0.00955885 -0.69968921 -0.10976569 -0.70596498 0.0035735513
-0.0035309487 0.0007278875 0.010894348 -0.61829621 -0.020777421 -0.78567046 0.0051263538
-0.0016357759 0.00077709672 0.0093598887 -0.62475562 0.053967755 -0.77895308 0.0029395949
-0.0034846393 0.0035878527 0.011081073 -0.5353176 0.14145006 -0.83272266 0.0032735963
-0.0010973272 0.0039838264 0.009597512 -0.54902136 0.18637207 -0.81476432 0.002026435
-0.0031646162 0.0060557546 0.011368625 -0.42951977 0.28923887 -0.85548449 0.0033303285
-0.00085007283 0.006930945 0.010512218 -0.42687222 0.35515094 -0.83165371 0.0033941912
0.0020463748 0.0073582456 0.0093233092 -0.34181345 0.48441938 -0.80529588 0.0016807738
0.004258384 0.0081453845 0.0088355122 -0.29113337 0.58400291 -0.75774795 0.0020759979
0.025889717 0.0075069987 0.009085658 0.4292044 0.87614506 -0.21943884 0.0021513482
-0.00024508475 0.0091969576 0.011344193 -0.36262712 0.42481622 -0.82947737 0.0021174243
0.0023963305 0.0097689349 0.010696483 -0.26733986 0.56426084 -0.78111404 0.00096832064
0.0051643103 0.0099706436 0.0099380258 -0.24855471 0.62329483 -0.74143386 0.0026707123
0.0080222078 0.010437961 0.0095769633 -0.15408275 0.70613468 -0.69110942 0.0014605786
0.010926748 0.010756167 0.0093769142 -0.080011159 0.76591557 -0.63794327 0.001907969
0.014155669 0.010809764 0.0092976103 0.017191099 0.83572805 -0.54887432 0.0022717793
0.017312314 0.010824442 0.0098506194 0.1572707 0.88747305 -0.43319452 0.0056019328
0.020125156 0.01025281 0.01002033 0.25615114 0.90190881 -0.34777424 0.0028013652
0.023124646 0.0091396123 0.010146646 0.3133395 0.90386641 -0.29127982 0.001552999
0.0054344079 0.011786057 0.011384183 -0.16063131 0.66511071 -0.7292636 0.0016800902
0.0082848668 0.011930556 0.011103754 -0.086851098 0.73807997 -0.66910011 0.0026326047
0.010903918 0.01196559 0.01087314 -0.0087319827 0.79528052 -0.60617882 0.0023507264
0.014084153 0.011799234 0.010795394 0.088398345 0.84533376 -0.52687442 0.0022284638
0.016634757 0.011687623 0.011333176 0.22166361 0.88397706 -0.41164285 0.0033123777
0.0047601387 -0.016316749 0.012144553 -0.74411261 -0.64057863 -0.1896193 0.0009250138
0.0025056081 -0.013947994 0.013022281 -0.7557615 -0.59852999 -0.26568091 0.00083065795
0.0040335525 -0.01560282 0.012595954 -0.74456251 -0.64073867 -0.18729846 0.00096892851
-0.00013792282 -0.010791042 0.013303817 -0.75038278 -0.55366343 -0.36108512 0.0029236746
0.0012372513 -0.012327049 0.012829664 -0.74631602 -0.59622604 -0.29584953 0.0013839043
-0.0031139869 -0.0071938308 0.013980402 -0.73135352 -0.48079109 -0.48369604 0.0031451532
-0.0017188054 -0.0082300631 0.012955244 -0.7515347 -0.44530457 -0.48672312 0.0017703733
-0.003846874 -0.0050385548 0.013329742 -0.71195424 -0.37903851 -0.59114379 0.00069303071
-0.0022820344 -0.0061151832 0.012042138 -0.74475014 -0.36025167 -0.56175256 0.00080962793
-0.006168671 -0.0018524649 0.01401628 -0.67839599 -0.33698604 -0.65285474 0.0021293275
-0.0046228366 -0.0023295563 0.012667753 -0.69457471 -0.25707054 -0.67192316 0.0022580186
-0.0067901239 0.00079598953 0.013576258 -0.62166041 -0.19959594 -0.75742972 0.0046832175
-0.0049759508 0.0005733649 0.012091502 -0.64412665 -0.10580977 -0.75756526 0.0038720607
-0.0088165505 0.0038668639 0.01451123 -0.5300647 -0.1046562 -0.84147406 0.0043491614
-0.0069225887 0.0036109108 0.01334934 -0.56993437 -0.06665317 -0.81898236 0.003724975
-0.0049530594 0.0035976605 0.012040141 -0.55934656 0.060532548 -0.82672083 0.0025564861
-0.0088318503 0.0065306625 0.01453174 -0.4606289 0.083681092 -0.88363928 0.0035520496
-0.006926788 0.0067807436 0.013572274 -0.43268803 0.14490375 -0.88982242 0.0032788841
-0.0043096584 0.0070343069 0.012305916 -0.43543288 0.22809668 -0.87084448 0.0048630433
-0.0086571677 0.0087529495 0.014655921 -0.356334 0.20407011 -0.91180128 0.0031907109
-0.0067734132 0.0098291533 0.014186092 -0.33081055 0.24775954 -0.91059297 0.0029065555
-0.0039974311 0.0099385455 0.013163801 -0.33848989 0.35086304 -0.87310922 0.0035149483
-0.0011823198 0.010347456 0.012312514 -0.30171168 0.44242182 -0.84453124 0.0036889506
0.0016031356 0.011119661 0.011851324 -0.22098453 0.58308011 -0.78178227 0.0018593365
0.020578995 0.010953625 0.012915083 0.31002399 0.89640069 -0.31678212 0.00090760627
0.022487419 0.0099121034 0.01209608 0.31899813 0.89772695 -0.30385253 0.0012331627
-0.0058877561 0.011843952 0.014567299 -0.2546826 0.34748653 -0.90243554 0.0031744593
-0.0037888756 0.012436423 0.014250623 -0.26094678 0.43999663 -0.85924953 0.0017565705
-0.00077519286 0.012814701 0.013676301 -0.18296786 0.55569309 -0.81100428 0.00096611964
0.0023316515 0.012854523 0.012981384 -0.13991791 0.62820524 -0.76536334 0.0013759717
0.0051761409 0.013243514 0.012864306 -0.10096025 0.68207967 -0.72427499 0.0024003428
0.0080801807 0.013399432 0.012743244 -0.021623919 0.76669967 -0.64164162 0.0015353548
0.011195516 0.013444763 0.01297179 0.083330706 0.83072674 -0.55040807 0.0037287597
0.013878478 0.013126988 0.013061409 0.17947274 0.8726424 -0.45418593 0.004105581
0.017002285 0.012368999 0.013037827 0.28461131 0.88611239 -0.36578858 0.0025585757
0.019154271 0.011824134 0.013863149 0.32201511 0.89072341 -0.32080841 0.00094278972
0.00062338077 0.014613487 0.014632675 -0.094675109 0.63466066 -0.76696962 0.001623031
0.0023325856 0.014605935 0.014413558 -0.081488155 0.66936755 -0.73844892 0.0021955639
0.0052615469 0.014800232 0.014381644 -0.023652058 0.72496629 -0.68837821 0.0021274581
0.0081888074 0.014600041 0.014242588 0.051319782 0.78175253 -0.62147355 0.0024748989
0.010388715 0.014607615 0.014462344 0.14691 0.83381069 -0.53214401 0.0024201558
-0.074888624 0.025944084 0.014212335 -0.13585109 -0.9011175 -0.41174221 0.069851257
-0.074010588 0.026057512 0.014070633 0.050809357 -0.88503814 -0.46273738 0.093812302
-0.075178616 0.027557846 0.014005868 -0.48132172 -0.24513754 -0.84156811 0.1331169
-0.072859421 0.027827129 0.013016446 0.22466898 -0.32909733 -0.91717976 0.06835454
-0.070725523 0.028262815 0.014227857 0.56932914 -0.39809459 -0.71929485 0.03511104
-0.074667953 0.030730313 0.013918504 -0.49777877 0.12267181 -0.85858476 0.048867561
-0.072581097 0.030847006 0.012804272 0.22575271 0.1712468 -0.95901519 0.053694651
-0.070721485 0.030701516 0.014202955 0.52837694 0.23904862 -0.81466168 0.041843887
-0.074535243 0.033147655 0.014288498 -0.55254436 0.30534396 -0.77553838 0.075045064
-0.073042803 0.033218876 0.013793241 0.078993872 0.56944793 -0.81822306 0.13546789
0.0045366529 -0.016682742 0.015712325 -0.73136181 -0.65675187 -0.18381222 0.0010925295
0.00045348331 -0.012951372 0.016551845 -0.69470346 -0.68160814 -0.22977702 0.001376341
0.002087699 -0.014358057 0.015759695 -0.71662515 -0.66569012 -0.20809877 0.0012271674
-0.0028233279 -0.0098575279 0.017210398 -0.69501805 -0.62739044 -0.35118526 0.0014000392
-0.0012371753 -0.010993158 0.016178653 -0.69089085 -0.65395623 -0.30823845 0.0033463123
-0.0038209788 -0.0080690263 0.016239699 -0.71357536 -0.59223211 -0.37426105 0.0011337923
-0.0023139396 -0.0093319491 0.015333685 -0.72502339 -0.583785 -0.36542603 0.0014150912
-0.0064278124 -0.0048358515 0.016385134 -0.68918943 -0.5024873 -0.5220387 0.0020671971
-0.0049718209 -0.0059095109 0.015472888 -0.70638531 -0.52271819 -0.47726879 0.0015375607
-0.0091643231 -0.0017119008 0.017054014 -0.63695425 -0.46559235 -0.61442083 0.002250527
-0.0074609537 -0.002485448 0.015809473 -0.65685391 -0.39212543 -0.64403456 0.0010702973
-0.011792727 0.0015636012 0.017375443 -0.56910157 -0.39463449 -0.72137856 0.0024921698
-0.0098476596 0.00075635943 0.01618401 -0.59605497 -0.31920081 -0.73676944 0.0023352336
-0.008055333 -0.00016053766 0.015043776 -0.64336914 -0.25069532 -0.72334498 0.0030383596
-0.012567518 0.0038205031 0.01697633 -0.51562464 -0.24818771 -0.82008177 0.0047686198
-0.010254897 0.0035512727 0.015511679 -0.53642225 -0.16837998 -0.82698214 0.0031558869
-0.014786888 0.0068481723 0.017509691 -0.44867617 -0.1613057 -0.87901664 0.00311621
-0.01287304 0.0065869801 0.016583193 -0.43540877 -0.086480461 -0.89606935 0.0042668502
-0.010227283 0.006757482 0.015286307 -0.46943086 -0.017032376 -0.88280499 0.0025790082
-0.015112569 0.0097960457 0.017453287 -0.38007662 0.006278066 -0.92493373 0.002161439
-0.01287077 0.0097740274 0.016518693 -0.35673568 0.070466958 -0.93154389 0.0025299767
-0.0099900514 0.009890697 0.015457633 -0.32056648 0.17734487 -0.93047619 0.0025889692
-0.0079796221 0.010811808 0.014937379 -0.34518066 0.22254303 -0.91177022 0.0019920764
-0.01496833 0.0124527 0.017541684 -0.30443141 0.1576001 -0.93940604 0.0025970424
-0.012886297 0.012976866 0.016995501 -0.28611246 0.21260372 -0.93431222 0.0024430803
-0.0099176429 0.012950504 0.016132139 -0.2674458 0.28343982 -0.92094225 0.0035416486
-0.0070599122 0.013025762 0.015441104 -0.21348265 0.38636595 -0.89729959 0.0020139008
-0.0044172313 0.013725607 0.015053775 -0.18365069 0.46866035 -0.86407751 0.0017925085
-0.0020646669 0.014131323 0.014819655 -0.17816004 0.55121291 -0.81512165 0.002243646
0.01448065 0.014065927 0.015299944 0.265551 0.89335597 -0.36248821 0.0047977157
0.016849162 0.013438852 0.016080979 0.33399025 0.8877843 -0.3166852 0.001614444
0.019387208 0.012204084 0.015734654 0.33868337 0.89726353 -0.28321666 0.00063257309
-0.012515468 0.015167827 0.017472379 -0.2462465 0.30515015 -0.91991633 0.0017275813
-0.0098338509 0.015665572 0.017137986 -0.17373355 0.39348459 -0.90276599 0.0019036824
-0.0069898451 0.015914571 0.016763732 -0.15419035 0.45796436 -0.87549645 0.0019529131
-0.0040392536 0.015897302 0.016294438 -0.093912169 0.54823613 -0.83103406 0.0011729286
-0.00088602898 0.015912734 0.01590161 -0.065918043 0.62240058 -0.77991819 0.0018396297
0.0023334178 0.016125809 0.015853103 -0.013580376 0.6919741 -0.72179461 0.001310179
0.0052736076 0.016284779 0.016070791 0.066471227 0.77362448 -0.63014823 0.0031529048
0.0080856532 0.015957396 0.016061407 0.12450791 0.82915008 -0.54498434 0.0027819425
0.011154706 0.015401771 0.016153332 0.2215945 0.85797441 -0.46343911 0.0033319155
0.013647534 0.01481543 0.016424458 0.29989529 0.86615664 -0.39979437 0.0045399866
-0.0062700864 0.017668154 0.017665837 -0.095439121 0.53634548 -0.83858514 0.0013060055
-0.0040548639 0.017660005 0.017466757 -0.051190946 0.60687149 -0.79314971 0.0017258341
-0.00073668244 0.017717477 0.017368864 -0.0096648885 0.67764199 -0.7353285 0.0021426741
0.0023345381 0.01765734 0.017401624 0.044736534 0.72335881 -0.68902153 0.0023476526
0.0045471191 0.017668121 0.017665021 0.12824465 0.7980842 -0.58874023 0.0027712379
-0.077463448 0.025992446 0.017085228 -0.44915506 -0.87750441 -0.16806455 0.077734806
-0.07577876 0.025551954 0.015850589 -0.26221555 -0.93040603 -0.25610071 0.07752239
-0.072680995 0.025950488 0.016376767 0.22939801 -0.86937386 -0.43768215 0.03553259
-0.069876209 0.026001755 0.017242443 0.25746247 -0.82812244 -0.49792203 0.017905075
-0.077505298 0.027480965 0.01732507 -0.8495245 -0.24598612 -0.46668929 0.095774516
-0.076456495 0.027727496 0.015845906 -0.79037762 -0.31840175 -0.523377 0.10299875
-0.071968503 0.026358314 0.015009346 0.23268975 -0.86340499 -0.44764647 0.037495825
-0.069488689 0.027459938 0.015737887 0.55327022 -0.42390549 -0.71707469 0.038396753
-0.067362331 0.027934399 0.017072842 0.52036136 -0.28984761 -0.80325115 0.036468599
-0.076190442 0.030681994 0.016140543 -0.8185727 0.13252479 -0.55890608 3.784836e-05
-0.069333173 0.030752929 0.015685629 0.66500372 0.30425671 -0.68205416 0.024659093
-0.067583993 0.030354438 0.017083988 0.66871339 0.32971779 -0.66641474 0.025470152
-0.075672776 0.033530436 0.016121145 -0.70127285 0.41409567 -0.58029395 0.028213898
-0.072538272 0.034034438 0.015505037 0.34337518 0.70946819 -0.61542535 0.058503706
-0.070196457 0.032825701 0.016526949 0.58934587 0.56314689 -0.57925558 0.0029447749
-0.00013378006 -0.013116658 0.019719917 -0.67386514 -0.70884305 -0.20844001 0.00070454826
0.0020886434 -0.014793776 0.01801518 -0.6924057 -0.69132155 -0.20651609 0.00048459982
-0.0029882365 -0.010535417 0.019424308 -0.66030699 -0.70338935 -0.26313129 0.0019589553
-0.0013610719 -0.01185864 0.018735949 -0.67535478 -0.69666129 -0.2419897 0.0012637766
-0.0063053137 -0.0074350825 0.019567419 -0.66665184 -0.63414592 -0.391707 0.0014017241
-0.0047566798 -0.0085192192 0.018763661 -0.67445451 -0.65170008 -0.34698448 0.0029833154
-0.0092751775 -0.0044747745 0.019873131 -0.60400903 -0.6208353 -0.49973652 0.0026099738
-0.0076184683 -0.0055464255 0.018919762 -0.65125638 -0.6268608 -0.42768061 0.0011497493
-0.012241482 -0.0015104141 0.019935526 -0.5745858 -0.53462321 -0.61970103 0.0018504999
-0.010343185 -0.0024740919 0.018848736 -0.61326891 -0.51842642 -0.5959323 0.001775824
-0.015213531 0.0014555827 0.02012945 -0.55902678 -0.51145524 -0.65261215 0.001573847
-0.013055668 0.0006377293 0.018993583 -0.55428076 -0.44472733 -0.70355552 0.0014231023
-0.01119589 -0.00027804077 0.017974187 -0.59864068 -0.45624149 -0.65838671 0.0003102271
-0.018018287 0.0045874817 0.02021163 -0.51939845 -0.42949232 -0.73875678 0.0020846457
-0.015884835 0.0037053891 0.019220147 -0.52533263 -0.35629284 -0.7727102 0.0017515623
-0.013878613 0.0031395778 0.01808548 -0.52034301 -0.32165945 -0.79106146 0.0026532714
-0.020835357 0.0077247992 0.020520102 -0.47353119 -0.34329659 -0.81112003 0.0028985396
-0.01880559 0.0067363982 0.019719899 -0.45226434 -0.30915442 -0.83658862 0.0041325297
-0.016240858 0.0065342346 0.018347878 -0.46797749 -0.21176668 -0.85799295 0.002340469
-0.021438327 0.0097788945 0.020212818 -0.40169087 -0.18560474 -0.8967694 0.0035258827
-0.018874718 0.0095884763 0.019106116 -0.41137502 -0.12813908 -0.90241396 0.0010685307
-0.016613841 0.0095655601 0.018110514 -0.41558278 -0.053326696 -0.90799075 0.0021752261
-0.023647238 0.01308921 0.020667803 -0.33173695 -0.092914708 -0.93878508 0.003916617
-0.021884002 0.012576358 0.020062849 -0.31566218 -0.043516263 -0.94787329 0.0030314224
-0.018818783 0.012716481 0.018965308 -0.33362749 0.038907938 -0.94190174 0.0027634236
-0.016257148 0.013019049 0.018100381 -0.32017007 0.093589917 -0.9427259 0.0025806169
0.016871158 0.014012136 0.018636722 0.41075301 0.88677102 -0.2119412 0.0012329635
-0.023997003 0.01563216 0.0206009 -0.22213846 0.019293247 -0.97482419 0.0019833781
-0.021833163 0.015634205 0.020089176 -0.25587776 0.089595452 -0.96254832 0.0023151797
-0.018937789 0.01591941 0.019356366 -0.25292763 0.17797016 -0.95097536 0.0030178258
-0.015894813 0.01598214 0.018592965 -0.237427 0.24692239 -0.93949866 0.0028046591
-0.013168322 0.016455792 0.018100657 -0.18845607 0.32428819 -0.92699599 0.0027279013
-0.01041938 0.017043281 0.017849617 -0.12813112 0.41969448 -0.89857602 0.001118556
0.0088817757 0.01709874 0.018183462 0.20594867 0.85783666 -0.4708519 0.0027341882
0.011108863 0.016679022 0.018782608 0.29115987 0.87961829 -0.37616161 0.0030220738
0.013980752 0.015497909 0.018829931 0.41469702 0.87313432 -0.25624767 0.0033220677
-0.023647433 0.017543703 0.020671282 -0.15991262 0.16266385 -0.97363675 0.0019303104
-0.021859678 0.018333243 0.020482391 -0.18327023 0.20199329 -0.96208662 0.0016982012
-0.01888513 0.018969389 0.020115156 -0.13328302 0.29073194 -0.94747591 0.00093397393
-0.015935184 0.018983388 0.019624032 -0.15761547 0.36014232 -0.91948622 0.0022411814
-0.012957241 0.01896351 0.01916362 -0.09877798 0.4462578 -0.8894363 0.0009592477
-0.009988457 0.018948836 0.018825393 -0.086872615 0.48861837 -0.86816204 0.0017378632
-0.0070942072 0.019052926 0.018643264 -0.044419784 0.55845535 -0.8283444 0.0018782665
-0.0038682651 0.019218434 0.018693469 0.014479931 0.63113737 -0.77553588 0.0018176364
-0.0007040936 0.019193638 0.018781684 0.040695284 0.70205718 -0.71095681 0.0018815561
0.002264906 0.019137705 0.019109696 0.13160709 0.7834264 -0.60739011 0.0029510562
0.0052832812 0.018599801 0.019169092 0.16941768 0.81678069 -0.55151325 0.001301763
0.0079297246 0.018070184 0.019438919 0.27597058 0.85642916 -0.4363133 0.0039075045
0.010497929 0.017534181 0.020434786 0.38399416 0.87599462 -0.29185933 0.0024322274
-0.018200684 0.020757891 0.020611916 -0.1088573 0.39938173 -0.91029894 0.00082526548
-0.015856607 0.020977026 0.02048951 -0.096419021 0.45572111 -0.88488507 0.0013610502
-0.012923396 0.021211209 0.020351212 -0.06409096 0.51249558 -0.85629469 0.0013938274
-0.010025412 0.021234576 0.020231489 -0.021765701 0.57218373 -0.81983656 0.0016553414
-0.0070590703 0.02123552 0.020250577 0.020285422 0.63206786 -0.77464753 0.002006613
-0.0038443459 0.020986728 0.020221204 0.070145093 0.69494551 -0.71563286 0.0024100551
-0.00063199142 0.020751027 0.020467076 0.13075872 0.7680254 -0.62692845 0.0027210102
-0.074190192 0.025558583 0.018068645 -0.12861601 -0.99163377 -0.010975866 0.054514665
-0.068891995 0.025601797 0.018811606 0.33458874 -0.77915233 -0.53006798 0.007685157
-0.066852733 0.025718451 0.0193308 0.36890817 -0.72025764 -0.58748251 0.010482391
-0.064346723 0.025990853 0.020189319 0.40312657 -0.44777724 -0.79811311 0.050622653
-0.078100435 0.028203368 0.018383332 -0.6955952 -0.028227746 -0.71787912 0.084306747
-0.065974861 0.027510073 0.018213183 0.48232177 -0.22282909 -0.84717935 0.032970343
-0.063837409 0.027873242 0.019660149 0.52527028 -0.096104644 -0.84549099 0.040195007
-0.062251814 0.028184704 0.020673148 0.60003608 -0.055521488 -0.79804397 0.035058748
-0.07793919 0.030571438 0.0186809 -0.81715328 0.12596881 -0.56248766 8.2016675e-05
-0.077087075 0.031932898 0.017746601 -0.8184914 0.13172045 -0.55921519 6.5932261e-05
-0.066258714 0.030970974 0.018609706 0.54459405 0.42548454 -0.72275871 0.019962849
-0.064287864 0.030443437 0.019925643 0.49708617 0.44354305 -0.74577135 0.019096242
-0.077780128 0.0325092 0.018900279 -0.81849408 0.13172084 -0.55921108 7.9426798e-05
-0.077143505 0.03294079 0.018072043 -0.7452786 0.27295396 -0.60832226 0.033493273
-0.06951239 0.0333068 0.018579599 0.59746003 0.59345764 -0.53930467 0.0022830805
-0.067387424 0.032673769 0.019460745 0.51618356 0.65054715 -0.55708426 0.0033516646
-0.0041177548 -0.010325283 0.022128958 -0.63716549 -0.73919243 -0.21820809 0.0018193603
-0.0016291682 -0.012170538 0.021433998 -0.65261179 -0.73212427 -0.19517158 0.0010672632
-0.0086049829 -0.0069843829 0.022938404 -0.60397536 -0.72383159 -0.33358902 0.0024347166
-0.0068500489 -0.0081342701 0.022226576 -0.63632339 -0.7053476 -0.31237358 0.0017405732
-0.0050906688 -0.0091856197 0.020859513 -0.62454253 -0.74721497 -0.22719243 0.0014342373
-0.011840425 -0.0043741763 0.023034591 -0.58696145 -0.6949147 -0.41541517 0.00050653651
-0.010116725 -0.0052503943 0.02202642 -0.58911145 -0.71321964 -0.37982303 0.0015968594
-0.0083208662 -0.0064685717 0.021382872 -0.61463434 -0.70936668 -0.34499773 0.0026188563
-0.015383339 -0.0013269819 0.022979997 -0.54148781 -0.64474148 -0.53953618 0.0015190818
-0.01323703 -0.0024412642 0.022089109 -0.58215332 -0.66045243 -0.4742364 0.001421557
-0.011286646 -0.0034928843 0.02109519 -0.60129094 -0.63075387 -0.49050868 0.00025098139
-0.0185079 0.0015116893 0.022866122 -0.53152841 -0.58660537 -0.61104131 0.0022391498
-0.016273076 0.00047203305 0.021897964 -0.54235572 -0.55509311 -0.63065183 0.0014399885
-0.014252616 -0.00052078813 0.020917449 -0.56164634 -0.57094979 -0.59880686 0.00051030604
-0.021677028 0.0043171206 0.022979081 -0.50683981 -0.51618457 -0.69041067 0.0025505496
-0.019178484 0.0035144663 0.021766748 -0.52392912 -0.47743148 -0.70537752 0.0011923715
-0.01722783 0.0024510846 0.021014515 -0.53310353 -0.49274147 -0.68775463 0.00034039275
-0.024612227 0.0071099023 0.023085665 -0.46205208 -0.49279478 -0.73733389 0.0028297887
-0.022073558 0.0065760557 0.021817204 -0.46916977 -0.39541024 -0.78963947 0.0012931041
-0.020037318 0.0055887373 0.021072142 -0.47896966 -0.35646507 -0.8021974 0.0030103475
-0.030031506 0.010935687 0.023513857 -0.30735266 -0.4944618 -0.81304479 0.0027037938
-0.027722051 0.0099663213 0.023041751 -0.34540376 -0.42013207 -0.83915752 0.0032663685
-0.02496074 0.0096539315 0.021953329 -0.40229297 -0.34320393 -0.84874696 0.0053720241
-0.022841426 0.009302469 0.021018203 -0.4375816 -0.26167604 -0.86026037 0.003446484
-0.035774674 0.013930075 0.02371398 -0.27449933 -0.47309339 -0.83715755 0.0029484532
-0.033692259 0.013455535 0.023411989 -0.23282632 -0.42987549 -0.87235254 0.0035168086
-0.030888364 0.012758991 0.022935756 -0.27859783 -0.37946111 -0.88226557 0.0022783855
-0.027946427 0.012635623 0.022076882 -0.28909588 -0.28306925 -0.91449189 0.0047699427
-0.025068181 0.012546559 0.02115231 -0.33081836 -0.18411785 -0.92555916 0.0027298087
-0.039443437 0.016562838 0.023513362 -0.20148547 -0.40853244 -0.89022738 0.0030325444
-0.036845431 0.015871007 0.02321421 -0.21626395 -0.36236843 -0.90659755 0.0020727159
-0.033951312 0.01563631 0.022689722 -0.20426752 -0.29820317 -0.93238926 0.0018892803
-0.030925808 0.015614923 0.022090808 -0.19160482 -0.21473046 -0.95769435 0.0043678549
-0.027910993 0.015595038 0.021536496 -0.21790683 -0.10435195 -0.97037482 0.0035545223
-0.025464572 0.015529298 0.020959493 -0.24638513 -0.046759687 -0.96804333 0.0021001352
0.012487998 0.016811483 0.02093384 0.41275564 0.86681032 -0.27977222 0.0035181239
0.014010089 0.016118415 0.022291008 0.44134924 0.87109756 -0.21540624 0.0010274076
0.015977209 0.014856674 0.021688614 0.43808305 0.87518531 -0.20526513 0.0012268908
-0.045305572 0.019734502 0.023537841 -0.19844222 -0.38777772 -0.90013844 0.0038452577
-0.042784169 0.018968083 0.023309369 -0.16026737 -0.30230626 -0.93964106 0.0036248951
-0.039937466 0.018628828 0.022920787 -0.13923 -0.23219077 -0.96265388 0.0027722532
-0.036915928 0.018610179 0.022478383 -0.12949087 -0.18485944 -0.97419667 0.0035383287
-0.033905197 0.018594172 0.022100843 -0.13848454 -0.1375744 -0.98076266 0.0048026498
-0.030901635 0.018579606 0.021754865 -0.11908267 -0.082003415 -0.98949218 0.0049184049
-0.027903832 0.018565882 0.021429211 -0.14038329 0.048378695 -0.98891455 0.0029590565
-0.0249789 0.018607248 0.021030586 -0.16544694 0.092455633 -0.98187536 0.0018913934
-0.022061175 0.01977816 0.020832375 -0.12760939 0.24762008 -0.96041662 0.0012593783
-0.020188177 0.020270772 0.020778898 -0.11890212 0.28603479 -0.95081359 0.0017806254
0.0030789657 0.020275958 0.020891044 0.24605571 0.84036756 -0.48294818 0.0024586795
0.0057237046 0.019717706 0.021320768 0.29340914 0.85998291 -0.41754109 0.0044876859
0.0082436446 0.019038806 0.022033256 0.33775792 0.87969637 -0.33474445 0.0021474184
0.011024993 0.017749455 0.022078998 0.38398507 0.87599295 -0.29187629 0.0024273207
-0.051209435 0.022893406 0.023631107 -0.14730158 -0.30534524 -0.94077981 0.0042918213
-0.048719585 0.022194877 0.023421057 -0.14548525 -0.25800037 -0.95512819 0.0053354078
-0.045927648 0.021623416 0.023132842 -0.11936508 -0.16669397 -0.9787569 0.0034077265
-0.042905729 0.021605231 0.022759449 -0.099068142 -0.12058273 -0.98774761 0.0040006177
-0.039897084 0.021591591 0.022478472 -0.08155337 -0.076911882 -0.99369693 0.004464257
-0.036897138 0.021580886 0.02225741 -0.074505329 0.067264497 -0.99494946 0.0046269391
-0.033903368 0.021572163 0.022078648 -0.062094394 0.11979401 -0.99085504 0.0037133386
-0.030913731 0.021564737 0.021925278 -0.053684648 0.16951421 -0.98406446 0.0031685219
-0.027925989 0.02155729 0.021770474 -0.055785611 0.22190809 -0.97347051 0.0027634683
-0.024940262 0.021549748 0.02161495 -0.069931485 0.24967155 -0.96580213 0.0024271591
-0.022010066 0.021610664 0.021369599 -0.12649322 0.31003857 -0.94227147 0.0014001379
-0.019054499 0.021889446 0.021243908 -0.096503727 0.38085231 -0.91958606 0.00098436046
-0.016059466 0.022216866 0.02113203 -0.042853087 0.48407722 -0.87397528 0.001432139
-0.013117154 0.022459896 0.02114021 -0.014144145 0.54285848 -0.83970511 0.0014597799
-0.010050125 0.022518501 0.021169055 0.030813308 0.60075134 -0.79884195 0.0015626287
-0.0068334285 0.022529289 0.021379188 0.074112341 0.6594618 -0.74807596 0.0016138894
-0.0037051449 0.022265809 0.021580052 0.12474691 0.72072214 -0.68190747 0.0016847426
-0.00073158776 0.022000622 0.022057798 0.1923195 0.78129989 -0.59378749 0.0019247712
0.0021931722 0.02133226 0.022234756 0.25763041 0.83824599 -0.48059368 0.0030814561
0.0048838342 0.020533603 0.022427764 0.35289162 0.86150342 -0.36507437 0.0023814603
-0.066354826 0.024871586 0.02212023 0.34013581 -0.72019947 -0.60466546 0.019765384
-0.063633494 0.025040407 0.021976266 0.33682355 -0.66732246 -0.66425192 0.027552838
-0.060921922 0.025252637 0.022589535 0.13617325 -0.60649467 -0.78333968 0.025877552
-0.057893895 0.025117282 0.023324411 0.11060227 -0.43190944 -0.89510971 0.018165644
-0.054876696 0.025076374 0.023479205 0.007313604 -0.25273827 -0.96750706 0.011038711
-0.05189183 0.024658311 0.023380864 -0.064822115 -0.090888947 -0.99374914 0.0060651922
-0.048916332 0.024610806 0.023162901 -0.06690187 -0.038541984 -0.99701488 0.0045641535
-0.045904934 0.024597209 0.022915632 -0.061729547 0.080496877 -0.99484158 0.0035551602
-0.042906586 0.024589177 0.022769339 -0.050784029 0.12393799 -0.99098951 0.0036063192
-0.039914776 0.024583992 0.02267395 -0.034029964 0.17041972 -0.98478371 0.0027634737
-0.036927436 0.024580905 0.02261661 -0.023058698 0.21254651 -0.97687888 0.0022771107
-0.033942111 0.024578657 0.022575792 -0.012888301 0.24897058 -0.96842527 0.0018479774
-0.030960266 0.024578745 0.02257622 -0.0069139646 0.28779596 -0.95766681 0.0017690239
-0.027979117 0.024579467 0.022587016 -0.0031994977 0.32913008 -0.94427907 0.0018131902
-0.024999022 0.024581302 0.022618569 -0.0045577507 0.37701207 -0.92619717 0.0021009566
-0.022015821 0.02458021 0.022597015 -0.012610313 0.43317777 -0.90122026 0.0024319056
-0.019033199 0.024579668 0.022584222 -0.020288961 0.48882687 -0.87214488 0.002206509
-0.016005421 0.024615221 0.02261566 0.012105074 0.55913889 -0.82898557 0.0024742289
-0.012985601 0.024420252 0.022560485 0.025438016 0.63255316 -0.77409905 0.0019099396
-0.0098919999 0.024171345 0.022584856 0.062580168 0.67700899 -0.73330939 0.0019711552
-0.0067897728 0.023915892 0.022789277 0.13437039 0.72831357 -0.67194045 0.0025980992
-0.0038805683 0.023525363 0.023023151 0.18992653 0.77435338 -0.60357666 0.0021117623
-0.0018960463 0.023390256 0.023606841 0.2752597 0.82630944 -0.49137026 0.0036302458
-0.060756303 0.027824022 0.02166298 0.43910682 -0.11642741 -0.89085901 0.026414542
-0.057832457 0.027577335 0.022852838 0.22622696 -0.00087479909 -0.97407418 0.030519037
-0.054913718 0.027609915 0.023376957 0.08659827 0.030063841 -0.99578959 0.012975061
-0.051974036 0.027412897 0.023437046 -0.026421297 0.11532555 -0.99297631 0.0083369156
-0.048946079 0.027364537 0.023433533 -0.022766542 0.20694418 -0.97808778 0.0045077801
-0.045951556 0.027360363 0.023364816 -0.02206168 0.25133455 -0.96764886 0.0030475995
-0.043004975 0.027324473 0.023338839 -0.0051119346 0.29010922 -0.95697987 0.0024131904
-0.039971858 0.027107561 0.023301836 0.0054195798 0.32600278 -0.94535327 0.0022617071
-0.03698859 0.027109962 0.023340546 0.010750474 0.35970312 -0.93300486 0.0021898851
-0.034094751 0.027043927 0.023371316 0.02239912 0.3906737 -0.92025667 0.0022299811
-0.031019222 0.026864523 0.023400016 0.033454359 0.42324957 -0.90539527 0.0021674486
-0.028184695 0.026767865 0.023448899 0.038241647 0.45643699 -0.8889336 0.0019321792
-0.025248563 0.026570266 0.02347628 0.042561501 0.49864686 -0.86575967 0.0018639141
-0.022066172 0.026376152 0.023562897 0.042891689 0.54702699 -0.83601534 0.0018859353
-0.019581014 0.026382484 0.023669671 0.053869929 0.59179246 -0.80428833 0.0013073719
-0.063346907 0.031439811 0.021415293 0.50124669 0.52547312 -0.68748075 0.02054543
-0.060858697 0.030652892 0.022371821 0.34739664 0.51079303 -0.78638792 0.01642956
-0.058110431 0.030031927 0.023258567 0.27159184 0.4242495 -0.86385781 0.012211142
-0.05581433 0.029492058 0.023610707 0.12582171 0.39594337 -0.90961409 0.0067065605
-0.066175207 0.032868057 0.021543454 0.4610379 0.67618245 -0.5746488 0.0032312525
-0.063791551 0.032628685 0.022794854 0.39265105 0.70487219 -0.59074557 0.0058402205
-0.061640121 0.032342132 0.023417506 0.3270247 0.75771332 -0.5647347 0.0074508828
-0.0036476899 -0.010992751 0.02429888 -0.61885107 -0.76816517 -0.16415127 0.00038706633
-0.0090060914 -0.0074129086 0.025151089 -0.57596892 -0.78088409 -0.24182631 0.0021890909
-0.0068931617 -0.0087500177 0.024433214 -0.58922052 -0.78199416 -0.20323469 0.0016379936
-0.014445279 -0.0040221438 0.026338253 -0.5426538 -0.78383487 -0.30187711 0.00058764155
-0.01256929 -0.004805828 0.02510545 -0.56401896 -0.75136155 -0.34254709 0.0022276151
-0.010390344 -0.0062571764 0.024595562 -0.56643111 -0.77712661 -0.27428094 0.0013225448
-0.017820664 -0.0012162433 0.025594138 -0.53782457 -0.70539922 -0.46168888 0.001768603
-0.015723279 -0.0024274276 0.025075749 -0.54508126 -0.74160433 -0.39103621 0.0011246208
-0.013880754 -0.0035112128 0.024495814 -0.56386083 -0.73753726 -0.37161773 0.001902516
-0.021327132 0.0014533531 0.025558297 -0.52024043 -0.68527478 -0.50965524 0.0020810065
-0.018939249 0.00020413124 0.024761118 -0.53721678 -0.69181591 -0.48248196 0.0011863275
-0.026850574 0.0048720241 0.026413847 -0.43541273 -0.64811045 -0.62479484 0.0019366321
-0.024522008 0.0039651813 0.025561962 -0.50034964 -0.62137294 -0.60294765 0.0026282549
-0.022225661 0.0030835038 0.024561156 -0.5210802 -0.61178285 -0.59514451 0.0039635897
-0.030302893 0.0075726672 0.026029687 -0.38295734 -0.62362486 -0.68149525 0.0037290915
-0.027706485 0.0067379433 0.025199309 -0.43006828 -0.58995026 -0.68337393 0.0028394603
-0.025510877 0.0061745178 0.024255823 -0.46487314 -0.52011949 -0.71649754 0.0023403889
-0.036253717 0.010641297 0.02622541 -0.33155531 -0.628196 -0.7038756 0.0027242952
-0.033585597 0.0099199899 0.025628045 -0.34825954 -0.58148497 -0.73524868 0.0023053675
-0.030861873 0.0096122753 0.024683505 -0.33317032 -0.51520044 -0.789662 0.0012776584
-0.028699003 0.0090179062 0.024070345 -0.3605122 -0.47817004 -0.80086482 0.0027421848
-0.04221141 0.01373197 0.026198477 -0.3234973 -0.65025032 -0.68740392 0.0020150642
-0.039506353 0.013064367 0.025614452 -0.32646823 -0.5778138 -0.74803054 0.0028208441
-0.036762595 0.012609813 0.024909846 -0.30299056 -0.52218151 -0.79719704 0.0014688689
-0.034129258 0.012173968 0.024261516 -0.28916594 -0.47570071 -0.83071768 0.0026233064
-0.032133285 0.011609532 0.023877315 -0.25604907 -0.41812778 -0.87155497 0.0040290901
-0.048231974 0.01674078 0.026291162 -0.33466268 -0.64641666 -0.68567216 0.0023621928
-0.045561925 0.016034335 0.025724977 -0.31899118 -0.60899729 -0.72620034 0.0021204429
-0.042824835 0.015694894 0.024956658 -0.29686522 -0.54256034 -0.78581125 0.0034273644
-0.040184572 0.015402323 0.02426799 -0.25171053 -0.46559951 -0.848445 0.0022891422
-0.037704334 0.01460206 0.023943726 -0.24773604 -0.45002481 -0.85796541 0.001631691
-0.054102771 0.019857392 0.026277091 -0.32158539 -0.68198723 -0.65686846 0.0043634898
-0.051544547 0.019106237 0.025814231 -0.3181459 -0.61209989 -0.72395921 0.0034045281
-0.048829883 0.018696217 0.0250527 -0.30646822 -0.52494371 -0.79404747 0.0042836028
-0.046098653 0.018525578 0.024264965 -0.25249141 -0.45147499 -0.85581446 0.0025433884
-0.043548774 0.017704122 0.023959048 -0.22585723 -0.37811214 -0.89778596 0.0038759483
0.0085695256 0.019422032 0.02398527 0.39686841 0.88374132 -0.2479855 0.0020948313
-0.062514581 0.023022436 0.026126776 -0.15127696 -0.87462264 -0.46059802 0.010780301
-0.060502045 0.022710588 0.025746036 -0.2147616 -0.82156146 -0.52812326 0.0097001558
-0.057603434 0.022138959 0.025581069 -0.17506003 -0.73816603 -0.65150976 0.010190209
-0.054828469 0.021695128 0.02507662 -0.1796625 -0.58311242 -0.79227602 0.0076306649
-0.052031096 0.021625787 0.024336681 -0.21534804 -0.45612508 -0.86346692 0.0051211212
-0.049322996 0.020884469 0.023986481 -0.22541423 -0.34806371 -0.90996712 0.0054383189
0.00034435512 0.022906609 0.023886237 0.29033941 0.84366286 -0.45159271 0.0036736468
0.0024217668 0.022582317 0.025123745 0.39196116 0.87304395 -0.29010472 0.0025099742
0.0051545007 0.021230904 0.024568599 0.40191227 0.87851244 -0.25822932 0.0027360662
0.0070915706 0.020496599 0.025655601 0.42293015 0.8771773 -0.22735436 0.001572783
-0.063505068 0.023733897 0.024866141 -0.037000574 -0.89595938 -0.44259217 0.0081796832
-0.060904223 0.023700291 0.02432907 -0.037990049 -0.82740444 -0.56032014 0.012865365
-0.058007505 0.023670666 0.02419753 -0.036591943 -0.51078403 -0.85892993 0.020312408
-0.055099647 0.023635592 0.023963429 -0.1302605 -0.46417075 -0.87611514 0.0064673908
-0.053218137 0.02339872 0.023767564 -0.12786219 -0.32990852 -0.9353137 0.020622315
-0.012364715 0.02589749 0.023895945 0.086376414 0.69507909 -0.71372557 0.0032549808
-0.0094316388 0.025715552 0.024195503 0.14037558 0.71913391 -0.68054479 0.0020132051
-0.0065265596 0.025517985 0.024877112 0.25811273 0.83231479 -0.49054047 0.0021983166
-0.0037225229 0.024779852 0.025009535 0.26488355 0.84136641 -0.47110429 0.0027404909
-0.00082576892 0.023843745 0.025091644 0.30009067 0.85264778 -0.42771167 0.0019204509
0.0010868765 0.023527317 0.026204143 0.39684579 0.85525793 -0.3332375 0.0032884548
-0.051723495 0.02887968 0.023769084 0.049482543 0.2280281 -0.97239637 0.0056893295
-0.048993714 0.028885901 0.023865379 0.013552737 0.27754351 -0.96061748 0.0042976635
-0.046003625 0.028885957 0.023866225 0.0060807066 0.3206813 -0.94716763 0.0029300484
-0.042837378 0.028816052 0.023885861 0.021992486 0.35274637 -0.93546051 0.0024925624
-0.040026054 0.028638843 0.023897626 0.032678101 0.38325346 -0.92306501 0.0023065673
-0.037042107 0.02864372 0.023973677 0.036235649 0.41369301 -0.90969515 0.0023191727
-0.03391286 0.028540257 0.024025265 0.047862902 0.44337159 -0.89505905 0.0021700596
