# .PCD v0.7 - Point Cloud Data file format
VERSION 0.7
FIELDS x y z normal_x normal_y normal_z curvature
SIZE 4 4 4 4 4 4 4
TYPE F F F F F F F
COUNT 1 1 1 1 1 1 1
WIDTH 556
HEIGHT 1
VIEWPOINT 0 0 0 1 0 0 0
POINTS 556
DATA ascii
0.020572387 -0.050878227 -0.035433106 0.57330018 -0.68983078 -0.44210896 0.0057782992
0.022555619 -0.049611069 -0.034499653 0.64857572 -0.63237667 -0.42361441 0.0038573809
0.024173535 -0.048731498 -0.033304386 0.712475 -0.57273304 -0.40540886 0.0043774317
0.023590015 -0.047465641 -0.035379808 0.73429203 -0.38233301 -0.56092483 0.0019551578
0.024941856 -0.046493083 -0.034244236 0.74858713 -0.40510285 -0.52488959 0.0035767357
0.025730001 -0.043819264 -0.034505583 0.78731227 -0.21136686 -0.5791921 0.0041120825
0.027029283 -0.042627774 -0.033106156 0.81555802 -0.20720805 -0.54030538 0.0022169568
0.0025171679 -0.040330451 -0.034695268 -0.84767658 0.49974692 -0.17803781 0.0019780623
0.025800485 -0.040870339 -0.034934331 0.77349859 -0.0034622273 -0.63378859 0.0014220657
0.027009616 -0.040628742 -0.033415634 0.80600238 -0.033118729 -0.59098512 0.0021771379
0.0038255299 -0.037643816 -0.034473769 -0.830387 0.49327394 -0.25911036 0.0070149256
0.025629759 -0.037780922 -0.03477278 0.72053897 0.17735004 -0.67035103 0.0022735568
0.027024908 -0.037807453 -0.033174973 0.77602208 0.12973191 -0.61721915 0.0018220169
0.0051372978 -0.035553224 -0.03416824 -0.71308696 0.59916157 -0.36402249 0.004481256
0.0069121327 -0.034226678 -0.034914713 -0.57075071 0.67874247 -0.4621172 0.0045655486
0.023466989 -0.034208708 -0.035442717 0.6076445 0.34158042 -0.71700138 0.0017432845
0.025300767 -0.034989733 -0.034146845 0.67366791 0.29354057 -0.67823708 0.001176029
0.0080513498 -0.032572035 -0.033929795 -0.51705939 0.67179495 -0.53041607 0.0016053665
0.010294612 -0.031628344 -0.034604479 -0.35086951 0.7314415 -0.58470851 0.0015540881
0.013225561 -0.030879753 -0.035192661 -0.18239659 0.72994643 -0.65871817 0.0020680502
0.016437804 -0.030643672 -0.035452574 0.0058428282 0.70470363 -0.70947778 0.0026583821
0.019709067 -0.031018378 -0.035281885 0.20464073 0.64505351 -0.73622561 0.0028779237
0.022537401 -0.03179685 -0.034560349 0.40141886 0.54747939 -0.73425418 0.0020866161
0.024588037 -0.032320168 -0.0334103 0.58084005 0.44883776 -0.67909455 0.0017123063
0.011378839 -0.030031273 -0.033316314 -0.38474196 0.7352227 -0.55805123 0.0013104192
0.0136068 -0.029544929 -0.033757828 -0.22541927 0.73427087 -0.64033771 0.0024978081
0.016493762 -0.02922086 -0.033966042 -0.03161959 0.71733195 -0.69601381 0.0029770413
0.019476132 -0.029313564 -0.033809949 0.17923519 0.68029559 -0.7106846 0.0036030645
0.022004409 -0.029820327 -0.033347063 0.377083 0.59678894 -0.70827347 0.0021553212
0.019617233 -0.05255032 -0.032497387 0.50641006 -0.77112412 -0.38589695 0.0036597734
0.021844953 -0.051541522 -0.031785421 0.60013223 -0.6958487 -0.39450702 0.0040503019
0.022976423 -0.050596029 -0.031981092 0.63025832 -0.67865515 -0.37709635 0.0052757738
0.024780614 -0.049180526 -0.031323023 0.71083212 -0.59066689 -0.3818773 0.0030627826
0.026143434 -0.046998765 -0.031750705 0.7994017 -0.4140681 -0.43532106 0.0027152528
0.027368622 -0.045925062 -0.030539641 0.81521708 -0.39678171 -0.42188311 0.0029541855
0.026622307 -0.04508698 -0.032615475 0.81835675 -0.31583333 -0.48014733 0.0055500409
0.02777365 -0.04360858 -0.031434622 0.84619176 -0.23602165 -0.47775856 0.0020190787
0.0025261533 -0.03945744 -0.031898044 -0.86244369 0.4661735 -0.19716285 0.0020678239
0.028200733 -0.040755644 -0.031584669 0.84720343 -0.048460819 -0.52905375 0.0011239495
0.0025294498 -0.039111897 -0.030877849 -0.88327551 0.43091032 -0.1847721 0.0016090968
0.0032806876 -0.037178569 -0.031423982 -0.86193883 0.4595561 -0.21417212 0.0024167977
0.02818973 -0.037687063 -0.031547718 0.82216072 0.095390975 -0.56120622 0.0025663539
0.0046547172 -0.034689881 -0.031432677 -0.81090975 0.50395095 -0.29742002 0.0060971966
0.0060296133 -0.033479318 -0.032569341 -0.6901198 0.62726277 -0.36093792 0.0048996215
0.026560923 -0.034074508 -0.032429174 0.71715224 0.27376398 -0.64089453 0.0015410357
0.027843975 -0.034844484 -0.031172385 0.76532662 0.24135089 -0.5966782 0.002032097
0.0054689939 -0.032849833 -0.030286333 -0.71212482 0.60876089 -0.34969771 0.0033194588
0.0072824671 -0.03168245 -0.031617995 -0.63562536 0.66197759 -0.39719775 0.002974371
0.009242448 -0.030774843 -0.032601885 -0.52628201 0.68551236 -0.5030905 0.0022715821
0.025815137 -0.031570431 -0.031699132 0.64849138 0.4009248 -0.64708441 0.0013868867
0.027445246 -0.032350481 -0.030413674 0.70539802 0.36957806 -0.60483521 0.0014563936
0.0085830418 -0.029883837 -0.030692389 -0.53365421 0.69928831 -0.47561446 0.0017055433
0.010509827 -0.029052788 -0.03136237 -0.42728597 0.73076969 -0.53235543 0.0033910132
0.013337173 -0.028194705 -0.032022893 -0.23455596 0.75316471 -0.61459446 0.0019684837
0.016552476 -0.027793167 -0.032406528 -0.063012123 0.74725163 -0.66154695 0.0022009979
0.019705255 -0.027932476 -0.032369576 0.13307513 0.70843482 -0.6931169 0.0022670319
0.022594484 -0.028539315 -0.031882171 0.39403775 0.60922474 -0.68817115 0.0060644224
0.024839081 -0.029122138 -0.03088033 0.5433386 0.51516092 -0.66286671 0.0029323713
0.011791064 -0.027282147 -0.030062338 -0.40539268 0.72359204 -0.55863351 0.00066906249
0.013831881 -0.026832746 -0.030594427 -0.27272594 0.75144905 -0.60078686 0.0022113884
0.016651321 -0.026492501 -0.030953081 -0.090619795 0.75692111 -0.64719284 0.0023126418
0.019345604 -0.026414549 -0.030855186 0.10630134 0.73172408 -0.67326069 0.0027818577
0.022024535 -0.026789298 -0.030526176 0.30250895 0.66680235 -0.68107486 0.0021793118
0.02682611 -0.047643185 -0.029352924 0.82041985 -0.4552457 -0.34592295 0.0022955218
0.028037475 -0.046317425 -0.028197581 0.85460144 -0.39582172 -0.33612728 0.0011639235
0.02905426 -0.043850452 -0.02856759 0.88474983 -0.29337868 -0.36214182 0.0032663725
0.029479647 -0.040802583 -0.029301679 0.88993472 -0.12524037 -0.4385556 0.0026508979
0.030180372 -0.040472001 -0.027907182 0.90275949 -0.1743871 -0.39321047 0.0023964008
0.0029808194 -0.036916927 -0.028244531 -0.89024836 0.41826731 -0.18030582 0.0010537719
0.029457772 -0.037902743 -0.029619033 0.86102349 0.049235456 -0.50617617 0.0020681056
0.030235175 -0.037684791 -0.028229466 0.89415061 0.005264455 -0.44773552 0.0024132086
0.0040107719 -0.034446791 -0.028681247 -0.86988491 0.45196882 -0.19754629 0.0027389687
0.029201087 -0.034529228 -0.029225938 0.80223781 0.19612731 -0.5638693 0.0013206183
0.030216293 -0.034965366 -0.027731357 0.8533237 0.15648149 -0.49734515 0.00216189
0.0051585427 -0.032160714 -0.028181341 -0.7950418 0.53683418 -0.28234297 0.0042726994
0.0065125059 -0.03087924 -0.029075289 -0.74229431 0.57198292 -0.34904838 0.0024367294
0.0286003 -0.031668589 -0.028613981 0.75937015 0.31016111 -0.57197648 0.0013784342
0.030070497 -0.032790769 -0.027171463 0.80561709 0.27696785 -0.52370781 0.0021235789
0.0077625876 -0.029076008 -0.028274484 -0.63576084 0.6407125 -0.43045998 0.0025447214
0.0099219941 -0.027754223 -0.029070936 -0.50124836 0.71771532 -0.48335794 0.0046157381
0.026153332 -0.028228454 -0.029055627 0.65074897 0.45977756 -0.60426015 0.0010738943
0.027895063 -0.029125771 -0.027859451 0.6868943 0.43755385 -0.58027822 0.0016696473
0.010880657 -0.026332168 -0.027989125 -0.47428602 0.71280181 -0.51668787 0.0027358695
0.013513267 -0.025345672 -0.028575717 -0.2774556 0.74282604 -0.60928482 0.0016474063
0.016280295 -0.024912497 -0.029074257 -0.10794041 0.76205081 -0.638457 0.0016782042
0.019579321 -0.024938967 -0.029225918 0.071050182 0.74780446 -0.6601063 0.0018567952
0.022608778 -0.025259595 -0.028739493 0.27719513 0.69633991 -0.66202223 0.0022937316
0.025170214 -0.026008885 -0.027965527 0.48117182 0.58195579 -0.6555922 0.0034895178
0.026957139 -0.027013583 -0.027255287 0.65841419 0.46189559 -0.59425861 0.0013697835
0.014307825 -0.023910588 -0.027171707 -0.33790869 0.74362135 -0.57692719 0.0027076814
0.016547672 -0.023631776 -0.02757287 -0.15423433 0.76165622 -0.62935799 0.0030558703
0.019304141 -0.023606665 -0.027736796 0.051384233 0.76273757 -0.64466351 0.0021859352
0.022116229 -0.02372591 -0.027302498 0.26690474 0.69760662 -0.66491109 0.0029025797
0.029096272 -0.045883037 -0.025151869 0.89111334 -0.34606621 -0.29352209 0.002016057
0.029713279 -0.044465572 -0.025912216 0.89901382 -0.31155577 -0.30774525 0.0017930019
0.030262304 -0.043006841 -0.026025457 0.91129285 -0.27731642 -0.30436957 0.0030660336
0.03103382 -0.040761225 -0.025517361 0.92527658 -0.18528864 -0.33095533 0.0014296924
0.0029882453 -0.03639774 -0.026520839 -0.90456277 0.39614689 -0.15758748 0.00065251981
0.031273358 -0.037786443 -0.025899643 0.93047339 -0.054188617 -0.36232981 0.0021141982
0.003615581 -0.034240123 -0.025679072 -0.89515191 0.40612036 -0.18376453 0.0010344362
0.031421918 -0.034808952 -0.025315158 0.90356052 0.10184674 -0.4161799 0.0013099491
0.0047421232 -0.031552795 -0.025390817 -0.86265117 0.45834854 -0.21389152 0.003272976
0.029661316 -0.030828437 -0.026666066 0.81364882 0.28439379 -0.50704616 0.0020741187
0.030781399 -0.031815764 -0.025308333 0.85572177 0.25075695 -0.45261592 0.0020136021
0.0056695868 -0.029808508 -0.025310656 -0.79699564 0.53628415 -0.27784386 0.0034883297
0.0069516571 -0.028394679 -0.025722809 -0.72257441 0.58586872 -0.36693871 0.0036259091
0.029137727 -0.028543243 -0.025750352 0.75481492 0.39211306 -0.52583432 0.00086856401
0.030379595 -0.029475138 -0.024581771 0.79748881 0.35902965 -0.48488069 0.0018684049
0.0082008867 -0.026553659 -0.02504622 -0.64345354 0.64153051 -0.41761962 0.0018957458
0.010280067 -0.02518093 -0.025745144 -0.4916403 0.70957077 -0.50477624 0.0015400716
0.012543755 -0.02437867 -0.026733568 -0.34258035 0.73601317 -0.58388633 0.0025196755
0.025946362 -0.024814371 -0.026225191 0.44412321 0.62157214 -0.64529264 0.0028892909
0.027978659 -0.025987662 -0.025200216 0.62391698 0.51673836 -0.58626711 0.0016186815
0.011297773 -0.02363671 -0.024647778 -0.5053764 0.69231349 -0.51506966 0.0022661777
0.013570597 -0.022849431 -0.025371453 -0.3395794 0.75343555 -0.56304598 0.0022854609
0.016277716 -0.022125293 -0.025652224 -0.17896564 0.76536834 -0.6182093 0.0036009022
0.019473445 -0.021977652 -0.025828714 0.031847518 0.74827081 -0.66262853 0.00176677
0.022561986 -0.022398921 -0.025664173 0.25762165 0.7271595 -0.63629395 0.0030591863
0.025189092 -0.023009865 -0.024970669 0.43079165 0.63766694 -0.63859165 0.0037773957
0.02729566 -0.023920245 -0.02422313 0.64243561 0.53040963 -0.55312032 0.0022989009
0.01686047 -0.020826647 -0.024234636 -0.19758873 0.77566755 -0.59941518 0.0029286447
0.019539094 -0.02070987 -0.02434157 0.017578883 0.7515884 -0.65939808 0.0021507384
0.022004034 -0.020939065 -0.024222007 0.23235789 0.74275529 -0.62795246 0.0023975405
0.031829428 -0.040678166 -0.022577908 0.94817585 -0.17163198 -0.26740402 0.0015902396
0.032339737 -0.037459247 -0.022955403 0.95094413 -0.083153047 -0.2979781 0.0011412809
0.0034514321 -0.03399539 -0.023091158 -0.90715617 0.39111266 -0.15523696 0.00058309775
0.032476515 -0.034473028 -0.02272498 0.94213641 0.048478577 -0.33170596 0.0028878043
0.0042260243 -0.031429272 -0.022241788 -0.88250548 0.42655838 -0.19807096 0.002761811
0.032149367 -0.031725999 -0.022435252 0.90219545 0.17759152 -0.39307079 0.002063527
0.0052924016 -0.029067246 -0.022392841 -0.86383826 0.45571634 -0.21472329 0.0036738208
0.0062540974 -0.027718643 -0.023068113 -0.82141423 0.49458733 -0.28401065 0.0028052537
0.031345028 -0.028720783 -0.022392821 0.83108151 0.32434797 -0.45177644 0.00089875667
0.0075160698 -0.025776159 -0.022472451 -0.73622823 0.5922125 -0.32749403 0.0022440809
0.0092710834 -0.024551256 -0.023591688 -0.61582178 0.64371896 -0.45430106 0.0027865381
0.029362792 -0.025602696 -0.023099268 0.7479313 0.4365401 -0.50003153 0.00055410061
0.030523123 -0.026149608 -0.021779804 0.77626693 0.41261637 -0.4766103 0.001143138
0.0085596889 -0.023911387 -0.02158317 -0.65424865 0.61566067 -0.4392274 0.0019270516
0.010416739 -0.022739056 -0.02239804 -0.5555886 0.69630837 -0.45439628 0.0015468335
0.012659404 -0.021757886 -0.023255005 -0.42389429 0.72653681 -0.54079366 0.0033292831
0.025996169 -0.021852409 -0.023165995 0.41154096 0.66365683 -0.62465489 0.0023573057
0.028188568 -0.023012359 -0.022205276 0.63306642 0.54995799 -0.54476887 0.0039635547
0.011344802 -0.021079918 -0.021180665 -0.55866128 0.67287779 -0.48490506 0.0021182296
0.01358684 -0.020362714 -0.022094861 -0.39030388 0.73256302 -0.55768663 0.0027481725
0.016445028 -0.019489028 -0.022428559 -0.20748569 0.74794441 -0.63049889 0.0034849604
0.019488385 -0.019258259 -0.022627179 0.007641458 0.76410329 -0.64504868 0.0018223927
0.022421084 -0.019534318 -0.022444081 0.20992655 0.73850298 -0.64073724 0.0025334272
0.025200784 -0.020272223 -0.021961564 0.41167903 0.67750847 -0.60951024 0.0031882492
0.027335452 -0.021079047 -0.021199068 0.61049718 0.58493483 -0.53398919 0.0028812219
0.017887443 -0.017937047 -0.020912161 -0.094939649 0.75416917 -0.64978105 0.0011357742
0.019459864 -0.017932322 -0.021033745 -0.027367523 0.75940144 -0.65004653 0.0036229552
0.021042259 -0.017936645 -0.020922592 0.090473115 0.76059353 -0.64289349 0.00094457058
0.032831583 -0.038527377 -0.019995531 0.95934188 -0.078745089 -0.27103961 0.0010238272
0.033391703 -0.036611691 -0.018578282 0.96686715 -0.044340834 -0.25139943 0.0017514131
0.033283819 -0.034687802 -0.019989124 0.96433365 -0.00092488038 -0.26468799 0.0018436738
0.0039243801 -0.031348266 -0.019294268 -0.92617577 0.35790697 -0.11874787 0.0023663226
0.032783471 -0.030802941 -0.020633673 0.9325856 0.15165007 -0.32754588 0.0020667668
0.033311233 -0.031776115 -0.019630656 0.95493764 0.10140719 -0.27894565 0.0012041383
0.0049766153 -0.028485375 -0.019648116 -0.91382748 0.36901358 -0.169553 0.0024992046
0.032517567 -0.02858026 -0.019804932 0.8798086 0.28197005 -0.38266155 0.00098407594
0.033188291 -0.028925622 -0.018272085 0.91953117 0.22789057 -0.32020032 0.0027407217
0.0056236535 -0.026724467 -0.01905421 -0.84998178 0.46627811 -0.24518472 0.0033740541
0.006698973 -0.025123036 -0.019641269 -0.81110698 0.49538162 -0.31097037 0.0021828907
0.031494286 -0.025570622 -0.019443158 0.8243835 0.37163109 -0.42694524 0.0012648588
0.0081478115 -0.022903083 -0.019260503 -0.70872074 0.56775051 -0.41877708 0.0021407166
0.0096369805 -0.021875907 -0.020236915 -0.58650333 0.6481902 -0.48565757 0.0016899033
0.029252363 -0.022223737 -0.020044072 0.70724666 0.4889029 -0.5106625 0.0022056904
0.030466991 -0.023164008 -0.01902418 0.74668819 0.4714956 -0.46919984 0.0012331245
0.0089215981 -0.021217136 -0.018217972 -0.69815302 0.56944716 -0.43394971 0.0032900246
0.010679626 -0.020163096 -0.019158095 -0.55946189 0.656712 -0.50569916 0.0021960554
0.013130683 -0.019012781 -0.020003533 -0.38833076 0.71390456 -0.58270025 0.0023392928
0.015414885 -0.018395623 -0.020715764 -0.24467801 0.74579185 -0.61961859 0.0026826877
0.023533002 -0.018396033 -0.020705318 0.26580507 0.73135614 -0.62806517 0.003570905
0.025822172 -0.019020909 -0.020124868 0.38772288 0.69824386 -0.60176951 0.0021502497
0.028143086 -0.020041667 -0.019147314 0.6165303 0.58353442 -0.52856219 0.0035841656
0.013776946 -0.017544834 -0.01871871 -0.41237396 0.6971308 -0.58647799 0.0021173533
0.016541807 -0.016943412 -0.019384956 -0.22289889 0.74052411 -0.63398749 0.0032870779
0.019453811 -0.016391955 -0.019257858 -0.00028881727 0.76621425 -0.64258516 0.0027627682
0.022450894 -0.016893916 -0.019356083 0.21924862 0.74929404 -0.62489074 0.0026222134
0.025247516 -0.017516302 -0.018770784 0.40139586 0.70597303 -0.58350956 0.0022203787
0.027078727 -0.018048285 -0.018043419 0.53944671 0.6393463 -0.54793566 0.005823263
0.033986356 -0.03380385 -0.016755095 0.97130865 0.012317842 -0.23750314 0.001971012
0.0039407089 -0.030843986 -0.016767344 -0.94777477 0.29813394 -0.11331026 0.0016378325
0.034009118 -0.031775814 -0.016461611 0.96332884 0.065662995 -0.26016524 0.0019763925
0.0044870228 -0.028568678 -0.016745195 -0.94531584 0.29660368 -0.13566244 0.0026724564
0.033756997 -0.028891431 -0.016453771 0.93665683 0.19557908 -0.29055601 0.0011228247
0.0053909365 -0.02580617 -0.016563723 -0.90460885 0.37335792 -0.20563731 0.0020564985
0.0062100696 -0.024440167 -0.017337343 -0.83121306 0.46357125 -0.3068983 0.0064269556
0.032462239 -0.025164988 -0.017139491 0.87648284 0.33041021 -0.35015267 0.00170087
0.033271533 -0.026325267 -0.016178139 0.88976359 0.3057569 -0.33887085 0.00083412189
0.0057780771 -0.023867829 -0.015237412 -0.87867033 0.35179749 -0.32276443 0.0067506381
0.0069995108 -0.0225516 -0.016554436 -0.79747486 0.48537573 -0.35839123 0.0022898114
0.031616323 -0.022691596 -0.016400849 0.82043624 0.42127594 -0.38653722 0.00085721974
0.0082605006 -0.020370796 -0.016212089 -0.72351605 0.53543431 -0.43570015 0.0031435706
0.0098542655 -0.019054487 -0.016935732 -0.59803921 0.61814833 -0.51013893 0.0035844438
0.029225182 -0.019324694 -0.016966276 0.71638668 0.52168459 -0.46328762 0.0013216543
0.030401144 -0.020105461 -0.015931686 0.73746866 0.50296634 -0.45073801 0.0024236604
0.010822679 -0.01725263 -0.015919665 -0.5454666 0.6156317 -0.56873876 0.0026655351
0.0132863 -0.016168647 -0.016803581 -0.41368756 0.66908407 -0.61740524 0.0033130324
0.01620323 -0.015454281 -0.017561959 -0.22207941 0.71841234 -0.65921497 0.002539404
0.018008133 -0.015330357 -0.01788353 -0.018404424 0.76877087 -0.63925952 0.0019561334
0.022676304 -0.01545292 -0.017604945 0.21108373 0.74012011 -0.63848716 0.0021602195
0.025647033 -0.016058093 -0.016755203 0.40983063 0.7028743 -0.58138341 0.0034042222
0.027992006 -0.017322598 -0.016169798 0.5786038 0.64121473 -0.50404507 0.0029139568
0.014054816 -0.014524807 -0.015486073 -0.38667887 0.67150533 -0.63210768 0.0020489655
0.016522905 -0.014051008 -0.016087543 -0.24278435 0.71564192 -0.65491396 0.0024578026
0.019440228 -0.013786144 -0.016257513 0.0052844798 0.74934131 -0.66216284 0.0029193633
0.022344692 -0.014083709 -0.016120877 0.25221723 0.73320866 -0.63149941 0.0022844693
0.024872029 -0.014643922 -0.015575649 0.3981536 0.70020461 -0.59261048 0.0017748332
0.0039571221 -0.030561088 -0.014227471 -0.96865731 0.22598377 -0.10312264 0.0019490157
0.0044165752 -0.027596204 -0.014029182 -0.96553278 0.22982198 -0.12218149 0.0022292458
0.034170527 -0.027803631 -0.014380069 0.93396711 0.22652313 -0.27639213 0.0019556244
0.0047767316 -0.025767108 -0.013522964 -0.92728931 0.29524189 -0.23014499 0.0014965036
0.0338993 -0.025682474 -0.013446591 0.90406591 0.29980859 -0.30459771 0.0011406877
0.0054467693 -0.022933252 -0.013178207 -0.90776992 0.28078109 -0.31163418 0.0039171418
0.0063597905 -0.021739321 -0.014352894 -0.85623759 0.367764 -0.36277655 0.0045946562
0.032587979 -0.022339383 -0.013769224 0.85465115 0.38864511 -0.34427655 0.00068564806
0.033458356 -0.023667879 -0.012902436 0.88921005 0.33494058 -0.31164128 0.0015036722
0.0058121225 -0.020811079 -0.012076325 -0.84632576 0.363197 -0.38964173 0.0046732351
0.0071094693 -0.019641761 -0.013509351 -0.81010097 0.40489602 -0.42402321 0.0014293034
0.03138743 -0.019871168 -0.013608622 0.82120883 0.43180832 -0.37303841 0.00077896804
0.0080468459 -0.017384907 -0.012831938 -0.71182084 0.46257117 -0.52852529 0.0032025869
0.0098164156 -0.016274454 -0.013931265 -0.60347515 0.55715549 -0.57043451 0.0036477214
0.028826289 -0.016262202 -0.013853382 0.61902213 0.6155439 -0.48776779 0.0032051015
0.030396104 -0.017577969 -0.01304816 0.74144346 0.51657408 -0.4282673 0.0020374679
0.010822583 -0.014181591 -0.012866949 -0.52506763 0.58463079 -0.6184746 0.002649006
0.013175009 -0.013396765 -0.013863262 -0.37863755 0.66788429 -0.64075279 0.0021814113
0.016194301 -0.012748562 -0.014588813 -0.2031827 0.71276915 -0.67132479 0.0024418563
0.022717578 -0.012806859 -0.014546051 0.22807425 0.73014891 -0.64409995 0.0024251908
0.025652364 -0.013479029 -0.013648067 0.42102319 0.71028447 -0.56412357 0.0031816608
0.027768804 -0.014446001 -0.012926459 0.57864022 0.62905622 -0.51909906 0.0031276995
0.013869587 -0.011788227 -0.012576711 -0.359256 0.65723503 -0.66255361 0.0014860214
0.016472757 -0.011263869 -0.013121063 -0.19936596 0.7084704 -0.67699546 0.0024947571
0.019456442 -0.01116712 -0.013421048 0.023227496 0.72901231 -0.68410635 0.0032098424
0.022334384 -0.011352747 -0.013039743 0.2615321 0.73088813 -0.63039947 0.0025808606
0.024588734 -0.011954332 -0.012606591 0.41393822 0.70522952 -0.57559216 0.0013799764
0.0039814436 -0.02896692 -0.01046377 -0.97931433 0.16363108 -0.11903024 0.00095147692
0.0043484224 -0.025440913 -0.010776189 -0.96074271 0.1823391 -0.20910731 0.0031904904
0.034484949 -0.025047963 -0.010325379 0.91342402 0.31001654 -0.26371649 0.00080528425
0.004737928 -0.022632061 -0.010346675 -0.94327003 0.18747728 -0.27403271 0.0030195671
0.033691585 -0.022537226 -0.010887044 0.89530241 0.34726954 -0.27899376 0.0014752117
0.0053686658 -0.019734696 -0.010296927 -0.88571399 0.25136271 -0.39029169 0.0033777556
0.0063941195 -0.018646767 -0.011519982 -0.83676296 0.33471966 -0.43334806 0.0043745348
0.032224234 -0.019293323 -0.010912631 0.84986436 0.42303872 -0.31427526 0.00029402692
0.033227284 -0.020781437 -0.010150476 0.89475757 0.34955457 -0.27788576 0.0015563437
0.0057487213 -0.017365785 -0.0093558701 -0.81359053 0.34764406 -0.46606222 0.0043136231
0.0070510786 -0.016446307 -0.010674512 -0.75087076 0.41335034 -0.51510632 0.001829287
0.029779822 -0.01553416 -0.011576138 0.74834532 0.51759589 -0.41481784 0.0019197607
0.03100357 -0.016721826 -0.010547453 0.79803556 0.48123303 -0.36270371 0.0021665585
0.00794724 -0.014119897 -0.009881407 -0.6569438 0.45650119 -0.60002619 0.0019897355
0.0099125225 -0.013055592 -0.01103087 -0.54181069 0.5724721 -0.61539984 0.0024263836
0.026557293 -0.012309772 -0.011522642 0.54872632 0.65800476 -0.51568329 0.0014687075
0.028594125 -0.013528309 -0.010642586 0.68134224 0.578812 -0.44805056 0.001615162
0.030377487 -0.014904645 -0.0095592057 0.74438381 0.5445838 -0.38642108 0.0035463364
0.0086278729 -0.011910168 -0.0089368438 -0.60951042 0.50297534 -0.61279106 0.0036361909
0.010779358 -0.011040683 -0.0099293338 -0.47418657 0.58686191 -0.65630805 0.0016916499
0.013276 -0.010408741 -0.010955918 -0.35555953 0.65190983 -0.66976929 0.0029649795
0.016073575 -0.0097755818 -0.011484647 -0.16879801 0.71843338 -0.67480415 0.0020216547
0.019407442 -0.0095417826 -0.011673576 0.038390175 0.71965742 -0.69326717 0.0031001379
0.022683196 -0.0098953387 -0.011242745 0.25014248 0.71720332 -0.65042162 0.0023670585
0.025467809 -0.010718902 -0.01042098 0.44672382 0.70058686 -0.55643141 0.003174542
0.027442645 -0.011585525 -0.0096045351 0.55470973 0.64686197 -0.52332276 0.0013447244
0.011871305 -0.0091267349 -0.0090240752 -0.4443363 0.59035707 -0.67382765 0.0012467894
0.013773579 -0.0086862408 -0.0094893267 -0.31426331 0.67005712 -0.67250437 0.0014439119
0.016540762 -0.0082395151 -0.010035709 -0.15440431 0.71975285 -0.67684203 0.0022453514
0.019470211 -0.0081808232 -0.01019917 0.058128238 0.74518746 -0.66431689 0.0033034203
0.022320284 -0.0085146772 -0.0098304348 0.28078869 0.7327463 -0.61987138 0.0027469918
0.024610154 -0.0091238217 -0.0091934418 0.44500521 0.70094836 -0.55735236 0.0013082868
0.0039945976 -0.025615903 -0.0084281331 -0.97412854 0.1320276 -0.18341826 0.0020362982
0.0040631723 -0.022682544 -0.0080677439 -0.95801836 0.11398317 -0.26307541 0.0033067358
0.034420956 -0.022547018 -0.007549474 0.91395146 0.33200821 -0.23337376 0.00055297185
0.0043204254 -0.019710194 -0.0074207233 -0.92680228 0.16785251 -0.33595088 0.0027873719
0.032777805 -0.018654307 -0.0083932644 0.8773967 0.40392244 -0.25888544 0.0013643772
0.03352024 -0.01965916 -0.0073333811 0.88606602 0.38850001 -0.25289252 0.0010329875
0.0050332081 -0.016723428 -0.0075545637 -0.82282585 0.31790143 -0.47105864 0.0040431465
0.032145791 -0.016828632 -0.0075018099 0.85898095 0.42969087 -0.27841961 0.00017979064
0.0055192509 -0.014086196 -0.0067942152 -0.79236674 0.34591705 -0.50249016 0.0040574246
0.0068828417 -0.013325865 -0.0079977429 -0.68891096 0.43706265 -0.57825428 0.0030200179
0.029386546 -0.012546998 -0.0081939315 0.67282736 0.59792125 -0.43565303 0.0013869534
0.030651769 -0.01390467 -0.0074790372 0.80541581 0.49337089 -0.32846698 0.0024768973
0.0077102967 -0.010935906 -0.0070927497 -0.64016753 0.45517126 -0.61887372 0.0013757031
0.009782115 -0.010068315 -0.0082676094 -0.55058074 0.54925352 -0.62863451 0.00095691252
0.02639484 -0.0097179199 -0.0083909919 0.56867677 0.64679438 -0.50819659 0.00085823151
0.028331764 -0.010874095 -0.0074927285 0.65811914 0.60374975 -0.44985041 0.0030571031
0.0084878746 -0.0088014547 -0.0062285634 -0.55778193 0.55400491 -0.61802745 0.0014715603
0.010728575 -0.0079695685 -0.0071531944 -0.41259563 0.613415 -0.67341435 0.0013142284
0.013362238 -0.00721741 -0.0078964215 -0.27646598 0.65150762 -0.70647323 0.0012962592
0.016384225 -0.0066711968 -0.0083887102 -0.12734874 0.69038808 -0.71214229 0.0023645235
0.019544831 -0.006583536 -0.0084464559 0.077708945 0.71685684 -0.69287628 0.0026160493
0.022519719 -0.0069758249 -0.007964869 0.27773884 0.71996719 -0.63600969 0.0023304583
0.025285063 -0.0080326702 -0.0072659198 0.47380871 0.68773997 -0.55001724 0.0018983339
0.027493384 -0.0090193916 -0.006223531 0.63105822 0.61959094 -0.46676823 0.0035933948
0.011712001 -0.0059108259 -0.0060308492 -0.40390423 0.57876372 -0.70844471 0.0012665635
0.013860989 -0.0054708319 -0.006497927 -0.27354106 0.63711542 -0.72059637 0.0015434212
0.016455088 -0.0051845741 -0.006947848 -0.1046625 0.68661422 -0.71944892 0.0027109878
0.019346157 -0.005098572 -0.0068815276 0.10591073 0.71379131 -0.69230402 0.0032558006
0.022117935 -0.0055468669 -0.0065545104 0.34237763 0.69186538 -0.63568848 0.0035244601
0.0035479006 -0.025095137 -0.0051771216 -0.99059105 -0.0055637872 -0.136742 0.0040043392
0.0034893479 -0.022582164 -0.0051395698 -0.98575759 -0.036956351 -0.16406178 0.0042824028
0.0033181806 -0.019755483 -0.0042310646 -0.96165115 0.057703897 -0.26813674 0.0039486368
0.034142774 -0.019815473 -0.0046754992 0.90079385 0.36905143 -0.22884804 0.00044181329
0.0037071207 -0.016804982 -0.0044660415 -0.93101579 0.12786046 -0.34184989 0.0042458428
0.032623678 -0.015775023 -0.0040956652 0.88539457 0.40949088 -0.21998569 0.00058751617
0.033302251 -0.017404636 -0.0044325059 0.88194913 0.40959284 -0.23323707 0.00039638233
0.0043541393 -0.013689694 -0.0044439137 -0.8416366 0.25547025 -0.47579709 0.0039634332
0.031563848 -0.01374826 -0.0045064185 0.86606646 0.43322787 -0.24948461 0.00086869864
0.0052032461 -0.010982497 -0.0041961893 -0.75843138 0.35496679 -0.54660803 0.0038898892
0.0066442504 -0.010183451 -0.0053414507 -0.68277806 0.42143741 -0.59682888 0.0027846596
0.02929241 -0.010134119 -0.0048662904 0.77030772 0.52700382 -0.35901675 0.0011228678
0.03041398 -0.011469861 -0.0044198795 0.79894465 0.51995432 -0.30221665 0.0033902607
0.0057185716 -0.0088493023 -0.0033091637 -0.6809181 0.3991842 -0.61400533 0.0028218552
0.0074608857 -0.0077202171 -0.0043573761 -0.62334436 0.44780964 -0.64102131 0.0014505043
0.0096233618 -0.006851458 -0.0054128915 -0.5087378 0.54502767 -0.66643131 0.00079542567
0.025959922 -0.0068933386 -0.0051626973 0.4927811 0.67907763 -0.54407763 0.0017027854
0.0280133 -0.0080275461 -0.004030216 0.66884375 0.60151029 -0.43684483 0.0026738476
0.0082539665 -0.0054667331 -0.0033724757 -0.52800143 0.49783939 -0.68801922 0.0023699056
0.010349546 -0.0047557727 -0.0041944692 -0.39652228 0.57873654 -0.71262479 0.002087791
0.013118496 -0.0042817956 -0.005144638 -0.23636355 0.66219085 -0.71108055 0.0016121255
0.016291095 -0.003791329 -0.0055316384 -0.073441036 0.71263051 -0.69768494 0.002483387
0.01963478 -0.0037741803 -0.0054170354 0.12515105 0.7369197 -0.664294 0.0028479348
0.022682311 -0.0042938488 -0.0047917459 0.37112853 0.71879452 -0.58787596 0.0039192727
0.025024256 -0.0052874992 -0.004085659 0.5190922 0.665811 -0.53594691 0.0020271612
0.011168445 -0.0029310707 -0.003258917 -0.36302459 0.59612966 -0.71613038 0.0017582477
0.013550412 -0.0024218911 -0.0036789887 -0.21940753 0.65506029 -0.72301894 0.0022485699
0.016451703 -0.0021777861 -0.0039776089 -0.048498031 0.70285696 -0.70967603 0.0027863109
0.019372484 -0.0023559232 -0.0039429218 0.16180915 0.72681534 -0.66750073 0.0032452638
0.022077268 -0.0028573184 -0.0034907705 0.3815468 0.71016681 -0.59167993 0.0031845544
0.0035709264 -0.026269881 -0.00090124342 -0.98729098 -0.095356189 -0.12713659 0.0015092656
0.0030935167 -0.02290768 -0.0020849439 -0.98582321 -0.090219893 -0.14146714 0.0013520317
0.002626244 -0.019893322 -0.0009202424 -0.97565895 -0.012488699 -0.21893756 0.0018941399
0.0026247001 -0.016806126 -0.0013980481 -0.96389943 0.027767155 -0.2648147 0.0015211778
0.0030916617 -0.01606196 -0.0025154639 -0.94362789 0.075972006 -0.32217178 0.0024273517
0.033414032 -0.016476382 -0.0018504275 0.899122 0.3928276 -0.19304457 0.00036370894
0.0026275441 -0.013763812 -0.00051777693 -0.92544079 0.087279677 -0.36870262 0.0023143464
0.0032503558 -0.013485749 -0.0020802165 -0.89530981 0.17452469 -0.4098312 0.0027585558
0.032365803 -0.013747515 -0.0011312031 0.89519978 0.40159073 -0.19324148 0.00044499224
0.0026290864 -0.011411023 -4.0418236e-05 -0.87680292 0.15478624 -0.45525593 0.0040488583
0.0036408191 -0.010743055 -0.0016238588 -0.83372551 0.23524885 -0.49955967 0.0034262408
0.030970255 -0.010843804 -0.0016939144 0.86562246 0.4373019 -0.24385396 0.0015980446
0.0045868997 -0.0078295832 -0.0014184224 -0.71155888 0.34265649 -0.61340892 0.0017689904
0.0063846549 -0.0066497074 -0.0026008401 -0.58450192 0.43665794 -0.68387675 0.0019653824
0.028899798 -0.007435983 -0.0015548574 0.74952537 0.55886638 -0.35479593 0.0016181467
0.030194232 -0.0087983031 -0.00065242383 0.81021965 0.50604182 -0.29574606 0.0025514562
0.0053382143 -0.0050425595 -0.00061085261 -0.61468607 0.38374451 -0.68913066 0.0022203936
0.0072971964 -0.0044997726 -0.0020039408 -0.50208217 0.50004846 -0.70559555 0.0014069348
0.0092073167 -0.0035915945 -0.0026128206 -0.47755441 0.51742369 -0.71008068 0.0012438715
0.025802314 -0.0042128367 -0.0019050713 0.56620795 0.65847611 -0.49580023 0.0040133367
0.027539784 -0.0054332316 -0.0011408773 0.68971628 0.58989292 -0.41990224 0.0023401454
0.0059411246 -0.0031292711 -9.8547665e-05 -0.55835897 0.42622197 -0.71173733 0.0012282676
0.0077943597 -0.0020596767 -0.00066419179 -0.46415564 0.47151306 -0.74982333 0.0026463836
0.010293926 -0.0015429574 -0.0016993408 -0.36562279 0.54490238 -0.75458699 0.0020194515
0.013280891 -0.00083183986 -0.0022251573 -0.16958052 0.63102275 -0.75700253 0.001999781
0.016506335 -0.00053291756 -0.0024186908 -0.010633077 0.67674959 -0.7361365 0.002077
0.019456483 -0.00070880284 -0.0022226132 0.18012653 0.6969645 -0.69411445 0.002129952
0.022501644 -0.0014658154 -0.0015938277 0.40998831 0.67930573 -0.60864878 0.0044494257
0.024817532 -0.0026536679 -0.0010427746 0.56426334 0.65706509 -0.49987251 0.0028153155
0.010667387 0.0005536403 -0.00034087664 -0.30099052 0.54521877 -0.78239459 0.0021775367
0.013585321 0.0010039129 -0.00073739886 -0.13356522 0.61732423 -0.77528787 0.002560298
0.016492093 0.0010575657 -0.00089556724 0.031678911 0.67186362 -0.73999721 0.0028252832
0.019235529 0.00077142054 -0.00072216429 0.22738586 0.69077206 -0.68638885 0.0028762438
0.021428881 0.00030043232 -0.0002901766 0.40714478 0.69354862 -0.59432608 0.0030159377
0.002630674 -0.021607948 0.00045094755 -0.98601437 -0.10702252 -0.12775724 0.0010932552
0.0021588148 -0.018799774 0.0013365832 -0.98301673 -0.050090607 -0.17654739 0.003182465
0.0020393522 -0.016419942 0.0011688594 -0.9650135 0.00041673036 -0.2621997 0.0021655518
0.033459265 -0.015463364 0.00091160205 0.90209079 0.39262795 -0.17909645 0.00017382114
0.0019212657 -0.013818333 0.0014540839 -0.95595831 -0.015816007 -0.29307598 0.0033743309
0.032536063 -0.013101262 0.001267859 0.90457487 0.39488736 -0.16064909 0.00017570112
0.033089597 -0.014081177 0.002361038 0.9085263 0.39038217 -0.14893474 0.0001117678
0.0020467453 -0.010563836 0.0014224842 -0.90918684 0.057427086 -0.41240934 0.0044875089
0.031612031 -0.010735474 0.0016321091 0.90217596 0.39629745 -0.17037259 0.00044165881
0.0021593871 -0.0076501537 0.0018447044 -0.82816023 0.13811503 -0.54320788 0.0051725395
0.0032398314 -0.0071919095 0.00047139195 -0.74622512 0.23955439 -0.62109715 0.0037863099
0.029529171 -0.0066141412 0.0012513089 0.78779912 0.53667766 -0.302241 0.0008755782
0.030406876 -0.0081185335 0.0013700586 0.84935582 0.47739553 -0.22514035 0.0045062704
0.0022969604 -0.0049389573 0.0024525931 -0.74413788 0.21837559 -0.63132465 0.0054966416
0.0038488789 -0.0045764288 0.0010274618 -0.67779946 0.29610494 -0.67298561 0.0022762131
0.026776634 -0.0036036049 0.00017318991 0.67440116 0.60401791 -0.42467099 0.0020987561
0.028313393 -0.0047284737 0.001509656 0.77426386 0.55431652 -0.30536661 0.0014955652
0.0026382983 -0.0029004489 0.0028106209 -0.65677941 0.29849395 -0.69248974 0.0017488486
0.0045209592 -0.0019717235 0.0016527295 -0.58724546 0.35024756 -0.72970498 0.001957322
0.0067955172 -0.0007277361 0.00067838607 -0.44795033 0.47908896 -0.75486046 0.0027331756
0.023473086 -0.00044655544 0.00038297847 0.4899244 0.68489391 -0.53934634 0.0055031069
0.025609531 -0.0017092953 0.0012423985 0.66455054 0.61817449 -0.41980106 0.0015536402
0.027385589 -0.0028993313 0.0024603691 0.71653837 0.58868384 -0.37419805 0.0023262268
0.0049287379 0.0006710419 0.0026166171 -0.50036937 0.37709659 -0.7793771 0.0028531321
0.0073837102 0.0013788353 0.0016198081 -0.37477496 0.49251235 -0.78547776 0.0016726929
0.01030289 0.0018893704 0.00074448832 -0.22342034 0.57067239 -0.79020023 0.0015226505
0.013268094 0.0023817213 0.00042488938 -0.087744266 0.64133424 -0.76222789 0.0019625991
0.016842384 0.0024354428 0.00041438383 0.073728003 0.69321847 -0.71694654 0.0024220445
0.019673964 0.0021138426 0.00085602817 0.24479809 0.70803446 -0.66239041 0.0023316171
0.022272212 0.001341874 0.0015565541 0.4311702 0.68013608 -0.59288037 0.0024153681
0.024672912 0.00019454787 0.0025847044 0.61427259 0.61642551 -0.49263448 0.0041649793
0.0079648402 0.003558117 0.0026857399 -0.35251623 0.46288446 -0.81330824 0.0021126932
0.010584849 0.0040606912 0.0022339781 -0.22224995 0.55476123 -0.80177605 0.001538534
0.013331003 0.0042335317 0.0019326156 -0.039511733 0.63907897 -0.76812553 0.0026946827
0.01634567 0.0041082418 0.0019220279 0.12004638 0.67907953 -0.72418225 0.0034341384
0.019311899 0.0035759553 0.0022251841 0.30350846 0.70317948 -0.64297843 0.0029024885
0.021208316 0.0030519094 0.0026777175 0.4418636 0.6665929 -0.60034186 0.0020100134
0.0021657767 -0.019881396 0.0045685256 -0.98407191 -0.10635849 -0.14244416 0.0016028084
0.0015277674 -0.016766239 0.0043664267 -0.97468263 -0.16641471 -0.14933163 0.0021580395
0.0010176584 -0.013711845 0.0045326138 -0.96247917 -0.11690027 -0.24488388 0.0049894718
0.00081044971 -0.010629646 0.0042626699 -0.91952223 -0.041576561 -0.39083281 0.0030921625
0.03181744 -0.010318276 0.0046143616 0.90393543 0.39534715 -0.16309902 0.00043492319
-0.00023001997 -0.006747623 0.0060505057 -0.86172605 -0.038967922 -0.50587511 0.0043553538
0.00073083909 -0.0076834112 0.0042765839 -0.89079636 0.0040144594 -0.45438492 0.0051489091
0.0304853 -0.0071186293 0.0037577834 0.88588595 0.42428738 -0.18758011 0.0017740978
-0.00022953279 -0.0048274323 0.0058997311 -0.82355726 0.015291529 -0.56702697 0.0036136117
0.00090451981 -0.0047289254 0.0042592511 -0.81035012 0.10538526 -0.57639098 0.0030552577
0.029272925 -0.0046454882 0.0043504024 0.8291111 0.50489324 -0.24012017 0.00061660091
-0.00022985277 -0.002429289 0.0059987688 -0.76298296 0.10054883 -0.63855064 0.004056925
0.0013768263 -0.0018922522 0.0044345753 -0.70758653 0.20347127 -0.67669839 0.0028868828
0.0031166731 -0.00099442643 0.0032902595 -0.64395392 0.28169498 -0.71131653 0.0025532818
0.02633452 -0.00091455126 0.0035060828 0.69381487 0.61877358 -0.36842942 0.0030503876
0.027689893 -0.0020570173 0.0046583423 0.77498794 0.55509019 -0.30210695 0.0018326511
0.001620912 0.0010176172 0.0051924484 -0.61288333 0.23114008 -0.75561118 0.001068906
0.0038627675 0.0015171118 0.0037319732 -0.5391286 0.31944281 -0.77929235 0.00172931
0.023323918 0.002267912 0.0037211364 0.60992551 0.6466254 -0.45811188 0.0016474224
0.025149394 0.0010755692 0.0045949044 0.66898745 0.62103736 -0.40837291 0.0031521237
0.0023280119 0.0039641364 0.0057383962 -0.50037485 0.32512972 -0.80244362 0.0015987891
0.0043177889 0.0042702341 0.0046953997 -0.44788802 0.36525333 -0.81607985 0.0017599402
0.007064743 0.004678634 0.0036984517 -0.30758834 0.47563148 -0.82411414 0.0036063995
0.0098867593 0.0053466996 0.0032521992 -0.15880759 0.56808871 -0.80749947 0.0015641386
0.017186124 0.0054439595 0.0033714932 0.1673177 0.68079722 -0.71310586 0.0024655326
0.019808009 0.0049233958 0.003968671 0.32053065 0.69517702 -0.64341974 0.0022064985
0.022133581 0.0039106095 0.0046228021 0.53125566 0.68356818 -0.50050175 0.0026001877
0.0046658651 0.0066169696 0.0056851106 -0.35735065 0.4078041 -0.84023589 0.003953252
0.0074321553 0.0071474491 0.0050481763 -0.23903342 0.4923684 -0.8369208 0.0021745446
0.010530584 0.0071347374 0.0044003474 -0.10873648 0.56186557 -0.8200509 0.0026097349
0.013395 0.0071319984 0.0042556506 0.030440418 0.61264408 -0.78977257 0.0015911669
0.01633358 0.007055738 0.0046408745 0.24337667 0.68627501 -0.68541539 0.0025318665
0.019045904 0.0065748272 0.0053252699 0.40137634 0.68029231 -0.61326951 0.0024185029
0.0083081545 0.0089385565 0.0059147682 -0.18755341 0.49585322 -0.84791118 0.0017477697
0.01055955 0.0090791387 0.005775217 -0.049088992 0.57298273 -0.81809604 0.0020334797
0.013245779 0.0090319933 0.0058086868 0.091524862 0.62491214 -0.77531159 0.0024142398
0.015362361 0.0088449894 0.0060162032 0.24202162 0.65348053 -0.71720904 0.0028720289
0.0012093734 -0.016884534 0.0078382278 -0.96517116 -0.22095639 -0.14008161 0.001312876
-0.00023788249 -0.012322945 0.0084839249 -0.94216299 -0.28669232 -0.17359862 0.0010371362
0.00043893693 -0.013937825 0.0075599635 -0.95941281 -0.24182314 -0.14508156 0.0013773257
-0.00042839933 -0.010427252 0.0077247554 -0.93396223 -0.19736518 -0.29792875 0.0028735956
0.00024881671 -0.011795825 0.0064966865 -0.94839126 -0.21776012 -0.23050925 0.0025172469
-0.00080654217 -0.0076945126 0.0073714713 -0.90653366 -0.15183291 -0.39388257 0.0024491765
0.031440888 -0.0089077326 0.0061132098 0.90304953 0.39964721 -0.15742807 0.00040014685
-0.0012956649 -0.0047436589 0.0077031311 -0.85834754 -0.06163612 -0.50935298 0.00096597616
0.02958397 -0.0041143717 0.0070974613 0.86036193 0.46248001 -0.21421868 0.0019766521
0.030070733 -0.0050768973 0.0071877623 0.86035639 0.46248636 -0.21422699 0.0019812316
-0.001346704 -0.0018765986 0.0075116549 -0.80579209 0.041026145 -0.59077579 0.0052397456
0.028331013 -0.0018056963 0.0070564179 0.82087946 0.51685464 -0.24293657 0.0011807367
-0.0014121053 0.0011454334 0.0078258011 -0.70972699 0.072939456 -0.70069075 0.0033666643
0.00040894153 0.0020522203 0.0064558769 -0.62280816 0.18934014 -0.75911814 0.0027649393
0.025918264 0.0017015578 0.0072131297 0.74337286 0.57739496 -0.3376565 0.0019116458
0.027350927 9.7806333e-05 0.0079746628 0.79398245 0.54646116 -0.26640591 0.0015057481
-0.001132929 0.0042480109 0.0081935776 -0.5806675 0.20017819 -0.78914762 0.001426075
0.0010086705 0.0044580344 0.0067845965 -0.55130482 0.2353695 -0.8004151 0.0013011937
0.023125695 0.0048174486 0.0070856512 0.64844418 0.63828367 -0.41486639 0.0015500623
0.024630347 0.0036494567 0.0077798152 0.7030232 0.60420984 -0.37508523 0.0018426732
-0.00072138937 0.0070347544 0.0086889965 -0.50438005 0.24220903 -0.82881576 0.0014811998
0.0014491916 0.0071944864 0.0074256575 -0.4342806 0.31102911 -0.84537637 0.0029978678
0.0039497232 0.0077835573 0.0065237582 -0.33752656 0.38735622 -0.85792249 0.0037172693
0.01753303 0.0083725182 0.0063380981 0.28174803 0.68663079 -0.67019117 0.0020292306
0.019724121 0.0076682335 0.0070667127 0.47524449 0.67520702 -0.56412613 0.0047293552
0.021765638 0.0066818846 0.0078946212 0.59493339 0.66819948 -0.44672555 0.0024193963
-0.00023926905 0.0091551123 0.0089130932 -0.4076426 0.28994307 -0.86588711 0.0026070261
0.0015857966 0.010003331 0.0084411819 -0.38254702 0.3253316 -0.86476421 0.0015751636
0.004337918 0.010084996 0.0075256266 -0.24298477 0.4257943 -0.8715834 0.0025880423
0.0073413965 0.010217586 0.0068894122 -0.14035849 0.51218504 -0.84732872 0.0027442011
0.01058115 0.010546141 0.0067993533 0.0099541834 0.59125555 -0.80642289 0.0014794199
0.013544777 0.010459755 0.0070132064 0.1358925 0.63477212 -0.76065606 0.0018050007
0.016375631 0.010087145 0.0075911134 0.28149396 0.66184175 -0.6947853 0.00234646
0.018769113 0.0093404911 0.0082615204 0.45950133 0.68484932 -0.56554395 0.0051034163
0.0024971471 0.011972996 0.0089484537 -0.30759865 0.3656477 -0.87845594 0.0018985708
0.004514962 0.012406248 0.0086427359 -0.18806718 0.44857496 -0.87373412 0.0018125377
0.0074798274 0.012761505 0.008423401 -0.07236585 0.51446688 -0.85445124 0.0022242125
0.010538545 0.012609196 0.0083025265 0.058120295 0.57982635 -0.81266439 0.0026358422
0.013326949 0.012280874 0.0084897485 0.20472047 0.64339489 -0.73765337 0.002814807
0.015449786 0.011806528 0.0087675685 0.3567633 0.66700816 -0.65407956 0.0029936861
0.00072525896 -0.01574905 0.010058411 -0.95292312 -0.26959386 -0.13876846 0.0015014202
-0.00024422928 -0.013096672 0.010448256 -0.93941212 -0.29054114 -0.18190904 0.0010430715
0.00024135469 -0.014293966 0.009960928 -0.94704509 -0.27164033 -0.17122215 0.0013415964
-0.0011321672 -0.010429017 0.010331167 -0.93286276 -0.27617824 -0.23128483 0.0022264647
-0.0019975917 -0.007712014 0.010576286 -0.91966319 -0.25292122 -0.30041718 0.0037720676
-0.0032565542 -0.0042341268 0.011267069 -0.87944603 -0.26625264 -0.39456838 0.0028524771
-0.0024693818 -0.0050497735 0.0099661462 -0.89578718 -0.17221554 -0.40976471 0.0040902263
-0.0036132478 -0.0018812203 0.010939847 -0.83135122 -0.1537459 -0.53405738 0.0054258546
-0.0026582684 -0.0019518707 0.0094463807 -0.82971972 -0.076711871 -0.55288386 0.0024176815
0.028801853 -0.0017094885 0.010027159 0.83608764 0.50514412 -0.2139786 0.00053471146
-0.0039629727 0.0012798378 0.010702933 -0.77140433 -0.060331047 -0.63347894 0.0024704915
-0.0026556822 0.0026384618 0.0091462219 -0.66395837 0.039660946 -0.74671704 0.0037479256
0.026529755 0.0021611578 0.009793777 0.80582768 0.54154813 -0.23951499 0.00086853892
0.027402546 0.0012015378 0.010942646 0.80488527 0.54472345 -0.23544878 0.00088091608
-0.004258052 0.0044178963 0.010793304 -0.705612 0.016607253 -0.70840383 0.0057459343
-0.0025364347 0.004573565 0.0093253562 -0.6541183 0.10609213 -0.74891496 0.0043220241
0.023944354 0.0055461107 0.0096950317 0.73378962 0.60477251 -0.30952063 0.0019417352
0.025195153 0.0043478832 0.010475126 0.76432717 0.57540029 -0.29106441 0.0013517201
-0.0043371078 0.0072324118 0.011088748 -0.59186006 0.094087414 -0.80053061 0.0038824107
-0.0021001282 0.0074036019 0.0096356981 -0.54215384 0.17185934 -0.82251668 0.0013260647
0.022486525 0.007459756 0.010225304 0.67105812 0.64023721 -0.37386799 0.0035094391
0.024030477 0.0063022627 0.011396431 0.73667276 0.60278833 -0.30652824 0.0018376858
-0.0040633562 0.010118215 0.01143565 -0.50295436 0.17514974 -0.84638023 0.0010029399
-0.0015247278 0.010206258 0.0099804373 -0.42024043 0.25928408 -0.86958027 0.0019254305
0.00036359485 0.010976943 0.009300747 -0.40764499 0.28994498 -0.86588538 0.0026083847
0.017406624 0.011344696 0.0094853723 0.39903155 0.6930123 -0.60042286 0.0019503366
0.01952883 0.010449618 0.010421041 0.59219843 0.66070229 -0.46127382 0.0016154032
0.021441337 0.0092965439 0.011400663 0.65143144 0.63813353 -0.4103933 0.0019164775
-0.0036499046 0.012924867 0.011725222 -0.43682459 0.20903626 -0.87492174 0.0015733493
-0.0014581034 0.013079737 0.010774005 -0.36967683 0.28294411 -0.88503206 0.0032138026
0.0013556686 0.013143628 0.0098160682 -0.28740665 0.34161189 -0.89481777 0.0017032527
0.00414008 0.013790518 0.0094265798 -0.13152079 0.46412107 -0.87595314 0.0012537735
0.0074925032 0.014239915 0.0093234777 -0.017426867 0.52492148 -0.85097224 0.0018803495
0.010829419 0.014049664 0.009408894 0.11939251 0.60617024 -0.78632253 0.0021280954
0.013715562 0.01370015 0.0098914215 0.25419918 0.64915383 -0.71692532 0.0021913436
0.016355621 0.012969879 0.010573585 0.41621822 0.65641171 -0.62919486 0.0023882564
0.018597413 0.012084007 0.011522808 0.54024553 0.66502982 -0.51562595 0.002681979
-0.003166202 0.014820206 0.011971691 -0.32362324 0.26810327 -0.90740764 0.0022145004
-0.0012869558 0.015796358 0.01162866 -0.26365656 0.30330911 -0.9156903 0.0018188705
0.00145163 0.01599819 0.011001523 -0.17065193 0.41472888 -0.89379966 0.0010103085
0.004392405 0.01602757 0.010576957 -0.087790765 0.47058678 -0.87797534 0.002344605
0.0072599007 0.016033519 0.010464964 0.02466264 0.53199953 -0.84638536 0.001733475
0.010397952 0.015959306 0.010793641 0.15662783 0.58827192 -0.79334986 0.0013976356
0.013322498 0.015452655 0.011331219 0.3330622 0.6471175 -0.68579036 0.0034292592
0.015304694 0.014815795 0.011851528 0.43536589 0.66611165 -0.60560042 0.00087725435
-0.00024946569 0.017741458 0.012068906 -0.20110883 0.34593278 -0.91645288 0.0034014115
0.0017395333 0.017997865 0.011865139 -0.1405168 0.42201307 -0.89563388 0.0020002036
0.0042967447 0.01824387 0.011782656 -0.023014912 0.49194783 -0.87032044 0.0016184659
0.0073508844 0.01808447 0.011824332 0.093213335 0.55227864 -0.82843202 0.002256515
0.0094734197 0.017734893 0.011916686 0.225054 0.60777509 -0.76155102 0.0029819747
-0.00073730131 -0.012416449 0.01243011 -0.93173444 -0.30875945 -0.19115053 0.00070238742
-0.0016192247 -0.010486165 0.013303413 -0.92503095 -0.32984194 -0.18847281 0.00069830276
-0.0031805276 -0.0068315165 0.013449647 -0.91088879 -0.31302825 -0.26887742 0.0015995171
-0.0025711022 -0.008295388 0.013472104 -0.91423923 -0.31588393 -0.25373983 0.0013942361
-0.0038930245 -0.0048230924 0.013359583 -0.88766748 -0.32889304 -0.32229772 0.0025361364
-0.0049808985 -0.0018931718 0.013531937 -0.87024003 -0.2750183 -0.40871409 0.0045678876
-0.0064781718 0.0015798692 0.01421784 -0.82006383 -0.28235626 -0.49776527 0.0019979363
-0.0054074344 0.0010095699 0.012845728 -0.83556032 -0.19907854 -0.51206124 0.0045483722
-0.0068650884 0.0044926181 0.013732442 -0.78284603 -0.20992357 -0.58573383 0.0025107313
-0.0056011393 0.0036412801 0.012241133 -0.74037379 -0.088047802 -0.66640401 0.0039893449
0.025819127 0.0043821475 0.013038711 0.80620015 0.55575949 -0.2029106 0.00048833981
-0.0072580157 0.0073732445 0.01354394 -0.68587857 -0.10953281 -0.71942556 0.0041218838
-0.0055996785 0.0085038422 0.012144246 -0.6536482 0.0048210211 -0.75678313 0.0046556001
0.023250233 0.0081401793 0.013313207 0.77706754 0.58010805 -0.24421458 0.0017525802
0.024462823 0.0065838173 0.013512799 0.7875585 0.57365966 -0.22509149 0.0013754235
-0.009065846 0.010522532 0.014869709 -0.64019096 -0.097263664 -0.7620337 0.0042973231
-0.0073298006 0.010243515 0.013560443 -0.57060635 0.044994902 -0.81999016 0.0027354762
-0.0054806462 0.010454051 0.012315438 -0.55348819 0.10280971 -0.82648718 0.0021068172
0.020546798 0.011290246 0.013197052 0.68527913 0.64799714 -0.33240378 0.0013895733
0.021847101 0.010073381 0.013713828 0.72934097 0.6092875 -0.31117585 0.0019008302
-0.0093105752 0.013213773 0.014869585 -0.54925907 0.008411102 -0.83560973 0.0027971223
-0.0073334863 0.013178022 0.013775076 -0.50571257 0.066972278 -0.86009854 0.0011232699
-0.0050426261 0.013304825 0.012567734 -0.45990837 0.14052202 -0.87677699 0.0011362872
0.017447306 0.014041157 0.012861305 0.57886177 0.66602671 -0.47045445 0.001264018
0.01924069 0.01296517 0.013795775 0.6714232 0.64708549 -0.36120799 0.0011678097
-0.00914999 0.015746249 0.014982739 -0.47022381 0.086267129 -0.87832087 0.00084359868
-0.0073403646 0.01612116 0.014141803 -0.41424823 0.13358071 -0.90030807 0.0014416018
-0.0044274451 0.016103966 0.012816359 -0.3777225 0.23668331 -0.89515734 0.0027803138
-0.0021964924 0.016987357 0.012311216 -0.24385002 0.31733188 -0.91642666 0.0010042876
0.011668631 0.017262774 0.012250044 0.30484194 0.6283043 -0.71575487 0.0008394653
0.01397182 0.016778704 0.01304395 0.37623048 0.66251099 -0.64771134 0.0023797737
0.016219908 0.015741864 0.013790741 0.54641372 0.67592508 -0.49452749 0.0027727704
