# .PCD v0.7 - Point Cloud Data file format
VERSION 0.7
FIELDS x y z normal_x normal_y normal_z curvature
SIZE 4 4 4 4 4 4 4
TYPE F F F F F F F
COUNT 1 1 1 1 1 1 1
WIDTH 554
HEIGHT 1
VIEWPOINT 0 0 0 1 0 0 0
POINTS 554
DATA ascii
0.019916095 -0.002965692 0.0043423241 0.50779015 -0.39564306 -0.76525533 0.0026659728
0.021920482 -0.0026396182 0.0058858236 0.66391796 -0.38426846 -0.64152217 0.0036941522
-0.0003906425 9.7600394e-05 0.0055820439 -0.66574907 -0.13022164 -0.73472476 0.0037364557
0.0016827465 -9.6426578e-05 0.004162713 -0.53013957 -0.18245366 -0.82804751 0.0012183718
0.020913942 -0.00065258995 0.0037939271 0.5763061 -0.39777571 -0.71389467 0.001135262
0.02267126 0.00013133883 0.0050283363 0.69266653 -0.38824347 -0.60784876 0.0039477763
-0.00058187946 0.002926413 0.0052263066 -0.67870474 -0.13349847 -0.72217596 0.0040798597
0.0011429193 0.0026888237 0.0038024306 -0.57228816 -0.1946326 -0.79662067 0.002013325
0.023465959 0.0026110313 0.004395158 0.73451477 -0.38060999 -0.56180429 0.0018828536
0.024820128 0.0035205539 0.0056999093 0.81144565 -0.33103621 -0.48163354 0.0038825222
-0.00080086727 0.0059469547 0.004807137 -0.75712866 -0.1771729 -0.62878126 0.0043271342
0.00066526962 0.0047810161 0.0035744926 -0.65743059 -0.21674 -0.72167087 0.0071813525
0.024076398 0.0047824318 0.0037339798 0.68224412 -0.37873799 -0.62538034 0.0021269843
0.025292888 0.0059893494 0.0048037376 0.81695539 -0.32061678 -0.47936293 0.0029178511
-0.0013652931 0.0090908045 0.0047594476 -0.85258096 -0.13009919 -0.50614214 0.001729383
0.026348 0.0090426188 0.0047928393 0.8736496 -0.27327946 -0.4025602 0.0009577694
-0.0018432443 0.011935947 0.0048769396 -0.8966583 -0.12164835 -0.42568249 0.0025711192
0.026835376 0.011517026 0.0042199958 0.89445168 -0.24721485 -0.37261376 0.0014380732
0.027522791 0.012471032 0.0054242853 0.92787284 -0.20024039 -0.31457248 0.0019564894
-0.0022691987 0.014731608 0.0048584752 -0.90626067 -0.15267324 -0.39418566 0.0022749333
0.027749598 0.014768782 0.0047672363 0.94951516 -0.15807138 -0.27098784 0.0010095768
-0.0031726265 0.018711053 0.0055527855 -0.95304722 -0.15099819 -0.26248929 0.0020553288
-0.0025628037 0.017458484 0.0041392427 -0.91718364 -0.21236287 -0.3371591 0.0011301782
0.028173337 0.0179665 0.0048562419 0.96159846 -0.12243353 -0.24563913 0.00033574179
-0.0032600274 0.020921297 0.0045420872 -0.95504421 -0.17758998 -0.23738651 0.0023887027
0.028438712 0.021071792 0.0047315182 0.96818841 -0.085577756 -0.23513304 0.00077241898
-0.0036434364 0.023939013 0.0046318546 -0.96076936 -0.17477256 -0.21535282 0.0015022975
0.028372599 0.023890339 0.003673163 0.96943223 -0.0758463 -0.23334175 0.00060444733
-0.0041149883 0.027012818 0.0039639939 -0.96327168 -0.19734125 -0.18211034 0.0010557499
0.028371416 0.025800243 0.003654199 0.9721148 -0.052303888 -0.22859809 0.00037064325
-0.053657897 -0.065139435 0.0064803232 -0.84165895 -0.26491401 -0.47056442 0.00012495309
-0.042622369 -0.065973714 0.0067008501 0.56783664 -0.53393835 -0.62647533 0.0069474732
-0.040338237 -0.065233752 0.0076208031 0.47017011 -0.63453281 -0.61343968 0.010278887
-0.03751472 -0.064886056 0.0088577885 0.26122272 -0.69886404 -0.66584671 0.0088068414
-0.035616867 -0.064586453 0.0092897881 0.2103315 -0.77403271 -0.59718847 0.0020410637
-0.054156281 -0.063717954 0.0066240598 -0.82682747 -0.18045524 -0.53272158 0.011318121
-0.039327122 -0.063865699 0.0069052251 0.46245882 -0.56310856 -0.6848653 0.01739227
-0.03708344 -0.063157797 0.0073248381 0.36680818 -0.482393 -0.79545516 0.020814225
-0.034305807 -0.062951714 0.0079937419 0.15670559 -0.50429142 -0.84919578 0.015704243
-0.031323873 -0.062697753 0.0085203005 0.14696331 -0.56910205 -0.8090269 0.016580613
-0.028270219 -0.062095832 0.0087751895 0.15532455 -0.51700258 -0.84177357 0.0047413246
-0.025655551 -0.061799515 0.0091274036 0.17861985 -0.63215154 -0.75397569 0.0087152468
-0.036711499 -0.059951205 0.0066496115 0.28914285 0.13089225 -0.94829518 0.030719407
-0.034196552 -0.060106676 0.0072417222 0.23991227 0.046127923 -0.96969801 0.021942459
-0.031243399 -0.060078599 0.0076900413 0.085881218 -0.19342092 -0.97734988 0.020389074
-0.02815878 -0.059746791 0.0078942878 0.074208543 -0.28584093 -0.95539939 0.016631668
-0.025156373 -0.059852 0.0082590785 0.11274601 -0.35265616 -0.92893589 0.0096217804
-0.02240886 -0.059694104 0.0086400425 0.16732895 -0.42397851 -0.89008051 0.0070252512
-0.019511199 -0.059099969 0.0090181874 0.2290989 -0.49192891 -0.83995223 0.0048422399
-0.04278978 -0.057359178 0.0071887989 0.20922214 0.75964493 -0.61576426 0.0089763412
-0.039889626 -0.057282019 0.0074082669 0.25814191 0.7087965 -0.65648323 0.023331523
-0.03715691 -0.057174984 0.0078286668 -0.15907453 0.62626594 -0.76320785 0.024012491
-0.034352425 -0.057085972 0.0079679014 0.004832061 0.46633583 -0.8845945 0.022710033
-0.031164963 -0.056910064 0.0079085436 -0.063403875 0.22130258 -0.97314191 0.011364654
-0.028015831 -0.056881566 0.0076852702 -0.040590569 -0.034118671 -0.99859315 0.010820604
-0.025120009 -0.056873936 0.0076245237 0.010332935 -0.14464323 -0.98942989 0.007844639
-0.022235489 -0.056892738 0.0077691637 0.081291288 -0.23380652 -0.96887881 0.0062308596
-0.019314962 -0.056977596 0.008173286 0.16379964 -0.31658894 -0.93431324 0.0055625401
-0.016420288 -0.056759216 0.0087218285 0.23337188 -0.38397768 -0.89336377 0.0047862474
-0.013963568 -0.05598079 0.0091401655 0.32236108 -0.46117872 -0.82667863 0.005305436
-0.036102697 -0.055398129 0.0093150605 -0.2256836 0.82860208 -0.51233333 0.024489017
-0.033961877 -0.054957047 0.0090605346 -0.19240202 0.56965709 -0.79904455 0.013919341
-0.031030875 -0.054256145 0.0086625908 -0.25551701 0.3101756 -0.91569757 0.0083440356
-0.028038323 -0.054031678 0.0080335233 -0.16017139 0.20760411 -0.9650107 0.0055300896
-0.025120974 -0.053983536 0.0076379692 -0.11584231 0.12057509 -0.98592204 0.0070034331
-0.022219317 -0.053960677 0.0074497173 -0.031956214 -0.036293425 -0.99883014 0.0040934389
-0.019331129 -0.053968005 0.0075085554 0.07267192 -0.16623533 -0.98340464 0.0047679348
-0.016214281 -0.054018188 0.0079176668 0.15809472 -0.23939931 -0.95796347 0.0042580483
-0.013158195 -0.054034546 0.0086315731 0.28157279 -0.34282497 -0.89620751 0.0018176342
-0.010940349 -0.053438693 0.0091129262 0.35507882 -0.37780258 -0.85509312 0.0048801932
-0.030126521 -0.052156486 0.0091766389 -0.41121978 0.40693468 -0.81566072 0.0069614849
-0.027857028 -0.051279269 0.0087391976 -0.31040469 0.28267807 -0.90760231 0.0057078409
-0.025144311 -0.051137991 0.0080399802 -0.21109767 0.19102456 -0.95861745 0.0038255202
-0.022225056 -0.051082473 0.0075591421 -0.15092225 0.12138808 -0.98106438 0.0048961351
-0.019325024 -0.051060583 0.0073690619 -0.039568465 0.011559317 -0.99914998 0.0038675102
-0.016197415 -0.051071756 0.0074641882 0.096431062 -0.13784041 -0.98574895 0.0065013827
-0.01307807 -0.051118881 0.0078698481 0.18831153 -0.18392228 -0.9647339 0.0035848212
-0.010236411 -0.051167592 0.0085873445 0.26776856 -0.25278619 -0.92973071 0.002777078
-0.0078156786 -0.050313909 0.0091117052 0.35430121 -0.34824115 -0.86787021 0.003771225
-0.026901923 -0.049093001 0.0091719795 -0.42161292 0.37496647 -0.82561654 0.0048596617
-0.025039734 -0.04827138 0.00878774 -0.28729624 0.30914938 -0.90658015 0.004504439
-0.022252511 -0.048007876 0.0080929324 -0.19594818 0.21820371 -0.956029 0.0029700841
-0.019386495 -0.048107248 0.0076052528 -0.12263601 0.15483585 -0.98029906 0.0045931777
-0.016194386 -0.048171442 0.0073784189 -0.018988868 -0.0038921183 -0.99981213 0.004160827
-0.013066242 -0.048182655 0.00747946 0.10737719 -0.07450249 -0.99142301 0.0038939181
-0.010185468 -0.048229113 0.0079031046 0.19843258 -0.15831266 -0.96724439 0.0030590266
-0.0073877797 -0.047873735 0.0085320147 0.27047786 -0.23837946 -0.93274701 0.0028207251
-0.0051372936 -0.047150817 0.0090996996 0.35187879 -0.30389854 -0.88534003 0.0028042723
-0.024168352 -0.046043143 0.0092986496 -0.36880785 0.38596755 -0.84558249 0.0029490406
-0.022066126 -0.045223825 0.0088235298 -0.30869409 0.2839008 -0.90780419 0.004024154
-0.019311454 -0.045045219 0.0081375353 -0.24091153 0.25212252 -0.93722773 0.0013938288
-0.016203573 -0.045064546 0.0076168654 -0.11948477 0.14977732 -0.98147351 0.0041503352
-0.013064216 -0.045043457 0.0074087419 0.0099395029 0.030803604 -0.99947608 0.0038938846
-0.010176548 -0.045055918 0.00752878 0.13777809 -0.077522025 -0.98742473 0.0053620595
-0.0072925668 -0.04485742 0.0079447078 0.19565794 -0.15599839 -0.96818513 0.0030028436
-0.004335755 -0.044828445 0.0087502925 0.28868869 -0.23422578 -0.92833024 0.0032666528
-0.0022373209 -0.044026904 0.009292813 0.42122722 -0.30771911 -0.85315686 0.0032843377
-0.02109912 -0.04329104 0.0091888178 -0.37963739 0.3721143 -0.84699845 0.0030027311
-0.019112021 -0.042326931 0.0088369576 -0.27519536 0.29871988 -0.91380191 0.0036788674
-0.016224854 -0.041984949 0.0081754392 -0.23621327 0.24886973 -0.93929082 0.0012713561
-0.013072192 -0.04193633 0.007663683 -0.11518051 0.14938897 -0.98204702 0.0038269258
-0.010175864 -0.041920338 0.0074943462 -0.0060490444 0.054930832 -0.99847186 0.0033359129
-0.0072872597 -0.041933913 0.0076353708 0.15329391 -0.081272498 -0.98483294 0.0056968043
-0.0041599814 -0.041986939 0.0081896782 0.26470411 -0.19608974 -0.94418252 0.0013027218
-0.0015098206 -0.04181774 0.0089509096 0.33750755 -0.23709367 -0.9109748 0.0032270339
-0.017873039 -0.040223997 0.0091463691 -0.37122682 0.36470187 -0.85392225 0.0027794775
-0.015828917 -0.039321195 0.0087870993 -0.28414536 0.2647 -0.92151797 0.0028583209
-0.013087915 -0.039089181 0.0081708143 -0.19849892 0.19200961 -0.96110898 0.0027330341
-0.010181843 -0.039050598 0.0077346526 -0.13049929 0.12844712 -0.98309267 0.0041935695
-0.0072863968 -0.039036971 0.0075795567 -0.016459355 0.017342662 -0.99971408 0.0044619716
-0.0041561504 -0.039057605 0.0078102658 0.1515068 -0.083565213 -0.98491752 0.0041873651
-0.001024443 -0.039118402 0.0084918793 0.25394577 -0.18022625 -0.95027888 0.0032222359
0.0011085982 -0.038645901 0.0090718316 0.38465214 -0.25693834 -0.88658077 0.0026453456
-0.01497128 -0.037322082 0.0091431504 -0.36806282 0.33497944 -0.86736304 0.0031793539
-0.012922151 -0.036201097 0.0088457149 -0.28351828 0.23569782 -0.92955041 0.0026955707
-0.010249275 -0.036067154 0.0082111526 -0.20265594 0.16288795 -0.96560764 0.0031393131
-0.0072899419 -0.03616108 0.0077706352 -0.12782429 0.091230936 -0.98759192 0.005475102
-0.0041545499 -0.036150847 0.0076438701 0.033884197 -0.043654092 -0.99847198 0.0039232397
-0.0010225403 -0.036175225 0.0079382388 0.18239133 -0.13519248 -0.97388726 0.0047039897
0.001839021 -0.036133803 0.0086908247 0.30282697 -0.19912998 -0.93201017 0.002992902
0.0038693256 -0.035127394 0.0091625582 0.40910304 -0.30943295 -0.85842067 0.0034347184
-0.012071638 -0.033942237 0.009212858 -0.38460979 0.27262789 -0.88190103 0.0027921784
-0.010020785 -0.033102516 0.0087707583 -0.29718971 0.16815476 -0.93989474 0.0025978764
-0.0072950302 -0.033047963 0.0080464985 -0.20399474 0.10206785 -0.97363663 0.0037626415
-0.0041546049 -0.033016559 0.0076276362 -0.1070518 0.0074604475 -0.99422544 0.0045371782
-0.0010214041 -0.033014968 0.0076028286 0.11024816 -0.11655243 -0.98704654 0.0069522839
0.0018419852 -0.033007253 0.0079662697 0.22021404 -0.18014881 -0.95867211 0.0040654838
0.0046088402 -0.032725815 0.0087278448 0.33234337 -0.2666032 -0.90469366 0.003971654
0.0064700004 -0.031930268 0.0092579592 0.47383317 -0.31405416 -0.82271022 0.0024660528
-0.0094150882 -0.030374786 0.0090981089 -0.39616057 0.18105003 -0.90015423 0.0023777396
-0.0073028654 -0.029941937 0.0084806448 -0.28000703 0.11324397 -0.95329529 0.0028437993
-0.0041554673 -0.029888002 0.0076892711 -0.18619907 0.026776366 -0.98214716 0.0034250992
-0.0010206269 -0.02986416 0.0073394608 -0.039152931 -0.065485612 -0.99708509 0.002703059
0.001869777 -0.029869718 0.0074182283 0.15387645 -0.16985725 -0.97338098 0.0061296211
0.0047657033 -0.02990829 0.0079798102 0.27411711 -0.22176498 -0.93577778 0.0039477176
0.0072633661 -0.029683206 0.0088388221 0.41515112 -0.29809245 -0.8595292 0.0037580193
-0.0071284291 -0.027162656 0.0087489886 -0.36096185 0.12044564 -0.92476994 0.0028062153
-0.0041568726 -0.027002558 0.0078002028 -0.26601756 0.043434504 -0.96298915 0.0031198366
-0.0010202436 -0.026967142 0.0072254175 -0.082377709 -0.033656243 -0.99603277 0.0038354974
0.0018686187 -0.026955988 0.0070440844 0.023135608 -0.11536729 -0.9930535 0.0023594825
0.004759341 -0.026972227 0.0073038395 0.17149527 -0.19198522 -0.96629757 0.0029800816
0.0076624611 -0.027024141 0.0081392322 0.34452659 -0.26432645 -0.9007957 0.0037932098
0.0098099951 -0.026551371 0.0089665176 0.49158984 -0.32355618 -0.80848676 0.0034053763
-0.006662658 -0.02434027 0.0089771794 -0.44152302 0.11665567 -0.88963413 0.0024510303
-0.0041587572 -0.024118779 0.0079650348 -0.32632747 0.058625326 -0.94343704 0.0027179678
-0.0010199614 -0.024071313 0.0071073677 -0.20184471 -0.015857494 -0.97928917 0.0022161624
0.001867902 -0.02405457 0.0068041142 -0.057169583 -0.094752871 -0.99385786 0.0022478718
0.0047545163 -0.024054073 0.0067928554 0.050347026 -0.14562964 -0.98805726 0.0018821964
0.0076491968 -0.024082527 0.0073026558 0.2508755 -0.23823133 -0.93824691 0.002527443
0.010617671 -0.023996945 0.0084211864 0.44126922 -0.29180804 -0.84860444 0.0041510835
0.01275815 -0.022980653 0.0092465151 0.56893831 -0.375817 -0.73148537 0.0036237221
-0.0062513044 -0.021334035 0.0092084333 -0.51200515 0.12092745 -0.85042769 0.0023633156
-0.004213132 -0.021057503 0.0082225278 -0.38599887 0.069902927 -0.91984689 0.0019374662
-0.0010201563 -0.021183575 0.0071230996 -0.2588979 0.0042167045 -0.96589553 0.0027415527
0.0018106715 -0.02122727 0.0065689776 -0.09725707 -0.094053239 -0.99080527 0.0012715516
0.0046313331 -0.02190317 0.0064780358 0.034120046 -0.16566715 -0.98559135 0.0021705045
0.0078153675 -0.021337844 0.0066674883 0.20328237 -0.24864753 -0.94702196 0.0030195713
0.010784989 -0.021203311 0.007515138 0.33133104 -0.29370826 -0.89663547 0.0028977555
0.013556931 -0.020669097 0.0087207016 0.51679671 -0.35736945 -0.77795124 0.0030659537
-0.004074506 -0.017974909 0.0084463079 -0.45443168 0.074573353 -0.88765454 0.0027482756
-0.0010201752 -0.018054096 0.007118159 -0.32572708 -0.016086698 -0.94532698 0.0034518163
0.0011219159 -0.018100901 0.0065156883 -0.21935189 -0.038544077 -0.97488415 0.0013781621
0.0088368906 -0.019467317 0.0064316262 0.13567446 -0.20834737 -0.96859884 0.0031154198
0.011182138 -0.018537115 0.0067643467 0.30165118 -0.3003701 -0.90486705 0.0023369121
0.013872295 -0.017927792 0.0077196648 0.45428285 -0.35929424 -0.81519008 0.0043387054
0.015985567 -0.017353747 0.0088477302 0.59569955 -0.38878864 -0.70284104 0.0019669572
-0.0037731295 -0.015037001 0.0085992683 -0.52813339 0.067920834 -0.84644061 0.0036876614
-0.0010205626 -0.014926224 0.0071572326 -0.39947557 0.0093899146 -0.91669571 0.001733411
0.00082549622 -0.01514309 0.0064840419 -0.26005334 -0.048788387 -0.96436089 0.0024163974
0.014297847 -0.01531677 0.0068538571 0.39743844 -0.35185212 -0.8474921 0.002145699
0.016694915 -0.014855509 0.0081371935 0.54757011 -0.38798669 -0.74137253 0.0041726478
0.01855818 -0.013786382 0.0091323126 0.68908972 -0.38832563 -0.61184847 0.0021704857
-0.0034408479 -0.012078495 0.008599394 -0.60196048 0.068591833 -0.79557437 0.0043413909
-0.0010207032 -0.012037456 0.0071588187 -0.44443825 -0.025889585 -0.89543533 0.0025921927
0.017131465 -0.012297412 0.0071449634 0.50763398 -0.37375692 -0.77628195 0.0020709934
0.01907252 -0.011777512 0.0084865242 0.62594521 -0.38802621 -0.67648232 0.0022028319
-0.0032506434 -0.0092454581 0.0086638918 -0.63830405 0.05305852 -0.76795357 0.0046534841
-0.0011301611 -0.0092148334 0.0071822125 -0.51559705 -0.039216608 -0.85593331 0.0029679765
0.017814545 -0.010177197 0.0065579684 0.58688182 -0.38573572 -0.71188319 0.0022617707
0.019770533 -0.009208763 0.0076770168 0.64511436 -0.38944641 -0.65738797 0.0047070403
0.021450251 -0.0082210889 0.0089276303 0.72048104 -0.3829765 -0.5781315 0.0021187861
-0.0032005021 -0.006042968 0.0087443572 -0.70697343 0.019687997 -0.70696604 0.00501503
-0.0013513411 -0.0061087487 0.0071177883 -0.59215617 -0.046320453 -0.8044908 0.002445678
0.020541675 -0.0067866035 0.0069710836 0.6542502 -0.39176589 -0.64689738 0.00053597783
0.022039492 -0.005739578 0.0080495179 0.72510415 -0.38360217 -0.57190335 0.0019651388
-0.0029570563 -0.0029008212 0.0085412702 -0.7745176 0.0053560701 -0.63252974 0.0039821793
-0.0016917894 -0.0029530087 0.0071603963 -0.64964914 -0.060583454 -0.75781631 0.0033070832
0.02310429 -0.0030628168 0.0076773902 0.78800452 -0.36044389 -0.49912831 0.00086451974
0.024347793 -0.0019369713 0.0088766385 0.81609267 -0.35359374 -0.45712608 0.0019887493
-0.0029570672 -2.9732473e-06 0.0085345749 -0.82541358 -0.0044393358 -0.56451094 0.0034318564
-0.0018018412 -0.00012085971 0.007022813 -0.79412413 -0.060978606 -0.6046887 0.0037648603
0.023951827 -0.00042198703 0.0070711244 0.80624968 -0.35405135 -0.47392944 0.0019149517
0.024900166 9.3089766e-05 0.0083636185 0.8419776 -0.32503188 -0.43061352 0.0022429987
-0.0029573645 0.0028947501 0.0085662846 -0.86756277 -0.012817715 -0.4971624 0.003344777
-0.002003314 0.002777284 0.0069031613 -0.83718437 -0.070068188 -0.54241383 0.0033219252
0.025572132 0.002778156 0.0077054929 0.8562268 -0.31553602 -0.40903869 0.0013688758
-0.0029562113 0.0057909926 0.0084230201 -0.90305597 -0.0207856 -0.42901957 0.0029852379
-0.002221769 0.0060140509 0.0068861926 -0.87755483 -0.088226303 -0.47128943 0.003117332
0.026539953 0.0059110546 0.0075571863 0.89796585 -0.2782149 -0.34096009 0.0010179835
-0.002952683 0.008921098 0.0079839714 -0.94118273 -0.041850533 -0.33529618 0.002414824
-0.0022193075 0.0084135318 0.0065052873 -0.86180568 -0.09845233 -0.4975923 0.0028197973
0.027154516 0.0081859315 0.0073036272 0.92597222 -0.23069778 -0.29892132 0.0016784619
0.027696302 0.0094089182 0.0083011556 0.93839139 -0.21797702 -0.26815596 0.00066079764
-0.0031261484 0.011888575 0.0081402995 -0.95762038 -0.052265488 -0.28325167 0.0016044407
-0.0027018893 0.012025208 0.0067465845 -0.95148998 -0.080127411 -0.2970629 0.002921554
0.028006736 0.011947049 0.0077336254 0.94724649 -0.18798271 -0.25958952 0.0010028403
-0.0031912019 0.014941806 0.0077087153 -0.9560138 -0.12382461 -0.26590452 0.0011998051
0.028528597 0.015196861 0.0080952886 0.95801508 -0.15370171 -0.24203913 0.00036478092
-0.0031836375 0.017078983 0.0068307193 -0.95770448 -0.1187798 -0.26209429 0.0013394275
0.028585242 0.017328553 0.0070772339 0.9616425 -0.12501615 -0.24416146 0.00025182217
-0.0036692219 0.021189377 0.0072920118 -0.96755785 -0.13525212 -0.21339776 0.0011128813
-0.039048601 -0.065629803 0.0098038781 0.33607689 -0.74285632 -0.57897913 0.0076617454
-0.036631841 -0.065154627 0.0098660858 0.23976156 -0.76280904 -0.60053045 0.0052324538
-0.033979457 -0.064692967 0.010022414 0.20159309 -0.75209498 -0.6274659 0.0019877392
-0.031414408 -0.064897418 0.011428557 0.19162457 -0.83075696 -0.52261168 0.005367117
-0.032732088 -0.064137243 0.0095292199 0.27224734 -0.65399051 -0.70581704 0.01455935
-0.030826263 -0.064038679 0.0099641653 0.202399 -0.81643939 -0.54079705 0.0059667723
-0.028026851 -0.063709587 0.010452013 0.19317551 -0.82996029 -0.52330589 0.0042697499
-0.025198542 -0.063046128 0.010518546 0.20896266 -0.75298029 -0.62398338 0.0098173181
-0.022334784 -0.062576704 0.010905692 0.24854061 -0.73542541 -0.63037848 0.0046432917
-0.019591477 -0.062157448 0.011530853 0.29283816 -0.73253226 -0.61452597 0.004477378
-0.017342297 -0.061575059 0.012009488 0.35193783 -0.71332544 -0.6060583 0.0055628768
-0.021683929 -0.061082188 0.0096045602 0.21603212 -0.516913 -0.82833028 0.006142756
-0.019012867 -0.060595412 0.010239339 0.29342961 -0.61492401 -0.73196143 0.0095058968
-0.016197963 -0.059866708 0.010826497 0.33796936 -0.63371503 -0.69583189 0.0042614061
-0.013402496 -0.059143078 0.011737531 0.42266917 -0.62451541 -0.65675819 0.0022662622
-0.039818235 -0.056246053 0.010281483 -0.046514619 0.8724519 -0.48648125 0.0086357668
-0.038603649 -0.055757582 0.010255085 -0.22573712 0.82861912 -0.51228213 0.024458863
-0.015375962 -0.058056742 0.0097600017 0.30392212 -0.56752551 -0.76520997 0.003500018
-0.013100302 -0.057200514 0.010292921 0.35623944 -0.5085457 -0.78388441 0.001598652
-0.010467257 -0.056644175 0.011328451 0.46819317 -0.57389307 -0.67189437 0.003314242
-0.0083404882 -0.055747926 0.012114899 0.50546932 -0.56909275 -0.64856315 0.0035095466
-0.036794107 -0.054820284 0.010651816 -0.27703404 0.79210126 -0.54390055 0.019400023
-0.03424884 -0.053640131 0.01035963 -0.47816646 0.68534964 -0.54922915 0.021970693
-0.032063283 -0.052922267 0.0096499613 -0.33802977 0.40459949 -0.84972644 0.0099477535
-0.012161759 -0.055427387 0.0095491279 0.38030684 -0.49472401 -0.78141844 0.0015559732
-0.010015618 -0.054433506 0.010022822 0.40387946 -0.44904375 -0.79702014 0.0026983425
-0.0075261816 -0.053742249 0.011087217 0.4614265 -0.48570561 -0.74241203 0.0021110922
-0.0054973597 -0.052958738 0.011856643 0.50548565 -0.55427766 -0.66125673 0.003387555
-0.033371128 -0.051791195 0.011581507 -0.57049119 0.58548427 -0.5759756 0.0071388474
-0.031173281 -0.050929777 0.010499605 -0.44758955 0.52708006 -0.72239208 0.0064455089
-0.0288665 -0.050111633 0.0096272491 -0.37324366 0.40173787 -0.8362391 0.0051531894
-0.009014735 -0.052518629 0.0095111597 0.42590153 -0.44406494 -0.78829825 0.0022201389
-0.0069240793 -0.05127617 0.0099256746 0.40683684 -0.39527723 -0.82355314 0.0020643983
-0.004494518 -0.050779577 0.011099354 0.48427483 -0.4673489 -0.73963702 0.0043861442
-0.0022560875 -0.049915455 0.012196975 0.57786715 -0.51758552 -0.63101095 0.0028388472
-0.030451003 -0.048869532 0.011542004 -0.56016284 0.51146013 -0.65163344 0.0030874622
-0.02823028 -0.047989815 0.010478326 -0.48901978 0.43662378 -0.75512868 0.0033703842
-0.026128037 -0.047054436 0.0097107356 -0.37952369 0.38704613 -0.84033149 0.0035625999
-0.006108738 -0.049115963 0.0093788076 0.34774372 -0.31774455 -0.88210696 0.0023611246
-0.0038776356 -0.048213731 0.010117023 0.42896309 -0.37431613 -0.82211804 0.0020883267
-0.001447676 -0.047845244 0.011446109 0.55127299 -0.45460513 -0.69959432 0.0023162996
-0.027696908 -0.045791693 0.011555634 -0.58039135 0.49865696 -0.64380676 0.0061920839
-0.025399981 -0.044972684 0.010489235 -0.44186476 0.44720024 -0.77766794 0.0020292252
-0.023002256 -0.044192757 0.0096087884 -0.37023407 0.35290578 -0.85929292 0.0036874607
-0.0029169077 -0.045847487 0.0095880255 0.39344209 -0.30242532 -0.86818331 0.0026752176
-0.00095993554 -0.045163602 0.010389032 0.44657293 -0.33760044 -0.82861239 0.0010101348
0.0013411404 -0.044783395 0.011729894 0.56905538 -0.42783332 -0.70223546 0.0018473321
-0.024726152 -0.042605128 0.011566879 -0.52687329 0.52052647 -0.67190522 0.0040959017
-0.022436457 -0.041962665 0.01049393 -0.42360413 0.45768258 -0.78171998 0.0019809967
-0.020151492 -0.041395903 0.009611439 -0.3433083 0.36767444 -0.8642655 0.0033093258
-0.00026845658 -0.042512104 0.0097082956 0.39402112 -0.30644009 -0.86651129 0.0024587209
0.0018224199 -0.04216034 0.010754894 0.5245434 -0.36060753 -0.77124345 0.0029567827
0.0040306645 -0.041323394 0.011862938 0.59335089 -0.42023605 -0.68653947 0.0022381227
-0.02158759 -0.03924479 0.011617973 -0.55271804 0.46921867 -0.68872094 0.002334743
-0.019167267 -0.039010942 0.010282972 -0.42548913 0.40371382 -0.80992234 0.0013765816
-0.016945418 -0.038130715 0.0096414704 -0.352869 0.33093295 -0.87519532 0.0034652525
0.0022602046 -0.039506495 0.0099073434 0.43148118 -0.31240207 -0.84630316 0.0016788394
0.0046577347 -0.038755313 0.011065434 0.5298726 -0.37495872 -0.76068449 0.0028529018
0.006506592 -0.037977435 0.012089254 0.57984072 -0.39969146 -0.7099517 0.0034082953
-0.020764891 -0.037268423 0.012341963 -0.56415218 0.48931628 -0.6650579 0.0014733439
-0.01874771 -0.036270268 0.011596602 -0.4999648 0.48194575 -0.71955782 0.00295682
-0.016092742 -0.035937082 0.010227273 -0.42664042 0.37009451 -0.82523209 0.0014476218
-0.014066169 -0.035104141 0.0096323406 -0.34519088 0.31962493 -0.88243026 0.003005849
0.0030851769 -0.037271194 0.0094937254 0.40324628 -0.31445536 -0.85936624 0.0061333128
0.0050452244 -0.036062323 0.010137676 0.46885604 -0.33883429 -0.81569934 0.0014567864
0.0072282725 -0.035737406 0.011472153 0.59874052 -0.38869658 -0.70030332 0.0017023282
-0.017836513 -0.034334593 0.012193339 -0.5448609 0.48498851 -0.68404144 0.0028480524
-0.015843639 -0.033249505 0.011413869 -0.53474802 0.4030425 -0.74269867 0.0028078638
-0.013244361 -0.032868516 0.010149747 -0.43355665 0.31571957 -0.84400821 0.0020044853
-0.011313709 -0.03206943 0.0095094014 -0.33513036 0.24974349 -0.9084689 0.0029280465
0.0057967501 -0.033746436 0.0096012997 0.40363717 -0.31112829 -0.86039311 0.0030535492
0.0077723921 -0.033054736 0.010585644 0.50843579 -0.34295744 -0.78985643 0.00092186272
0.0096924584 -0.03257652 0.011823707 0.62249655 -0.39099011 -0.67795634 0.0027343072
-0.015032992 -0.031040022 0.012080157 -0.56792331 0.44037336 -0.69536644 0.0040758708
-0.013107104 -0.030178336 0.01110554 -0.50434667 0.34966117 -0.7895388 0.0038806491
-0.010686341 -0.029815299 0.0098623605 -0.43162808 0.24856053 -0.86713022 0.0024234212
0.0084150378 -0.030537879 0.0098336302 0.47830254 -0.32538763 -0.81568968 0.0022406736
0.010412125 -0.02999031 0.01107098 0.59784013 -0.3802228 -0.70570379 0.002615138
0.012351927 -0.028982185 0.01224451 0.6724062 -0.40196234 -0.62152725 0.00083455833
-0.012469184 -0.02746393 0.011788874 -0.60811514 0.34009045 -0.71731049 0.0043455902
-0.010280576 -0.027118694 0.010422952 -0.46188456 0.19957553 -0.86419457 0.0020053871
-0.0084337369 -0.026478695 0.0095003592 -0.40570083 0.18486492 -0.89511549 0.0025658729
0.010986218 -0.027412493 0.010172793 0.54350007 -0.3784489 -0.74925566 0.0022550598
0.012957402 -0.026861005 0.011615021 0.66987008 -0.40221789 -0.62409526 0.0012540444
-0.0101141 -0.02413018 0.011135931 -0.58941698 0.26795053 -0.76209587 0.0039448831
-0.0080794487 -0.023951361 0.0098002823 -0.48272127 0.17834209 -0.85742307 0.0024049964
0.01189691 -0.02503367 0.0096205641 0.56836963 -0.35630271 -0.74162275 0.0029253077
0.013905344 -0.024036016 0.010842488 0.6298663 -0.39865735 -0.66658884 0.003587425
0.015751615 -0.022881538 0.011977272 0.68163365 -0.4159205 -0.6019848 0.0014855741
-0.0095470538 -0.021104023 0.011633359 -0.64511114 0.24416856 -0.72402573 0.0037879234
-0.007636467 -0.020945644 0.010089235 -0.58095777 0.19922845 -0.78917426 0.0048240214
0.014552539 -0.021497739 0.0099067735 0.61531079 -0.37918952 -0.69109178 0.00056486332
0.016399186 -0.020681046 0.011257747 0.67434317 -0.40935722 -0.61456323 0.0015400732
-0.009191528 -0.01887035 0.012066448 -0.71156716 0.27040455 -0.64850092 0.0016255408
-0.0073417351 -0.01795792 0.010614782 -0.62811249 0.20361179 -0.75101054 0.0038814177
-0.0056256382 -0.01669959 0.0094329584 -0.54698509 0.13569012 -0.82607228 0.0015407765
0.01721633 -0.018118629 0.01049376 0.70003879 -0.39916983 -0.5921225 0.0017891959
0.018783258 -0.017153468 0.011727216 0.7365244 -0.39840093 -0.54663378 0.0019818926
-0.0069993227 -0.015145442 0.011115372 -0.71917033 0.21449612 -0.66089749 0.0045575514
-0.0054363124 -0.014822741 0.0097402176 -0.66343778 0.1511835 -0.73279864 0.0043777269
0.017981227 -0.015868105 0.0098462198 0.67447317 -0.40267065 -0.61882323 0.00055798981
0.019369736 -0.014907823 0.010913664 0.72871804 -0.39498141 -0.5594281 0.0024463499
-0.00653052 -0.012307975 0.011535002 -0.74667895 0.20262343 -0.63357264 0.0031719995
-0.0051497757 -0.012119144 0.010029296 -0.68604934 0.15141281 -0.71162522 0.0023279358
0.020389538 -0.01234719 0.010447053 0.76580083 -0.38440847 -0.51553786 0.0018919556
0.021700224 -0.011316034 0.011697525 0.79367667 -0.39554408 -0.46219286 0.0021069997
-0.0061466484 -0.0097395135 0.011893066 -0.79474038 0.17725584 -0.58048952 0.0023867451
-0.0049741929 -0.0091002714 0.010480988 -0.77727085 0.1297254 -0.61564708 0.0032060822
0.02100186 -0.010173312 0.0097009111 0.73778588 -0.38922969 -0.5515182 0.00049323752
0.022240097 -0.0090680076 0.010826845 0.80237782 -0.36668903 -0.47088104 0.0022605283
-0.0047971238 -0.0061356584 0.010873804 -0.83953702 0.11483572 -0.53102762 0.0034761208
0.023377709 -0.0062530213 0.010594161 0.83754563 -0.36583132 -0.40581369 0.0015000785
0.024502095 -0.0048731333 0.01180047 0.85898632 -0.34729239 -0.37620544 0.002079939
-0.0043659643 -0.0030071274 0.010780959 -0.86264116 0.091966376 -0.49738571 0.0045936462
0.023913035 -0.0041218912 0.0098159183 0.8502447 -0.35181373 -0.39154962 0.0020718519
0.02484606 -0.002808826 0.010786179 0.88033366 -0.3205294 -0.34967652 0.001639188
-0.0041605732 -7.8018638e-05 0.010784874 -0.89944828 0.062074661 -0.43259633 0.0035628579
0.025856921 9.0298825e-05 0.01079252 0.89635289 -0.30237317 -0.32422516 0.0011475561
-0.0039450349 0.0029052827 0.010679794 -0.92778873 0.047978178 -0.37000847 0.0024264001
0.026655143 0.0028696526 0.010570535 0.92169672 -0.27344036 -0.27514625 0.0007774097
-0.0038990863 0.0056248661 0.010918112 -0.95322543 0.030440092 -0.30072349 0.0025793267
0.026794003 0.0045923227 0.0093860496 0.91891223 -0.26726192 -0.29012308 0.0020222692
0.027477929 0.005675497 0.011121295 0.93486196 -0.24967651 -0.25237796 0.00064603687
-0.0037020063 0.0089708362 0.010674234 -0.96195871 -0.011137841 -0.27296764 0.0014511123
0.028081637 0.0089710029 0.010665076 0.94175678 -0.22111015 -0.25338608 0.00073216832
-0.003703685 0.012129221 0.010847471 -0.95959401 -0.056197841 -0.27571931 0.0014683708
0.028275765 0.010893666 0.0098774303 0.94623709 -0.19713213 -0.25646502 0.00094900816
-0.0037017865 0.013822549 0.010651575 -0.95891172 -0.061065845 -0.27705452 0.0017569896
-0.03002114 -0.065035202 0.012376117 0.22490136 -0.82387424 -0.52024096 0.0036398652
-0.029594414 -0.06516663 0.013280081 0.20502318 -0.84924376 -0.48657021 0.0030537546
-0.025472311 -0.064748935 0.013767676 0.18630473 -0.90482444 -0.38286191 0.0016804669
-0.023945974 -0.06409657 0.012624415 0.23783049 -0.85277456 -0.46498632 0.0063699703
-0.021919414 -0.064042456 0.013523271 0.22432201 -0.89723796 -0.38032049 0.0025560807
-0.019022442 -0.063189387 0.01363142 0.29608083 -0.85299653 -0.42980582 0.0044980538
-0.016353408 -0.062185001 0.013773579 0.38295382 -0.80977571 -0.44453299 0.0030173669
-0.014527479 -0.062009964 0.015164273 0.40640768 -0.82848257 -0.38529137 0.0041835229
-0.015099211 -0.06103652 0.012817727 0.39938566 -0.75559509 -0.51919848 0.0073491274
-0.013225338 -0.060490075 0.013657795 0.43546662 -0.77160293 -0.46367854 0.0027995654
-0.010871762 -0.059264902 0.014045419 0.49168634 -0.72820646 -0.47745141 0.0014446494
-0.0097156689 -0.057884958 0.013237363 0.51588321 -0.70152241 -0.49166131 0.0012243182
-0.0076988013 -0.056799654 0.014007594 0.55194116 -0.68394631 -0.47705176 0.0013186912
-0.0056992546 -0.055580147 0.014690803 0.56910175 -0.64848465 -0.50555998 0.0023248994
-0.03686107 -0.054033503 0.013472876 -0.48001814 0.78969401 -0.38205495 0.0080022002
-0.035470605 -0.052749515 0.013524504 -0.57088703 0.71014726 -0.4120422 0.010465872
-0.0064902981 -0.055060945 0.013123097 0.57304889 -0.6444605 -0.50624657 0.0022595809
-0.0044128741 -0.053852189 0.013948385 0.60503048 -0.60785913 -0.51424247 0.002459531
-0.0022755018 -0.052702628 0.015201287 0.65383244 -0.61679113 -0.43826008 0.0021601941
-0.033898577 -0.051011097 0.013598761 -0.65795726 0.65479416 -0.37193662 0.0064563989
-0.032503173 -0.049762711 0.013012486 -0.67609864 0.6393556 -0.36621737 0.0068166237
-0.0032905347 -0.051899426 0.012974328 0.61299157 -0.59200096 -0.52323633 0.0019483741
-0.0013667366 -0.050734121 0.01398869 0.64446938 -0.57068968 -0.50889337 0.0016745623
-0.031194706 -0.048007339 0.013473634 -0.7196672 0.58046705 -0.38096854 0.0061591598
-0.029561024 -0.046568118 0.012779998 -0.66095567 0.58535659 -0.46956912 0.0053553586
-0.0003098654 -0.04858489 0.012942468 0.61459911 -0.51316923 -0.59910381 0.0036606055
0.0013718731 -0.047619943 0.014003929 0.66584563 -0.54430133 -0.51027989 0.0022085481
-0.030343616 -0.046118077 0.014721559 -0.73062569 0.5715915 -0.37345588 0.0033538437
-0.028526682 -0.044763263 0.013569688 -0.70633268 0.58454096 -0.39925691 0.002389268
-0.026614554 -0.043608315 0.012426125 -0.61050504 0.55471021 -0.56531429 0.007578576
0.0025853799 -0.045320392 0.01328907 0.66241902 -0.48988289 -0.56675905 0.0035704749
0.0040444387 -0.044404279 0.014192406 0.68076217 -0.52323031 -0.51263332 0.0022615972
-0.027351823 -0.042649504 0.014507359 -0.68586355 0.57686013 -0.44364807 0.0028215458
-0.025748443 -0.041724391 0.013396412 -0.65474904 0.55824089 -0.50957918 0.0038711391
0.0051280092 -0.04221227 0.013580367 0.69110602 -0.45608392 -0.56067812 0.0034115927
0.0066626337 -0.041260108 0.014689358 0.7135008 -0.49805796 -0.49280304 0.0023202966
-0.024431648 -0.039475411 0.014240596 -0.64633954 0.58038014 -0.49538285 0.0019082936
-0.022754164 -0.038635265 0.013131719 -0.64155078 0.53657079 -0.54818285 0.0037297395
0.005904681 -0.039853431 0.012652555 0.58901083 -0.42076257 -0.6899457 0.002234716
0.0074861581 -0.038957473 0.013782835 0.67511261 -0.44055012 -0.59172511 0.0026632946
-0.021660876 -0.036359772 0.014189739 -0.63178599 0.58101082 -0.51310116 0.0026911958
-0.019824816 -0.035379425 0.013087543 -0.61280173 0.54261202 -0.57449645 0.0013131433
0.0085061975 -0.036495987 0.013096757 0.69049144 -0.41041884 -0.59563237 0.0024098007
0.0098841283 -0.035814699 0.014290003 0.71504545 -0.45599645 -0.52988422 0.0020637359
-0.018856026 -0.033278707 0.014021948 -0.64468682 0.52528894 -0.55538321 0.0031030402
-0.017108165 -0.032386228 0.01292879 -0.60721254 0.47972408 -0.6333701 0.0013670251
0.010857924 -0.033273131 0.013561562 0.73481756 -0.41563368 -0.53599608 0.0020425227
0.012540333 -0.031965628 0.014794083 0.73725617 -0.44628474 -0.50723094 0.0012645634
-0.017951185 -0.031122545 0.014995264 -0.67424154 0.49116918 -0.55149907 0.0019631467
-0.016121404 -0.030091306 0.013782211 -0.64703345 0.43710983 -0.62472612 0.002970482
-0.01444474 -0.029011015 0.012686101 -0.65346581 0.43357965 -0.62047654 0.0028587223
0.011717793 -0.030892225 0.012861741 0.68150723 -0.4165549 -0.60168916 0.0015612604
0.013252435 -0.029730491 0.013960278 0.71797752 -0.44500515 -0.53523707 0.0020441751
-0.015308758 -0.0276151 0.01472866 -0.69895518 0.44657242 -0.55860072 0.0015320369
-0.013717886 -0.02672055 0.013438687 -0.71779567 0.37722069 -0.58521271 0.0034594997
0.014274528 -0.027259227 0.013414489 0.74716932 -0.42525014 -0.51078397 0.0019034649
0.015626758 -0.026194952 0.014510883 0.77248991 -0.44182864 -0.45612147 0.0017314362
-0.012818361 -0.024125449 0.013966845 -0.76325434 0.33762482 -0.55086511 0.0029236595
-0.011399147 -0.023041658 0.012712972 -0.69365764 0.31980467 -0.64541775 0.0058021792
0.015038955 -0.024858676 0.012520062 0.6710453 -0.40967721 -0.6179505 0.0016933734
0.016501214 -0.023886837 0.013910972 0.77579707 -0.42334545 -0.46788618 0.0030511548
-0.01220551 -0.021522153 0.014754511 -0.78152782 0.35427475 -0.51352078 0.0015259847
-0.010975488 -0.020836867 0.013428506 -0.7723974 0.31432697 -0.55190647 0.0029509652
0.017718947 -0.021215456 0.013514562 0.79006791 -0.42256334 -0.44410911 0.0020481916
0.018785004 -0.020532958 0.014824329 0.82575202 -0.41707891 -0.37970889 0.0031763888
-0.010204111 -0.01808311 0.013858216 -0.81099731 0.30928192 -0.49661657 0.0019189987
0.01820693 -0.019256599 0.012545632 0.78826326 -0.39650378 -0.47055897 0.0018081182
0.01947725 -0.018090256 0.013788212 0.80721956 -0.39424324 -0.43928215 0.0015968292
-0.0095021324 -0.01541976 0.014280539 -0.81368691 0.31004295 -0.49171841 0.0021565298
-0.0084405122 -0.0148879 0.013044322 -0.79734182 0.27030075 -0.53961414 0.0027965107
0.020688472 -0.015354081 0.013559306 0.83040679 -0.40072933 -0.38709256 0.0011681652
0.021719705 -0.014212749 0.014745848 0.88313031 -0.37221554 -0.28554589 0.0010518607
-0.0091344481 -0.013243056 0.015068816 -0.84902298 0.31658354 -0.42300677 0.001894028
-0.0079343366 -0.012127693 0.013761207 -0.83925581 0.26572463 -0.47438392 0.0032806206
0.021126512 -0.013406596 0.012456583 0.78566933 -0.41966343 -0.45453981 0.0013896357
0.022249095 -0.012228819 0.013856363 0.86060333 -0.37266535 -0.34710571 0.0016090187
-0.0069394917 -0.0090450803 0.013536034 -0.87648666 0.21959361 -0.42842716 0.0031726733
0.023438817 -0.0091336556 0.013516525 0.85858703 -0.373469 -0.35121131 0.0014146118
-0.0063728727 -0.0060717189 0.013911989 -0.90533322 0.20243153 -0.37335393 0.0021095772
-0.0056700748 -0.0051265224 0.012606687 -0.90715057 0.16910522 -0.38533258 0.0036402307
0.024079029 -0.0070831692 0.01302685 0.87970608 -0.34432337 -0.32796133 0.0006069495
0.024833286 -0.0058452394 0.014104009 0.87971443 -0.34431893 -0.32794371 0.00060154928
-0.0061914683 -0.0036862358 0.014865564 -0.95370275 0.1918253 -0.23163334 0.0015325645
-0.0055600628 -0.0026958706 0.013452413 -0.93444151 0.1883743 -0.30221543 0.0020810375
0.02565288 -0.0029406738 0.013549097 0.89413649 -0.31682801 -0.31644905 0.00043002106
-0.0057071969 -0.00074914761 0.015258061 -0.96916986 0.18988743 -0.15701145 0.0010371555
-0.0051977299 -1.1683558e-05 0.013739979 -0.94440848 0.16826464 -0.28245291 0.0034717259
0.026271978 -0.00049762346 0.012987839 0.91528821 -0.27961272 -0.28993833 0.00077639963
-0.0047762496 0.0027446616 0.013527529 -0.97214079 0.1314175 -0.19409208 0.0031274105
0.026996082 0.0021842204 0.012860643 0.92138618 -0.27457255 -0.27505895 0.00069604605
0.027497591 0.0041364217 0.013095366 0.93451178 -0.24661461 -0.25664946 0.00053106737
-0.0043778392 0.0060872766 0.013222393 -0.97423232 0.03634683 -0.2225991 0.0039171753
-0.0042181266 0.0078027258 0.0135403 -0.97908998 0.040669791 -0.19932079 0.0027750772
-0.023889115 -0.065084346 0.016091811 0.1958715 -0.91032696 -0.36460829 0.0020099638
-0.020949638 -0.064614587 0.016240524 0.25567648 -0.9041245 -0.34232789 0.0015292428
-0.018771423 -0.064233251 0.01701373 0.29590291 -0.9145394 -0.27578846 0.0014799408
-0.016438341 -0.063268267 0.016445743 0.34960866 -0.880907 -0.31902441 0.0012865005
-0.013604072 -0.062161546 0.016975723 0.43469745 -0.84641594 -0.30760065 0.0017004785
-0.012341115 -0.061121408 0.015839534 0.45248893 -0.82653379 -0.33480704 0.0015378619
-0.010366023 -0.060170528 0.016477222 0.51685876 -0.78866565 -0.33296171 0.0016741087
-0.0083094537 -0.058909085 0.016750569 0.54994506 -0.76317883 -0.33929139 0.0014398469
-0.0064879972 -0.057445522 0.016752198 0.58535308 -0.72556865 -0.36181745 0.0021224031
-0.0049093026 -0.056174781 0.016840544 0.60436809 -0.692137 -0.39457011 0.0013101558
-0.0034068106 -0.054673973 0.01644229 0.62902182 -0.68459874 -0.36831534 0.0010339492
-0.0018914379 -0.053268038 0.016666083 0.66150272 -0.62957489 -0.40749171 0.001433288
-0.034203947 -0.050600193 0.016127514 -0.72230417 0.63483948 -0.27432743 0.0027257616
-0.00041558396 -0.051458705 0.016319878 0.68420541 -0.62553746 -0.37492114 0.00062513002
0.001157869 -0.050169401 0.016974168 0.69773394 -0.60298479 -0.38675144 0.00076703104
-0.033027284 -0.048956372 0.016818332 -0.73792028 0.61988562 -0.26686212 0.0014871487
-0.031955354 -0.047619533 0.016267018 -0.75049609 0.59750026 -0.28239852 0.0011755471
0.0023858955 -0.048348434 0.016487913 0.71924198 -0.5730468 -0.39282089 0.0011923334
0.0039920909 -0.047080278 0.017683925 0.74448872 -0.56551403 -0.35486683 0.00049230497
-0.030455945 -0.045433007 0.016707808 -0.76083124 0.58589494 -0.27903953 0.0015409648
-0.029358227 -0.043821275 0.017113851 -0.75770104 0.60117543 -0.25392374 0.0012068917
0.0049277483 -0.045206338 0.016691614 0.73208576 -0.56369555 -0.38248879 0.0014211203
0.006579652 -0.043636464 0.017742204 0.75991166 -0.5429256 -0.35744378 0.00072940555
-0.027806722 -0.042047467 0.016569592 -0.75208259 0.59292167 -0.28777689 0.0021713157
0.0060665179 -0.043225318 0.016031371 0.75357288 -0.53636354 -0.38005531 0.0012883316
0.0074398322 -0.041815929 0.016917367 0.76293856 -0.51859379 -0.38598612 0.0014929849
-0.025333049 -0.038951289 0.016649928 -0.72615242 0.59429836 -0.34570515 0.0024734735
0.0087392712 -0.039577119 0.01641801 0.77269405 -0.49899122 -0.39236668 0.0016719892
0.009877258 -0.038305476 0.017149691 0.78165549 -0.49338919 -0.38155183 0.0019209709
-0.024121985 -0.037033714 0.017364748 -0.74416023 0.5833773 -0.32541749 0.001575934
-0.022652304 -0.035693888 0.016596986 -0.71460223 0.59026533 -0.3754071 0.0034203778
0.011068513 -0.035892706 0.016443083 0.79377812 -0.47840777 -0.37555602 0.0029650398
-0.021302732 -0.03367576 0.017194478 -0.72315365 0.57499593 -0.38265958 0.0020088993
-0.019977551 -0.032475945 0.016464369 -0.72918701 0.57231611 -0.37515411 0.0021094447
0.011951565 -0.033873707 0.015739681 0.8038106 -0.47056022 -0.3639527 0.0037551627
0.013059501 -0.03277171 0.016772261 0.81787831 -0.46823335 -0.33441389 0.0024554024
-0.01869145 -0.030444743 0.017035896 -0.70737445 0.5774833 -0.40759593 0.0018513012
-0.017178375 -0.029071901 0.016103502 -0.7098068 0.5491814 -0.44110557 0.0034695824
0.014370386 -0.030182945 0.016390596 0.80439091 -0.44254947 -0.39636508 0.0024173751
0.015449349 -0.029093459 0.017684134 0.84579909 -0.43366826 -0.31073412 0.0030162381
-0.016237691 -0.027025988 0.016746622 -0.77001774 0.48693413 -0.41227165 0.0032559184
0.016133986 -0.027175231 0.016722018 0.83483368 -0.45611763 -0.30823594 0.0028960025
-0.015262342 -0.024811385 0.017498927 -0.80748045 0.44961339 -0.38186792 0.0021050666
-0.014242674 -0.023768939 0.016436934 -0.80560726 0.41926694 -0.41858354 0.0026336024
0.017524118 -0.024496848 0.016671857 0.81883168 -0.45841309 -0.34550256 0.0024534457
0.018389925 -0.023157969 0.017265351 0.85723883 -0.44277754 -0.26284888 0.0028691057
-0.013164255 -0.021207759 0.016771328 -0.82398057 0.38989726 -0.41114005 0.0023112802
0.01919445 -0.021250606 0.016858203 0.84391809 -0.41208443 -0.3434948 0.0011317233
-0.012278799 -0.018693874 0.017341435 -0.85556501 0.37251163 -0.35950476 0.0014013556
-0.011501707 -0.017589167 0.016557327 -0.85687298 0.37140486 -0.35752928 0.0014437624
0.020482522 -0.018195342 0.016321557 0.8747741 -0.396891 -0.277935 0.00088896765
0.021376904 -0.017031454 0.017991947 0.87525338 -0.39822537 -0.27449602 0.00092554028
-0.010542274 -0.015052489 0.016800821 -0.85993165 0.34648806 -0.37478468 0.00242398
0.021281099 -0.016213223 0.015874015 0.87156779 -0.39800587 -0.28628814 0.0011176051
0.022051917 -0.014765426 0.016607726 0.90327203 -0.35965028 -0.23398998 0.001175159
-0.0095036412 -0.012399109 0.016969267 -0.88196725 0.35896543 -0.30541384 0.002400192
-0.0086676441 -0.011067164 0.016201682 -0.88816416 0.35892305 -0.28694704 0.001816247
0.023159809 -0.011938046 0.016633654 0.9171319 -0.34838143 -0.19364746 0.00058974279
-0.0081357295 -0.0089641744 0.016619178 -0.91279113 0.30386209 -0.27291054 0.0023326972
0.023960734 -0.0093326187 0.015482904 0.89201266 -0.373364 -0.25477993 0.0023589216
0.024351222 -0.0091477549 0.018292056 0.91678661 -0.34764263 -0.19658794 0.00053067238
-0.0072008744 -0.0060518635 0.016573761 -0.93697971 0.24975288 -0.24432051 0.0021454939
-0.0064126072 -0.0029155528 0.016488051 -0.96107292 0.21316114 -0.17578699 0.0016323469
-0.0057261041 -1.5571015e-05 0.016608493 -0.96916962 0.18988729 -0.15701255 0.0010372894
-0.0052367467 0.0024433739 0.016785415 -0.97473758 0.18799408 -0.12060181 0.00096179068
-0.0047497628 0.0051518762 0.017194914 -0.97966468 0.15236041 -0.1305505 0.00079519051
-0.015629772 -0.063471206 0.018600093 0.37597474 -0.89126551 -0.25355208 0.0020173555
-0.01021059 -0.060829639 0.019156652 0.49741095 -0.82663238 -0.26317555 0.0016511516
-0.0075002136 -0.059164383 0.019658046 0.5771414 -0.75284159 -0.31644505 0.0013460962
-0.0040347311 -0.056409478 0.019381585 0.64098495 -0.7276541 -0.24424927 0.0024662435
-0.0027903947 -0.055062912 0.018486099 0.64374584 -0.68400574 -0.34311435 0.00092324062
-0.0013100444 -0.053603582 0.018670278 0.68840176 -0.67760706 -0.25875017 0.0019554724
0.00017116452 -0.052147813 0.018893437 0.69495833 -0.6707027 -0.25921187 0.0018745633
0.0016546135 -0.050704204 0.019242113 0.71434963 -0.62511897 -0.31453276 0.00027652638
0.0031381932 -0.048984781 0.019338759 0.7306242 -0.60203594 -0.32208842 0.00033483407
0.0042299717 -0.047795407 0.019788967 0.74787945 -0.58461624 -0.31448397 0.00010385769
-0.029978212 -0.044255339 0.019027697 -0.77309197 0.60630792 -0.18633196 0.001492227
0.0057155141 -0.045914598 0.019792793 0.77827913 -0.56050497 -0.28304744 0.00052200991
0.0068527707 -0.044322502 0.019710692 0.78194183 -0.55285531 -0.28795475 0.00051643007
-0.028349927 -0.041976944 0.019325234 -0.77920127 0.59877372 -0.18524438 0.0017838872
0.0083372137 -0.042092111 0.019679593 0.80368108 -0.52566803 -0.27887258 0.00045247888
-0.026992515 -0.040271379 0.018692808 -0.78804761 0.58590031 -0.18894939 0.0015171265
-0.025928758 -0.038612798 0.019512514 -0.79359734 0.59037882 -0.1471601 0.00066047249
0.010211339 -0.039230231 0.019700548 0.81921273 -0.51328576 -0.25578928 0.00056091341
-0.024489975 -0.036614873 0.019891303 -0.76914752 0.60732818 -0.19890869 0.00098227093
-0.023398392 -0.035373833 0.01922317 -0.77670664 0.60118663 -0.18788649 0.0012614916
0.011635354 -0.036724739 0.019612424 0.84149384 -0.48027593 -0.24743305 0.00034711621
0.01272287 -0.035119828 0.020189183 0.84964973 -0.47321954 -0.23272021 0.0005075158
-0.022001883 -0.033333808 0.019866282 -0.78205007 0.58623177 -0.21149468 0.0019865334
-0.020566098 -0.031866275 0.018566238 -0.74792916 0.60958141 -0.26270241 0.0030491701
0.013685139 -0.03331244 0.020003852 0.85233259 -0.47083107 -0.22770005 0.00052218075
-0.019515572 -0.029982345 0.019930618 -0.77589941 0.56947798 -0.27143133 0.0021113439
0.014845388 -0.030936295 0.019398646 0.86626244 -0.46092007 -0.19272283 0.00046733447
0.015792871 -0.029533872 0.020641329 0.878021 -0.44399494 -0.17873871 0.00042996748
-0.018156253 -0.028005335 0.020005889 -0.81737483 0.50718898 -0.27323562 0.0016798768
-0.017285554 -0.02684018 0.019452304 -0.81228542 0.51365471 -0.27631736 0.0017768381
0.017018022 -0.027029209 0.020227559 0.89094967 -0.43084759 -0.14345439 0.00038656095
-0.015768155 -0.024175519 0.019708764 -0.8453964 0.4607783 -0.27016357 0.001381773
-0.014718791 -0.021610312 0.020894276 -0.87067509 0.45106083 -0.19613498 0.0032056335
-0.014121219 -0.020993488 0.019679448 -0.87010217 0.41860062 -0.2601842 0.0010435735
-0.012757899 -0.018144628 0.019596172 -0.89218563 0.39677992 -0.21580195 0.0018337596
0.020418938 -0.019526131 0.018648969 0.8756721 -0.40090525 -0.26920888 0.00069500768
-0.011715321 -0.015620983 0.019932019 -0.90281099 0.38097081 -0.19948344 0.0013334407
-0.011196528 -0.01484686 0.019026326 -0.8946498 0.3891356 -0.21948852 0.0009035322
0.021898201 -0.016067453 0.018600093 0.90167028 -0.36690664 -0.22884558 0.0011639773
-0.0099808704 -0.011905512 0.019848399 -0.90184027 0.37215468 -0.21951073 0.00074531749
0.023391057 -0.012123621 0.018831985 0.91696703 -0.3505407 -0.19050622 0.00058693677
-0.0089066308 -0.0093454793 0.019811418 -0.91266567 0.35111809 -0.20918274 0.00085166609
-0.008234608 -0.0076840287 0.019202279 -0.93495029 0.30501485 -0.18120126 0.00091319549
-0.007500845 -0.0054650521 0.019646736 -0.93810165 0.2824266 -0.20050056 0.0011092681
-0.0067408993 -0.0032285517 0.018558728 -0.952088 0.2530902 -0.17167927 0.0012530597
-0.0062593208 -0.0012570537 0.019365655 -0.96232635 0.22856383 -0.14726382 0.00055856834
-0.0005802426 -0.0538342 0.022718715 0.6969738 -0.67768753 -0.23445091 0.00093907025
-0.028159056 -0.041521154 0.021554517 -0.79125673 0.59400195 -0.14517035 0.00064312317
0.0086229574 -0.042548545 0.021911429 0.80631828 -0.52729642 -0.26797271 0.00025876137
0.0096172253 -0.041054405 0.021888541 0.81977332 -0.51522243 -0.25003496 0.00047213936
0.010859027 -0.039060034 0.021826463 0.83496344 -0.50285792 -0.22353981 0.00029070818
-0.023753274 -0.035158895 0.022823321 -0.7766912 0.60120249 -0.18789972 0.001270927
0.012124158 -0.037142746 0.022707211 0.84713691 -0.48494834 -0.21721907 0.00041304863
0.013121572 -0.035398357 0.022714155 0.86363071 -0.47250339 -0.17573424 0.00026649344
-0.022088803 -0.03282816 0.022742566 -0.78838259 0.5925712 -0.1652641 0.00079530885
0.014627023 -0.032687169 0.023099111 0.86569953 -0.46262655 -0.19115698 0.0003399924
