# .PCD v0.7 - Point Cloud Data file format
VERSION 0.7
FIELDS x y z normal_x normal_y normal_z curvature
SIZE 4 4 4 4 4 4 4
TYPE F F F F F F F
COUNT 1 1 1 1 1 1 1
WIDTH 556
HEIGHT 1
VIEWPOINT 0 0 0 1 0 0 0
POINTS 556
DATA ascii
0.019978637 -0.034092784 -0.031497024 0.90893269 -0.18712291 -0.372594 0.0013726068
0.020668037 -0.03318987 -0.030219246 0.90472859 -0.19399214 -0.37925357 0.0013631057
0.020855464 -0.030554166 -0.030683279 0.89976835 -0.074749865 -0.42991787 0.0026458355
-0.007116226 -0.027170911 -0.031106889 -0.81189078 0.57046747 -0.12409745 0.00019462996
0.020010948 -0.027109046 -0.032119334 0.85229516 0.0948961 -0.51438093 0.0013063726
0.020967502 -0.02764835 -0.030510914 0.87258345 0.046419524 -0.48625439 0.0024728363
-0.0052894503 -0.024463333 -0.031218581 -0.76711297 0.61767298 -0.17325662 0.0016865729
0.019814389 -0.024620386 -0.031662717 0.80740476 0.20384325 -0.55366546 0.0012017729
0.02085064 -0.02473571 -0.030100662 0.84905601 0.15525314 -0.50497556 0.0016217586
-0.0042288825 -0.022897944 -0.030685689 -0.75307494 0.62983894 -0.19021283 0.0013952147
-0.0028326432 -0.021384625 -0.030940454 -0.7088322 0.66654432 -0.2308151 0.0013314006
0.01928957 -0.021710483 -0.031042747 0.76485765 0.30886599 -0.56532705 0.00072347996
0.020569909 -0.022423625 -0.02966259 0.7921589 0.27657112 -0.54405212 0.0014961649
-0.0014219144 -0.019749317 -0.030445825 -0.65447843 0.69438607 -0.29914194 0.0014279002
0.00051886297 -0.018360969 -0.031060278 -0.57844055 0.74299228 -0.33670306 0.0015657275
0.0025212392 -0.017491139 -0.032081358 -0.50279933 0.76454306 -0.40331957 0.0012541724
0.016462505 -0.018077906 -0.031703323 0.52530569 0.54411161 -0.6542145 0.0014120088
0.018348016 -0.019019682 -0.030499846 0.67568529 0.43274575 -0.59680855 0.0030753436
0.0017997002 -0.016838074 -0.030024953 -0.53195912 0.75063968 -0.39186683 0.0017148581
0.0039382828 -0.015958246 -0.030776851 -0.39492032 0.79577959 -0.45910004 0.002198919
0.0067989454 -0.015006261 -0.031155862 -0.18830182 0.81287098 -0.55116528 0.0022631327
0.009965633 -0.014881345 -0.031637501 0.018050026 0.79765296 -0.60284656 0.0037968394
0.013086324 -0.015281703 -0.031340849 0.29177955 0.70036066 -0.65142882 0.0068573868
0.015638584 -0.015965765 -0.030511502 0.46877733 0.59456038 -0.65325773 0.0034535036
0.017634999 -0.016996277 -0.029718213 0.57326591 0.53735703 -0.61855763 0.0021382316
0.0073713954 -0.013916779 -0.029739115 -0.2710776 0.81861055 -0.50635326 0.0033084895
0.010071311 -0.01363874 -0.029962298 0.0010949187 0.80368453 -0.59505457 0.0056249476
0.012647953 -0.013757035 -0.029798061 0.22876063 0.75271189 -0.61732763 0.0061082095
0.014418595 -0.014072068 -0.029453747 0.34045902 0.68328971 -0.64591241 0.0078134518
0.020072749 -0.03928655 -0.029024791 0.87675703 -0.11636793 -0.46664298 0.0015899347
0.020759201 -0.038733095 -0.028073847 0.89223111 -0.17083845 -0.41801667 0.0030764742
0.02017599 -0.037021901 -0.028714053 0.89993441 -0.16511995 -0.40355104 0.0034442747
0.021054666 -0.036747724 -0.02732848 0.91566497 -0.14580214 -0.37456548 0.0039220233
0.021394532 -0.033658382 -0.027632218 0.91608876 -0.17594104 -0.3603138 0.0016786677
0.021978369 -0.030805394 -0.027991906 0.91395444 -0.12407964 -0.38638255 0.0012884958
0.022416746 -0.027764231 -0.027645625 0.90513605 -0.037976369 -0.42342243 0.0023808486
-0.0055790921 -0.024345461 -0.028303917 -0.78074932 0.60416639 -0.15941624 0.0010122458
0.022213519 -0.024731576 -0.027730521 0.86415476 0.12336376 -0.48787087 0.00057371409
-0.0040863254 -0.021938149 -0.027610414 -0.77453119 0.60795462 -0.17462127 0.0010123424
-0.00312337 -0.020804668 -0.028202619 -0.76387042 0.61834151 -0.18481246 0.0015067436
0.02154984 -0.021636566 -0.027746394 0.81697714 0.25043681 -0.51945144 0.00095520919
-0.0016993046 -0.0189484 -0.027559463 -0.70192373 0.66474479 -0.25576827 0.0011822077
-0.00019483591 -0.017803553 -0.028570667 -0.65217727 0.69062442 -0.31257412 0.0023129384
0.01980352 -0.018569376 -0.028438851 0.72806168 0.37582883 -0.57330525 0.001050118
0.02104543 -0.019012161 -0.027090069 0.75359672 0.35203138 -0.55512691 0.001571203
0.00096259138 -0.016363591 -0.027539998 -0.61073405 0.72622973 -0.31558558 0.0014832203
0.0032979078 -0.014958778 -0.028264694 -0.48316133 0.77707779 -0.40336731 0.0035560492
0.016600309 -0.014878374 -0.028703727 0.45732257 0.61959463 -0.63793296 0.0022480893
0.018758459 -0.016001163 -0.027663346 0.65459883 0.4767217 -0.58671707 0.0011932401
0.020734238 -0.017270036 -0.026345722 0.70571411 0.44022998 -0.55512625 0.0016341944
0.0044432227 -0.01372749 -0.027240794 -0.45452029 0.77758431 -0.43448117 0.0025599767
0.0070083546 -0.012811072 -0.027752433 -0.28900266 0.82266116 -0.48959792 0.0031407918
0.0098502189 -0.012197902 -0.027897581 -0.10578513 0.81761926 -0.56595773 0.0043027559
0.012872005 -0.01229655 -0.027855914 0.16990216 0.78229588 -0.59928823 0.0027160938
0.015633911 -0.013117423 -0.027560703 0.33580324 0.7111153 -0.61769825 0.0024297996
0.01791385 -0.013861828 -0.02662335 0.55096924 0.58645451 -0.59372044 0.0007001835
0.010534485 -0.011061506 -0.026346713 -0.13622148 0.83360136 -0.53530604 0.0032823081
0.01230807 -0.011061268 -0.026357029 0.14192785 0.78085965 -0.60837048 0.0041752108
0.022260688 -0.036260407 -0.025239013 0.90572983 -0.090181641 -0.41415071 0.0032877312
0.022449723 -0.034238961 -0.024520814 0.91732967 -0.11068448 -0.38243333 0.0040244185
0.022905847 -0.031102743 -0.025157735 0.928289 -0.18452574 -0.32284632 0.00095274876
0.023509922 -0.029826567 -0.024294328 0.92821795 -0.1575163 -0.33704594 0.0019496349
0.022965232 -0.029260257 -0.026096992 0.93062043 -0.080372147 -0.35705173 0.0032110896
0.02371886 -0.027805366 -0.024546701 0.92953849 -0.087979265 -0.35807535 0.0031945533
0.022966482 -0.02371476 -0.026074179 0.87779194 0.083165124 -0.47176796 0.0018974235
0.023703625 -0.02489461 -0.02481465 0.91121215 0.02928897 -0.41089493 0.001298273
-0.0041864356 -0.021613505 -0.02514232 -0.80165112 0.57994443 -0.14498253 0.00030618871
0.022862336 -0.021476557 -0.025545131 0.84655875 0.19283418 -0.4961383 0.001367989
0.023722067 -0.021911936 -0.024184037 0.87631339 0.15415268 -0.45641181 0.0016545259
-0.0020386644 -0.018472657 -0.024929367 -0.78141892 0.58915204 -0.20563157 0.0014414102
0.022328196 -0.018520929 -0.024934407 0.7915808 0.31819719 -0.5216803 0.0021835496
0.023546822 -0.019603962 -0.023635428 0.82986075 0.27125916 -0.48759583 0.0015123897
-0.0010029834 -0.016910233 -0.024061434 -0.72465378 0.64696038 -0.23731682 0.0012818365
0.0006482359 -0.015467033 -0.024861198 -0.66040909 0.68109971 -0.31616923 0.0018100051
0.019931858 -0.015183328 -0.025735568 0.68584412 0.45520017 -0.56781226 0.0015574055
0.021393307 -0.015921816 -0.024500296 0.71327031 0.44093734 -0.54481161 0.001332688
0.0017615944 -0.014057623 -0.024012323 -0.6411202 0.69521344 -0.32502788 0.0027468079
0.0039145602 -0.012765469 -0.024778038 -0.5111419 0.76999593 -0.38189036 0.0015821757
0.0064655836 -0.011745237 -0.025575828 -0.31282094 0.81131983 -0.49386567 0.0021300162
0.016461333 -0.011895739 -0.025707409 0.33569738 0.71626914 -0.6117726 0.0030935798
0.018809196 -0.012876814 -0.02477622 0.56751585 0.59179807 -0.57245159 0.0038984786
0.020593703 -0.013885986 -0.023779895 0.65138829 0.52479124 -0.54798484 0.0017635413
0.0052490695 -0.011130519 -0.02329468 -0.51344126 0.75242716 -0.4125911 0.0014740011
0.0072909328 -0.010685634 -0.024337951 -0.33731195 0.81478578 -0.47153449 0.002538173
0.0098373452 -0.010154556 -0.024763152 -0.17525961 0.84290475 -0.50871968 0.0024390491
0.012870864 -0.01005576 -0.024855562 0.099114053 0.82652819 -0.55410063 0.005497836
0.015689529 -0.010436269 -0.024409898 0.31196162 0.74372762 -0.5912267 0.0036609836
0.017896216 -0.010975845 -0.023551129 0.5075435 0.64635444 -0.56975919 0.0018663998
0.023594372 -0.035296194 -0.022786371 0.91157585 -0.076214299 -0.40400591 0.003017151
0.023148075 -0.03328437 -0.02276814 0.92625737 -0.09401831 -0.36497656 0.004611617
0.024052793 -0.033426806 -0.021620329 0.92625713 -0.093965985 -0.36499065 0.0046261051
0.023968054 -0.030853152 -0.021724548 0.92879844 -0.13829191 -0.34381518 0.0031906099
0.024729505 -0.027563322 -0.021867961 0.93936127 -0.12558056 -0.31910801 0.0009673122
0.024989646 -0.024683878 -0.02190135 0.9316141 -0.011742171 -0.36325923 0.0013109565
-0.0041385544 -0.020984137 -0.022753499 -0.8110702 0.56710839 -0.14336383 0.00022314732
0.024754692 -0.02188327 -0.022079356 0.91719186 0.099174015 -0.38590616 0.0013519856
-0.0036985283 -0.020122761 -0.021999411 -0.81742865 0.55681473 -0.14753899 0.00033705405
-0.0026746811 -0.018523706 -0.021958377 -0.80601358 0.56804955 -0.16631825 0.00032922727
0.023137646 -0.017397754 -0.022958003 0.79182994 0.33272097 -0.51215446 0.0023044462
0.024243474 -0.018835852 -0.021742895 0.87475133 0.245368 -0.41785711 0.0017136638
-0.0013094331 -0.016469764 -0.021795601 -0.78914475 0.58048368 -0.20072164 0.0015136289
-5.7482976e-05 -0.015027247 -0.021918554 -0.74719077 0.6175369 -0.24567072 0.0012565649
0.022719452 -0.015310565 -0.021991268 0.78274822 0.38774088 -0.48678771 0.00096825196
0.023828425 -0.016319459 -0.020901266 0.81872898 0.35050398 -0.45478565 0.0018011117
0.0015681699 -0.013113223 -0.021560565 -0.64535224 0.69661218 -0.3134518 0.0013611664
0.003144478 -0.012011947 -0.022122674 -0.61954784 0.70578963 -0.34354249 0.001251814
0.019715186 -0.011885963 -0.022845522 0.57501352 0.58449852 -0.57246917 0.00068604044
0.021432549 -0.012852727 -0.021679085 0.66482627 0.52096564 -0.53535116 0.001211159
0.0045795194 -0.01061788 -0.021523986 -0.53114784 0.75364065 -0.3871792 0.0019799147
0.0068159271 -0.0094518848 -0.021779589 -0.40274772 0.80158979 -0.44186893 0.0027212447
0.0095765591 -0.0088052219 -0.022477757 -0.17456613 0.82219464 -0.54177731 0.0022013581
0.012855642 -0.0086797355 -0.022904851 0.040743254 0.83196813 -0.55332541 0.0039132969
0.016174285 -0.0090816533 -0.022431411 0.26419353 0.76275426 -0.5902608 0.0032727965
0.018770494 -0.0099209817 -0.021561868 0.50872093 0.65463811 -0.55915302 0.0042181737
0.020709621 -0.011037184 -0.02079631 0.6222049 0.56283367 -0.5441317 0.00079524505
0.0079820491 -0.0080464706 -0.020429008 -0.37518179 0.79092014 -0.48340878 0.0010105633
0.010088661 -0.0077485694 -0.021017753 -0.23130608 0.82297587 -0.51885277 0.0036201619
0.012904028 -0.0075839823 -0.021300171 0.0062366901 0.83458436 -0.55084503 0.0037576295
0.015610304 -0.0077272714 -0.020956542 0.24283399 0.78262538 -0.57317472 0.0038762123
0.017425891 -0.0080454573 -0.020496629 0.41436866 0.71705967 -0.56046772 0.00081553712
0.02513447 -0.032635629 -0.019440465 0.93065143 -0.096402712 -0.35297942 0.0029622621
0.025119077 -0.030946748 -0.018863764 0.93750376 -0.10652186 -0.33126998 0.0048680315
0.025508871 -0.027554816 -0.01921452 0.95172125 -0.1251584 -0.28028905 0.002048817
0.026020687 -0.024788013 -0.018646952 0.95838547 -0.070933796 -0.27652434 0.0018325291
0.025870476 -0.021604944 -0.019084916 0.93934244 0.066829741 -0.33640689 0.001625947
-0.002822102 -0.018134156 -0.019374393 -0.81669939 0.55419135 -0.16085443 0.00067861791
0.025541384 -0.018747419 -0.018860644 0.9087491 0.18093178 -0.37608349 0.0015902355
-0.0016010334 -0.016006995 -0.018778052 -0.81435633 0.55227655 -0.1783658 0.0012230206
-0.00041658984 -0.014519386 -0.0195994 -0.78173208 0.58374637 -0.21939707 0.0013362886
0.024721069 -0.015747843 -0.018808354 0.84377503 0.31875679 -0.43178442 0.0007292974
0.00078601833 -0.012769112 -0.018732769 -0.7391516 0.61625534 -0.27181658 0.0017996833
0.022798473 -0.012604496 -0.019560795 0.7452445 0.44890344 -0.49304801 0.001351765
0.023931617 -0.013018977 -0.018114382 0.78592891 0.41610241 -0.4573561 0.0013002771
0.0019932943 -0.011097429 -0.018087666 -0.67230028 0.6655134 -0.32419795 0.0013370885
0.0039109443 -0.0097675696 -0.018832132 -0.58020771 0.72939652 -0.36240822 0.0015852267
0.0061021978 -0.0086876955 -0.01973062 -0.40010288 0.79645342 -0.45340893 0.0027557411
0.019668685 -0.0088608814 -0.01955127 0.51609075 0.65433961 -0.55271161 0.0039346027
0.021583395 -0.010063138 -0.018673619 0.65279335 0.55569142 -0.51484728 0.0025723295
0.0053135841 -0.0080853775 -0.01784908 -0.54202104 0.72416621 -0.42637596 0.0011030785
0.0070895092 -0.0074327374 -0.018495331 -0.40436044 0.79708922 -0.44848782 0.0022010822
0.0098043242 -0.0064295335 -0.018756468 -0.23572606 0.82484734 -0.5138678 0.0030508477
0.012973069 -0.0060358364 -0.019009659 -0.057440538 0.82106715 -0.56793427 0.0041203322
0.01597826 -0.0062792702 -0.018831026 0.23011625 0.79568815 -0.56029177 0.0039896895
0.01861196 -0.0072711338 -0.018523179 0.45590875 0.69054246 -0.56151426 0.0032613445
0.02071395 -0.0080889091 -0.017614178 0.60191268 0.61010402 -0.51524192 0.0028242504
0.013022397 -0.0049206279 -0.017374828 -0.073598422 0.81435162 -0.5756864 0.003778537
0.014836241 -0.0049209278 -0.017335784 0.13416614 0.82237023 -0.55290753 0.0021670253
0.026064236 -0.030135071 -0.01687438 0.94758624 -0.039678749 -0.31702659 0.0039123422
0.026752518 -0.029760638 -0.015192783 0.96188146 -0.032800987 -0.27149272 0.0028218026
0.026145097 -0.028273635 -0.015552794 0.96376681 -0.058217257 -0.26031557 0.0037991682
0.026783535 -0.028653303 -0.014696212 0.96513218 -0.03434588 -0.25949994 0.0029826418
0.026183892 -0.026237363 -0.017035894 0.97238833 -0.046464503 -0.22869612 0.0031145604
0.026701244 -0.024251664 -0.016013645 0.96883571 -0.073877387 -0.23643066 0.0015298083
0.026923772 -0.021654965 -0.015820041 0.9649536 0.0040816842 -0.26238889 0.0025264986
-0.0028421264 -0.017633341 -0.016708039 -0.86614317 0.48246434 -0.13047655 0.0016782925
0.026188567 -0.017850587 -0.016959749 0.9142769 0.17161433 -0.36694172 0.0023325074
0.026836319 -0.019037243 -0.015676785 0.95230168 0.099797115 -0.28837842 0.0013842852
-0.0017665328 -0.015434943 -0.016261533 -0.86596066 0.47770414 -0.14802317 0.0021548052
0.025955195 -0.015515992 -0.016008109 0.88188094 0.27693683 -0.38156512 0.00080147799
0.026783053 -0.016796611 -0.014703941 0.91453695 0.22976251 -0.33291346 0.002061493
-0.0010315406 -0.01381775 -0.015223033 -0.80823433 0.55176908 -0.20568955 0.00095131388
0.00015952543 -0.012278987 -0.015810814 -0.80396467 0.54233444 -0.24395506 0.0011866885
0.024921948 -0.012569595 -0.015763827 0.81416619 0.39512709 -0.4254503 0.00085353298
0.0016487805 -0.010343125 -0.015630929 -0.70669901 0.63754392 -0.3067804 0.001877867
0.0030618161 -0.0090211984 -0.016043566 -0.67350608 0.65295815 -0.34646088 0.0012081311
0.022632372 -0.0092058564 -0.016309995 0.71228349 0.50572634 -0.48671654 0.0011214917
0.023852956 -0.010244574 -0.015466893 0.74125779 0.48323065 -0.46585953 0.0014175421
0.0045151645 -0.0075222347 -0.015558246 -0.57055229 0.71543193 -0.40327075 0.0019621009
0.0067439512 -0.0061003459 -0.015888974 -0.42323756 0.77392483 -0.47107369 0.0014463178
0.0090459557 -0.0054691634 -0.016828248 -0.25617367 0.80640978 -0.53298998 0.0022088145
0.01711395 -0.0053766598 -0.01703798 0.24562748 0.78141779 -0.57363182 0.0029568062
0.019245746 -0.0060038418 -0.016348261 0.4212876 0.71642458 -0.5561049 0.0023420246
0.021502467 -0.0071692225 -0.015442515 0.60747069 0.60658783 -0.51286501 0.0025452198
0.0077443752 -0.0048265685 -0.014723509 -0.44426292 0.77406323 -0.45106143 0.0012847254
0.01006162 -0.0043457532 -0.015564598 -0.27587929 0.82352239 -0.49568269 0.0024435832
0.012799555 -0.0038403179 -0.015714118 -0.070571631 0.8417455 -0.53524226 0.0032130273
0.015819008 -0.0039922283 -0.015665069 0.1342202 0.81477857 -0.564022 0.0023915188
0.0184283 -0.0045144288 -0.015095671 0.39335722 0.71663213 -0.57594144 0.0032336907
0.02706854 -0.027291501 -0.013070039 0.97047794 -0.02812401 -0.23954447 0.0031945284
0.0271287 -0.02533746 -0.012839369 0.96923864 -0.075668029 -0.23420249 0.0023019693
0.027695891 -0.021615664 -0.012336414 0.97921664 -0.026533268 -0.20107396 0.0010937202
-0.0030908259 -0.01796353 -0.013999662 -0.88186896 0.45903525 -0.107675 0.0019157109
0.027627319 -0.018624522 -0.012537187 0.97438705 0.035193026 -0.22210655 0.0014320896
-0.0021045052 -0.015164487 -0.013445111 -0.88666868 0.4426088 -0.13385099 0.0022827401
0.027183592 -0.015539017 -0.012697465 0.92679387 0.20479198 -0.31482267 0.0010757414
-0.0013143081 -0.013383143 -0.012786958 -0.87059981 0.46950924 -0.14702737 0.0029259555
-0.00035229456 -0.011822876 -0.012925721 -0.82624841 0.51673889 -0.22426434 0.001600939
0.025815224 -0.012070959 -0.013464472 0.85893464 0.33212969 -0.38977069 0.00098466268
0.026636213 -0.013001747 -0.012387007 0.88878131 0.28571576 -0.35837728 0.0011781089
0.0011070478 -0.0096502462 -0.012795209 -0.75912136 0.58303207 -0.2894966 0.0017014323
0.02499304 -0.0097027272 -0.012890179 0.80671984 0.41185278 -0.42376941 0.00067702733
0.0020174943 -0.0080210743 -0.011963597 -0.70895725 0.62460756 -0.32748279 0.0018198026
0.0038386565 -0.0065866839 -0.012883781 -0.64425814 0.67444915 -0.3606241 0.0018076416
0.0055939546 -0.0054074158 -0.013470328 -0.5578298 0.71142191 -0.42743981 0.00098388747
0.022418303 -0.0062106145 -0.013153263 0.65311921 0.58447587 -0.48148042 0.003300047
0.024043484 -0.007526299 -0.012316082 0.71499264 0.520998 -0.46620435 0.0013742307
0.0049267248 -0.0049630781 -0.011743478 -0.61226052 0.66090935 -0.43397692 0.0026364895
0.0068966988 -0.0040393379 -0.0126075 -0.46360156 0.75289541 -0.46714243 0.0023511827
0.0097123692 -0.0030699393 -0.013343407 -0.27077439 0.80927181 -0.52130634 0.002170657
0.012897219 -0.002662386 -0.013945024 -0.07509312 0.84155118 -0.53493237 0.0032773248
0.016126048 -0.002764185 -0.013805851 0.1540263 0.81383866 -0.56030577 0.0027961156
0.019058689 -0.0033828365 -0.013096135 0.38073486 0.7602182 -0.52641171 0.0029263289
0.021117842 -0.0043459646 -0.012441059 0.53425699 0.66110921 -0.52678657 0.0010886457
0.01025544 -0.0019604163 -0.011935473 -0.3143177 0.80456436 -0.5038656 0.0025663658
0.013028064 -0.0015811857 -0.012349776 -0.088747554 0.83741158 -0.53931963 0.0029873205
0.015757885 -0.0016856017 -0.012366465 0.1421575 0.82590228 -0.54559755 0.0033078755
0.01831699 -0.0020547241 -0.011814914 0.35230321 0.76632506 -0.53724146 0.0022830858
0.027945381 -0.026828403 -0.010830305 0.97389829 -0.029242719 -0.22509314 0.002369801
0.02781768 -0.025034109 -0.0099551147 0.98168379 -0.035943542 -0.18709631 0.0013626661
0.028027754 -0.021595368 -0.0095555698 0.98418665 -0.053041451 -0.16900639 0.00066810142
0.027927462 -0.017384596 -0.011107615 0.96430671 0.068386398 -0.25580442 0.003770232
-0.0026574838 -0.016250014 -0.010651133 -0.90942502 0.39687037 -0.12425826 0.0012659116
0.027985372 -0.015803648 -0.010211449 0.95376062 0.13890298 -0.26654577 0.0011536503
-0.0014455686 -0.012692498 -0.009633081 -0.91776484 0.35981002 -0.16806076 0.0022781873
-0.00058551965 -0.011412062 -0.010847709 -0.84154946 0.49067464 -0.22590494 0.0036030074
0.027554506 -0.012820652 -0.0097457683 0.91736573 0.24250656 -0.31564352 0.0012350406
-0.0010528723 -0.010999866 -0.0086209094 -0.92418253 0.33326551 -0.18660317 0.0014209718
2.6666617e-05 -0.009669506 -0.0096857212 -0.82512337 0.49818453 -0.26642737 0.0015140258
0.025973406 -0.0091942735 -0.010464079 0.84427691 0.37549347 -0.38236269 0.00089501182
0.026816333 -0.01022904 -0.0095560132 0.87435454 0.33447069 -0.35161552 0.0014283363
0.0015874087 -0.0071881018 -0.0095276125 -0.75109142 0.56951445 -0.33393875 0.0016819329
0.0030416292 -0.0058381585 -0.010236486 -0.67238504 0.63656908 -0.37772769 0.001981149
0.023337172 -0.0054291417 -0.010949961 0.66954172 0.58115506 -0.46257177 0.0026396161
0.025016947 -0.0068232738 -0.0097547956 0.7866258 0.45700657 -0.41516852 0.00060617476
0.0041810339 -0.0042099981 -0.0094973706 -0.62170023 0.65318322 -0.43225047 0.0018636014
0.0061819023 -0.0030598412 -0.010308232 -0.53321064 0.72343117 -0.43855873 0.0025716547
0.020103402 -0.0026682098 -0.011240116 0.52816534 0.67217046 -0.51887202 0.0013874335
0.022113083 -0.0034765475 -0.010153951 0.59545738 0.63384777 -0.49362674 0.0013910569
0.02379437 -0.0044690073 -0.0091379862 0.6831249 0.55543607 -0.47416362 0.0015320526
0.0073149684 -0.001693915 -0.0093589025 -0.46736139 0.73291034 -0.4943842 0.0017405984
0.0098375706 -0.00069592253 -0.0097790072 -0.29240024 0.80302829 -0.51927614 0.002417332
0.012671212 -1.860573e-05 -0.00989962 -0.11576058 0.81675398 -0.56525433 0.0027705079
0.015927738 -0.00012437557 -0.010085813 0.14763199 0.81073678 -0.56648982 0.0036246576
0.018804375 -0.00079590653 -0.0097127734 0.31386667 0.77233446 -0.55225652 0.0016292202
0.021175528 -0.0018511445 -0.0091553777 0.53948104 0.66458058 -0.51700377 0.0016574709
0.013289535 0.0010272928 -0.0085124709 -0.1186088 0.80413949 -0.58248752 0.0026689337
0.015603492 0.0010273792 -0.0085007939 0.138725 0.79718566 -0.58758008 0.0041971421
0.028499627 -0.023723379 -0.007047893 0.98912925 -0.037329201 -0.14223185 0.0015507411
0.028467581 -0.02267345 -0.0063518253 0.99117744 -0.020921953 -0.13087985 0.0007169614
0.028591687 -0.018193414 -0.0079971692 0.98479164 -0.012553157 -0.17328535 0.002024337
-0.002448177 -0.014967605 -0.0074391281 -0.94372004 0.30778372 -0.12108517 0.0019330678
0.028609706 -0.015653403 -0.0077228718 0.96683997 0.10220564 -0.23403966 0.00057754992
-0.0018015776 -0.012429522 -0.0069296397 -0.94798529 0.28010914 -0.15120427 0.0019637207
0.028443372 -0.012667073 -0.0067253215 0.95032948 0.17221224 -0.25926211 0.0017725945
-0.001152508 -0.010113673 -0.0065840161 -0.897304 0.38851154 -0.20953347 0.00201267
-0.00047759488 -0.0090588145 -0.0071414625 -0.88121045 0.40948775 -0.23619483 0.003692498
0.02766563 -0.009787105 -0.0068767285 0.89470214 0.30110124 -0.32991838 0.0009695029
0.00072104309 -0.0068323738 -0.0068394756 -0.78866899 0.51437122 -0.33678389 0.0013642877
0.0259018 -0.0062126359 -0.0074683828 0.80312246 0.43539959 -0.40672055 0.0013051721
0.026887074 -0.0071420204 -0.0063393926 0.84324485 0.3942894 -0.36534107 0.0012077629
0.0018849591 -0.0046945019 -0.0062169102 -0.73689145 0.55852139 -0.38084742 0.0020810636
0.0033812192 -0.0034023966 -0.0069874069 -0.68767977 0.59298748 -0.41888234 0.0017245041
0.023032751 -0.0026752134 -0.0080010211 0.59439796 0.64116895 -0.48537961 0.0014706571
0.024734709 -0.003802296 -0.0068029976 0.73557806 0.52623647 -0.42661473 0.0020378903
0.0045206673 -0.0017483567 -0.0062338654 -0.61588216 0.6438579 -0.45402226 0.0016397444
0.0066610575 -0.00043444685 -0.0068235388 -0.47992527 0.71588445 -0.50713027 0.0020117115
0.0094040679 0.00043595326 -0.0078245662 -0.29747507 0.77514565 -0.55736679 0.002331838
0.019636167 0.00033798022 -0.0075705154 0.34441963 0.75300568 -0.56067598 0.0027019426
0.021971934 -0.00076515612 -0.0067806011 0.56964344 0.67064071 -0.47512877 0.0031253095
0.023748543 -0.0020587724 -0.006191921 0.64803559 0.61622363 -0.44756931 0.0013207386
0.0079024183 0.0011619995 -0.00569377 -0.46024615 0.71137106 -0.53115416 0.0010990174
0.010026488 0.0016220328 -0.0064949547 -0.29694235 0.79038095 -0.53583866 0.0025003527
0.012799054 0.0021232585 -0.0068047689 -0.1206296 0.82761049 -0.54818738 0.0026448367
0.015942806 0.0021542516 -0.006796496 0.10998493 0.82400835 -0.55579978 0.0031539393
0.018620631 0.0015945705 -0.0064613493 0.34434426 0.77196836 -0.53431439 0.0030729887
0.020836622 0.0010469626 -0.0054690158 0.53595555 0.70106244 -0.47038615 0.0023363591
0.028837504 -0.021139229 -0.0042555174 0.98885125 -0.046490945 -0.14146332 0.00062192872
0.028944442 -0.019805508 -0.0026278114 0.9894129 -0.027259788 -0.14254461 0.0011316708
-0.0024709138 -0.014374413 -0.0039205765 -0.95130718 0.27247593 -0.14412294 0.0013565953
0.029372178 -0.015096501 -0.0032459116 0.99038804 0.0040331096 -0.13825777 0.0023978553
-0.0020013605 -0.011793971 -0.0042799329 -0.95113784 0.27002513 -0.14974388 0.0012894622
0.028797127 -0.011780463 -0.0048701381 0.95799315 0.14499554 -0.24743763 0.00092859514
0.029396156 -0.01276347 -0.0028868483 0.96169454 0.14635111 -0.23178628 0.0010109333
-0.0014698005 -0.009701116 -0.0037593716 -0.92690039 0.32151854 -0.19360152 0.00091548817
0.028572729 -0.0095094945 -0.0040212786 0.92740828 0.24411765 -0.28340858 0.0011866135
-0.0010718157 -0.0078440383 -0.0027578985 -0.93313056 0.2990256 -0.19962746 0.0015341181
-9.4386691e-05 -0.0063860454 -0.0038870019 -0.85505766 0.42478141 -0.29738373 0.0020467439
0.027625395 -0.0065946328 -0.0039481898 0.87173855 0.36674273 -0.32491791 0.00075325731
0.0013217222 -0.003775615 -0.0037542779 -0.77663535 0.49811441 -0.38564169 0.0018044732
0.0026683519 -0.0026821722 -0.0047627604 -0.66955739 0.59695029 -0.44197646 0.0010519733
0.025747173 -0.0032087308 -0.0041706664 0.76822925 0.5113765 -0.38512051 0.0017623109
0.026685629 -0.0044768234 -0.0037860288 0.81215167 0.46854284 -0.34767398 0.002046407
0.002053299 -0.0020611614 -0.002902569 -0.71433216 0.56570482 -0.41195592 0.0021388673
0.0037705014 -0.00070454506 -0.0037997775 -0.64957356 0.595061 -0.47324052 0.0014474581
0.0056263045 0.0004302233 -0.0045849397 -0.57143873 0.65068829 -0.50006253 0.0011677593
0.022761727 0.00032043108 -0.0042935228 0.61210728 0.63844168 -0.46660134 0.0015599097
0.02446679 -0.0011077658 -0.0036991294 0.69144988 0.58011115 -0.43054405 0.0015960559
0.0048687202 0.0012218773 -0.002607069 -0.5749765 0.63332087 -0.51798314 0.0011038588
0.0069662682 0.002092483 -0.0036093108 -0.43143928 0.72112739 -0.54206592 0.0015427427
0.009704954 0.0029515019 -0.0044338414 -0.27944893 0.78510624 -0.55273551 0.0019099157
0.012927795 0.0033818888 -0.0050322711 -0.10383064 0.82247251 -0.55924779 0.002437917
0.015960073 0.0033818525 -0.0050356304 0.11277791 0.8244043 -0.55465186 0.0031146277
0.018994108 0.0029528569 -0.0043083867 0.31949285 0.77284378 -0.54830348 0.0022335309
0.021517515 0.0018941066 -0.0035671003 0.49954495 0.71445233 -0.48991078 0.0012831629
0.0083133159 0.0038831602 -0.0023361361 -0.42762709 0.71909791 -0.54775286 0.0014550859
0.010175643 0.004199428 -0.0029863263 -0.28388891 0.75111443 -0.59601521 0.0016917858
0.01285646 0.0045130793 -0.0034634708 -0.094589606 0.8168202 -0.56908488 0.0025149032
0.015746748 0.0045441627 -0.0034130323 0.10327549 0.80644029 -0.58222687 0.0028985769
0.018425103 0.0041565425 -0.0029579764 0.33579475 0.7706809 -0.54156524 0.0024682628
-0.001886208 -0.0094201174 -0.00069755316 -0.92781585 0.29735386 -0.22525215 0.0011491599
0.02900354 -0.0085632205 -0.001728273 0.93380421 0.25748077 -0.24842174 0.0014681552
0.029523948 -0.010457456 -0.00097308215 0.95633811 0.18045111 -0.22990175 0.0020231484
-0.0012556317 -0.006813393 -0.00063665491 -0.92530531 0.2772868 -0.25869334 0.0017823593
-0.00060532661 -0.005744115 -0.0016524112 -0.90078956 0.31875643 -0.29491094 0.0040972559
0.028585624 -0.006692796 -0.00092906412 0.91738009 0.30170122 -0.25959623 0.0013662237
-0.0010822511 -0.0050551821 0.00047177915 -0.92416632 0.27687848 -0.26316333 0.0019907574
3.162917e-05 -0.0038337086 -0.00092694396 -0.83294797 0.42955878 -0.34882227 0.0013514502
0.027424036 -0.0038127007 -0.0009720698 0.86451846 0.40291244 -0.30044881 0.0012374395
0.0014337305 -0.0010526297 -0.00056998106 -0.7489509 0.51579458 -0.41596702 0.0019093641
0.0029993593 0.00028916891 -0.0014675374 -0.63446313 0.59232205 -0.49659967 0.0014465287
0.025491295 -0.00048300903 -0.001004667 0.75431436 0.53078866 -0.38635895 0.0013532074
0.026884152 -0.0018664902 0.00013491604 0.80129701 0.49043223 -0.34263596 0.0015815005
0.002224626 0.0010860185 0.00057268981 -0.67802382 0.53680992 -0.5021143 0.0021393958
0.004041973 0.0020823809 -0.00065232301 -0.60573447 0.60775733 -0.51353359 0.0024155488
0.0061845398 0.0031613605 -0.0016082872 -0.51683998 0.66921175 -0.53388393 0.00093783712
0.022342496 0.0028847959 -0.0012003994 0.54875755 0.70066327 -0.45600027 0.0026934852
0.023992419 0.0018520202 -0.00037500216 0.65945238 0.62156403 -0.42282462 0.00077084004
0.0050574825 0.0039185057 0.00039727334 -0.5655061 0.62661791 -0.5362395 0.0012291108
0.0071501737 0.0046872254 -0.00048486143 -0.4230637 0.71268982 -0.55954474 0.0025667085
0.0097884247 0.0055878847 -0.0010182997 -0.27990359 0.752958 -0.5955739 0.0019839616
0.012705325 0.0059559694 -0.0014990186 -0.07637921 0.81178516 -0.57893962 0.0023826887
0.016002694 0.0059236917 -0.0014087828 0.11942356 0.79206061 -0.59864682 0.0025232704
0.018986477 0.0053361547 -0.00087625254 0.3860271 0.75206548 -0.53421021 0.0037007125
0.021279991 0.0043424796 -0.00027024653 0.51253158 0.71639764 -0.47337711 0.0018157136
0.010454276 0.0068867854 0.00038092025 -0.27156955 0.76290649 -0.5867058 0.0020863703
0.01283393 0.0069773267 -0.00015818235 -0.064776205 0.80396318 -0.59114063 0.0023591381
0.015795968 0.0069617066 -3.0928757e-05 0.14027803 0.80922616 -0.57050431 0.0028834713
0.018050579 0.0067548077 0.00053716544 0.33683932 0.7801044 -0.52723461 0.0019721291
-0.0020307396 -0.0083722249 0.00117571 -0.95261151 0.2187202 -0.21140668 0.00081653619
0.02970371 -0.0088535622 0.0017190063 0.94973606 0.23839346 -0.20290378 0.00034033411
-0.0018588123 -0.0066094631 0.0022242339 -0.9466185 0.22686069 -0.22901456 0.001722145
0.029157132 -0.0061094873 0.002048769 0.93565589 0.27770987 -0.21777344 0.0012630007
0.029808886 -0.0079287961 0.0032940889 0.95075792 0.24222204 -0.19335961 0.00034169291
-0.0012995021 -0.0039622136 0.0023712665 -0.91438794 0.29611465 -0.27606297 0.0026038799
-0.00049331208 -0.0030497466 0.00120511 -0.86989754 0.35989115 -0.33727834 0.0038190661
0.028427899 -0.0037634135 0.0021367269 0.90994984 0.33766553 -0.24077645 0.0012441402
-0.0010914638 -0.0022241701 0.0033231163 -0.89686692 0.30011186 -0.32490402 0.0018618129
0.00024358236 -0.00057470868 0.0021473039 -0.80654734 0.40339497 -0.4321503 0.0012042819
0.026115665 0.00014377339 0.0011195624 0.81202382 0.49218407 -0.31364307 0.0016512446
0.027143732 -0.00079924811 0.002463236 0.84554201 0.45636332 -0.27711213 0.0015095028
0.0015584453 0.0020742402 0.0026328079 -0.71214145 0.48905447 -0.50366676 0.0019932636
0.0031744214 0.002984745 0.0013741427 -0.61312884 0.57847601 -0.53799492 0.00088313292
0.024898874 0.0023613358 0.0021927678 0.72352159 0.58159691 -0.37183541 0.0019243442
0.0022373111 0.0039588134 0.0035171593 -0.64350367 0.55531341 -0.52681118 0.0014252969
0.0041299285 0.0048944419 0.0024364721 -0.57199728 0.60138214 -0.55781591 0.0023085536
0.0063541075 0.0058607091 0.001503889 -0.4305912 0.69856077 -0.57149279 0.0017976869
0.02004757 0.0061364793 0.0011747563 0.45545104 0.74396664 -0.48895597 0.0067983959
0.021957485 0.0053362022 0.0020588106 0.57001102 0.6985274 -0.43260485 0.0019063778
0.02375865 0.0041072788 0.0027527995 0.65803689 0.63919598 -0.39801493 0.0011471768
0.0050904327 0.0068114023 0.0034567202 -0.52760154 0.61325693 -0.58783728 0.0013817035
0.0070062913 0.0074405367 0.0028135544 -0.39558065 0.6875934 -0.60887712 0.0018104041
0.0097939149 0.0082386751 0.0022579492 -0.27164885 0.72856253 -0.62881118 0.0021947818
0.012896745 0.0086814072 0.0020394637 -0.038746625 0.80235767 -0.59558439 0.002774768
0.015725724 0.0085300338 0.0020851674 0.17251109 0.79869229 -0.57648128 0.0034875534
0.018686434 0.0077410187 0.0024178722 0.3674325 0.76302761 -0.53177273 0.0028783635
0.020931114 0.0069652074 0.0032110997 0.51595515 0.7131598 -0.47454539 0.001751909
-0.0025220229 -0.0086526573 0.0039884532 -0.9618172 0.19101271 -0.19601507 0.00064838323
-0.0024586474 -0.0065855468 0.0047025634 -0.9586153 0.1835418 -0.21764442 0.001474871
0.029904183 -0.0074718227 0.0047212327 0.95075512 0.24222808 -0.19336562 0.00034651114
-0.0020962865 -0.0039191069 0.0051859515 -0.92271852 0.235135 -0.30545384 0.0014772223
0.028974125 -0.0034188633 0.0050893957 0.93317097 0.31468812 -0.17367573 0.0014610901
0.029402554 -0.0050843884 0.004345187 0.92923242 0.30501169 -0.20855451 0.0017327117
-0.0014807545 -0.00098402891 0.0054021543 -0.89706576 0.2916826 -0.33195522 0.0031493679
-0.00049933058 0.00027682213 0.004401193 -0.84828973 0.3263543 -0.41701004 0.0032597797
0.02789087 -0.00079430791 0.0052079177 0.87504297 0.41869158 -0.2428932 0.00070565986
-0.0011014992 0.0013633366 0.006429025 -0.81403702 0.3508248 -0.46288845 0.0035945126
0.00016703201 0.0024757166 0.0050797304 -0.7752859 0.39577842 -0.49223083 0.0012055653
0.025761556 0.0028870492 0.0049515497 0.78198349 0.53347951 -0.3223376 0.001716223
0.026712434 0.0014742645 0.0051807696 0.82467043 0.49594808 -0.27194539 0.0012558206
0.0014944113 0.0049857479 0.0054847114 -0.67024022 0.51377165 -0.53555268 0.0016084873
0.0031938897 0.0058764466 0.0043785181 -0.57296664 0.57327193 -0.58572042 0.00079861126
0.022896105 0.0060366928 0.0044584954 0.65603012 0.64204556 -0.39673907 0.0024800939
0.024435233 0.0048644198 0.0053382488 0.72854626 0.59663641 -0.33651936 0.001070182
0.002090801 0.0070316116 0.0065781064 -0.60217297 0.53399575 -0.59349501 0.0017041105
0.0040578493 0.007907575 0.0055629769 -0.52186072 0.5960567 -0.61022764 0.0022491841
0.0066055828 0.0089101251 0.0046847379 -0.36518413 0.67208505 -0.64416015 0.0017749278
0.0092238793 0.0096010696 0.0040610023 -0.2277001 0.73626125 -0.63723797 0.0024207649
0.016522393 0.0096776914 0.0039558895 0.19931707 0.78693157 -0.58396184 0.0024830662
0.019090699 0.0090282056 0.0046424 0.42143455 0.75293845 -0.50544703 0.0040309448
0.021692466 0.0077218278 0.0054648165 0.58647251 0.69556302 -0.41502053 0.0017796258
0.0051229582 0.0097428486 0.0064766491 -0.48349348 0.61839086 -0.61953747 0.0013362017
0.00693624 0.010466378 0.0060830675 -0.35209033 0.65907609 -0.66456836 0.0018565191
0.0099783922 0.011061193 0.0054615773 -0.19154875 0.73273522 -0.65299934 0.0030671682
0.012984888 0.011141386 0.0051272605 0.0083774012 0.76875556 -0.63948786 0.00359665
0.015757667 0.010928554 0.0053486759 0.25051424 0.78485376 -0.56678671 0.0024832073
0.018415937 0.010353006 0.0060215322 0.44815624 0.75092417 -0.48504516 0.0025937504
-0.0030380711 -0.0058445488 0.0092824483 -0.98237491 0.026481923 -0.18503588 0.0020715503
-0.0028699222 -0.0036718315 0.0081800772 -0.97657198 0.066782229 -0.20456637 0.0043656211
0.029264234 -0.0027130623 0.0095788324 0.92187238 0.34508321 -0.17626373 0.0014658228
-0.0024536508 -0.00069189805 0.0081729759 -0.92644674 0.21590292 -0.30835429 0.0039867847
0.028181022 -0.00018863427 0.0076713795 0.89200753 0.40451121 -0.20172559 0.0019385063
-0.00179219 0.0023269467 0.0084521435 -0.85997599 0.25897431 -0.43974268 0.0029862639
-0.00062399934 0.0032850276 0.0070163691 -0.79630655 0.35246208 -0.49159575 0.0041922047
0.026245939 0.0035294662 0.0074234689 0.84092969 0.48945487 -0.23080549 0.0013174176
0.027079865 0.0023361016 0.0079964781 0.85602874 0.46883294 -0.21773957 0.00049188011
-0.0012477431 0.0047878413 0.0090766763 -0.78695816 0.36086938 -0.50046998 0.0029095616
2.204394e-05 0.0054796184 0.0078107407 -0.74430054 0.41408283 -0.52397722 0.0015092484
0.025188377 0.0054137716 0.0082405349 0.77789837 0.56114119 -0.28283328 0.0013760705
0.0011849159 0.0080370083 0.0084528551 -0.63351685 0.4737632 -0.61172277 0.0024360677
0.0030538016 0.0089680012 0.0074353553 -0.50741625 0.57854658 -0.63860208 0.0016154932
0.022153521 0.0087801944 0.0079435073 0.60444403 0.6938265 -0.39147446 0.002338229
0.023804177 0.0072926679 0.0084339045 0.71486902 0.61823088 -0.32673058 0.0013328702
0.0021417979 0.010177728 0.0093109766 -0.56819493 0.51758748 -0.63973266 0.0012359314
0.0040651117 0.011004319 0.008439362 -0.47623739 0.60547215 -0.63765305 0.0026138457
0.0066388464 0.011925459 0.0077075539 -0.32682768 0.66271943 -0.67378539 0.0016311381
0.0096374825 0.012493538 0.0071450761 -0.15719847 0.71535218 -0.68085229 0.0022890021
0.01303689 0.012630947 0.0069472129 0.0404616 0.76395631 -0.64399821 0.0029552421
0.016130809 0.012367606 0.0074535543 0.24347098 0.77080047 -0.58871764 0.0021515402
0.01884952 0.011503141 0.0081381332 0.46104574 0.73246908 -0.50092512 0.0035459432
0.021077637 0.010173062 0.008629946 0.61158234 0.68032414 -0.40388888 0.0027347119
0.0070779971 0.013561964 0.0091337878 -0.30731475 0.64948827 -0.69550174 0.0020825069
0.0097163105 0.013888407 0.0086160582 -0.12176688 0.74180728 -0.65946555 0.0026816172
0.012785093 0.013854923 0.0084216902 0.081216142 0.78605747 -0.61279482 0.0034189785
0.015740229 0.013553564 0.0088855987 0.30780426 0.76738888 -0.56246859 0.0039716712
0.017696675 0.013201766 0.0096875215 0.44812551 0.75216097 -0.48315361 0.0010475643
-0.0030461061 -0.0065786024 0.010348239 -0.98237491 0.026481654 -0.18503572 0.0020715091
-0.0035396977 -0.0034442698 0.011579112 -0.97284049 0.0091914078 -0.23129399 0.0025006954
-0.003357857 -0.00051803887 0.01084832 -0.9557237 0.033937756 -0.29230186 0.0062016118
0.028337505 0.00066528423 0.010180482 0.88805705 0.42117992 -0.18428852 0.0023495676
-0.0031507234 0.0025107153 0.011304057 -0.89915997 0.15342915 -0.40984237 0.0037560191
0.02757361 0.0024431469 0.01085762 0.88861591 0.42537037 -0.17152807 0.0019844121
-0.0023276969 0.0052678203 0.011203022 -0.7991249 0.30516174 -0.51795334 0.0018162359
0.025747595 0.0059962082 0.011335225 0.82351494 0.52506989 -0.21476667 0.0010830202
0.026659103 0.0045495899 0.011745947 0.84871948 0.49490821 -0.18638957 0.00041603134
-0.0016574266 0.007968219 0.01173471 -0.72692388 0.36104122 -0.58414972 0.0020585172
-0.00022284739 0.0085449982 0.010435683 -0.69539934 0.41496205 -0.58670807 0.0020461606
0.023051349 0.0093678758 0.010668525 0.73364013 0.60617059 -0.30713093 0.0012188751
0.024185838 0.0081693456 0.011094582 0.7662642 0.578574 -0.27944848 0.0015029621
-0.0011209544 0.010139965 0.012450405 -0.651685 0.40434003 -0.64172876 0.0018454206
0.00077606656 0.011082284 0.011204381 -0.61510724 0.45956376 -0.64065921 0.0015838868
0.003326918 0.012247644 0.010022315 -0.44732553 0.57328516 -0.68647212 0.0017017841
0.019647464 0.012252685 0.010183604 0.48882702 0.74472326 -0.45435172 0.0030940296
0.021630079 0.011146393 0.011270954 0.66220951 0.66799378 -0.33950368 0.0011437399
0.001788977 0.013368474 0.012031685 -0.49789622 0.54711109 -0.67288107 0.00073958945
0.0039985375 0.014195167 0.011245481 -0.39012361 0.59726775 -0.70076728 0.0015579
0.0067049838 0.014968686 0.010615448 -0.23570311 0.6795513 -0.69473308 0.0015118688
0.0097504929 0.015393056 0.010234568 -0.083126284 0.7387324 -0.66885304 0.0022852316
0.012889422 0.015324146 0.010235273 0.11057661 0.773655 -0.62388372 0.0029496814
0.016043762 0.014950939 0.011008498 0.31972468 0.76981515 -0.55241358 0.003341641
0.018730951 0.013652401 0.011387191 0.50991982 0.73014802 -0.45482492 0.0026894032
0.0045407293 0.016046396 0.012518763 -0.34864503 0.59891129 -0.72093815 0.001506822
0.0070247748 0.01657711 0.012037297 -0.21655038 0.68679029 -0.69384795 0.002118286
0.0098366113 0.016876308 0.011818995 -0.041785508 0.72281337 -0.6897788 0.0026807066
0.01255626 0.016691355 0.011795451 0.16299261 0.75603938 -0.63390684 0.003344815
0.014967031 0.016359515 0.012255657 0.33898702 0.76472282 -0.54798436 0.0022996755
-0.0040502376 -0.0029669707 0.014285007 -0.9863041 -0.10194146 -0.12966123 0.0026372736
-0.0035515823 -0.00466352 0.012958475 -0.97129983 -0.01925287 -0.23707817 0.0018117756
-0.0042489474 -0.00057242357 0.013809267 -0.95618439 -0.039381284 -0.29010427 0.0021019818
-0.0043985001 0.0023926115 0.014250382 -0.9260717 0.053210594 -0.37357697 0.0064164721
-0.0042967438 0.0053203944 0.01454164 -0.88400787 0.12062414 -0.45164129 0.0031721541
-0.0034143971 0.0057496983 0.013141925 -0.85381615 0.19776861 -0.481545 0.001943349
0.026238116 0.0065598856 0.01569254 0.84345543 0.51453567 -0.15438935 0.00041430676
0.026700757 0.0055751423 0.015243777 0.84605145 0.50535703 -0.16973847 0.0003381891
-0.0041826251 0.0080188569 0.015340061 -0.81097746 0.2079733 -0.54686624 0.00320466
-0.0030187722 0.0084456317 0.013818099 -0.78037125 0.2713781 -0.56336021 0.0013195102
0.024869824 0.0083778296 0.013902036 0.82271701 0.53579891 -0.18988492 0.0010894728
-0.0021786282 0.01117748 0.014262733 -0.70950902 0.32607231 -0.62471896 0.0018710092
-0.00015094542 0.012337767 0.012906351 -0.57164496 0.45348743 -0.68379188 0.0018706305
0.022576006 0.011510184 0.014107321 0.73000109 0.62824202 -0.26909181 0.001084267
0.02372502 0.010190547 0.014350378 0.78601468 0.57743835 -0.22078462 0.0024679238
-0.0013152163 0.013888113 0.014919377 -0.58910191 0.41390848 -0.69400197 0.0016421488
0.00074288028 0.01434464 0.013596072 -0.48710886 0.51903719 -0.7023713 0.0011183287
0.0027634031 0.015251508 0.012888142 -0.46753585 0.54250497 -0.69792449 0.001356062
0.019393736 0.01457685 0.013853497 0.55973715 0.72351891 -0.40399837 0.0028665888
0.021121643 0.013191786 0.014243915 0.67587531 0.65947175 -0.32907379 0.0018672171
-0.00064242119 0.015841177 0.015568622 -0.53046942 0.4613533 -0.71116471 0.00063644146
0.0013475571 0.01675171 0.014841006 -0.44449133 0.51515967 -0.73282862 0.0019492075
0.0038552051 0.01720296 0.013845135 -0.34785724 0.61640418 -0.70642853 0.0031588029
0.0067969239 0.018055798 0.013532599 -0.16644605 0.67500257 -0.71879572 0.0021327732
0.0097251097 0.018378748 0.013468363 0.0081960158 0.73250037 -0.68071729 0.0026752313
0.012771822 0.018108323 0.013642005 0.18894057 0.76371574 -0.61728406 0.0024374325
0.015831186 0.017180018 0.014104025 0.42593336 0.7637586 -0.48502937 0.0024535214
0.018030424 0.016155593 0.014691639 0.51963794 0.72341877 -0.45457849 0.0017204867
0.0042405603 0.019096199 0.015241568 -0.29035175 0.62881547 -0.72130919 0.0022906016
0.0069949306 0.01969647 0.015037346 -0.12320571 0.67977804 -0.72299528 0.0028549214
0.0097770076 0.01969037 0.014907383 0.06509392 0.73938704 -0.67012644 0.0034944236
0.012635276 0.019289246 0.015111499 0.24949341 0.77596843 -0.57933241 0.0032007797
0.014499268 0.018765336 0.0154031 0.39184046 0.7603215 -0.51804668 0.00084614794
-0.0049899518 -0.00048800604 0.017252985 -0.95713574 -0.22598897 -0.18116319 0.0049893209
-0.005466708 0.002581615 0.017056055 -0.94303221 -0.10305274 -0.31633908 0.0057184566
-0.0055496846 0.0053609009 0.017151188 -0.90510905 0.0097837001 -0.42506698 0.0044521745
-0.0053718216 0.008392401 0.017174672 -0.84667283 0.095227093 -0.52352369 0.0018406709
0.025624188 0.0080734119 0.017849036 0.83626616 0.52650529 -0.15313745 0.00065964198
-0.0049111778 0.011175185 0.017355178 -0.75156319 0.20428237 -0.62723321 0.0025348752
-0.0034557027 0.012068115 0.016015396 -0.72415751 0.27432722 -0.63272464 0.0020339154
0.023130257 0.011978395 0.017075904 0.79889292 0.57454973 -0.17794035 0.0023590163
0.023885716 0.011010153 0.017475165 0.80821049 0.56415695 -0.16888694 0.0017911193
-0.0045786765 0.014031511 0.018082052 -0.6692059 0.27834919 -0.68897396 0.0026589942
-0.002907367 0.014389995 0.016626935 -0.64009976 0.3410491 -0.68844593 0.00163533
0.019901777 0.015372371 0.016094275 0.66088128 0.69127917 -0.29217988 0.0014832076
0.021309694 0.014268726 0.017158151 0.72063327 0.64202094 -0.26171902 0.00108587
-0.0040911338 0.016200913 0.018504106 -0.59284478 0.36085194 -0.71994513 0.0012654496
-0.0020547304 0.017087111 0.017389979 -0.57154584 0.39324078 -0.7202062 0.0014302596
0.00033467379 0.017823007 0.016199794 -0.43144289 0.49949834 -0.75123793 0.0017036274
0.016613154 0.018201126 0.016457573 0.50056273 0.76713645 -0.40117151 0.0037949793
0.018473234 0.017031036 0.017068978 0.61270785 0.70765823 -0.35186493 0.0029151784
-0.0012532475 0.019497944 0.018221118 -0.46267167 0.45747456 -0.75937599 0.0024988528
0.0011049111 0.020045394 0.017343793 -0.3306073 0.56107259 -0.75887841 0.00090692594
0.0038691531 0.020545542 0.016617674 -0.20327346 0.64214295 -0.73914301 0.0014039017
0.0068475693 0.020952053 0.016302954 -0.066974111 0.71084595 -0.70015168 0.0025486969
0.0099743698 0.020956689 0.01639523 0.10950056 0.75935 -0.64140248 0.0024137604
0.012905912 0.020526683 0.016946834 0.2819705 0.77397084 -0.56697613 0.0023722074
0.015508659 0.019409239 0.017339241 0.4763124 0.75679976 -0.44763914 0.0026395137
0.0017114986 0.021952784 0.018469252 -0.29850176 0.57507408 -0.76169974 0.001454208
0.0040911962 0.022294469 0.018032227 -0.16985215 0.66025263 -0.73158509 0.0025319112
0.0069987886 0.022452753 0.017819665 -0.006861384 0.7301532 -0.683249 0.0036089211
0.0097638853 0.02221667 0.017870534 0.17546244 0.77240068 -0.6104179 0.0037845117
0.012012311 0.021974871 0.018420145 0.33936352 0.77650279 -0.53091979 0.0023905798
-0.0043564397 -0.0032293652 0.020367898 -0.94363362 -0.29497024 -0.15016024 0.0027075135
-0.00542178 -0.00043318968 0.020030379 -0.93177086 -0.29051724 -0.21772186 0.00383788
-0.007089898 0.0034484039 0.021484219 -0.91797936 -0.29953289 -0.25998825 0.0032806555
-0.0063251131 0.0024441769 0.019934859 -0.93728876 -0.19490643 -0.28896606 0.0040444685
-0.0072746812 0.0056132455 0.020672541 -0.90480632 -0.16508862 -0.39251915 0.0038500766
-0.0065599075 0.0053919447 0.019162275 -0.9082945 -0.065348163 -0.4131957 0.0031176624
-0.0075104688 0.0085051935 0.020719342 -0.86555356 -0.049175978 -0.49839613 0.0037639427
-0.0065583787 0.008344844 0.01906088 -0.8487702 0.038318086 -0.5273717 0.0024174373
0.025017101 0.0096051171 0.020246096 0.84330642 0.5231654 -0.12301289 0.00018565403
-0.0075724749 0.011347003 0.020737097 -0.80611479 0.044985671 -0.59004682 0.0026899041
-0.0063649444 0.011502853 0.019292369 -0.77411872 0.12656453 -0.62025928 0.0027406244
-0.0074360063 0.014180919 0.021028321 -0.73287106 0.14128375 -0.66553658 0.0024713736
-0.0059956796 0.014439773 0.019566342 -0.69972157 0.20471253 -0.68445784 0.0017864567
0.021711046 0.01469478 0.0199247 0.74047565 0.63418931 -0.22248502 0.00094143266
-0.0072543025 0.016646512 0.021444328 -0.66337645 0.25023741 -0.70520413 0.0018348604
-0.0054141656 0.017309491 0.02010902 -0.6345281 0.2867775 -0.71772748 0.0008908615
-0.0034396732 0.018272068 0.019009866 -0.52092284 0.39477393 -0.75683093 0.0020648532
0.019186206 0.017595572 0.019828219 0.69357532 0.67060536 -0.26313818 0.0021368272
0.020587277 0.016281513 0.020540275 0.73002815 0.64658523 -0.22132851 0.0008979424
-0.0048892484 0.020027449 0.020960402 -0.53806543 0.36969709 -0.75750226 0.0021030942
-0.0025216236 0.020468894 0.019609582 -0.48324567 0.42304629 -0.76648909 0.001573623
-0.00015736069 0.021382606 0.018862851 -0.373584 0.52037698 -0.76788205 0.0035028858
0.013872726 0.021388588 0.018981285 0.39591703 0.79645747 -0.45706156 0.0027969647
0.015880194 0.020635065 0.020103522 0.56051284 0.73472255 -0.38211009 0.0038604282
0.017773846 0.019145187 0.020160187 0.64576572 0.69960785 -0.30583593 0.0016599146
-0.0041205445 0.022260671 0.021538295 -0.44529939 0.4528262 -0.77243561 0.0016566003
-0.0018824894 0.022979438 0.020808671 -0.36210263 0.52779573 -0.76831853 0.0012600718
0.00097086618 0.023342084 0.019838128 -0.24180135 0.60769075 -0.75646818 0.0016314159
0.0039655943 0.023823656 0.019429643 -0.10567607 0.67928308 -0.72622788 0.0019931456
0.0069382461 0.023974607 0.019440044 0.047174878 0.73753154 -0.6736629 0.0022247639
0.010003116 0.023729356 0.01989717 0.22310399 0.77360809 -0.59308952 0.0027792912
0.012853262 0.022765623 0.020352811 0.41346389 0.77174813 -0.4831692 0.0036672507
0.014673841 0.021984836 0.020992346 0.5332728 0.75613201 -0.37932095 0.0024985515
-0.00065552129 0.024989834 0.021650322 -0.32644764 0.55648816 -0.76403719 0.0012464928
0.0013241259 0.025311647 0.021291401 -0.19767098 0.62699258 -0.75352931 0.0025908581
0.0040428508 0.025445161 0.020972032 -0.046032362 0.70214081 -0.71054858 0.0035150645
0.0068614837 0.025346743 0.020980444 0.12314411 0.7610411 -0.63690817 0.0037027607
0.0091170697 0.02509285 0.021293581 0.3225587 0.76673245 -0.55504709 0.0040592123
-0.0056237341 -0.00075501495 0.022909798 -0.92335892 -0.32890949 -0.1980577 0.0016710571
-0.0073684226 0.0029723863 0.023336604 -0.90457261 -0.32762548 -0.27278203 0.0031276289
-0.0064449175 0.0012277088 0.022487063 -0.9214173 -0.30147201 -0.24516279 0.0035676488
-0.0082658129 0.0055517149 0.023260228 -0.89223433 -0.29109859 -0.34522381 0.0066108112
-0.008939188 0.0084354077 0.023154169 -0.89002568 -0.17594348 -0.42059267 0.0058715492
-0.010127832 0.011453845 0.024493292 -0.84530783 -0.095830806 -0.5256151 0.0020862024
-0.0090994956 0.011408592 0.022907048 -0.81782615 -0.0118627 -0.57534313 0.0013143999
-0.010121552 0.014433824 0.024215601 -0.79404002 0.014660251 -0.60768872 0.0024793395
-0.0089164544 0.014473647 0.022776291 -0.77811885 0.071753047 -0.62400526 0.0017839166
0.022130011 0.01459766 0.021824248 0.80116397 0.58006066 -0.14719316 0.0010454791
