# .PCD v0.7 - Point Cloud Data file format
VERSION 0.7
FIELDS x y z normal_x normal_y normal_z curvature
SIZE 4 4 4 4 4 4 4
TYPE F F F F F F F
COUNT 1 1 1 1 1 1 1
WIDTH 553
HEIGHT 1
VIEWPOINT 0 0 0 1 0 0 0
POINTS 553
DATA ascii
0.038448915 0.012795069 -0.032404151 0.31046209 -0.7842645 -0.53716153 0.0034063873
0.040840585 0.013792545 -0.031393737 0.59300518 -0.67175943 -0.4439415 0.0053734924
0.042636909 0.015120067 -0.030659378 0.69582373 -0.58908212 -0.41086689 0.0030150448
0.02098868 0.018380966 -0.029821217 -0.85471904 -0.39798766 -0.33325842 0.0097915968
0.022715526 0.016935496 -0.031363357 -0.75715292 -0.5159604 -0.40062988 0.0021195712
0.024506249 0.015781071 -0.032542367 -0.61508375 -0.64561844 -0.45260236 0.0014424706
0.041859064 0.015633371 -0.032592386 0.62343627 -0.60779023 -0.49185178 0.0030094159
0.043430734 0.016952602 -0.031352922 0.77840412 -0.48067838 -0.40377629 0.0024908339
0.020614803 0.02041216 -0.030902971 -0.88796794 -0.31584781 -0.33429506 0.0039739087
0.021537501 0.0193203 -0.03210213 -0.85015225 -0.38359073 -0.36069292 0.0034588559
0.0447331 0.019824039 -0.03151685 0.86672956 -0.31873164 -0.38365361 0.0012034156
0.045600113 0.021216813 -0.030356884 0.9169935 -0.20230302 -0.34379688 0.0024466969
0.020233579 0.023030682 -0.031505831 -0.95784193 -0.12099361 -0.26057506 0.0036398962
0.044918463 0.021975901 -0.032623798 0.90014762 -0.17425479 -0.39921117 0.0026627355
0.045625277 0.023272499 -0.031349324 0.94440007 -0.097982049 -0.31385988 0.0019519319
0.020262539 0.025873842 -0.031674936 -0.98069268 0.019804163 -0.19454981 0.0041185035
0.0457009 0.025767172 -0.031462755 0.95126158 0.030999206 -0.30682305 0.0036816604
0.02050063 0.028003167 -0.030847549 -0.98093802 0.091169089 -0.17160681 0.0022804516
0.045018487 0.029262153 -0.031685721 0.91097051 0.25757328 -0.32216263 0.0021510397
0.045497164 0.027971666 -0.031312753 0.92649221 0.18985844 -0.32490891 0.0062642316
0.044188317 0.031341225 -0.031241436 0.89484489 0.33444294 -0.29563576 0.0037636922
0.038862441 0.036261346 -0.031870037 0.56612134 0.7894038 -0.23737797 0.0075606573
0.040138684 0.035349529 -0.032278329 0.63582361 0.74498278 -0.20181438 0.005211053
0.029540205 0.0091877738 -0.027141601 -0.30364689 -0.81108207 -0.4999446 0.0016988214
0.031868365 0.0088748941 -0.027513253 -0.1541007 -0.84791607 -0.5072391 0.0031545893
0.034710407 0.0087818559 -0.027565461 0.072423339 -0.86389959 -0.49842983 0.0029094056
0.037151262 0.0090951063 -0.027324576 0.32821092 -0.82364279 -0.4624826 0.0040181968
0.024219131 0.012291427 -0.027148455 -0.55589777 -0.69442475 -0.45689371 0.0014142346
0.026044428 0.011598791 -0.028127382 -0.49077377 -0.72202522 -0.48766848 0.0021360265
0.028557224 0.01037265 -0.028350087 -0.33663017 -0.80117029 -0.49477896 0.0021885938
0.031480223 0.0098914364 -0.029038709 -0.13651121 -0.83251721 -0.53691691 0.0017780396
0.034692422 0.0098042404 -0.029234024 0.065276496 -0.8558982 -0.51300806 0.0028447458
0.037953399 0.010219103 -0.028641431 0.32455248 -0.8124159 -0.48440284 0.004431054
0.04041433 0.011353713 -0.028141966 0.55292052 -0.71897262 -0.42113811 0.0036924472
0.023066502 0.014178846 -0.028139303 -0.66738379 -0.59623331 -0.44621155 0.0027393219
0.025049528 0.012951708 -0.029097397 -0.50960916 -0.70909685 -0.48731935 0.0017235477
0.041592337 0.012942202 -0.029051404 0.67207175 -0.63052756 -0.38827118 0.0010271644
0.043156937 0.014208671 -0.028127035 0.74145514 -0.56357861 -0.36417502 0.0021125991
0.020726461 0.017385477 -0.028013648 -0.83113587 -0.42624441 -0.35711184 0.0036169011
0.021779707 0.016387824 -0.028960425 -0.78273809 -0.48564142 -0.38919598 0.0025669818
0.044565145 0.016715908 -0.028478349 0.85101682 -0.41683733 -0.31940114 0.001453152
0.045420773 0.018022086 -0.027912745 0.86206168 -0.39179099 -0.32148004 0.0014160321
0.01984469 0.019808199 -0.028139725 -0.91958082 -0.25199032 -0.30145001 0.0045181504
0.045917142 0.019969603 -0.028329283 0.93056256 -0.25559121 -0.26215726 0.0019000183
0.019496761 0.022849176 -0.028668104 -0.96488243 -0.081379063 -0.2497585 0.0053302464
0.046440959 0.022864735 -0.028417435 0.964688 -0.087781578 -0.24833722 0.001236609
0.019620258 0.025850117 -0.028368985 -0.98157173 0.070084713 -0.17777798 0.0050782901
0.046116229 0.027202185 -0.029656619 0.95823681 0.13803697 -0.25045571 0.0052691707
0.02008226 0.028090335 -0.027929649 -0.9716962 0.17549579 -0.15813807 0.0013610421
0.045761146 0.029020632 -0.028861701 0.95823687 0.13803083 -0.25045863 0.0052993912
0.026536273 0.0089643141 -0.024559438 -0.45180371 -0.74298316 -0.4938111 0.0015501421
0.028872119 0.0083065759 -0.025214864 -0.30976659 -0.81491637 -0.48985311 0.0025697893
0.031743299 0.007639504 -0.02538399 -0.11908836 -0.85705423 -0.50127429 0.0019454947
0.034769062 0.0074683484 -0.025248343 0.089417391 -0.87014878 -0.48460871 0.0032921375
0.037644163 0.0081925811 -0.025328567 0.3393375 -0.83465868 -0.43381444 0.0040608682
0.039861325 0.0090584466 -0.02485745 0.51058787 -0.75365132 -0.41389576 0.0021188431
0.023293536 0.011757476 -0.025059709 -0.62988603 -0.63054287 -0.45349678 0.0015760999
0.025354819 0.010413496 -0.025583679 -0.46803227 -0.73773128 -0.48651645 0.0013781682
0.027584994 0.0096455393 -0.026506394 -0.38700759 -0.77114445 -0.50553077 0.0035325729
0.041054446 0.010521929 -0.025845591 0.51507556 -0.74738699 -0.41965455 0.0020015098
0.042785306 0.011741943 -0.024931524 0.70498383 -0.62427759 -0.33656386 0.0016201787
0.020888269 0.014700092 -0.025093753 -0.76707399 -0.50949615 -0.3898862 0.0019255484
0.022125363 0.013458284 -0.025704196 -0.7268455 -0.54556531 -0.41719785 0.0015679894
0.044084083 0.013934784 -0.025491567 0.81762969 -0.49165571 -0.29959363 0.0024935929
0.019826271 0.016860368 -0.025281044 -0.84640628 -0.39860013 -0.35314921 0.0021369106
0.04516051 0.016319361 -0.026185453 0.8770588 -0.40449649 -0.25913408 0.0023931377
0.045729354 0.016809741 -0.025018675 0.89282292 -0.38433322 -0.2348516 0.0010779604
0.018894944 0.019836681 -0.025227308 -0.93772596 -0.14934129 -0.31363556 0.0037462239
0.046376731 0.019295665 -0.025900802 0.93354422 -0.26436064 -0.24209206 0.0017558599
0.018743668 0.023022687 -0.025521377 -0.97367799 0.031591509 -0.22572806 0.003098415
0.04700318 0.022572758 -0.025594464 0.96012169 -0.17758431 -0.2159401 0.0016834588
0.019038824 0.025884818 -0.025120765 -0.96316046 0.19560996 -0.18454999 0.0018822032
0.046960562 0.02477565 -0.02598238 0.9752984 -0.025820348 -0.21937723 0.0037859047
0.019738678 0.028262436 -0.024836382 -0.95741481 0.25049457 -0.14355998 0.0017818804
0.028981285 0.0059835091 -0.021462331 -0.2846159 -0.83229965 -0.47567961 0.0017916443
0.031683881 0.0057062851 -0.022009723 -0.095842466 -0.87644279 -0.47187117 0.0020361461
0.034756016 0.0057281135 -0.022057291 0.12004063 -0.88566697 -0.44853574 0.0031347822
0.037187655 0.0060125738 -0.021526987 0.37135434 -0.84263808 -0.38994476 0.004145612
0.023582658 0.0089604389 -0.021452466 -0.57648635 -0.6609984 -0.4803589 0.0012827831
0.025817188 0.0079872226 -0.022297435 -0.41762963 -0.7640667 -0.49171916 0.00084905926
0.028513351 0.007011231 -0.022876838 -0.29830426 -0.81532496 -0.49624556 0.0015022174
0.031574696 0.0065819062 -0.023521623 -0.11180495 -0.86878246 -0.48240712 0.002145072
0.03469735 0.0065801376 -0.023638871 0.09836866 -0.88084358 -0.4630748 0.0030025451
0.03800597 0.006978089 -0.022696534 0.36019012 -0.83639652 -0.41316336 0.0051520909
0.04050805 0.0083159534 -0.022257781 0.56273413 -0.75414991 -0.33850899 0.0034368041
0.020784166 0.011931176 -0.021488627 -0.70605636 -0.55408531 -0.44099191 0.0017516179
0.022432934 0.010834105 -0.022524457 -0.66816187 -0.59822559 -0.44236392 0.0014808879
0.02441881 0.0097132577 -0.023513108 -0.56306887 -0.66890228 -0.48530743 0.0016156558
0.041734248 0.0098667601 -0.023314575 0.71030933 -0.63749725 -0.29842576 0.0017246468
0.043257616 0.011043837 -0.022000726 0.77155071 -0.57925224 -0.26301402 0.0033353858
0.019889925 0.013948888 -0.022214672 -0.80308527 -0.44122592 -0.40046686 0.0036505917
0.021288149 0.012844781 -0.023501813 -0.72764462 -0.53764004 -0.42600051 0.0051675071
0.044596411 0.013455953 -0.023047129 0.84614611 -0.48107556 -0.22935346 0.00085141521
0.045507994 0.015103038 -0.02289325 0.8805117 -0.4284806 -0.20274024 0.0020482347
0.018139277 0.017751845 -0.021684134 -0.91312301 -0.25811854 -0.31556481 0.0035400474
0.018865358 0.01652227 -0.022586649 -0.87894857 -0.30794522 -0.36416918 0.0025590442
0.04620523 0.016680624 -0.022658855 0.89798093 -0.3909516 -0.20195809 0.0011624722
0.017982196 0.020060878 -0.022245949 -0.96363068 -0.073205985 -0.25701538 0.0026084497
0.018596495 0.01865172 -0.023689866 -0.94215786 -0.13992256 -0.30456567 0.0026677328
0.046778474 0.019104328 -0.02356863 0.93147159 -0.28485769 -0.22631125 0.0019984106
0.018002203 0.022875626 -0.022253906 -0.97105014 0.085266374 -0.22313949 0.0021931902
0.018222073 0.024795126 -0.021865457 -0.95074302 0.25968176 -0.16927199 0.0022427721
0.018653847 0.026191231 -0.022278517 -0.95240569 0.25591493 -0.16562292 0.0023933791
0.019392829 0.028121518 -0.022486558 -0.94948214 0.2833904 -0.13480932 0.0014110849
0.025874404 0.0057023354 -0.018823737 -0.41278797 -0.76444429 -0.49520802 0.0019606187
0.028668107 0.0048523378 -0.019329747 -0.27653003 -0.8202346 -0.50074577 0.0017188118
0.031777222 0.0041943109 -0.019271383 -0.048104677 -0.88641876 -0.46037787 0.0024440386
0.034602158 0.0042429594 -0.019157214 0.15603279 -0.88562804 -0.43739763 0.0035067454
0.037656844 0.0052414518 -0.019323336 0.39232355 -0.83970267 -0.37547508 0.0037077277
0.039795406 0.0060554352 -0.018382004 0.57401949 -0.76076812 -0.30287528 0.0029463002
0.020930344 0.0092270281 -0.018307397 -0.65286332 -0.5778001 -0.48981273 0.00083945028
0.022893539 0.0080025345 -0.019182675 -0.56612778 -0.65044689 -0.50637752 0.0026811194
0.025256522 0.0068837442 -0.020112813 -0.43160665 -0.75180364 -0.49850476 0.0015097429
0.04089047 0.0074688634 -0.019585555 0.63641202 -0.70558262 -0.3116616 0.0049276827
0.042492703 0.0089030666 -0.019354865 0.73988777 -0.62602544 -0.24628873 0.0021410699
0.020079188 0.010990956 -0.019138066 -0.69805545 -0.5415678 -0.46842608 0.0018803605
0.021596635 0.0099392589 -0.020162443 -0.6529249 -0.59727722 -0.46577781 0.00053059938
0.043788478 0.010796901 -0.01949805 0.80138999 -0.56312019 -0.20166746 0.0021517014
0.017755333 0.014733396 -0.018424451 -0.86955196 -0.30784234 -0.38615078 0.0015260073
0.01876585 0.013515556 -0.01953998 -0.82529116 -0.38794911 -0.41035351 0.0018480883
0.044883814 0.012942399 -0.020264655 0.84361899 -0.49814925 -0.2003853 0.0010367504
0.045348048 0.013848197 -0.020136148 0.86208493 -0.46864304 -0.19282977 0.00067309616
0.017445643 0.017088786 -0.019284554 -0.93071961 -0.19095805 -0.31192288 0.0032643857
0.018273288 0.015860867 -0.020580232 -0.90874827 -0.24982491 -0.33431137 0.0040239091
0.017189903 0.019969679 -0.019418368 -0.96182686 -0.027623652 -0.27226096 0.0040464681
0.017345987 0.022800302 -0.019088699 -0.96608126 0.1623859 -0.20079298 0.0024480608
0.01787951 0.025182735 -0.01911802 -0.94469053 0.29511926 -0.14305395 0.0020718777
0.018455625 0.026647698 -0.019780507 -0.94003576 0.31900033 -0.12071267 0.0012586027
0.019413995 0.028722549 -0.020236909 -0.92844075 0.35254124 -0.11710069 0.00045329562
0.026607607 0.0029658035 -0.015223766 -0.31782094 -0.78975904 -0.52466238 0.0018121273
0.028937919 0.0027108171 -0.015873408 -0.17906521 -0.8549661 -0.48679414 0.0018890202
0.031715371 0.0025721469 -0.016215773 0.0055204807 -0.89397752 -0.44807792 0.0022109323
0.034606673 0.0027479839 -0.016016819 0.19656914 -0.89098293 -0.40927976 0.0039518676
0.036718894 0.003055732 -0.01543501 0.42402858 -0.82602954 -0.37131536 0.004128512
0.021084048 0.0061022099 -0.014962763 -0.52889496 -0.64748132 -0.54866934 0.0011919015
0.023026135 0.0054605817 -0.016043331 -0.49995589 -0.67636967 -0.54089564 0.0013103499
0.025550492 0.0042988323 -0.016506448 -0.35328004 -0.7766453 -0.52155089 0.0013535337
0.028574867 0.0036339902 -0.017276201 -0.22668378 -0.83505744 -0.50129187 0.0018845419
0.035434905 0.0034981885 -0.017233983 0.19824435 -0.88980973 -0.41102049 0.0039577996
0.037830822 0.0040992424 -0.016381331 0.44669211 -0.83525616 -0.32064503 0.0035785204
0.039903328 0.0055047078 -0.0165259 0.58113557 -0.76801497 -0.2691364 0.0021590851
0.020045105 0.0082064914 -0.016086694 -0.63694155 -0.56274819 -0.52689648 0.0025483565
0.022041151 0.0071312264 -0.017190158 -0.54287368 -0.65693462 -0.52318746 0.0010120209
0.041618671 0.0071400059 -0.016662737 0.67511827 -0.71237868 -0.19165553 0.0031297235
0.042989731 0.0088079376 -0.016587704 0.76848024 -0.61159712 -0.1881146 0.0034269174
0.017654568 0.011257142 -0.01567678 -0.77414483 -0.39950478 -0.4910149 0.0022638412
0.018842284 0.010709587 -0.016937362 -0.74813831 -0.44085535 -0.49591902 0.0019451716
0.017007889 0.013884712 -0.016294049 -0.86551881 -0.26484233 -0.42513016 0.0033285518
0.045230135 0.012588988 -0.016915053 0.83340788 -0.527601 -0.16452494 0.00069061515
0.016292609 0.01690058 -0.016145542 -0.92866987 -0.084141709 -0.36123726 0.0038909183
0.016390799 0.019882414 -0.016435955 -0.95469326 0.083351336 -0.28568041 0.0034154463
0.016775897 0.022923447 -0.016271425 -0.95151991 0.23669471 -0.19643174 0.0028188364
0.017612919 0.025658526 -0.016203871 -0.93340325 0.32724372 -0.14720729 0.00099740224
0.018397301 0.027095299 -0.017468244 -0.93747014 0.3237212 -0.12788412 0.0010411624
0.018869558 0.028184179 -0.017000943 -0.92876023 0.35236582 -0.11507743 0.00032618921
0.029657399 0.00031966064 -0.011862178 -0.1073933 -0.87061113 -0.48010719 0.0022528942
0.030580459 0.00031964062 -0.011812896 0.11116574 -0.89622688 -0.42944098 0.0029310333
0.023125796 0.0026723163 -0.012564067 -0.41902131 -0.70845616 -0.56790048 0.0016370631
0.025757706 0.0019939456 -0.013232971 -0.31527343 -0.78037822 -0.54001153 0.0018460188
0.028581774 0.0013497751 -0.01340806 -0.14522626 -0.85481781 -0.49819261 0.0009521438
0.031763077 0.0012578438 -0.013619331 0.074670427 -0.89429051 -0.44121274 0.0042352583
0.034665778 0.001579413 -0.013243755 0.25199336 -0.90104568 -0.35300997 0.0051993625
0.037257873 0.0026622133 -0.013241112 0.48133251 -0.8304525 -0.28047737 0.004796938
0.018155949 0.0060661165 -0.011988282 -0.61756563 -0.51921618 -0.59078521 0.00045061603
0.019906221 0.005283325 -0.012890657 -0.53896815 -0.59681267 -0.59441394 0.0024599172
0.022286629 0.0041807191 -0.013759661 -0.44582725 -0.70166808 -0.55578762 0.0012667215
0.024448015 0.0035175488 -0.014664233 -0.37903157 -0.73227102 -0.56578636 0.0025756324
0.038680121 0.0036761125 -0.013863742 0.5483672 -0.8012808 -0.23925431 0.0041109333
0.040450606 0.0053464957 -0.014520252 0.65612978 -0.7303068 -0.19012024 0.0033243375
0.017467625 0.0082309814 -0.012964249 -0.68178827 -0.46037316 -0.56852555 0.0017603985
0.018956054 0.0073737726 -0.013968512 -0.66454941 -0.49390936 -0.5607385 0.0021535377
0.041835256 0.0067197783 -0.014377713 0.67933553 -0.70497781 -0.20373863 0.0030377342
0.042881232 0.0078860922 -0.01301375 0.70688444 -0.6835115 -0.18200649 0.0010278224
0.014939303 0.012273843 -0.011942238 -0.83621109 -0.17795688 -0.51873147 0.001783176
0.016318027 0.01083093 -0.013261241 -0.80136549 -0.30138612 -0.51670086 0.0023390176
0.014824597 0.014252927 -0.012342502 -0.8724519 -0.12798752 -0.47164273 0.0044217487
0.015686696 0.013888907 -0.013862219 -0.85584474 -0.18666974 -0.48237357 0.0028549889
0.014770225 0.016698483 -0.012447304 -0.92597955 0.05320644 -0.37380612 0.0030641609
0.015398165 0.016857905 -0.013989904 -0.91538304 -0.026366603 -0.40171984 0.0035200322
0.014935549 0.019395217 -0.012062401 -0.93686372 0.20476899 -0.28347129 0.0022945739
0.015573345 0.020012986 -0.013624681 -0.94665968 0.14011861 -0.29017633 0.0025690219
0.016228944 0.023103157 -0.013201294 -0.93315798 0.29321077 -0.20795119 0.0032656032
0.017416276 0.025983009 -0.013335109 -0.91375983 0.379453 -0.14511536 0.00069548684
0.023231465 0.00020391843 -0.0093276426 -0.31875893 -0.77196079 -0.549972 0.0018676078
0.025831524 -0.00018902053 -0.0099794241 -0.18050404 -0.83913416 -0.51310056 0.002035745
0.028665153 -0.00043133646 -0.010280039 -0.0488679 -0.8888436 -0.45559722 0.003314981
0.031719632 -0.00030445657 -0.010322948 0.15782575 -0.91347414 -0.37504125 0.0020567437
0.03423316 0.00014619878 -0.0099026747 0.32318977 -0.89274806 -0.3139255 0.0053671789
0.017812144 0.0030978725 -0.00891307 -0.5409379 -0.56204116 -0.62569624 0.002065988
0.01996273 0.0023448986 -0.0098318644 -0.452263 -0.65301412 -0.60747904 0.0020126642
0.022570562 0.0014718848 -0.010651776 -0.38019279 -0.73249745 -0.56471312 0.0016100453
0.025179198 0.00087209512 -0.011342692 -0.22760078 -0.80999893 -0.54046243 0.0016328134
0.035319556 0.00093393866 -0.011014675 0.29011577 -0.89383268 -0.3419005 0.0046467264
0.037658498 0.0020499534 -0.010366321 0.48916799 -0.83408958 -0.25496894 0.0018964481
0.015035873 0.0063400073 -0.0088502467 -0.64849555 -0.44572586 -0.61707532 0.0017040613
0.017030602 0.0051616905 -0.010019233 -0.60545397 -0.51767182 -0.60451746 0.0029355194
0.019246791 0.0039727585 -0.011001085 -0.50097358 -0.6261723 -0.59743929 0.0011649299
0.040058605 0.0042336946 -0.011254415 0.6457777 -0.73918587 -0.19124694 0.0028124349
0.014613422 0.0081485836 -0.0095369518 -0.72073466 -0.35496894 -0.59543151 0.0032321995
0.01605407 0.0076703159 -0.010911949 -0.7048524 -0.39147088 -0.59155196 0.0017914347
0.01412876 0.010981831 -0.010205774 -0.81883395 -0.22137862 -0.52962482 0.0031867018
0.015410662 0.0099828998 -0.011583756 -0.78588057 -0.26883885 -0.55688184 0.0028399071
0.013769401 0.013847597 -0.01042201 -0.86035782 -0.092606217 -0.50120711 0.0036157172
0.013870226 0.016936898 -0.010252639 -0.91782993 0.13025016 -0.37499765 0.0030340287
0.014393356 0.019857001 -0.01006852 -0.91472477 0.2622644 -0.30740204 0.0027304697
0.015010998 0.022045778 -0.0096467435 -0.89627802 0.38679457 -0.21696942 0.0031293856
0.015645457 0.023192681 -0.010437638 -0.91221356 0.36348963 -0.18905497 0.0026190483
0.017057069 0.025918366 -0.01058792 -0.89714956 0.41223076 -0.15870862 0.0010034319
0.017689474 0.00031964062 -0.0059813266 -0.44154143 -0.6526531 -0.61569887 0.0010296158
0.020023271 -0.0003207142 -0.006813888 -0.36756212 -0.71522623 -0.594432 0.0012283301
0.022706704 -0.0010239497 -0.007366383 -0.29017538 -0.77337879 -0.56363428 0.0012743328
0.025671717 -0.0017561037 -0.0073477142 -0.11890514 -0.86229181 -0.49225447 0.0020386314
0.028801179 -0.0020054383 -0.0072073909 0.049542226 -0.90276152 -0.42727891 0.0032359164
0.031713661 -0.0015397466 -0.0073428373 0.22644717 -0.90522945 -0.35955721 0.0045787548
0.034452572 -0.00061059766 -0.0072602467 0.37708417 -0.88189673 -0.28295872 0.0018473985
0.036541827 0.00031964062 -0.0063362424 0.4115186 -0.87600738 -0.25152227 0.00051800505
0.014809845 0.0028050172 -0.0061361943 -0.55747443 -0.54083288 -0.62985873 0.0015949971
0.016809635 0.0020702227 -0.0071201031 -0.51305389 -0.5903241 -0.62313163 0.0031167059
0.019148331 0.0012762165 -0.0080706086 -0.40848014 -0.68908042 -0.59859186 0.0010114562
0.03685727 0.00093801413 -0.0081747174 0.49472645 -0.8312332 -0.2535688 0.0015672104
0.013981367 0.0051768459 -0.0070054661 -0.65308028 -0.4170841 -0.63208151 0.0032736715
0.01594096 0.0041561322 -0.0082158037 -0.56212658 -0.53689343 -0.62909389 0.0018452437
0.011782242 0.0083984667 -0.0060718958 -0.76847744 -0.24170308 -0.59247112 0.0022487775
0.013130795 0.0078715039 -0.0075747408 -0.75167346 -0.28020987 -0.59705061 0.0012736382
0.011615152 0.011027241 -0.0065720873 -0.83891791 -0.071075626 -0.53959709 0.0029946754
0.01263299 0.01082831 -0.0079944376 -0.81442386 -0.13903667 -0.56336719 0.0026072958
0.011661233 0.0138669 -0.0065929894 -0.88003832 0.09869919 -0.46453312 0.0028758703
0.01250696 0.014004506 -0.0081232684 -0.87025726 0.029570334 -0.49170911 0.0032392812
0.011861316 0.016169228 -0.0060148342 -0.87921041 0.26251012 -0.39758945 0.0020177795
0.012700594 0.0171268 -0.0074796663 -0.89928931 0.20570429 -0.38595918 0.0035877938
0.013478823 0.020025525 -0.0071567348 -0.89528829 0.33101422 -0.29814184 0.0029774162
0.014621459 0.022516815 -0.0072302748 -0.87927812 0.42177483 -0.22130492 0.0015197819
0.015538868 0.024005841 -0.0076157753 -0.87637699 0.46085832 -0.13990368 0.0051103225
0.016249469 0.025307357 -0.007184953 -0.86020195 0.4969469 -0.11443938 0.0023595043
0.020102009 -0.0030982471 -0.0032730489 -0.2720522 -0.76571316 -0.58281296 0.0019369152
0.022758488 -0.0034054888 -0.0038356457 -0.14479434 -0.83983713 -0.52317131 0.0020243323
0.025700931 -0.0034239483 -0.0044273939 -0.041762304 -0.87862796 -0.47567725 0.0036517039
0.028594429 -0.0033470527 -0.0042978926 0.11959005 -0.91030228 -0.39629284 0.0033617995
0.031122817 -0.0029599757 -0.0038246417 0.31858402 -0.898022 -0.30341512 0.0041202866
0.014738023 -0.00014961907 -0.003364763 -0.50841081 -0.58696747 -0.63006961 0.0016461839
0.01692389 -0.00089591905 -0.0041372473 -0.4211579 -0.67339587 -0.60758871 0.0021888854
0.019510195 -0.0017852043 -0.0046870392 -0.31527424 -0.75068974 -0.58057475 0.00094950222
0.022460796 -0.0023781518 -0.0053133173 -0.21480341 -0.81133044 -0.54369336 0.0012046695
0.031844977 -0.0023505175 -0.0049893563 0.30172843 -0.90888172 -0.28791323 0.0042283102
0.034811575 -0.0010841468 -0.0045864033 0.40934852 -0.8788138 -0.24519405 0.00057202723
0.01174169 0.0027596664 -0.0031383219 -0.59377396 -0.44623187 -0.6695593 0.0020862208
0.013649415 0.0018745863 -0.0042880042 -0.58583254 -0.49411765 -0.64237678 0.0019048186
0.01598358 0.00097311917 -0.0054052775 -0.4914355 -0.59973717 -0.63151133 0.00028288749
0.011113527 0.0051435605 -0.0039338563 -0.68491071 -0.33981675 -0.6445322 0.001501671
0.012776366 0.0042505879 -0.0051676463 -0.66310203 -0.38729528 -0.64054501 0.0013609126
0.010512537 0.0079638204 -0.0042855488 -0.78967267 -0.18891579 -0.58371902 0.0032928372
0.010286793 0.010909913 -0.0045114355 -0.84937036 0.026474819 -0.52713281 0.0038026285
0.010496766 0.013891377 -0.0043117874 -0.88627499 0.16410646 -0.4331117 0.0030504502
0.01127648 0.016823156 -0.0043365704 -0.88176548 0.3067247 -0.35834274 0.0021307629
0.011805623 0.018961143 -0.0034112188 -0.86617523 0.38866553 -0.31413317 0.0019538337
0.012691996 0.020107256 -0.0045089875 -0.88053566 0.37138551 -0.29449916 0.0019519306
0.014172999 0.022847626 -0.0043590032 -0.82861656 0.53758317 -0.15620163 0.0032334675
0.016617991 0.026121866 -0.0032561424 -0.81272775 0.56493682 -0.14254832 0.0015132884
0.023356155 -0.0058271927 0.00018195284 -0.048534453 -0.87710792 -0.47783485 0.0018180384
0.014282908 -0.0031450109 -0.00017814366 -0.38000506 -0.64150172 -0.66638714 0.0018080411
0.016866786 -0.003723911 -0.00090845599 -0.31853893 -0.70929056 -0.62884003 0.0015262093
0.01970242 -0.0043409662 -0.001358634 -0.17977183 -0.81286979 -0.55400789 0.001254037
0.022665624 -0.0047946717 -0.0015265305 -0.08354038 -0.87066174 -0.48473626 0.0024680591
0.025778932 -0.0048875995 -0.0014613838 0.079459652 -0.91542077 -0.39457703 0.004361582
0.028697575 -0.0044709258 -0.0013736439 0.23687059 -0.91446108 -0.32810557 0.0050988547
0.031285942 -0.0036069942 -0.0014105343 0.35724285 -0.89925086 -0.25243911 0.0020495718
0.01120534 -0.00046767876 -0.00047373516 -0.50280511 -0.51240313 -0.69615382 0.002468819
0.01355166 -0.0012515871 -0.00147197 -0.41866097 -0.61509746 -0.66811532 0.0011954778
0.016044855 -0.0022203636 -0.0021335634 -0.34300748 -0.69213247 -0.63505787 0.0011216793
0.033099312 -0.0025006575 -0.0024006071 0.35015544 -0.9028995 -0.24932659 0.0019048334
0.033894535 -0.0022733402 -0.0011730792 0.35724381 -0.89925075 -0.25243804 0.002049149
0.0088194143 0.0024233887 -0.0002864846 -0.63210529 -0.33134231 -0.70046782 0.0023371661
0.010630096 0.001838533 -0.0015094773 -0.64269465 -0.39449143 -0.65674967 0.0014577921
0.012648327 0.00078954129 -0.0025429728 -0.54847068 -0.5106945 -0.66209596 0.00058803038
0.0083885221 0.0051670102 -0.00082293287 -0.71885771 -0.19672878 -0.66673928 0.0036179698
0.0098345447 0.0046688234 -0.0022450613 -0.70774525 -0.26434183 -0.65514886 0.0023310501
0.0082024364 0.0080957673 -0.0012546144 -0.80688506 -0.055284332 -0.58811569 0.0047175414
0.00846483 0.010865812 -0.001531193 -0.85226882 0.11362905 -0.51061362 0.004110679
0.0087983832 0.013733337 -0.0008957985 -0.86221397 0.26642102 -0.43082109 0.0030896193
0.0096781459 0.014583874 -0.0022287918 -0.87965626 0.2144396 -0.42452401 0.0018381166
0.0091684423 0.015917595 2.5391302e-05 -0.85163283 0.41192991 -0.32409132 0.0018588458
0.010253801 0.017078545 -0.0013999941 -0.86676615 0.39885896 -0.29937941 0.0021578486
0.011349333 0.019545736 -0.0010674763 -0.83283216 0.49621907 -0.24526989 0.0028679592
0.012659682 0.02125163 -0.0020913633 -0.82487184 0.52967858 -0.19755282 0.0017582555
0.013663236 0.022953101 -0.0010205723 -0.79953414 0.5739466 -0.17700402 0.00069662358
0.015711719 0.025240369 -0.0022548637 -0.81272686 0.56493813 -0.14254805 0.0015136565
0.014178311 -0.0060007609 0.0028666086 -0.26593933 -0.70833194 -0.65386701 0.0018181055
0.01693128 -0.0062811309 0.0022203308 -0.18233417 -0.78264403 -0.59516609 0.0024965527
0.019930573 -0.0065325182 0.0018494179 -0.081883058 -0.84938246 -0.52138716 0.0027240664
0.02248239 -0.0065609878 0.0016972867 0.013262047 -0.88245523 -0.47020951 0.0053289579
0.025526164 -0.0062020002 0.0015030911 0.17328054 -0.90710229 -0.38358736 0.0036772655
0.028230647 -0.0058610132 0.002597898 0.32760924 -0.90026492 -0.28669721 0.003677093
0.0086817741 -0.0028319997 0.002851486 -0.47899339 -0.47780719 -0.7363869 0.0014162633
0.010960188 -0.0037932093 0.0022956489 -0.37029928 -0.61403477 -0.69702208 0.0012865124
0.013571322 -0.0043918886 0.0014611232 -0.33409122 -0.66207886 -0.67084616 0.0027647382
0.016421078 -0.0050588003 0.00085334666 -0.24618894 -0.74667662 -0.61795229 0.0018492814
0.018869754 -0.0053561893 0.00032350392 -0.14882228 -0.82272989 -0.54860502 0.0016852942
0.028850136 -0.0052080792 0.0010834532 0.30550671 -0.91465759 -0.26470184 0.0040873378
0.031813655 -0.0039511514 0.0017086265 0.40361097 -0.8906582 -0.20934701 0.00060894771
0.0058889166 0.00031965552 0.0030306277 -0.54638052 -0.27440348 -0.79130971 0.0040460918
0.0079453448 -0.0007590137 0.002105409 -0.53725076 -0.39301619 -0.74625731 0.0018989701
0.010504471 -0.0016499008 0.00090246578 -0.44908991 -0.5403803 -0.71155286 0.0018329583
0.012482705 -0.0025177938 0.00025168032 -0.42104152 -0.58791727 -0.69070792 0.00048896513
0.005546839 0.0021202124 0.0028094626 -0.63412815 -0.22344312 -0.74023962 0.0033178122
0.0073850667 0.0018180425 0.0013046734 -0.64425826 -0.26005158 -0.71923882 0.0021133991
0.0054073017 0.0048341611 0.0024092244 -0.71619731 -0.052741408 -0.69590217 0.0049759126
0.0068400446 0.0047812937 0.00089978828 -0.71732259 -0.13132177 -0.68425357 0.0027903509
0.0054861195 0.0077642985 0.0023657412 -0.77778721 0.12401127 -0.61617219 0.0047293622
0.0065609021 0.008007694 0.00095356168 -0.80176681 0.0304143 -0.59686255 0.0040758965
0.0057920543 0.010405071 0.0028602956 -0.82334179 0.28295234 -0.49198201 0.0024698491
0.0068708127 0.011051223 0.0014129984 -0.84596169 0.22766474 -0.48220068 0.0043630889
0.0075623281 0.013763158 0.0017216104 -0.84819347 0.34273195 -0.40385967 0.0029743924
0.0088319127 0.016618744 0.0019343791 -0.83232427 0.46575755 -0.30051011 0.0031345107
0.0097813215 0.017974559 0.0012192575 -0.83161938 0.50254488 -0.23634273 0.0024320525
0.011013058 0.020004304 0.0015752909 -0.82363451 0.53078574 -0.19973157 0.0012481407
0.012072388 0.021728586 0.0028933582 -0.81138766 0.55180287 -0.19277865 0.00054344535
0.012981236 0.022597115 0.0012655057 -0.80204755 0.5749439 -0.16173831 0.00031169364
0.014542008 -0.008783672 0.0060207043 -0.13586134 -0.7772457 -0.61435395 0.0018485852
0.01668895 -0.0087781698 0.0057518976 -0.044741809 -0.83138233 -0.55389678 0.0022450478
0.019561106 -0.0087776156 0.0057244347 0.048691589 -0.87829363 -0.4756358 0.002255575
0.021254083 -0.0087856548 0.0061174328 0.14931573 -0.91522253 -0.37426275 0.0050763348
0.0078301653 -0.0062814718 0.0057464493 -0.34148225 -0.56670809 -0.74982119 0.0018446894
0.010825654 -0.0068800328 0.0050628181 -0.28914437 -0.64282626 -0.70934469 0.0014404097
0.013675729 -0.0073384875 0.00454449 -0.20553598 -0.74113154 -0.63912368 0.0018796824
0.016542442 -0.007698128 0.0042463625 -0.097018734 -0.80402255 -0.58663028 0.0015162616
0.019590834 -0.0079424335 0.0042439601 -0.022134487 -0.86531287 -0.50074315 0.0018458104
0.022922233 -0.0078665586 0.0045080371 0.15349126 -0.89653009 -0.41554096 0.0039159707
0.025626943 -0.0072739162 0.0045672888 0.27305967 -0.91688645 -0.29113171 0.0061645657
0.02806522 -0.0063664597 0.0045967572 0.36477241 -0.90568525 -0.21604456 0.0020659054
0.0030435438 -0.0025558514 0.0061374898 -0.51735991 -0.2512075 -0.81806695 0.0027346606
0.004971236 -0.0036369851 0.0055005932 -0.44279811 -0.41506162 -0.79476643 0.0026896347
0.0076359771 -0.0041986024 0.0043729474 -0.38340789 -0.52251548 -0.76156151 0.0017706749
0.010395382 -0.0051343385 0.0036362407 -0.32466742 -0.61977524 -0.71447164 0.0017333607
0.02970829 -0.005396117 0.0034126935 0.35962698 -0.90792489 -0.21526921 0.0018731003
0.030709324 -0.0049285335 0.0041494961 0.39109549 -0.89950305 -0.19477816 0.00078026979
0.0026591814 -0.00073409779 0.0058001317 -0.55359191 -0.22139587 -0.80281991 0.0024723595
0.0046739969 -0.00090855686 0.0044451598 -0.57699704 -0.26089475 -0.77395624 0.0020595298
0.0065603973 -0.0016813648 0.0035013615 -0.54213023 -0.3524031 -0.76282829 0.0031360586
0.0023884678 0.002081644 0.0055252053 -0.63740754 -0.073632382 -0.76700062 0.0036186634
0.0041637123 0.001902214 0.0040374626 -0.64367574 -0.12954247 -0.75425476 0.0020057487
0.002511916 0.0048021758 0.0054090675 -0.7355296 0.10576864 -0.66918552 0.0047493852
0.0039893668 0.0048491359 0.0038482891 -0.73309463 0.018402481 -0.67987764 0.0036736212
0.0028623969 0.007321476 0.0056649814 -0.76937908 0.25529635 -0.58555913 0.0024344691
0.004111344 0.0080774445 0.0043935548 -0.78265053 0.17249086 -0.59808445 0.0028872446
0.0049037812 0.011058079 0.0047667604 -0.8064779 0.34520203 -0.48003018 0.0033788399
0.005637031 0.013234599 0.0052765687 -0.813434 0.42026472 -0.40212288 0.0026479454
0.0067138467 0.014452014 0.0044444706 -0.83554393 0.42928636 -0.34289879 0.0026565022
0.0079844752 0.016728366 0.0046029682 -0.81158292 0.50672203 -0.29080224 0.0016983205
0.008795511 0.018533584 0.0061988528 -0.7657457 0.60791719 -0.20992896 0.004142168
0.010316508 0.019890206 0.0043708007 -0.803258 0.56319779 -0.19386819 0.00056662079
0.0049808994 -0.0090028094 0.0088724326 -0.25521463 -0.5830918 -0.77127779 0.0016313684
0.0077302065 -0.00945279 0.0084307631 -0.20008302 -0.66013175 -0.72401166 0.0020342944
0.010838482 -0.0096961241 0.0079406584 -0.12050669 -0.72696555 -0.67601717 0.0019524965
0.013789127 -0.0098877046 0.00768715 -0.03425299 -0.81816506 -0.57396233 0.0018751423
0.016701877 -0.0099895122 0.0076756501 0.045150027 -0.86741734 -0.4955287 0.002655678
0.019569561 -0.0097519448 0.0076824841 0.14366856 -0.90080452 -0.409769 0.0037452963
0.02236216 -0.0091774771 0.0076147933 0.21931773 -0.92334843 -0.31516242 0.0017690527
0.024250334 -0.0088345455 0.0085056722 0.35375553 -0.89604557 -0.26825246 0.0047121104
0.00015845313 -0.0061934562 0.0091094524 -0.40915889 -0.38546357 -0.82704705 0.0020942271
0.0020502789 -0.0068162577 0.0085778721 -0.36158693 -0.43064973 -0.82691944 0.0027801532
0.0047309427 -0.0071351342 0.0076629566 -0.30065265 -0.53283733 -0.79100716 0.0012983513
0.007454644 -0.0076469304 0.0069748755 -0.24889617 -0.62053806 -0.74362832 0.001451542
0.010034724 -0.0081780497 0.0065628458 -0.20148067 -0.69584441 -0.68935192 0.0017262
0.024144266 -0.0083120959 0.0064102705 0.27403376 -0.91940999 -0.28211823 0.0072093792
0.025720293 -0.0079428032 0.0071784551 0.35459423 -0.90919924 -0.21821921 0.00367417
0.028090177 -0.0069033699 0.0082601309 0.41144767 -0.8952173 -0.17116299 0.00068616791
-0.00059025176 -0.0037864514 0.0086762374 -0.47219455 -0.23980118 -0.84824973 0.0027352481
0.0018160392 -0.0040421262 0.0074399416 -0.49414203 -0.28334865 -0.82191068 0.0019435425
0.0040842528 -0.0048775822 0.0065833102 -0.39928609 -0.41469344 -0.81767964 0.0038375582
-0.00084962696 -0.00086120551 0.0083282832 -0.58567351 -0.09576112 -0.80487037 0.0039089173
0.001262577 -0.00098330178 0.0068337601 -0.58077395 -0.14963518 -0.80019432 0.0019755282
-0.00073338044 0.001935866 0.0081582386 -0.66675252 0.085721374 -0.74033296 0.0047464678
0.00098866108 0.001862142 0.0066954596 -0.6594975 0.001539405 -0.75170511 0.0031771807
-0.00037512672 0.0046823621 0.0084572006 -0.71637219 0.25069043 -0.65112615 0.0034073873
0.0010970647 0.0049520396 0.0069787796 -0.72751665 0.17309819 -0.66389489 0.003766506
0.00015884498 0.0068310155 0.0089881569 -0.74537569 0.36067751 -0.56064856 0.0013937149
0.0017207765 0.0079969885 0.0076368796 -0.75013036 0.31567121 -0.58108187 0.0015134008
0.0025312055 0.010541822 0.0082000084 -0.76101536 0.44161883 -0.47521406 0.0031590008
0.0037669011 0.01146274 0.0070861126 -0.78805488 0.4173834 -0.45250466 0.004645397
0.0049129808 0.013942296 0.0079106484 -0.77442437 0.53895289 -0.33135587 0.0012348385
0.0059399642 0.015730005 0.008297056 -0.76225489 0.58508813 -0.27683792 0.002468162
0.0072318213 0.017054319 0.0076406323 -0.76353151 0.59734166 -0.24536237 0.0020271135
0.0085937716 0.018873964 0.008628577 -0.7327224 0.65870088 -0.17097081 0.0016356724
0.0093144542 0.019591268 0.0084985197 -0.73272467 0.65869856 -0.17097057 0.0016368134
0.00014861929 -0.01182354 0.01215291 -0.20768523 -0.56002551 -0.80202138 0.0029680538
0.0020911184 -0.011978828 0.011908929 -0.17043339 -0.59551054 -0.78506035 0.0020237782
0.004830149 -0.012264838 0.01157508 -0.12272582 -0.67024696 -0.73192036 0.0019102895
0.0076652151 -0.012284659 0.011261493 -0.065019444 -0.73122317 -0.67903256 0.0024834392
0.010569771 -0.012278859 0.011050094 0.0050845053 -0.80127728 -0.59827155 0.0029538546
0.013593351 -0.012229638 0.011112842 0.084455207 -0.85374546 -0.51379567 0.0027014355
0.016640102 -0.011966484 0.011451397 0.19689399 -0.89329857 -0.4040426 0.0033992231
0.018606966 -0.011824031 0.012172312 0.2948395 -0.91637951 -0.27077317 0.0028765441
-0.0033702084 -0.0094299596 0.011895885 -0.32333919 -0.37057728 -0.87070328 0.002752186
-0.00095546758 -0.0099703213 0.01140116 -0.2517972 -0.47957748 -0.84059721 0.001209819
0.0018473489 -0.010088411 0.010594348 -0.22208139 -0.54824221 -0.80629426 0.0013256064
0.0046676788 -0.010425262 0.010076334 -0.20070855 -0.60449988 -0.77090591 0.00229635
0.0075012771 -0.010891777 0.0098441998 -0.1338059 -0.7023949 -0.69909745 0.0017151356
0.010492912 -0.011127493 0.0096191708 -0.07087256 -0.75650358 -0.65013802 0.0018802707
0.013923395 -0.011273354 0.0096599013 0.012347459 -0.83624667 -0.54821432 0.0024013491
0.017005723 -0.011212926 0.0099901604 0.098014876 -0.88599777 -0.45321193 0.0024307268
0.019657774 -0.010908461 0.010510487 0.25971657 -0.89740622 -0.3566643 0.0043276581
0.022499252 -0.010006713 0.010575478 0.33317807 -0.90636897 -0.25978383 0.0030223466
0.024769561 -0.0088493275 0.0092296898 0.35120261 -0.90598142 -0.23633556 0.0040992713
-0.0061653163 -0.0062372508 0.012123227 -0.40333608 -0.19309323 -0.89444673 0.003208928
-0.0043149665 -0.007141551 0.011505251 -0.4186509 -0.22935046 -0.8787092 0.0023833972
-0.0013340404 -0.0071959337 0.010222974 -0.34793431 -0.36386338 -0.86402845 0.0024956306
0.0013158841 -0.0080347452 0.0095351664 -0.29840529 -0.46308962 -0.83456713 0.0018133898
0.026296873 -0.0081521766 0.010665268 0.39746359 -0.89781839 -0.1895913 0.001193491
-0.0063091856 -0.0037592393 0.01201576 -0.50447977 -0.062753692 -0.86113995 0.00400976
-0.0044507096 -0.0040405942 0.010967299 -0.50569004 -0.086421087 -0.85837579 0.0011497964
-0.0021492685 -0.0043136664 0.0096930088 -0.49649411 -0.16698694 -0.85182685 0.0024090218
-0.0062602051 -0.0015254212 0.01199224 -0.57354188 0.15048899 -0.80523461 0.0050252359
-0.0044493405 -0.00089102366 0.010848481 -0.56514823 0.072143652 -0.82182896 0.0064772293
-0.0025203873 -0.00095335627 0.0094742291 -0.55971724 -0.017326543 -0.82850248 0.0036360924
-0.004139069 0.0018455388 0.011154852 -0.64340562 0.25459111 -0.72195053 0.0036385381
-0.0023970199 0.0021486615 0.0096928077 -0.65440279 0.16940932 -0.73692429 0.0042129303
-0.0032464555 0.0046426663 0.011675943 -0.69109601 0.39025846 -0.60834575 0.0018378828
-0.0018291565 0.0050121555 0.010297473 -0.70069081 0.3035399 -0.64567482 0.0015977382
-0.00087276718 0.0076965382 0.010853708 -0.71641135 0.43665138 -0.54414189 0.002663733
0.00063983514 0.0087719141 0.0096046031 -0.74531156 0.39514193 -0.53700417 0.0011500578
2.9202318e-05 0.0099005057 0.011565164 -0.72974288 0.49677739 -0.46977407 0.002371903
0.0015568316 0.011087894 0.010505663 -0.74391967 0.49398142 -0.45007312 0.0019220151
0.0028659997 0.013311591 0.011253536 -0.7284373 0.5921936 -0.34450817 0.0015237698
0.0041223932 0.014452899 0.010547752 -0.72546065 0.63539821 -0.26452973 0.0017506325
0.0055776546 0.016208079 0.01091783 -0.70111984 0.68459702 -0.19939373 0.0036207233
0.0066140993 0.017283063 0.011145741 -0.7048493 0.69203663 -0.1557973 0.0017158218
0.0098197665 0.020129826 0.0097832382 -0.71862781 0.68515867 -0.11887689 0.00074178702
-0.003988415 -0.014941927 0.015009943 -0.13581708 -0.54539216 -0.82710403 0.0016663102
-0.0010812151 -0.015068507 0.014736849 -0.08480873 -0.62059224 -0.77953374 0.0018767597
0.0019966557 -0.01521129 0.014621198 -0.035815854 -0.68881255 -0.72405422 0.0024378668
0.0046331007 -0.015208841 0.014549096 0.019698152 -0.74591577 -0.66574889 0.0026527669
0.0077112084 -0.015065668 0.01465033 0.078724355 -0.79897839 -0.59618461 0.0026017593
0.010399214 -0.014823963 0.014731294 0.16146341 -0.84373826 -0.51189393 0.0020388041
-0.0096907858 -0.012280318 0.014997108 -0.26714185 -0.29391381 -0.91774178 0.0017978108
-0.0072992034 -0.012899638 0.01461552 -0.23065691 -0.38358095 -0.89423877 0.0023055088
-0.0042469576 -0.013092654 0.013976393 -0.17306277 -0.48717228 -0.85598618 0.00092831888
-0.0011077148 -0.013108721 0.013336306 -0.13602993 -0.56223392 -0.81571364 0.0016328049
0.0017679592 -0.013416955 0.013061772 -0.096005931 -0.63170177 -0.7692436 0.0014369113
0.0047053872 -0.013744144 0.013065685 -0.051857062 -0.69836766 -0.71385813 0.0021771772
0.0076880315 -0.01379154 0.012942355 0.0058399397 -0.76422554 -0.64492261 0.0018471925
0.010612916 -0.013799832 0.013205222 0.058986414 -0.82622772 -0.56023943 0.0020259009
0.013588961 -0.013613925 0.013671351 0.17219283 -0.88451326 -0.4335734 0.0042394171
0.016593248 -0.012922242 0.013715699 0.26529548 -0.90484577 -0.33297515 0.0045805592
0.019153539 -0.012029176 0.013746609 0.31000057 -0.90713817 -0.28460503 0.0025853962
-0.012084836 -0.0094593801 0.015146892 -0.33086231 -0.12692112 -0.93510485 0.0032690002
-0.010289176 -0.010124277 0.01465632 -0.29915068 -0.16488224 -0.93985248 0.0034920622
-0.0074103009 -0.010158311 0.013638178 -0.31743425 -0.27304688 -0.90811944 0.0038599069
-0.0045718355 -0.010414054 0.012783588 -0.31210348 -0.33307847 -0.8897472 0.001725107
-0.0019173732 -0.011221615 0.012357332 -0.21693775 -0.50586182 -0.83489037 0.0017262744
0.020334158 -0.011355032 0.012819856 0.29485473 -0.91637832 -0.27076077 0.0028732896
0.022525346 -0.010382813 0.012859732 0.37943918 -0.90691543 -0.18311319 0.00074154785
-0.012085126 -0.0070147533 0.015156491 -0.42978972 0.025700437 -0.90256321 0.004148623
-0.010352817 -0.0070015611 0.014333509 -0.39655724 -0.077406831 -0.91474074 0.0018685649
-0.0074685328 -0.0072800843 0.012966521 -0.38454068 -0.16746601 -0.90779054 0.0027442572
-0.0055218013 -0.0082658473 0.012379348 -0.31797236 -0.23694994 -0.91801327 0.0037640838
-0.010281654 -0.0038865253 0.01435297 -0.53858483 0.14317633 -0.83031732 0.002500542
-0.0077293031 -0.0041499734 0.012864123 -0.52327222 0.033865388 -0.85149235 0.0027279542
-0.0096853673 -0.0012027575 0.01464345 -0.56505328 0.30277383 -0.76749128 0.0048807184
-0.0075814426 -0.00079497416 0.013147913 -0.59643042 0.24571556 -0.76412994 0.0053802496
-0.0071565453 0.0018355243 0.013999135 -0.64087641 0.36965817 -0.67277795 0.0024232434
-0.0054191607 0.0025354724 0.012717406 -0.64401019 0.31161761 -0.6986739 0.0023896308
-0.0064061959 0.0041303318 0.014756834 -0.64259905 0.48184043 -0.59573168 0.0014501662
-0.0046770982 0.0050879493 0.013553179 -0.6503675 0.45566744 -0.60777402 0.0022874614
-0.0033866225 0.0074927425 0.014004425 -0.68067634 0.52726233 -0.50860018 0.0025472557
-0.0019846936 0.0085351123 0.013167061 -0.71109062 0.53192103 -0.45979345 0.0034835907
-0.00083284418 0.010502328 0.013896979 -0.69010133 0.60357594 -0.39931971 0.0025774846
0.00099742669 0.011995251 0.012858488 -0.6945011 0.64394993 -0.32093084 0.0016871962
0.001871479 0.013443785 0.013997186 -0.68715674 0.67714041 -0.26324213 0.0030531615
0.0037972948 0.015172992 0.013329506 -0.69626725 0.68708539 -0.20766722 0.00099545869
0.0050190501 0.016409911 0.013871372 -0.67136109 0.71545273 -0.19339518 0.0015953435
0.0074576912 0.018362965 0.013945788 -0.69457877 0.70517761 -0.1424249 0.0010645707
-0.015129477 -0.017892275 0.018176347 -0.14886037 -0.31813759 -0.93628472 0.0013833952
-0.013288447 -0.018107891 0.017973984 -0.11681215 -0.41110766 -0.90407157 0.0013432475
-0.010444269 -0.018370297 0.017824491 -0.081234187 -0.50563252 -0.85891598 0.0018120867
-0.0072426107 -0.018360268 0.01757882 -0.042044524 -0.57307118 -0.81842625 0.002172638
-0.0040465021 -0.018357981 0.017520858 0.023596242 -0.64849228 -0.76085538 0.0016381867
-0.0011701045 -0.018331083 0.01756992 0.044936638 -0.71395761 -0.69874549 0.0026558649
0.0016550759 -0.018066326 0.017606195 0.1033396 -0.75666803 -0.64558071 0.0024121194
0.0045577874 -0.017882911 0.017941434 0.16328029 -0.80760449 -0.56666958 0.0021071576
-0.018571706 -0.015428643 0.018100912 -0.19369107 -0.19764772 -0.96094698 0.0017822811
-0.016286148 -0.016082607 0.017762044 -0.18042964 -0.24488133 -0.95261651 0.0019059811
-0.013375283 -0.016135292 0.017210977 -0.18637609 -0.34054166 -0.92157221 0.002090832
-0.010414304 -0.016116293 0.016681947 -0.14591649 -0.39871654 -0.90539134 0.0021353199
-0.0074612666 -0.016099624 0.01621435 -0.11640325 -0.47699395 -0.8711642 0.0025382228
-0.0043475768 -0.016397659 0.016045643 -0.081341945 -0.56376719 -0.82191849 0.0025671567
-0.0010883267 -0.016580487 0.015973521 -0.021793691 -0.64275926 -0.7657581 0.0017004667
0.0017460187 -0.016690267 0.016102538 0.032672442 -0.73827577 -0.67370725 0.002199284
0.0048979241 -0.016702024 0.016412636 0.10898107 -0.80262059 -0.5864498 0.0030987123
0.0076408517 -0.016460871 0.016710015 0.1718657 -0.85267031 -0.49337152 0.0040367278
0.010638746 -0.015755339 0.016673783 0.23206332 -0.87773484 -0.41919929 0.0032370335
0.013170313 -0.015028803 0.016664773 0.26886666 -0.88801277 -0.3730199 0.0030316238
-0.018945834 -0.0132356 0.017904747 -0.27505451 -0.069933504 -0.9588818 0.0031808545
-0.01631924 -0.013185501 0.017127344 -0.27313861 -0.14979787 -0.95023996 0.0033258104
-0.013344647 -0.013160281 0.016272988 -0.28151277 -0.2467933 -0.92727757 0.0026964392
-0.010612917 -0.013421969 0.015625549 -0.20658518 -0.32454264 -0.92303556 0.0016884174
-0.0080970265 -0.01419375 0.015391518 -0.17072625 -0.41164398 -0.89521044 0.0016597162
0.014337342 -0.014370123 0.015803963 0.24444833 -0.9049015 -0.34842262 0.0035025522
0.016316207 -0.013803266 0.016459083 0.32188594 -0.90776432 -0.26898584 0.0013988541
0.019251088 -0.012422645 0.016224852 0.33582613 -0.90541321 -0.25970694 0.0010499384
-0.018719349 -0.010128116 0.017875945 -0.35494697 0.06825842 -0.93239123 0.0031293863
-0.016309388 -0.010232748 0.016872125 -0.35306188 -0.012443224 -0.93551725 0.0022462639
-0.013438847 -0.010273618 0.015752325 -0.31746107 -0.1189554 -0.94078058 0.0029426382
-0.011599822 -0.011174177 0.015282288 -0.32602018 -0.14595611 -0.93402761 0.0022601143
-0.018238427 -0.0074703638 0.01798203 -0.43876612 0.23597835 -0.86706311 0.0041875374
-0.016318925 -0.0070459424 0.017111052 -0.42836475 0.16450377 -0.88850558 0.0040703635
-0.013574259 -0.0070251701 0.015808454 -0.43704718 0.10341642 -0.89347345 0.0017582278
-0.015782846 -0.0042083254 0.01763845 -0.4904702 0.34329677 -0.80099082 0.0031923866
-0.0133468 -0.0038466936 0.016323566 -0.52128148 0.28000882 -0.80613941 0.0057029407
-0.011605348 -0.0028607515 0.015472308 -0.56488878 0.23187171 -0.79191935 0.00788558
-0.012961582 -0.0011963773 0.017288713 -0.55885565 0.42572483 -0.71164513 0.001329709
-0.01100239 -0.00063388445 0.016004583 -0.57085651 0.36241069 -0.73673695 0.0015291413
-0.012168502 0.00081158755 0.017921299 -0.58081079 0.49238655 -0.64823931 0.0015123604
-0.010241711 0.0018583115 0.016936759 -0.60806251 0.46989083 -0.6398927 0.0021841172
-0.0083698025 0.0027066364 0.015742913 -0.63735098 0.45925823 -0.6187613 0.0014232059
-0.0093746213 0.0039251903 0.017659197 -0.61760956 0.56374151 -0.54841036 0.0017571375
-0.0074578421 0.0049300371 0.016510015 -0.63690114 0.50258934 -0.58460319 0.0014029796
-0.0057380218 0.0061947061 0.01573813 -0.64626628 0.58047527 -0.4953669 0.0026181468
-0.0061568189 0.0070996983 0.017327899 -0.63418847 0.59370559 -0.49529657 0.00169967
-0.0045660948 0.0080492133 0.016371824 -0.6563434 0.61130488 -0.44217616 0.0032573752
-0.0031414658 0.009977744 0.017116323 -0.6466468 0.66723281 -0.36965975 0.0014656844
-0.0015337076 0.011208907 0.016582897 -0.62652451 0.70468384 -0.33299801 0.0026947341
-3.0840281e-05 0.012757556 0.017011901 -0.64765805 0.7157203 -0.26131132 0.0012621009
0.0018512073 0.014215078 0.016504774 -0.6601063 0.71703267 -0.22388327 0.0010158558
0.003813728 0.015772823 0.016644537 -0.65421921 0.72810006 -0.2046157 0.0010980525
-0.030594599 -0.021477563 0.021125402 -0.12467077 -0.17531569 -0.9765867 0.0011795699
-0.028275456 -0.021810487 0.020913707 -0.10817072 -0.2265128 -0.96798301 0.0012580977
-0.025312938 -0.022130024 0.020753009 -0.072797701 -0.30525136 -0.94948512 0.0025589007
-0.0223903 -0.022192627 0.020542815 -0.0484467 -0.36309651 -0.93049115 0.0022730494
-0.019414779 -0.022185439 0.020391984 -0.030410673 -0.42734763 -0.90357578 0.002181347
-0.016443178 -0.022180622 0.02029126 -0.0041411174 -0.50345004 -0.86401433 0.003259101
-0.013488452 -0.022089882 0.020219672 -0.00439882 -0.55152273 -0.83414829 0.0021993052
-0.010215334 -0.021898976 0.020181956 0.031882223 -0.62836313 -0.7772665 0.0024902704
-0.0071000112 -0.021649789 0.020212108 0.081126563 -0.69228852 -0.71704602 0.0025506401
-0.0042053768 -0.021380521 0.020375442 0.13483572 -0.75352412 -0.64344442 0.0028601966
-0.0013638856 -0.021087965 0.020737056 0.19068444 -0.78347856 -0.5914396 0.0020661869
-0.033077247 -0.019499231 0.021201462 -0.17978708 -0.0012172902 -0.98370475 0.0034302429
-0.031252198 -0.019240731 0.020945828 -0.14252244 -0.030483061 -0.98932201 0.0026558933
-0.028324677 -0.019221801 0.020498382 -0.13791898 -0.10635155 -0.98471707 0.0024363734
-0.025329895 -0.019202592 0.020046456 -0.15500228 -0.18265292 -0.97088218 0.0024458386
-0.02234043 -0.019183151 0.019585885 -0.14966093 -0.25293148 -0.95583856 0.0021329147
-0.019360028 -0.019166607 0.019192835 -0.11141001 -0.30945277 -0.9443658 0.0023553101
-0.016421854 -0.019187264 0.018850559 -0.12203079 -0.40278631 -0.90712273 0.0025667527
-0.01347428 -0.019590331 0.018730724 -0.050973583 -0.46851259 -0.88198507 0.0018405546
-0.01046838 -0.019886216 0.018739648 -0.022070684 -0.53416497 -0.84509206 0.0018608505
-0.0072638346 -0.019883867 0.018684538 0.018279703 -0.6418786 -0.76658839 0.0018126713
-0.0040632705 -0.019892607 0.018881734 0.066646643 -0.70598626 -0.70508277 0.0021143106
-0.0010427388 -0.01985801 0.019269329 0.13698733 -0.7753253 -0.61652666 0.0032825528
0.0018418364 -0.019469149 0.019484468 0.19164212 -0.82310957 -0.53456897 0.0032731844
0.0047062701 -0.018887343 0.019716287 0.20441507 -0.85058939 -0.48447108 0.0016199232
0.0072597461 -0.018234249 0.019860873 0.2794795 -0.86553413 -0.41562226 0.0039905608
-0.030859862 -0.016261525 0.020982666 -0.21005888 0.10394516 -0.97214752 0.0023373375
-0.028372273 -0.016159432 0.020427497 -0.2107684 0.025307614 -0.97720832 0.001737387
-0.025308644 -0.016223909 0.019682029 -0.24234383 -0.028405135 -0.96977448 0.002663492
