# .PCD v0.7 - Point Cloud Data file format
VERSION 0.7
FIELDS x y z normal_x normal_y normal_z curvature
SIZE 4 4 4 4 4 4 4
TYPE F F F F F F F
COUNT 1 1 1 1 1 1 1
WIDTH 549
HEIGHT 1
VIEWPOINT 0 0 0 1 0 0 0
POINTS 549
DATA ascii
0.0035344248 0.010128807 -0.0092542097 -0.55060774 -0.43962532 -0.70962012 0.0013050867
0.020500457 0.01116796 -0.0088160131 0.58567959 -0.19879989 -0.78578502 0.0015344769
0.022340618 0.011357671 -0.0072752233 0.68944204 -0.16902865 -0.7043429 0.001607165
-0.00087182468 0.014284188 -0.0079725841 -0.69400042 -0.4566735 -0.55660832 0.002303917
0.00086653151 0.013264451 -0.0091187656 -0.57979566 -0.46346235 -0.67010427 0.0016084046
0.021004431 0.014056088 -0.0090991324 0.67756701 -0.1495865 -0.72008806 0.0013241916
0.022418641 0.014225286 -0.0077733211 0.71535337 -0.10736823 -0.69046468 0.0016766899
-0.0033706632 0.017761959 -0.0075365826 -0.74613625 -0.46174353 -0.47965991 0.0011897117
-0.0020968476 0.016739827 -0.0084629469 -0.71972644 -0.46091139 -0.5191865 0.0011776662
0.021157313 0.016386125 -0.0094333068 0.70937854 -0.071825065 -0.70115846 0.0020543262
0.022657981 0.017182728 -0.0078399535 0.75833917 -0.035596538 -0.65088749 0.0010558646
-0.0057785935 0.021369245 -0.007042639 -0.80495465 -0.46604767 -0.3672159 0.0020957885
-0.004322513 0.020008035 -0.0081888465 -0.78517365 -0.47025394 -0.40294364 0.0014490671
0.022628529 0.020165727 -0.0078846114 0.77344441 0.0056822258 -0.63383865 0.0013479951
-0.0064886003 0.023391768 -0.0079973331 -0.80535132 -0.47471607 -0.35504076 0.0019770057
-0.0051312316 0.021899095 -0.0089254407 -0.77127516 -0.48745826 -0.40929088 0.0014358837
0.02238513 0.023180779 -0.0080873249 0.82787281 0.070336349 -0.55648851 0.001017904
-0.0090352222 0.027410459 -0.0073932931 -0.83609122 -0.48944584 -0.2477784 0.001334127
-0.0079280129 0.026031088 -0.0083998665 -0.8120752 -0.49486631 -0.30925915 0.00065190427
0.021158203 0.027054485 -0.0094145164 0.80091512 0.061748281 -0.59558547 0.00053238298
0.022291545 0.026112257 -0.0079629943 0.83315378 0.084177539 -0.5465976 0.0017500919
-0.009951965 0.029232716 -0.0080240751 -0.81986874 -0.50491571 -0.26995432 0.00057298067
0.021173973 0.029163878 -0.0090817697 0.84286356 0.12061745 -0.52443546 0.0010862157
0.022016767 0.029007161 -0.007683645 0.85446411 0.14637996 -0.49846163 0.00069187762
-0.012152286 0.032639883 -0.0077847047 -0.8339029 -0.51598638 -0.1958673 0.0010303435
-0.011222678 0.031420741 -0.0083348453 -0.83688474 -0.50313324 -0.21559423 0.0010721333
0.020994149 0.032334559 -0.0084226765 0.86612368 0.19399339 -0.46064776 0.00049017061
0.021816736 0.031865519 -0.0070019988 0.86640066 0.19350667 -0.46033138 0.00049917935
-0.013668331 0.035209749 -0.008200638 -0.82977593 -0.52961105 -0.17602278 0.00043927866
0.0204744 0.035201926 -0.0081538009 0.86318982 0.21300475 -0.45774692 0.00044422515
-0.015507186 0.038319226 -0.0087692766 -0.81436443 -0.53975838 -0.21324022 7.4771764e-05
-0.014560622 0.037039127 -0.0092630312 -0.81577063 -0.54119855 -0.20401561 0.00010628052
0.019420447 0.038071334 -0.0084988726 0.85007846 0.25260586 -0.46212223 0.00049855042
-0.016883418 0.040525507 -0.0091916546 -0.80695152 -0.54375035 -0.2305751 0.00023734469
0.017690841 0.042155381 -0.0091307536 0.81837744 0.28661311 -0.49810773 0.00056087092
0.018559158 0.040337335 -0.0087110233 0.83484751 0.27428749 -0.4772799 0.00029195292
0.011562324 -0.008552447 -0.0035943913 -0.15878956 -0.38800314 -0.90787637 0.0040084361
0.013643743 -0.0086192731 -0.0036098077 0.06012601 -0.38727611 -0.92000109 0.0048695207
0.0086293733 -0.0063071526 -0.0038089519 -0.28651947 -0.36521873 -0.88573241 0.00070366589
0.010877095 -0.0068639 -0.0041743224 -0.17460641 -0.3705712 -0.91224426 0.003482739
0.013891257 -0.0068950574 -0.0043116393 0.058366187 -0.39359704 -0.91742831 0.0045388313
0.016701704 -0.0065724324 -0.0039474522 0.25239164 -0.37808391 -0.89070255 0.0021031573
0.018611444 -0.0057311845 -0.0036455023 0.4210698 -0.37020814 -0.8280375 0.0014183045
0.0056509874 -0.0029103002 -0.0037465577 -0.5044716 -0.35330749 -0.78783387 0.0019230816
0.0078672115 -0.0037605814 -0.0045438167 -0.38823363 -0.34888428 -0.85296804 0.002170413
0.010813918 -0.0038325503 -0.0054513095 -0.15883923 -0.3961142 -0.90435815 0.0023397407
0.013851251 -0.0038305405 -0.0056374748 0.051483531 -0.39756447 -0.91612881 0.0027129413
0.016913995 -0.0038366732 -0.0050675436 0.30484551 -0.38018751 -0.87322778 0.0023613446
0.019468615 -0.00354901 -0.0041256049 0.44177276 -0.34851912 -0.82666272 0.0017401896
0.0051282104 -0.00058713229 -0.0044657644 -0.53128618 -0.36312467 -0.76542509 0.0018498962
0.00773723 -0.0010078135 -0.0057404218 -0.35124609 -0.41371375 -0.83992088 0.0018241947
0.01030124 -0.0016943323 -0.0063049486 -0.19134107 -0.41791445 -0.88810813 0.0032485439
0.014996922 -0.0019534198 -0.0063659772 0.049740374 -0.42601159 -0.90334934 0.0028982514
0.01719342 -0.0011905199 -0.0061158505 0.29656896 -0.37468511 -0.87844062 0.0030725675
0.019722365 -0.00079094432 -0.0051355371 0.47169641 -0.34800828 -0.81018072 0.0024414775
0.021729762 -0.00048191939 -0.0039632893 0.59644043 -0.30588999 -0.74208492 0.0012912699
0.0026870102 0.0026678932 -0.0041397903 -0.63481432 -0.36742425 -0.67971331 0.0020316576
0.0047221989 0.0020127874 -0.0054603568 -0.49364766 -0.3996678 -0.77238441 0.0012861594
0.0069789314 0.0010048358 -0.0063306219 -0.35783869 -0.40549648 -0.84114456 0.0026906948
0.020360945 0.001955736 -0.0058553931 0.4927721 -0.31104571 -0.81266612 0.0025205384
0.0225624 0.0023697687 -0.0043792198 0.62930018 -0.28050917 -0.72477293 0.0018708613
0.00028056247 0.0064886766 -0.0037045407 -0.71597219 -0.36242288 -0.59668547 0.0012247046
0.002019136 0.0053681033 -0.0050031478 -0.65496492 -0.3875066 -0.64873701 0.0027115382
0.00386574 0.0044317278 -0.0061742542 -0.59760177 -0.40074241 -0.69446218 0.0010244998
0.021192556 0.004470251 -0.0062254667 0.59739923 -0.26306683 -0.75756848 0.00070307148
0.0229757 0.0053336951 -0.0049912119 0.67007369 -0.2242467 -0.70761192 0.0022955176
0.024726937 0.0064906436 -0.0035512375 0.78485936 -0.16637118 -0.59692234 0.0013330511
-0.00015680885 0.0084174909 -0.0044671423 -0.73383576 -0.36514273 -0.57284892 0.0012840885
0.0012472244 0.0077775926 -0.0057361368 -0.67401004 -0.39937609 -0.62145728 0.00041119254
0.023389248 0.0079830335 -0.0054197633 0.71941072 -0.19331636 -0.66714102 0.0015803506
0.024775658 0.0082980841 -0.0038870373 0.76347882 -0.14500624 -0.62934357 0.0014348632
-0.0011402576 0.011125086 -0.0050542522 -0.77902997 -0.40299854 -0.48031706 0.001379635
0.023748713 0.010983656 -0.0057539586 0.72949415 -0.12796369 -0.67191046 0.0012799156
0.024923176 0.011174927 -0.0042545721 0.80026531 -0.090720452 -0.59274387 0.0013388632
-0.0032365187 0.014544519 -0.0045563178 -0.81898123 -0.40065593 -0.41078538 0.0020299489
-0.0021975634 0.013669368 -0.0056138532 -0.79348946 -0.41501307 -0.44512776 0.0016836654
0.02391072 0.014065206 -0.0060358057 0.7658186 -0.072949298 -0.63890547 0.00084707676
0.02515275 0.014222993 -0.0043513291 0.82492983 -0.04094151 -0.56375045 0.0011526656
-0.0042053666 0.017119713 -0.0051583527 -0.82988036 -0.42568263 -0.36068395 0.001783682
0.024129173 0.017214097 -0.0059214802 0.79069263 -0.015861871 -0.61200792 0.00067679031
0.025119785 0.017196462 -0.00452202 0.84606212 0.0099575119 -0.53299129 0.0010043244
-0.0061053457 0.020712405 -0.0048210956 -0.85273725 -0.433745 -0.29104018 0.0013954269
-0.0052139191 0.019443501 -0.005720973 -0.83575767 -0.44229248 -0.32540193 0.0009016238
0.024130719 0.020254785 -0.0058927415 0.84059685 0.045757361 -0.53972524 0.0011866355
0.024904512 0.020313216 -0.0045923865 0.85971564 0.069736004 -0.50598997 0.00099951227
-0.0073440475 0.023128983 -0.0049743769 -0.85420585 -0.45618123 -0.24946158 0.00036507752
0.023882398 0.023189645 -0.0058323992 0.855344 0.10915829 -0.50642985 0.0013980011
0.024814241 0.022917246 -0.0041014776 0.86898738 0.11755186 -0.48066881 0.0005837144
-0.0090901572 0.026270192 -0.0049501061 -0.84978038 -0.478827 -0.22044924 0.00060475193
-0.0083705094 0.025405571 -0.0057593063 -0.84977525 -0.47883731 -0.22044705 0.00060003519
0.02382341 0.026410224 -0.0050856397 0.87154573 0.11614975 -0.47635838 0.00051010289
0.024716772 0.025050391 -0.0037362801 0.87019813 0.12190679 -0.47738248 0.00052707456
-0.010385592 0.0289232 -0.0056127952 -0.84151715 -0.50202155 -0.19955793 0.00043776445
0.023187127 0.029155359 -0.0053674025 0.87834227 0.15447952 -0.45238358 0.00014091661
-0.012840761 0.033187028 -0.0049076006 -0.8405003 -0.51283193 -0.17482208 0.00057280943
-0.011403211 0.030766021 -0.0060344264 -0.85133892 -0.49409488 -0.17633 0.00046259799
0.022382202 0.031892747 -0.0057988688 0.87854487 0.18935041 -0.43852633 0.0003241261
-0.013268121 0.034026619 -0.0061859414 -0.8324737 -0.52461642 -0.1782276 0.00057467178
0.021315828 0.035436239 -0.006088309 0.86319023 0.21303698 -0.45773113 0.00042960784
0.021796014 0.034054246 -0.0058243796 0.87262005 0.21084182 -0.44054496 0.00026815658
0.0089524314 -0.014608424 -0.00070699328 -0.29291913 -0.29637307 -0.90904421 0.0030057004
0.011016956 -0.015331434 -0.00077950675 -0.091327116 -0.34711874 -0.9333638 0.0029088103
0.013718612 -0.015124477 -0.00080595282 0.11395492 -0.38022932 -0.91784531 0.0022672054
0.015798546 -0.014482785 -0.00069063785 0.31108028 -0.41338179 -0.85577136 0.0028578297
0.0059566093 -0.011456151 -0.00062208646 -0.46968198 -0.30546853 -0.82830417 0.0019198424
0.0080066854 -0.012514815 -0.0011537115 -0.32153952 -0.31623524 -0.89252877 0.0031189087
0.010899581 -0.012841335 -0.001757582 -0.11597723 -0.34138444 -0.93274105 0.0023830107
0.013741551 -0.012771972 -0.0018208409 0.085487217 -0.36779097 -0.92597073 0.0015586982
0.016757606 -0.012571052 -0.0012431433 0.30212024 -0.39577562 -0.86722833 0.0023369258
0.018921074 -0.011832464 -0.00070556882 0.43447867 -0.4020339 -0.80597585 0.0018128514
0.0054272311 -0.0095822569 -0.00093014468 -0.50806803 -0.29419675 -0.80951536 0.0021397013
0.0078254351 -0.0097650588 -0.0020733227 -0.31370863 -0.34304628 -0.88538474 0.0018070521
0.010808485 -0.0098514874 -0.0029197615 -0.14763558 -0.37916464 -0.91347581 0.0025680698
0.013985149 -0.009964861 -0.0029817407 0.10336504 -0.4021332 -0.90972769 0.0024980742
0.017011778 -0.0097563695 -0.0024368078 0.27019086 -0.39362684 -0.87866646 0.0018554484
0.019668225 -0.0096119251 -0.0013261735 0.47125351 -0.36042774 -0.8049919 0.0017167631
0.021576665 -0.0086172707 -0.0005840885 0.58265477 -0.35418159 -0.731484 0.002107058
0.0031164547 -0.0055389148 -0.00070951157 -0.65846348 -0.24883261 -0.71028739 0.0031672604
0.004770542 -0.0067590154 -0.0015401373 -0.56567049 -0.28687489 -0.77312326 0.0018432072
0.0074386313 -0.007187149 -0.0029269354 -0.36147127 -0.37169585 -0.85509109 0.0021933874
0.0096858647 -0.0080861934 -0.0034069943 -0.196025 -0.32254931 -0.92603248 0.0040333099
0.017561065 -0.0076630819 -0.0031850536 0.27853081 -0.38000798 -0.88205129 0.0028132454
0.019875119 -0.0069625978 -0.0024039827 0.43260729 -0.38054776 -0.81733364 0.0012473111
0.022190001 -0.006360508 -0.0011157708 0.60304213 -0.34006375 -0.7215932 0.002016064
0.0026413137 -0.0034617293 -0.0010962395 -0.6793927 -0.29520252 -0.67177463 0.0014318931
0.0046224319 -0.0039366307 -0.002564383 -0.55148524 -0.32507986 -0.76823634 0.0020516471
0.0065512457 -0.0051084007 -0.0033603339 -0.47509593 -0.36827412 -0.79916078 0.0017197874
0.020556981 -0.0046026926 -0.0030689118 0.494169 -0.34945303 -0.79603994 0.0025737204
0.022590261 -0.0036268733 -0.001976063 0.62412077 -0.3024205 -0.72042698 0.0024959587
0.024415202 -0.0027006087 -0.00060995691 0.72927868 -0.27569267 -0.62621564 0.0014116367
0.0021338277 -0.00067717675 -0.0018530267 -0.68690962 -0.31600711 -0.65444225 0.0022155889
0.003843029 -0.0015040319 -0.0030948916 -0.63201147 -0.34273973 -0.69504744 0.00095982448
0.02323008 -0.00086130342 -0.0025386384 0.66062266 -0.27594027 -0.69816518 0.0032292432
0.024750846 -0.00068775984 -0.00096580037 0.73919803 -0.24494182 -0.62736738 0.0007756665
4.1291321e-05 0.0028341669 -0.0011589245 -0.77696663 -0.31504163 -0.54504269 0.0023248147
0.001456788 0.0020087059 -0.0024792962 -0.73148614 -0.33426759 -0.59430063 0.0012242722
0.023989528 0.0019249608 -0.0028968572 0.72178125 -0.24138586 -0.64866376 0.0014262686
0.025286984 0.0024894928 -0.0015096718 0.75938082 -0.21603781 -0.61373317 0.0011297869
-0.00050190627 0.005444549 -0.001929977 -0.80001622 -0.33444855 -0.49811468 0.0026956855
0.00086808053 0.004495203 -0.0032314586 -0.68894494 -0.37860644 -0.6180712 0.001087494
0.024265621 0.0041412669 -0.0033876526 0.70176268 -0.21502152 -0.67918688 0.0011396044
0.025690142 0.0053685349 -0.0018972843 0.80327106 -0.16932376 -0.57103866 0.0005518641
-0.0014194131 0.0080872886 -0.0022412466 -0.83694434 -0.34501389 -0.42484075 0.001494866
0.026013589 0.0081077404 -0.0021678435 0.81478554 -0.1172372 -0.56778508 0.00067656231
-0.0031854024 0.011710938 -0.0015394781 -0.86648905 -0.34847307 -0.35743991 0.0013831297
-0.0022859119 0.010480776 -0.0026181268 -0.84120071 -0.37515321 -0.38941157 0.001534528
0.026403682 0.011316828 -0.0021090917 0.86514527 -0.051978558 -0.49882045 0.0013146686
-0.0040770322 0.014277561 -0.0019820994 -0.86635792 -0.37779537 -0.32664132 0.00079972926
0.026715811 0.014303489 -0.0017349151 0.88400882 -0.0051359348 -0.46744195 0.0011154693
-0.0058634244 0.017856007 -0.001416527 -0.89381808 -0.37188861 -0.25057554 0.0011630494
-0.0051166881 0.016878109 -0.0023140835 -0.87649471 -0.39338624 -0.27749646 0.0007245111
0.026618153 0.016992226 -0.0017869122 0.88373059 0.025317291 -0.4673107 0.00065863511
-0.0064611672 0.019938197 -0.0024215179 -0.87964088 -0.41397259 -0.2342193 0.0011630011
0.026136447 0.020025631 -0.0022267974 0.88316566 0.068555929 -0.46402439 0.0007691044
-0.0077337138 0.022766024 -0.0024431723 -0.86620861 -0.45324922 -0.21035151 0.00048229744
0.025481863 0.023224775 -0.0026758017 0.8689931 0.11756931 -0.48065424 0.00056580699
-0.0098401299 0.027208026 -0.0030280577 -0.85165542 -0.4791033 -0.21246895 0.00052836101
0.024918294 0.025644001 -0.0029283094 0.88227016 0.13029678 -0.45235172 0.00012313406
0.0088529661 -0.023458252 0.0024746528 -0.14780183 -0.33080059 -0.93205452 0.0041565504
0.010282143 -0.023456473 0.0024419699 0.038658671 -0.38265282 -0.92308307 0.0038589062
0.0058012744 -0.020974075 0.0023562743 -0.28434569 -0.27534795 -0.91833049 0.0020584262
0.0079893693 -0.021686595 0.001994102 -0.18582714 -0.29376802 -0.93763989 0.0031352341
0.010982075 -0.021755939 0.0017942006 0.02421188 -0.35857275 -0.93318772 0.002987074
0.013714955 -0.021399189 0.0019848787 0.19043028 -0.40069368 -0.89620352 0.0018590917
0.015901294 -0.020781105 0.0023082446 0.34988326 -0.41880926 -0.83796209 0.0017520371
0.005233495 -0.01875061 0.001997119 -0.41191348 -0.25200614 -0.87568271 0.0027859663
0.0078765145 -0.01886816 0.0010702095 -0.25209311 -0.30707943 -0.91768807 0.0038675617
0.010954399 -0.018847378 0.00060338504 -0.037734363 -0.36993349 -0.92829174 0.0029778094
0.01380961 -0.018858457 0.00084947259 0.15139584 -0.4009943 -0.90348375 0.0015324064
0.016694922 -0.018751616 0.0016555747 0.34569874 -0.40318957 -0.8473078 0.0026074813
0.018698456 -0.018210698 0.0023618808 0.48183584 -0.4110502 -0.77386808 0.0018019702
0.00303752 -0.014969548 0.0023341191 -0.59937871 -0.1969662 -0.77585411 0.0015710006
0.0047912598 -0.015793251 0.0014213494 -0.47414318 -0.24276245 -0.8463183 0.0027973708
0.0077071078 -0.015898962 0.00013323547 -0.3043302 -0.29541552 -0.90560079 0.0031520179
0.010816957 -0.0167377 -0.00021707849 -0.060651608 -0.38612032 -0.9204523 0.0026682271
0.013874821 -0.016586727 -0.00014367118 0.14131896 -0.41847795 -0.89716506 0.0021215349
0.016998313 -0.015894758 0.00039036083 0.3111434 -0.42046258 -0.85229158 0.0017270951
0.019795513 -0.01550491 0.0016603728 0.50975317 -0.39226174 -0.7656908 0.0016509774
0.021718647 -0.014400396 0.0024120284 0.6329785 -0.35956374 -0.68560344 0.0015259256
0.0027498119 -0.012576286 0.001968425 -0.64956105 -0.20551738 -0.73200613 0.0021936961
0.00474936 -0.012709729 0.00055280537 -0.51443237 -0.24549945 -0.82163829 0.0022054934
0.006624002 -0.013455782 -0.00025962456 -0.41787729 -0.29052892 -0.86079705 0.0010681381
0.018119955 -0.013678029 -0.00022229832 0.42656487 -0.41241845 -0.80495548 0.0011433471
0.020128869 -0.012804536 0.00050369161 0.48498353 -0.38169506 -0.78682894 0.0018054928
0.022194901 -0.012386417 0.0017858611 0.63003212 -0.36949286 -0.68303341 0.0017125466
0.0023229523 -0.0097790081 0.0015333092 -0.67910218 -0.22554624 -0.69853359 0.0020753753
0.0041213282 -0.010027999 9.6795149e-05 -0.57718176 -0.26692283 -0.77175999 0.0012473769
0.020850778 -0.010520805 -0.00019385689 0.53395933 -0.36727512 -0.76157492 0.00095100305
0.022767328 -0.0098102633 0.0010222138 0.63298917 -0.3545478 -0.68820101 0.0025644461
0.024577811 -0.008681763 0.002409674 0.74377656 -0.28364146 -0.60526359 0.0025244905
0.00027404272 -0.0053450954 0.0023490263 -0.76009464 -0.23517486 -0.60576302 0.0020024811
0.0019366788 -0.0067507266 0.00094508124 -0.70530266 -0.23900321 -0.66740203 0.0021721406
0.0035928602 -0.0079147778 -0.00021133595 -0.63301587 -0.29066798 -0.71749783 0.0011604062
0.023382505 -0.0071467101 0.00033558998 0.67017007 -0.32377109 -0.66786551 0.00088819716
0.024891 -0.0064155948 0.0017414324 0.73756522 -0.29080975 -0.60944831 0.0012315484
0.00011582699 -0.0034346064 0.0018494998 -0.79965621 -0.21213433 -0.56173748 0.0028788839
0.0012994371 -0.003820973 0.00048973481 -0.7598207 -0.26216406 -0.59493065 0.0015182616
0.02395528 -0.0045969379 -0.00035657757 0.65921998 -0.30177966 -0.68873656 0.0015036959
0.025417404 -0.0036548185 0.0010451342 0.75089759 -0.27009588 -0.60266161 0.0011342912
-0.00029593412 -0.00071993563 0.0012875332 -0.83038181 -0.24115001 -0.50230742 0.0029271345
0.00090839458 -0.0014413167 -8.6990651e-05 -0.73260427 -0.2891115 -0.61620247 0.0015310281
0.026055491 -0.00089190574 0.00080797286 0.81054646 -0.21509346 -0.54474694 0.00072395755
0.027442928 0.00037249504 0.0025065613 0.88268584 -0.17193215 -0.43738428 0.0012165908
-0.00086886121 0.0021440482 0.00076803216 -0.84850395 -0.26668406 -0.45707846 0.0020734984
0.026577022 0.0021667629 0.00037685758 0.83192891 -0.18826567 -0.52196789 0.0009816183
0.027594045 0.0023371591 0.002049647 0.86094362 -0.15951657 -0.48304304 0.0014644831
-0.0019422551 0.0052515832 0.0010331303 -0.88384026 -0.26652467 -0.38443592 0.0012659041
0.027153352 0.0051178443 0.00032342202 0.86105621 -0.14152184 -0.48841971 0.0013030034
0.027943313 0.0055398089 0.0017841829 0.90023422 -0.10117947 -0.42348671 0.0032442368
-0.003190598 0.0086626513 0.0015635008 -0.90524644 -0.27977657 -0.31977177 0.0010632169
-0.0024339992 0.00775945 0.00029584626 -0.88183308 -0.3218528 -0.34464651 0.00088298012
0.027285129 0.0081932582 -0.00010980945 0.85793257 -0.089935444 -0.50582933 0.001125701
0.02809771 0.0082206037 0.0015298848 0.93404615 -0.048253313 -0.35387763 0.0043004211
-0.0038012357 0.011138857 0.00090465904 -0.91249186 -0.30652651 -0.27092448 0.0012458999
0.027268644 0.01008312 -0.00038311654 0.86426294 -0.049700912 -0.500579 0.0013571762
0.028064761 0.011196718 0.0012908194 0.91589969 -0.047192995 -0.39862332 0.0016939705
-0.0048084087 0.014135852 0.00054815295 -0.90401083 -0.3599509 -0.23065071 0.0010186218
0.027808541 0.014378695 0.00069785328 0.89769161 -0.00029663355 -0.44062427 0.0005190472
-0.0061302073 0.017695043 0.00054586655 -0.89487594 -0.37611881 -0.24027412 0.0013874338
-0.0054063806 0.016004603 -0.00031798356 -0.8905232 -0.38523784 -0.24199224 0.0014573194
0.027299372 0.017916495 0.00012635905 0.89731121 0.045265656 -0.43907133 0.00072481087
-0.0070691779 0.020516839 -2.2702152e-05 -0.89238769 -0.39072546 -0.22578239 0.0011891319
0.0051234392 -0.029903335 0.0052677747 -0.20286649 -0.28694639 -0.93621951 0.0032926544
0.0077027497 -0.030076472 0.0051180357 -0.005983524 -0.35103261 -0.93634415 0.0020702016
0.010501715 -0.029816149 0.00520794 0.15546876 -0.40200883 -0.90234047 0.0020753187
0.012747474 -0.029383169 0.0055036619 0.30739558 -0.44643033 -0.84036171 0.0023530789
0.0027794475 -0.027372688 0.0052304044 -0.40103325 -0.23918331 -0.88428712 0.0026366257
0.0048209666 -0.027647244 0.0046170475 -0.24858384 -0.27695656 -0.9281708 0.0030419133
0.0079266615 -0.027617132 0.0041451128 -0.052931257 -0.33458924 -0.94087631 0.0021974319
0.01104141 -0.02763035 0.004350327 0.15429576 -0.40688744 -0.9003529 0.001702179
0.013740892 -0.027407708 0.0048853075 0.30667216 -0.43572453 -0.84622473 0.0019995316
0.015778629 -0.026649067 0.005263634 0.42887729 -0.45525345 -0.78026193 0.0024767481
0.0022942433 -0.024709916 0.0049009621 -0.48127109 -0.18408771 -0.85702384 0.002914547
0.0048132064 -0.024725661 0.0037838311 -0.31063744 -0.26882002 -0.91172373 0.0044646449
0.0078362841 -0.024778169 0.00310133 -0.15057106 -0.31911406 -0.93567872 0.0039207018
0.011077951 -0.024796186 0.0031223667 0.10386679 -0.41016239 -0.9060787 0.0012853842
0.013891368 -0.024715634 0.0036039541 0.2371866 -0.41767922 -0.87708986 0.0016514553
0.016620018 -0.024599221 0.0046354048 0.42959982 -0.42601874 -0.79621106 0.0027387133
0.018498708 -0.023854513 0.0053204075 0.55661762 -0.43773803 -0.70608944 0.002497388
0.0020554655 -0.02182913 0.0045110574 -0.54428381 -0.15410328 -0.82462555 0.0028524727
0.0046453942 -0.021953467 0.0031053603 -0.34795821 -0.26626679 -0.89890331 0.0026195974
0.006630803 -0.022830948 0.0026272608 -0.21110544 -0.29960734 -0.9304139 0.0023362627
0.014199297 -0.022757417 0.0027381342 0.21893971 -0.43871912 -0.87154514 0.0018592897
0.016882041 -0.02199976 0.0034000946 0.37150261 -0.43771419 -0.81877476 0.0012653087
0.01928949 -0.021640817 0.0046192408 0.55660081 -0.42358282 -0.71468389 0.0018092671
0.00027082441 -0.018099055 0.0053372085 -0.65485376 -0.10449909 -0.74849617 0.002303934
0.0019160652 -0.018797839 0.0040698433 -0.58785117 -0.14294046 -0.79624057 0.0026243483
0.0039302227 -0.019263105 0.0028006358 -0.46192157 -0.20097058 -0.86385137 0.0023417722
0.017761094 -0.019976864 0.0027674607 0.39906088 -0.42472911 -0.81262267 0.0018534828
0.02005716 -0.018972654 0.0036894327 0.55884707 -0.41111076 -0.72019297 0.0034975696
0.022103976 -0.018055044 0.0049227215 0.65048099 -0.41473621 -0.6362927 0.0024663804
0.00015114436 -0.01545132 0.0050845705 -0.72079688 -0.097545266 -0.6862483 0.001601718
0.0018095144 -0.015782764 0.0035339135 -0.63539618 -0.15927555 -0.7555812 0.0021979222
0.020726286 -0.016681641 0.0028579419 0.52136552 -0.40238115 -0.75250733 0.0018632011
0.022775885 -0.015588475 0.0041501522 0.67957449 -0.38262913 -0.62591803 0.0026979845
3.1527161e-05 -0.012808889 0.0048950566 -0.76302701 -0.11253083 -0.63649553 0.0021134792
0.0013639987 -0.01286345 0.0033407907 -0.67747843 -0.16133744 -0.71763033 0.0023033307
0.023513453 -0.013028312 0.0034797995 0.73089308 -0.34518579 -0.58876324 0.0012455366
0.024886839 -0.012387274 0.0048096441 0.76470053 -0.32987192 -0.55355006 0.0014147749
-0.00017928358 -0.0098531004 0.0044747824 -0.8052426 -0.12393986 -0.57984763 0.0023559229
0.00094130321 -0.010079842 0.003052525 -0.71676797 -0.18536741 -0.6722222 0.001639167
0.024122909 -0.010598758 0.0028197838 0.72713286 -0.3106446 -0.61219096 0.00063363899
0.025370874 -0.0098096523 0.0040102918 0.77847987 -0.29736364 -0.5527603 0.0014260288
-0.00047274891 -0.0068571945 0.0040366603 -0.82357413 -0.18001224 -0.53788602 0.0020010329
0.00075052318 -0.0079720803 0.0026653928 -0.71191019 -0.22642481 -0.66476744 0.0014558613
0.026229663 -0.0068999245 0.0038428789 0.81947434 -0.27170372 -0.50461751 0.00073303876
-0.00096131314 -0.0037048412 0.0038124158 -0.86945695 -0.16985497 -0.46388993 0.0018794585
0.02685518 -0.0039265901 0.0033156711 0.84195197 -0.24043721 -0.48301852 0.0013528245
0.027693449 -0.0034622154 0.0046731718 0.87294585 -0.21189247 -0.439394 0.0014343313
-0.0016418993 -0.00082507217 0.0041012475 -0.90409976 -0.18185773 -0.38669285 0.0014912687
0.026968146 -0.0020109457 0.0025380922 0.8147282 -0.21487349 -0.53856045 0.00080128346
0.027940588 -0.00075617898 0.0039520571 0.8909381 -0.17797948 -0.417795 0.0013549157
-0.0021820134 0.0020916271 0.0038000217 -0.92028993 -0.20247017 -0.33477178 0.0012146111
0.028405232 0.0021732338 0.0038196265 0.90243733 -0.15077412 -0.40357667 0.00062910415
-0.0031452009 0.0055640554 0.0041354587 -0.92732489 -0.22824281 -0.29660356 0.00059412938
-0.0025924987 0.0044304761 0.0033648831 -0.91505533 -0.24051571 -0.32376832 0.00092282973
0.02876321 0.0051521752 0.0039082989 0.93467963 -0.072715208 -0.34797487 0.0040542264
-0.0036712533 0.0081387367 0.0037464572 -0.92043346 -0.26278883 -0.28938627 0.00032685301
0.029027481 0.0073194462 0.0049395338 0.94933003 -0.043851823 -0.31120643 0.0015338446
-0.004343038 0.011036223 0.003311353 -0.92297447 -0.28559989 -0.25797442 0.00099143293
-0.0049740043 0.01372936 0.0028722656 -0.91157383 -0.32574099 -0.25085059 0.0013172828
0.0021998801 -0.038283501 0.0085128918 -0.15740119 -0.3015489 -0.94036865 0.0028368509
0.0046154545 -0.038766403 0.0085104778 -0.011076113 -0.36833206 -0.92962831 0.0027147678
-5.444602e-05 -0.035693794 0.0083522676 -0.29718116 -0.23463403 -0.92554325 0.0022672282
0.0021015643 -0.036558654 0.0080186408 -0.18854129 -0.26496431 -0.94564587 0.002542563
0.0047999867 -0.036929671 0.0078288661 -0.012684708 -0.37404814 -0.92732251 0.00271958
0.0077172988 -0.036709815 0.0078696823 0.126283 -0.39717188 -0.9090144 0.0021683816
0.010346663 -0.035887986 0.0080623664 0.31875357 -0.44027406 -0.83937764 0.003901571
-0.00035286017 -0.033554479 0.0080436515 -0.39179087 -0.19185604 -0.89982837 0.0022007301
0.0019543394 -0.033593435 0.0072029615 -0.31718785 -0.21771008 -0.92303526 0.0020674604
0.0048877853 -0.033717718 0.0066268696 -0.10355857 -0.33608815 -0.93611985 0.0025261508
0.0076697757 -0.03367383 0.0065611592 0.065861158 -0.38190654 -0.92185122 0.0018573316
0.010863973 -0.033583466 0.0070690634 0.2580159 -0.43507239 -0.86263537 0.0037942058
0.013657905 -0.033167847 0.0079438342 0.43080568 -0.46631423 -0.77263021 0.0024589815
-0.00066357059 -0.030697288 0.0077121444 -0.50479406 -0.15327999 -0.84952229 0.0029730727
0.0019520291 -0.030645864 0.0063911788 -0.35020125 -0.22854887 -0.90836364 0.0042657382
0.0045667752 -0.031198351 0.0058072535 -0.14969361 -0.31554309 -0.93702954 0.00239617
0.007712265 -0.031558797 0.0057254955 0.034268424 -0.39138666 -0.91958803 0.0020054437
0.011078437 -0.031174855 0.0059478944 0.19353563 -0.43735063 -0.87821889 0.0023701731
0.014018141 -0.030703636 0.0067169527 0.34578511 -0.44177237 -0.82781023 0.0018070297
0.016307028 -0.030293835 0.0078115184 0.53005642 -0.47366691 -0.70333475 0.0010429565
-0.00086661638 -0.027772231 0.0074591124 -0.55894542 -0.11935364 -0.82056969 0.0029736191
0.0014812285 -0.027911885 0.0059815682 -0.43310565 -0.18247879 -0.88267833 0.0049989522
0.014617035 -0.028624455 0.0058215819 0.3338314 -0.43749842 -0.83495611 0.0031180112
0.016930789 -0.02784157 0.0067078266 0.4863385 -0.45205462 -0.7477442 0.002043725
0.018902445 -0.027192902 0.0078816786 0.58557367 -0.45423964 -0.67139399 0.0012808596
-0.00096945465 -0.024879199 0.0072457166 -0.65273201 -0.052350607 -0.75577796 0.0031183001
0.00091053278 -0.025081117 0.0057923803 -0.52811277 -0.12495435 -0.83993053 0.0026276824
0.017722452 -0.025729464 0.00592764 0.52080691 -0.45776829 -0.72056109 0.00065217784
0.019679321 -0.024836805 0.0070079993 0.59348065 -0.44964793 -0.66753083 0.0017025562
0.021514259 -0.023777608 0.0082887188 0.66776133 -0.42670134 -0.60993505 0.00059708883
-0.00093576196 -0.021777796 0.0069392864 -0.70279348 -0.086734332 -0.7060867 0.0036676421
0.00075052318 -0.022671718 0.0056323288 -0.58666986 -0.10640976 -0.80280477 0.0021556201
0.020493863 -0.022498533 0.0061393278 0.65158945 -0.42325997 -0.62950951 0.00090673025
0.022135232 -0.02147625 0.0073178085 0.68222868 -0.41752496 -0.60019737 0.00066294393
-0.0010448784 -0.018752504 0.0068204682 -0.75165516 -0.085056528 -0.65404886 0.0039831693
0.023126042 -0.018813431 0.0067068804 0.74644279 -0.37582639 -0.54916078 0.00015430331
0.024565144 -0.017977241 0.0081498399 0.7647754 -0.35979831 -0.53447533 0.00038225116
-0.0012449288 -0.015826927 0.0068914592 -0.80170745 -0.025599495 -0.59716827 0.0030842761
0.024167474 -0.016181871 0.0062657157 0.76655281 -0.35709766 -0.53373969 0.00049910211
0.025228536 -0.015538685 0.0074540088 0.78673112 -0.33965874 -0.51544738 0.00065837649
-0.0014161079 -0.012867032 0.0067909891 -0.83773535 -0.048957489 -0.54387742 0.0026623835
0.025968775 -0.012938153 0.0070448453 0.81742972 -0.30161786 -0.49074969 0.00071285566
-0.0016338425 -0.0098768771 0.006821637 -0.87727517 -0.085331701 -0.47234175 0.0028989401
0.026867624 -0.010092279 0.0067914482 0.84752387 -0.27765003 -0.4523426 0.00039131852
0.027767865 -0.0090416335 0.0078940839 0.88765842 -0.25462148 -0.38370618 0.0026476581
-0.0026299136 -0.006153312 0.0083276927 -0.92521888 -0.049653862 -0.37617105 0.002322058
-0.0018965055 -0.0066101211 0.0067537203 -0.90037841 -0.11539222 -0.41952768 0.0013020051
0.027159458 -0.0075537604 0.0057677701 0.85670978 -0.24673308 -0.4529582 0.0019111155
0.02795518 -0.0066148783 0.0070027113 0.90065289 -0.20319743 -0.384103 0.0011549589
-0.0026275844 -0.0047006202 0.0080187395 -0.93233508 -0.099446751 -0.34765181 0.003633322
-0.0022169873 -0.0037214798 0.0066786632 -0.93579197 -0.11769396 -0.3323276 0.0035020392
0.028475907 -0.0039166152 0.0068598408 0.90239871 -0.20614335 -0.37839344 0.001025634
-0.0031141397 0.00036607264 0.0084793046 -0.95923787 -0.11737204 -0.25707278 0.0013463079
-0.0024943883 -0.0010738769 0.0062715001 -0.94436598 -0.14127375 -0.29700941 0.0025507046
0.028986186 -0.0010762173 0.0068088807 0.91190362 -0.18331192 -0.36719006 0.00058053544
-0.003101137 0.0020514685 0.006970224 -0.94521338 -0.19340497 -0.26299477 0.00076452253
-0.0026094264 0.00084912358 0.0056101754 -0.95256054 -0.16334419 -0.25680149 0.0011304328
0.029095083 0.0015694792 0.006003432 0.91905427 -0.160523 -0.35996056 0.00051640457
-0.0033293446 0.0049291882 0.0055978075 -0.92994028 -0.22972883 -0.28711632 0.00058507855
0.029091628 0.0080545209 0.0059490874 0.94932687 -0.043856744 -0.31121531 0.0015408354
-0.0028155399 -0.044536937 0.011447159 -0.16639474 -0.31429031 -0.93463057 0.0027579144
-0.0007843998 -0.044915214 0.011221866 -0.11724847 -0.35296234 -0.928262 0.002407809
0.0018681253 -0.04492436 0.011109823 0.036145676 -0.43273517 -0.90079618 0.0031665722
0.0044566868 -0.044534702 0.011223238 0.20981553 -0.50059432 -0.83987063 0.003262334
-0.0035511518 -0.04247088 0.011123563 -0.31579238 -0.22026584 -0.92290741 0.0019721312
-0.00094803923 -0.042578351 0.010461763 -0.19242105 -0.28220069 -0.93986011 0.0029319006
0.0018966312 -0.042658482 0.010149325 -0.044426214 -0.36277157 -0.9308185 0.0024546837
0.0049397959 -0.042674199 0.01031026 0.17080528 -0.46396556 -0.86923045 0.0019913025
0.0075286306 -0.042265683 0.010743574 0.29219389 -0.50526696 -0.8119902 0.0028275568
0.0096623795 -0.041603599 0.011280415 0.41485706 -0.52095538 -0.74598873 0.0013450417
-0.0039084693 -0.039658081 0.010730347 -0.43715879 -0.12434596 -0.89074701 0.005682718
-0.00094505842 -0.039591745 0.0096254814 -0.23595867 -0.27655303 -0.93158036 0.0014218924
0.0019597958 -0.039785251 0.0090860762 -0.1130896 -0.32781973 -0.93794721 0.00072348007
0.004813625 -0.040024646 0.0090593938 0.054335948 -0.38466004 -0.92145771 0.0035538806
0.0078258459 -0.039637152 0.0093347877 0.22056763 -0.4636977 -0.85809928 0.0019788053
0.010516126 -0.039473113 0.010279892 0.40771094 -0.50546074 -0.76044798 0.0012949168
0.012738415 -0.038840283 0.011179976 0.48860073 -0.5165903 -0.70313853 0.00050855434
-0.0041035437 -0.036760055 0.010517653 -0.49661577 -0.077894323 -0.86446816 0.0034864144
-0.0011200883 -0.036812574 0.0090221008 -0.33635226 -0.23704801 -0.91141397 0.0030348322
0.00091156759 -0.037644081 0.0085680755 -0.18146834 -0.24390906 -0.95266867 0.001935143
0.0089655891 -0.037809972 0.0086244419 0.22264628 -0.49249819 -0.84135258 0.0064388984
0.011181775 -0.037047409 0.0090457285 0.36443311 -0.47320652 -0.80203748 0.0018521613
0.013820338 -0.036645297 0.010408348 0.48460692 -0.48867714 -0.7255004 0.0015834332
0.01581615 -0.035599951 0.011176772 0.57182842 -0.49418661 -0.65482193 0.00076499255
-0.0040283473 -0.033878326 0.010276313 -0.58744723 -0.070267379 -0.80620605 0.0031597505
-0.0017637345 -0.033865113 0.0088522527 -0.47685042 -0.11165442 -0.87186402 0.0029233368
0.01451292 -0.034357291 0.0092696883 0.48522899 -0.46959293 -0.73758751 0.0021764047
0.016665798 -0.033581331 0.010446513 0.57069087 -0.47289568 -0.67132819 0.00073304464
-0.0038897803 -0.030863037 0.010126589 -0.64226443 -0.004556702 -0.7664696 0.0028386284
-0.0020799739 -0.030976577 0.0086369971 -0.55067962 -0.076246366 -0.83122712 0.0027513253
0.017454285 -0.031226272 0.00947088 0.6004737 -0.46569282 -0.6500473 0.00043994753
0.019314511 -0.030538065 0.01073294 0.64021736 -0.4607749 -0.6146611 0.0007730783
-0.0038497762 -0.02787037 0.010052108 -0.71353751 0.023395414 -0.70022625 0.0022024917
-0.0021483421 -0.028864237 0.0085362867 -0.58566862 -0.065754846 -0.80787903 0.0039923252
0.018144388 -0.029106947 0.0085536912 0.57445037 -0.45391601 -0.68115121 0.001930222
0.02009365 -0.028090077 0.0097842729 0.66020781 -0.44829008 -0.60262901 0.00039892818
0.021941075 -0.0268989 0.010945354 0.69343483 -0.43251237 -0.57626492 0.00039051872
-0.0035672674 -0.02474138 0.0098012434 -0.75229967 0.025288552 -0.65833557 0.0036709402
0.020872902 -0.02585171 0.0090602171 0.64846522 -0.44323757 -0.6188969 0.00056832051
0.022566112 -0.024495017 0.010046447 0.72601157 -0.41567707 -0.54783189 0.0014099842
-0.0035428696 -0.021754028 0.0098861856 -0.80762678 0.026801135 -0.58908457 0.0035515781
0.023538074 -0.02197082 0.0094672972 0.75444686 -0.39626729 -0.52324206 0.00067678676
0.024807801 -0.021212403 0.010682422 0.78811234 -0.3760201 -0.48732719 0.0013284903
-0.0033690915 -0.01877448 0.0098293461 -0.85272318 0.045502484 -0.52037758 0.0046440535
0.023946188 -0.019930307 0.0086280778 0.73604208 -0.39268529 -0.55139858 0.00021847255
0.025336968 -0.018788915 0.0098626912 0.80929208 -0.34946051 -0.47214806 0.0012171621
-0.0032242918 -0.015967174 0.0099039227 -0.89079732 0.073189825 -0.44846785 0.0063253921
0.026427653 -0.016010564 0.0097620068 0.8431862 -0.32506728 -0.4282153 0.0008516892
0.027477931 -0.014944468 0.011144154 0.87109864 -0.29377279 -0.39355394 0.0019438962
-0.0031543372 -0.012878485 0.010088697 -0.91913491 0.019710701 -0.3934494 0.003978963
0.02711167 -0.01293624 0.0090437559 0.87051541 -0.28171197 -0.40353605 0.0016442918
0.027713625 -0.013013665 0.010439893 0.90256065 -0.23745075 -0.35916775 0.0018994255
-0.0028814897 -0.0098037757 0.0095403763 -0.92635685 -0.051420771 -0.37312052 0.0015054187
0.028260645 -0.0098064095 0.0096358163 0.91664577 -0.22399624 -0.33103806 0.00090766331
-0.0030048478 -0.0069026272 0.0098161511 -0.94713843 -0.053715587 -0.31629631 0.001118286
0.028823741 -0.006654154 0.0093504013 0.92085159 -0.20305672 -0.33286685 0.00091314834
-0.0031300776 -0.0037590028 0.0103291 -0.96067113 -0.059114605 -0.27132341 0.0013178375
0.029283777 -0.0030200621 0.0089729605 0.91415274 -0.18460488 -0.3608959 0.00043268196
-0.0031211979 -0.0010873061 0.0092984932 -0.96108562 -0.098262586 -0.25818384 0.0017344331
-0.0064680865 -0.050659653 0.014339656 -0.23079011 -0.34136727 -0.91115546 0.0035597098
-0.0041414183 -0.051004048 0.014139937 -0.06886138 -0.46353692 -0.88339782 0.0037144197
-0.0011011451 -0.050861266 0.014113756 0.083611146 -0.53575784 -0.84022182 0.0036692554
0.00099523761 -0.05053227 0.014295347 0.2285298 -0.58407062 -0.7788682 0.0022894354
-0.0090383394 -0.048095249 0.014384793 -0.36108854 -0.21981834 -0.90625322 0.0027277111
-0.0072205826 -0.048679084 0.013888184 -0.27106705 -0.25543475 -0.92804945 0.002972987
-0.004130953 -0.048694775 0.013148371 -0.15659647 -0.35794595 -0.92051739 0.0038903216
-0.0009568797 -0.04866723 0.012894152 0.029564297 -0.47330439 -0.88040262 0.001165722
0.001936464 -0.048670109 0.01323754 0.18495296 -0.52346826 -0.83172917 0.0038069433
0.0046845926 -0.048218012 0.013792723 0.30768389 -0.57447684 -0.75848997 0.0017252136
0.0068680518 -0.047601108 0.014341526 0.40503517 -0.58827293 -0.69991529 0.0013090062
-0.0094263023 -0.045728907 0.014218578 -0.48369697 -0.10430129 -0.86899859 0.0023694257
-0.0073054754 -0.045774516 0.013233205 -0.36978459 -0.18689547 -0.91012615 0.003498635
-0.0042205141 -0.045747299 0.01217868 -0.25883254 -0.29704869 -0.91911256 0.0045077801
-0.0011389643 -0.046358597 0.011815736 -0.052386198 -0.40419286 -0.91317236 0.0028532932
0.002089177 -0.046426792 0.011886049 0.10624719 -0.48008144 -0.87076592 0.0029342547
0.0050139264 -0.04597554 0.01230775 0.2581504 -0.52903056 -0.80838418 0.0013419625
0.0076960665 -0.045609429 0.013229612 0.37802699 -0.56342584 -0.73460656 0.0018230061
0.010041624 -0.044906747 0.013967114 0.48293117 -0.57498217 -0.66043407 0.0013449974
-0.0095216427 -0.042928863 0.014103083 -0.55934912 -0.009385339 -0.82887906 0.0025878849
-0.0072977566 -0.042802352 0.012788998 -0.44376147 -0.099845886 -0.89056534 0.0035923682
-0.005122127 -0.043016482 0.01181342 -0.3598845 -0.15855943 -0.91942483 0.0024096586
0.0084075481 -0.043498807 0.011978542 0.3439146 -0.52777356 -0.77664524 0.0013508754
0.010813985 -0.04287906 0.012944479 0.46731928 -0.54130018 -0.69900411 0.0017337332
0.012974935 -0.042180203 0.013942685 0.55728644 -0.55337381 -0.61903906 0.0012458373
-0.0093469396 -0.039959174 0.014106253 -0.6280061 0.073498741 -0.77472979 0.0026464602
-0.0072951522 -0.03986172 0.012631619 -0.54731476 0.0062315697 -0.83690369 0.0027964392
-0.0055728513 -0.04000964 0.011571778 -0.47255316 -0.065502562 -0.87886453 0.00338987
0.011619776 -0.040680967 0.011818823 0.4522627 -0.52798945 -0.71880847 0.00067945704
0.013821099 -0.040026516 0.012866192 0.55327713 -0.5309484 -0.6418553 0.0010842914
0.015853968 -0.039191004 0.013930991 0.61819476 -0.53199518 -0.57863325 0.0027746686
-0.0090353005 -0.037070662 0.014243705 -0.69002146 0.13725458 -0.71065575 0.0021327112
-0.0073502739 -0.036862466 0.012827162 -0.64087492 0.068919405 -0.76454526 0.0031022802
0.014967499 -0.03771181 0.012005324 0.57210988 -0.49923986 -0.65073019 0.00093397003
0.016817445 -0.036813494 0.012994537 0.62036473 -0.50186497 -0.6027264 0.0025720287
0.018852562 -0.035599735 0.014200218 0.70299768 -0.48548621 -0.51970893 0.0037212602
-0.0071415468 -0.033836756 0.012997514 -0.72026294 0.12656541 -0.6820575 0.0024627529
-0.0055722268 -0.032953236 0.011527143 -0.65430808 0.030219883 -0.75562406 0.0037510069
0.01784288 -0.034575298 0.01219175 0.60233301 -0.4860315 -0.63322061 0.00065417774
0.019594943 -0.033421408 0.013211496 0.70065778 -0.47699893 -0.5306136 0.0029980741
-0.0068358262 -0.030750064 0.013202222 -0.76943833 0.1292617 -0.62550461 0.0034046054
-0.0055745924 -0.030776197 0.011696112 -0.74244726 0.057420883 -0.6674391 0.0022836719
0.020620733 -0.031005921 0.012509665 0.70073241 -0.45618457 -0.54851598 0.0022151547
0.022039169 -0.029931912 0.013587724 0.75182533 -0.44679764 -0.48490265 0.002411722
-0.0065467465 -0.027791964 0.013385044 -0.81835151 0.1314867 -0.55947489 0.0028625769
-0.00550916 -0.027458254 0.011985702 -0.80189329 0.066594854 -0.59374428 0.0027428837
0.022756353 -0.027812244 0.012793373 0.76297075 -0.42605621 -0.48616016 0.0019088999
-0.0062870434 -0.025003161 0.013700325 -0.85475636 0.14553395 -0.49820825 0.002170831
-0.0053370767 -0.024717662 0.012108684 -0.83956593 0.088253453 -0.53604144 0.0023802267
0.023873065 -0.025251931 0.012445794 0.81993878 -0.38728887 -0.421554 0.002181791
0.024845427 -0.024141397 0.013421653 0.84877676 -0.36872703 -0.37897015 0.0027175851
-0.0060996497 -0.022147607 0.014250113 -0.92461109 0.15031141 -0.35000116 0.0020410873
-0.005240202 -0.021683946 0.012654297 -0.89151663 0.14783689 -0.42818499 0.0016578009
0.025535082 -0.021939401 0.012765095 0.85858363 -0.35485929 -0.37001213 0.0021376577
-0.0050428398 -0.019029073 0.012867747 -0.90684539 0.1535334 -0.39250344 0.0046438612
0.026590219 -0.018895751 0.012612123 0.85428804 -0.34744239 -0.38662106 0.0022177771
-0.0045809941 -0.015875323 0.012855317 -0.93562984 0.11624922 -0.33329102 0.0029829226
0.027047487 -0.017169122 0.012098558 0.86997616 -0.32407337 -0.37164217 0.0027935319
0.027566116 -0.015971798 0.012632824 0.89343816 -0.30598885 -0.32884511 0.0015189127
-0.0041286726 -0.01281134 0.012970243 -0.94632375 0.093704492 -0.3093392 0.0016796646
0.028283615 -0.012796026 0.012405954 0.90256572 -0.2374492 -0.35915595 0.001896586
-0.0036337588 -0.0096233673 0.012248658 -0.94097048 0.016475892 -0.33808747 0.0019179444
0.028981943 -0.0088858344 0.011882998 0.92043096 -0.21997581 -0.32313704 0.00080052775
-0.0071330993 -0.056307402 0.017435612 -0.0062274067 -0.60135913 -0.79895461 0.0030614259
-0.012407104 -0.053751227 0.017249489 -0.39449707 -0.28657147 -0.87306869 0.0025017031
-0.010190479 -0.054630935 0.016891748 -0.23335643 -0.40709513 -0.88307327 0.0041892547
-0.0071158903 -0.054707006 0.016425811 -0.065849803 -0.5152871 -0.85448408 0.0053840205
-0.0039906348 -0.054641556 0.0164642 0.10519343 -0.60438275 -0.78971887 0.0015601434
-0.0011077372 -0.054277483 0.016716653 0.20053542 -0.6468997 -0.73573524 0.0023235143
0.0015244167 -0.05381171 0.017166907 0.32565576 -0.66149837 -0.67555022 0.0013318068
-0.012955772 -0.051532496 0.016944889 -0.42771065 -0.19758835 -0.88205582 0.00286188
-0.010299381 -0.051942606 0.015906077 -0.31803843 -0.28338835 -0.90473342 0.0053347019
-0.0074456315 -0.051988449 0.015110938 -0.21543169 -0.35486418 -0.90975851 0.0030032487
-0.0041507538 -0.052574407 0.015015338 0.0046438552 -0.51210701 -0.85890907 0.0031159825
-0.00087637419 -0.052422859 0.015241437 0.14452371 -0.60392356 -0.78382981 0.0021014074
0.0019700786 -0.051880434 0.015706474 0.25839436 -0.60545617 -0.75276512 0.00067713432
0.0046590217 -0.051405661 0.016521625 0.39450073 -0.65893513 -0.64044803 0.0011257186
0.0070271576 -0.050470322 0.017011903 0.47197694 -0.64406621 -0.60201037 0.0013128886
-0.01302099 -0.048676793 0.016588533 -0.5122419 -0.084465049 -0.85467768 0.0030189615
-0.010394234 -0.048987713 0.015220128 -0.38646314 -0.20378213 -0.8995105 0.0023011623
-0.0083904555 -0.049915794 0.014617549 -0.26525223 -0.2544429 -0.93000001 0.0028240276
0.0031991799 -0.050082926 0.014652438 0.29231676 -0.61537206 -0.73203015 0.0017842106
0.0052292077 -0.049687561 0.015206313 0.34016436 -0.62358737 -0.70386577 0.0014608132
0.0078230472 -0.048733097 0.015924668 0.43773919 -0.60235322 -0.66749907 0.0010083623
0.010241461 -0.04772874 0.016856993 0.56824613 -0.62209821 -0.53860021 0.002608398
-0.012987017 -0.045674682 0.016507788 -0.60348541 0.048272833 -0.79591143 0.0013941207
-0.010903268 -0.045987427 0.015090182 -0.52249229 -0.037860289 -0.851803 0.002242601
0.0086884554 -0.046973567 0.014888901 0.43786982 -0.6092332 -0.66113907 0.00092957873
0.010931374 -0.046018533 0.015707133 0.50771075 -0.59292167 -0.62503886 0.0016811885
0.013106208 -0.044964384 0.016785569 0.59595782 -0.59194213 -0.54262221 0.0013815559
-0.012743569 -0.042732 0.016610499 -0.65084797 0.12102657 -0.7494995 0.0030172141
-0.010991831 -0.042711586 0.0151571 -0.6206789 0.053587172 -0.78223145 0.0019329796
0.012020576 -0.044231061 0.01490397 0.56291676 -0.58818531 -0.58065724 0.0018771559
0.01397653 -0.042960588 0.015635313 0.62407273 -0.55525559 -0.54974937 0.0034441275
0.015836591 -0.041784696 0.016691236 0.67721701 -0.5599553 -0.47731245 0.001612006
-0.012386099 -0.039998457 0.016890928 -0.70548254 0.20700026 -0.67782396 0.0023742775
-0.010777981 -0.039620835 0.015411383 -0.65441865 0.13192952 -0.74453402 0.0018385041
0.016864063 -0.039722592 0.015738266 0.68248177 -0.5467779 -0.48502848 0.0034305304
0.018475974 -0.03854074 0.017105766 0.74895787 -0.52754605 -0.40094528 0.0017425765
-0.012057509 -0.037821215 0.017331369 -0.74275947 0.29234472 -0.60236448 0.0019243316
-0.010462668 -0.036714744 0.015862489 -0.73283076 0.23055086 -0.64016032 0.0028178699
0.017902914 -0.03762139 0.014965259 0.68116957 -0.53525817 -0.4995065 0.0037717097
0.019224988 -0.036552127 0.015948195 0.75696111 -0.51191938 -0.40613845 0.0030491329
-0.0098027345 -0.033926595 0.016115788 -0.78412378 0.24488738 -0.57024556 0.0033819687
-0.0085566444 -0.033195332 0.01476343 -0.74581677 0.17485565 -0.64279306 0.0020257416
0.020705612 -0.033990666 0.015547823 0.813209 -0.45048884 -0.36844406 0.0023909789
0.021656599 -0.033092599 0.016673915 0.81198215 -0.46873134 -0.3478159 0.0022146255
-0.0092848353 -0.031076042 0.016685547 -0.84144962 0.26681656 -0.46986324 0.0018827516
-0.0083438596 -0.030667992 0.015248448 -0.83089978 0.18600713 -0.52441102 0.0027904639
0.022470456 -0.030871021 0.015679296 0.84112632 -0.43028024 -0.32766667 0.0021158038
-0.0091028027 -0.029203491 0.017377503 -0.8874703 0.23938188 -0.39381808 0.0033889569
-0.0079742111 -0.027922826 0.015914114 -0.87127125 0.19319817 -0.45117727 0.0027589698
0.023885397 -0.027845373 0.015360279 0.84278429 -0.40324217 -0.3565253 0.0020855174
0.024402052 -0.027729766 0.017446108 0.86353141 -0.4147124 -0.28692725 0.00064978021
-0.0073363087 -0.025013531 0.015883185 -0.91746283 0.19555932 -0.34643692 0.0026018028
0.024972564 -0.025500793 0.015818544 0.87258786 -0.38830128 -0.29633173 0.00098262902
-0.0067075645 -0.021925533 0.01604276 -0.9291181 0.17028724 -0.32824057 0.0011019435
0.025746334 -0.023166437 0.015007652 0.88400459 -0.36271396 -0.29491434 0.00083497009
-0.006024993 -0.019083956 0.015814073 -0.94057667 0.17210259 -0.29273918 0.0012529972
-0.0056206146 -0.018019069 0.014983155 -0.93831092 0.17531793 -0.29805407 0.0012626826
0.026724378 -0.020223979 0.014969416 0.88085985 -0.34146035 -0.32785791 0.00079156744
-0.0056451228 -0.01686186 0.016733594 -0.95014346 0.18207583 -0.25313187 0.00064700277
-0.005134319 -0.015579183 0.015276559 -0.93974066 0.15568194 -0.3043856 0.0018065221
-0.0046390593 -0.013604548 0.014866628 -0.94048452 0.11663447 -0.31919467 0.0018722592
-0.012143276 -0.059652317 0.020392604 -0.13462701 -0.61600673 -0.77615154 0.0041750087
-0.0099088242 -0.059636544 0.02027259 -0.0024243337 -0.71466208 -0.69946569 0.0048348554
-0.0079286117 -0.059656929 0.020427801 0.10100031 -0.73822004 -0.66695589 0.002708026
-0.015904205 -0.057345282 0.020012258 -0.36890712 -0.39462736 -0.84153247 0.006593531
-0.013268376 -0.05778249 0.01933434 -0.23959024 -0.50455987 -0.82946718 0.0054469197
-0.010158861 -0.057728067 0.018757546 -0.11676507 -0.55451852 -0.82393873 0.0047201863
-0.0069762971 -0.057839502 0.018780593 0.093229383 -0.68002689 -0.72723573 0.0020524331
-0.0040284018 -0.057507373 0.018984066 0.1827796 -0.72016388 -0.66929489 0.0019759536
-0.0011707977 -0.057064328 0.019528806 0.2917361 -0.72763455 -0.62083656 0.0015404061
0.0009983686 -0.056630906 0.020025007 0.37613729 -0.73366392 -0.56591338 0.001470895
-0.018091045 -0.054436069 0.020315662 -0.51643956 -0.1775883 -0.83770674 0.0040162634
-0.016321413 -0.054817721 0.019370934 -0.4443143 -0.24555361 -0.86156154 0.0034111112
-0.013525747 -0.054859415 0.018100647 -0.38532382 -0.27503592 -0.88084096 0.002632577
-0.011204002 -0.055718988 0.017658003 -0.22066912 -0.39360759 -0.89240021 0.003919268
-0.0029467409 -0.055842873 0.017663293 0.13482915 -0.63924271 -0.75709295 0.0018145674
-0.00077062473 -0.055610456 0.018109351 0.23613523 -0.67672753 -0.69733781 0.00102927
0.0021303401 -0.055017326 0.018804334 0.36831829 -0.71094424 -0.59908271 0.0027920327
0.0045685912 -0.054043084 0.019395998 0.46128458 -0.70244235 -0.54202509 0.0015075251
-0.01821124 -0.052070145 0.020222541 -0.6109271 0.0025504963 -0.79168278 0.0027332378
-0.016304374 -0.051795464 0.018907841 -0.55701864 -0.046097875 -0.82921964 0.0010578005
-0.014370233 -0.051909111 0.017749364 -0.47498363 -0.12791526 -0.87064815 0.0024272925
0.0054184287 -0.052601576 0.018304884 0.41136146 -0.68385863 -0.60259372 0.0015900537
0.0077731712 -0.051571373 0.019104768 0.52427638 -0.70035934 -0.48438737 0.0029436254
0.0096678231 -0.050673012 0.019920893 0.60619885 -0.6625762 -0.43990418 0.0018259421
-0.018090852 -0.04947703 0.020310931 -0.67019987 0.12701285 -0.73123181 0.0022318906
