# .PCD v0.7 - Point Cloud Data file format
VERSION 0.7
FIELDS x y z normal_x normal_y normal_z curvature
SIZE 4 4 4 4 4 4 4
TYPE F F F F F F F
COUNT 1 1 1 1 1 1 1
WIDTH 553
HEIGHT 1
VIEWPOINT 0 0 0 1 0 0 0
POINTS 553
DATA ascii
0.018856272 -0.003706242 -0.0069236546 0.52447432 -0.5713709 -0.63123852 0.0022895017
0.020783935 -0.0030016368 -0.0057657119 0.60957921 -0.50050938 -0.61473864 0.0012007686
-0.0027773983 -0.0007688133 -0.0063901506 -0.69462448 -0.698232 -0.17311513 0.0021140524
0.021640498 -0.00078668259 -0.0065702982 0.68230593 -0.42107147 -0.59762645 0.001903181
0.023114849 8.0820173e-05 -0.0053863106 0.7379992 -0.36890233 -0.56503826 0.0018148973
-0.0047625476 0.0013242047 -0.0057128146 -0.71849656 -0.68329608 -0.12988092 0.00097353931
0.022616833 0.0019781915 -0.0071195168 0.76854146 -0.28262189 -0.57399374 0.0016596232
0.023789342 0.0026420765 -0.0058474401 0.80536705 -0.2430872 -0.54064083 0.0022686548
0.024142737 0.0054250299 -0.006232582 0.86466426 -0.12314529 -0.48702258 0.0022380487
0.024311988 0.008532797 -0.0062268013 0.90931666 0.03648372 -0.4145022 0.0024603873
0.024023036 0.011365928 -0.0064005838 0.92019349 0.15461792 -0.35963488 0.0019414629
0.022751914 0.015246777 -0.0071589053 0.90660399 0.25084132 -0.33933431 0.0019344717
0.023458842 0.013733689 -0.0065175309 0.92166072 0.21835607 -0.32072112 0.003105598
0.022215936 0.016902415 -0.0062741712 0.90970272 0.29543141 -0.29182401 0.0010121407
0.011867618 -0.011127862 -0.0018405989 -9.8928889e-05 -0.79295903 -0.60927492 0.0033301411
0.0044631604 -0.0084140124 -0.0023891777 -0.46814007 -0.76210362 -0.44726169 0.0018499215
0.0065038586 -0.0090405447 -0.0030695545 -0.3242937 -0.79708463 -0.50940132 0.0036815971
0.009441793 -0.0097752707 -0.0033098217 -0.1455887 -0.81111264 -0.56648052 0.0041502309
0.012601346 -0.0098230364 -0.0034069978 0.087728925 -0.78750372 -0.61003411 0.0016314829
0.015297359 -0.0093873246 -0.0032260148 0.22937231 -0.75386918 -0.6156863 0.0018660706
0.017856698 -0.0087902723 -0.0026123356 0.41226706 -0.65563351 -0.63259828 0.0013872501
0.0010087844 -0.0055259224 -0.0028880779 -0.62298632 -0.71869063 -0.30882326 0.0019202314
0.003277177 -0.0070172278 -0.0034208717 -0.47938311 -0.77124596 -0.4187738 0.0017755211
0.0054963706 -0.0077842111 -0.0043975785 -0.31919673 -0.82577199 -0.46498814 0.0028686244
0.016230263 -0.0077792862 -0.0046256259 0.30493173 -0.69165772 -0.65469557 0.0016965143
0.018795492 -0.0070579732 -0.0037599765 0.44593796 -0.64708972 -0.61839646 0.0013133903
0.021147771 -0.0059785424 -0.0028321566 0.56460351 -0.56305379 -0.60348433 0.0013646085
-0.0016547784 -0.0027519837 -0.003287877 -0.7360428 -0.65001166 -0.18901275 0.0023032886
-0.00026694243 -0.004220088 -0.0031481311 -0.69441104 -0.67745912 -0.24257475 0.0012008306
0.021990793 -0.0037245369 -0.0039143395 0.63942218 -0.48624775 -0.59556895 0.0022191294
0.023539362 -0.0030707596 -0.002640306 0.70466352 -0.43378198 -0.56150019 0.00088561396
-0.0040973797 0.0001496505 -0.0025878325 -0.75091654 -0.64242589 -0.15301414 0.0009898016
-0.0031506808 -0.00094012637 -0.0035418542 -0.72271687 -0.66994572 -0.16986187 0.0018292173
0.024266537 -0.00057844445 -0.0033095442 0.77847326 -0.32698807 -0.53577822 0.0019611926
0.025124468 0.0024677874 -0.0035380451 0.8388707 -0.2131644 -0.50085622 0.00091771135
0.025948012 0.0024955599 -0.0020725308 0.86246085 -0.16566557 -0.47824284 0.0032308435
0.025635306 0.0055351532 -0.0034309328 0.9097563 -0.044358734 -0.41276613 0.0023494305
0.025537753 0.0082961451 -0.0034973156 0.93097717 0.096863367 -0.3519927 0.0044294037
0.025941569 0.0088328626 -0.002183266 0.94805992 0.14967793 -0.2806758 0.0024598506
0.024860123 0.011450766 -0.0035410002 0.93464631 0.19368008 -0.29820183 0.0013327457
0.023933999 0.01369418 -0.0045948699 0.932087 0.22740419 -0.28195941 0.00230932
0.0069941031 -0.011457228 0.00045655109 -0.4163886 -0.77039909 -0.48281023 0.0016677416
0.0094388453 -0.011949894 -0.00020388234 -0.21279652 -0.81747067 -0.53521895 0.0024609133
0.012422675 -0.012204808 -0.0003119735 0.025420666 -0.79802871 -0.60208303 0.0042284555
0.015374146 -0.012020235 -3.0350871e-05 0.20208791 -0.76279891 -0.61424619 0.0022417419
0.01799258 -0.011512968 0.0005666865 0.37325701 -0.70134056 -0.60728961 0.0012172242
0.0038941028 -0.0092042414 -8.7914988e-05 -0.543607 -0.74424428 -0.38806152 0.0031481453
0.0062442673 -0.010364422 -0.00069119409 -0.40927979 -0.77826631 -0.47622645 0.004878222
0.0081140324 -0.01066582 -0.0015637353 -0.26134267 -0.80087984 -0.53878719 0.0028968337
0.016226679 -0.010551051 -0.0014670491 0.23050234 -0.74484587 -0.62615758 0.0017154658
0.018691598 -0.0098888846 -0.00081793312 0.4150663 -0.67141563 -0.61393887 0.0022826565
0.021079652 -0.009220968 0.00033268239 0.52579641 -0.60793132 -0.5949434 0.0015130983
0.00046339119 -0.0061213216 5.3794123e-05 -0.74537808 -0.62750924 -0.22504142 0.0018463182
0.0023816475 -0.007673434 -0.00080331136 -0.64016211 -0.69460034 -0.32821161 0.001276206
0.022103205 -0.0072362972 -0.00069723837 0.59909636 -0.54180396 -0.58951849 0.0022618722
0.023815714 -0.0059946319 0.0001178626 0.67858529 -0.48401028 -0.55249983 0.0015862689
-0.0019536007 -0.0031589493 -0.00024147797 -0.78827542 -0.60029078 -0.13517727 0.0022395318
-0.00082100299 -0.004568683 -0.0005576089 -0.75530696 -0.62430012 -0.19940113 0.0012070698
0.024887173 -0.0035570059 -0.00047267787 0.7756027 -0.3744019 -0.50819647 0.00075039454
0.02611522 -0.0026974501 0.00080253929 0.80378962 -0.34086451 -0.48757929 0.0023966462
-0.0034091151 -0.0010322873 -0.00095093995 -0.77807236 -0.61413878 -0.13204916 0.0019059329
0.025428891 -0.0011718739 -0.0012937207 0.81961244 -0.27777854 -0.5010733 0.0015177225
0.026407169 -0.00043209642 2.0635314e-05 0.87244409 -0.21210971 -0.44028485 0.0025783167
0.026661389 0.0023519159 -0.00045121461 0.92078716 -0.093402617 -0.37871754 0.0023199259
0.02674734 0.0055625527 -0.00049104542 0.95331061 0.046566967 -0.29837972 0.0025944875
0.026369756 0.008147737 -0.00089462101 0.94789076 0.15004858 -0.28104916 0.0023776395
0.025550103 0.010974569 -0.00081751496 0.94847929 0.17605546 -0.26342282 0.0020584413
0.0077334279 -0.014153332 0.0039756224 -0.43004724 -0.75741082 -0.49131262 0.0013383826
0.0096244328 -0.014504778 0.0033452306 -0.27279156 -0.77990294 -0.56332606 0.0043301005
0.01250625 -0.014747222 0.0030211098 -0.037162341 -0.80941141 -0.58606499 0.0027584238
0.015423285 -0.014700663 0.003309017 0.1623912 -0.76761788 -0.61999345 0.0023199003
0.01780214 -0.014304682 0.0037684459 0.3356896 -0.72862613 -0.5970062 0.0011396462
0.004395226 -0.011550694 0.0033523273 -0.57124567 -0.70699751 -0.41693273 0.002383668
0.0065032914 -0.012595932 0.0026204512 -0.40019858 -0.7653718 -0.50403082 0.0017466735
0.009079108 -0.013349532 0.0019596927 -0.21337533 -0.78547543 -0.5809468 0.0023865316
0.012427475 -0.013592257 0.0015081773 -0.015198513 -0.81269085 -0.58249688 0.0028091692
0.015752343 -0.013445192 0.0018203016 0.17655569 -0.75747818 -0.62853402 0.0017467714
0.018541789 -0.012874383 0.0024507474 0.35466179 -0.71856236 -0.59823334 0.0012749928
0.020921804 -0.011921418 0.0030729026 0.49118575 -0.65007383 -0.57977629 0.0015691294
0.0011627553 -0.0083309626 0.0033262894 -0.71984696 -0.62514162 -0.30169228 0.002386658
0.003111931 -0.0098569309 0.0023583528 -0.61587453 -0.70015514 -0.36122206 0.0028464352
0.022028403 -0.010126428 0.0021436792 0.52749747 -0.62807375 -0.57207495 0.001764414
0.023977751 -0.0090733087 0.0031777844 0.65328342 -0.53242892 -0.53827518 0.0016986992
-0.0013095299 -0.0051005948 0.0034696385 -0.82580715 -0.53758138 -0.17043687 0.0019508973
0.00027559325 -0.006821637 0.0023109969 -0.74464101 -0.6166172 -0.25552505 0.0022063912
0.025059614 -0.0066824136 0.0023863185 0.7348268 -0.44535953 -0.51155084 0.0012157421
0.026439225 -0.0056585232 0.0036451984 0.78480166 -0.40024358 -0.47317159 0.001883712
-0.0020202172 -0.0038263472 0.0029686671 -0.828695 -0.53694087 -0.1579847 0.0022093614
0.025686979 -0.0045986194 0.0015803799 0.8106401 -0.3460044 -0.4723807 0.002381277
0.02688406 -0.0033693155 0.0027864259 0.86079842 -0.29815078 -0.41247082 0.0026588195
-0.0032150664 -0.0017750133 0.0038731322 -0.84630007 -0.51945388 -0.11808415 0.00090836629
0.027567245 -0.00057891477 0.002637431 0.89238316 -0.20326065 -0.40291134 0.0016549046
0.027887821 0.0025060321 0.0027051177 0.95271748 -0.008479394 -0.30373916 0.0025284232
0.027638629 0.0051160138 0.0025207102 0.95790482 0.043765798 -0.28373027 0.002539072
0.026914626 0.0079585444 0.0023117736 0.96219534 0.11996339 -0.24451752 0.0024010506
0.010079322 -0.017225802 0.0068375804 -0.30226386 -0.78149563 -0.54580319 0.0031634269
0.012321781 -0.017354365 0.0064778533 -0.059654169 -0.80533159 -0.5898155 0.0025580772
0.015238917 -0.017319839 0.0066052321 0.13268057 -0.78906 -0.59981686 0.0023370904
0.017369993 -0.017138258 0.0070361122 0.30605984 -0.75133944 -0.58465064 0.0015990216
0.004906334 -0.014260651 0.0069948062 -0.5675568 -0.68205088 -0.46117881 0.0018768868
0.0068080248 -0.014964244 0.0059194248 -0.45393124 -0.74177796 -0.49367183 0.0026020738
0.009277801 -0.0159242 0.0055124611 -0.27988112 -0.75440741 -0.59374732 0.0032605496
0.012147337 -0.016236052 0.0050246287 -0.043942142 -0.78320354 -0.62021065 0.0023007526
0.015516879 -0.016156692 0.0051915366 0.13690014 -0.7698788 -0.62333375 0.0020404493
0.018584644 -0.015548826 0.005743254 0.33229691 -0.7157656 -0.61421365 0.0020418649
0.020917512 -0.014718139 0.0063885078 0.47970149 -0.66826499 -0.56860203 0.0011269213
0.0037237378 -0.012453997 0.0059369225 -0.64870769 -0.64910871 -0.39728618 0.0022123577
0.0057443511 -0.013518111 0.0048898738 -0.45740151 -0.74052954 -0.49234116 0.0026822339
0.021738933 -0.013130787 0.0052160285 0.49534532 -0.66596121 -0.55778915 0.0017626414
0.023708494 -0.011994275 0.0060089529 0.62452096 -0.5816105 -0.52125126 0.0014254914
0.00092681777 -0.0091976067 0.0057366658 -0.7492072 -0.59607148 -0.28876856 0.0016840658
0.0023419801 -0.010533034 0.0050468817 -0.68593651 -0.64338064 -0.33992985 0.0024537249
0.02499531 -0.0098536173 0.0053050928 0.70768702 -0.5008868 -0.49828845 0.0011904584
0.026446499 -0.0088571599 0.0064974092 0.75423646 -0.46751833 -0.46103573 0.0015049974
-0.0014809978 -0.0056199795 0.0061906502 -0.84691638 -0.50629294 -0.16248131 0.0019006982
-0.00052232924 -0.0069624512 0.0054854918 -0.83690143 -0.50632519 -0.20792042 0.0017817155
0.027303789 -0.0063722292 0.0057564173 0.82909858 -0.36149406 -0.42651796 0.0017993583
-0.0025223852 -0.0037147868 0.0069080517 -0.87570018 -0.46375719 -0.13445605 0.0004861838
0.028161645 -0.0035524042 0.0056407005 0.89420986 -0.23752384 -0.37943515 0.00089508807
0.028594024 -0.00078465696 0.0056227017 0.95244485 -0.075052723 -0.29532331 0.0028819635
0.028852005 0.0020360695 0.0066814702 0.97331995 0.03198443 -0.22721194 0.0040832008
0.028046567 0.0053776409 0.0052822456 0.97227013 0.0857457 -0.2175739 0.0023741936
0.012900352 -0.020163234 0.010106996 -0.097864844 -0.78013498 -0.61790925 0.0030281406
0.01434822 -0.020162821 0.010098629 0.13617422 -0.79105937 -0.59639049 0.0017461021
0.0072068274 -0.017674509 0.0093654394 -0.4770017 -0.71367818 -0.51296484 0.0021882167
0.0094953207 -0.018415917 0.008785462 -0.28939289 -0.76289135 -0.57814234 0.0039020914
0.012374772 -0.018883254 0.0084854141 -0.09515781 -0.7872963 -0.6091876 0.0030062741
0.015373312 -0.018793385 0.0085386038 0.14888771 -0.78396159 -0.60269123 0.0023869276
0.018293755 -0.018141966 0.0088406075 0.32279211 -0.74526042 -0.58343136 0.0018818319
0.020745639 -0.017439298 0.0096087791 0.44856155 -0.70522583 -0.54904377 0.0014294486
0.0041224919 -0.01485354 0.008994313 -0.6154654 -0.65811646 -0.43368787 0.0014514119
0.0060513876 -0.016181104 0.0084863603 -0.51319033 -0.70292568 -0.49247462 0.0036915774
0.019554209 -0.016684905 0.0076717362 0.37416735 -0.73192722 -0.56945711 0.0031414297
0.021755476 -0.015890062 0.0085305125 0.49844328 -0.66593671 -0.55505198 0.0019407365
0.023718113 -0.014824121 0.0092833955 0.60114443 -0.61417896 -0.51128232 0.0014994839
0.0013632984 -0.011643735 0.0092587937 -0.7668972 -0.55448413 -0.3231349 0.0024345005
0.0027966015 -0.013073712 0.0085571483 -0.71862602 -0.59464473 -0.36051947 0.001308066
0.024710335 -0.012969687 0.008399345 0.64847815 -0.58249503 -0.49007723 0.0013406521
0.026428711 -0.011512267 0.0092945583 0.73593712 -0.50361705 -0.45251137 0.0016561167
0.00023112306 -0.0094656507 0.0085443929 -0.83693498 -0.48918623 -0.24543165 0.0026738348
0.027277634 -0.0093802372 0.0086467788 0.80246872 -0.42434588 -0.41949329 0.0021453951
-0.0014938449 -0.0064689023 0.0090241563 -0.88069159 -0.44312128 -0.16740936 0.00056695828
-0.00084877713 -0.0075716535 0.0080384538 -0.86444771 -0.4645029 -0.19226868 0.0014253662
0.028350789 -0.0068264017 0.0085226353 0.8900286 -0.29742062 -0.34552881 0.0020265759
0.029014982 -0.005669794 0.009246381 0.90067106 -0.28034413 -0.33196208 0.0013138151
-0.0022964748 -0.0047028828 0.0090274438 -0.87806356 -0.45322615 -0.15359172 0.00044899795
0.028905265 -0.0037222076 0.0075196754 0.93210196 -0.17994608 -0.31433323 0.0024088169
0.029393781 -0.0033557704 0.0091410689 0.96469796 -0.09822692 -0.24435501 0.002789438
0.029478453 -0.00060935784 0.0089636724 0.97449666 0.014513821 -0.22393216 0.0050061257
0.029541589 0.0010741334 0.0099406764 0.97082669 0.033848293 -0.23738107 0.0035393059
0.028498158 0.0049245637 0.0086845979 0.97022861 0.089596242 -0.22500885 0.0025150836
0.0074870195 -0.02048704 0.01277874 -0.48969823 -0.70233816 -0.51663989 0.0018623942
0.0097128637 -0.020937763 0.01198048 -0.29009572 -0.7681188 -0.57082224 0.0036017741
0.012386801 -0.0213622 0.011755301 -0.090434127 -0.79033887 -0.60595882 0.0036709774
0.015368361 -0.021213945 0.011770517 0.16580875 -0.80165052 -0.57433778 0.0020886057
0.018080976 -0.020720378 0.012213988 0.31292337 -0.76718539 -0.55991572 0.0023050895
0.020018466 -0.020297542 0.0128785 0.46745509 -0.72357517 -0.50786304 0.0010785608
0.0043122806 -0.017527975 0.012462281 -0.62078118 -0.63823068 -0.4552938 0.0018953528
0.0063066194 -0.018667653 0.011611586 -0.51776296 -0.70748973 -0.48101956 0.0025575527
0.0089053325 -0.019612737 0.010714708 -0.283519 -0.74933994 -0.59842008 0.0031751213
0.018868254 -0.019378301 0.010865513 0.33971074 -0.77013379 -0.53989869 0.0022082371
0.021426249 -0.018551007 0.011813344 0.49272183 -0.71376199 -0.49776402 0.0020398502
0.023421045 -0.017750666 0.012939073 0.6030072 -0.65974706 -0.44845974 0.002030507
0.0015634224 -0.013977648 0.012690715 -0.78314179 -0.52970243 -0.32573661 0.0016306998
0.0032567196 -0.015751194 0.011818245 -0.7011503 -0.59067994 -0.3993564 0.0024693233
0.0049414728 -0.016805559 0.010619931 -0.63749945 -0.61944669 -0.4581269 0.001779341
0.022830334 -0.016813725 0.010819189 0.59922034 -0.64660072 -0.4720619 0.0010131164
0.024611348 -0.015756495 0.011763403 0.64937663 -0.62880033 -0.42769152 0.0014978813
0.02647699 -0.014135811 0.012583466 0.73740232 -0.54233789 -0.4026258 0.0013596732
0.00083460473 -0.012251419 0.011783252 -0.82533598 -0.47750852 -0.30134061 0.0021526583
0.0022033281 -0.013747242 0.010677101 -0.7202217 -0.57184613 -0.39277568 0.0013081982
0.025717888 -0.013663718 0.010586582 0.71572834 -0.56573987 -0.40947706 0.0023654751
0.02722846 -0.012245133 0.011605911 0.79066557 -0.47403696 -0.38747495 0.0026506747
-0.0013490985 -0.0081515023 0.012654386 -0.9204998 -0.36421686 -0.14151421 0.00236336
-0.00045686378 -0.0097430823 0.01159093 -0.8727119 -0.43886518 -0.21394196 0.0014055568
0.028428458 -0.0096751964 0.011438517 0.86730939 -0.36362156 -0.33993202 0.00099090091
0.029224679 -0.0086348755 0.012546333 0.90762424 -0.30291596 -0.29062015 0.0027417943
-0.001665408 -0.0068309912 0.01122606 -0.90894502 -0.38879177 -0.1505321 0.0023329137
0.029443722 -0.00646869 0.01163275 0.95593363 -0.1879016 -0.22557449 0.0017167586
0.02959507 -0.0044856984 0.010768272 0.96530539 -0.14120217 -0.21965307 0.001326369
0.0097334199 -0.023669846 0.015503654 -0.2776753 -0.76015508 -0.58741879 0.0036868621
0.012546506 -0.023815978 0.014992166 -0.029798834 -0.79944372 -0.60000139 0.0036465109
0.015335185 -0.023730535 0.015211869 0.17529562 -0.79609179 -0.57923168 0.0024643491
0.017579934 -0.023496673 0.015844628 0.34214488 -0.77998918 -0.52397877 0.0014097414
0.0042601489 -0.020204812 0.016011156 -0.69438857 -0.5619477 -0.44948781 0.0030063023
0.0065967096 -0.021487262 0.014958229 -0.4893575 -0.68582863 -0.53867286 0.0029537429
0.0093572326 -0.022408698 0.014089568 -0.26532188 -0.76224887 -0.59040737 0.0028553305
0.012509257 -0.022763614 0.013580916 -0.054365806 -0.7877996 -0.61352772 0.0028609156
0.015677994 -0.022652876 0.013781872 0.15068527 -0.79006368 -0.59421647 0.0018127817
0.018497612 -0.022171572 0.014483286 0.31538805 -0.77236181 -0.55135077 0.0011258787
0.021026189 -0.021058254 0.014942836 0.48295361 -0.72715384 -0.48785567 0.0016816417
0.023065174 -0.019938946 0.015559368 0.59675086 -0.66089272 -0.45509252 0.0018129388
0.0034934171 -0.018217556 0.014729636 -0.70754713 -0.5587604 -0.43262437 0.002412593
0.0052967267 -0.019531976 0.013812475 -0.62036192 -0.62738198 -0.47068352 0.0014754782
0.022113748 -0.019672357 0.014040796 0.55207336 -0.69004917 -0.46802473 0.00042163365
0.024262521 -0.018240172 0.014818808 0.6591323 -0.6260857 -0.41660669 0.00045615027
0.026020864 -0.017025605 0.015996389 0.73613608 -0.55330086 -0.38982275 0.0031986211
0.0012133368 -0.015034149 0.015006542 -0.82033396 -0.467309 -0.32965824 0.0024439439
0.0022476474 -0.016067594 0.01399334 -0.75432873 -0.53332108 -0.3828274 0.0021231289
0.025743295 -0.015968047 0.0139385 0.73622453 -0.56492132 -0.37260875 0.0018123785
0.026855625 -0.015212947 0.01505466 0.76779234 -0.52762705 -0.363462 0.0017680675
-4.1957013e-05 -0.012391911 0.014795335 -0.8648541 -0.42201442 -0.27190292 0.0011942736
0.028216314 -0.012580072 0.014571132 0.84391522 -0.44042403 -0.3063229 0.0013945638
-0.0013583221 -0.0091738319 0.014795495 -0.94080955 -0.3108995 -0.1349778 0.0012328728
-0.00086915609 -0.010137628 0.014345728 -0.92578733 -0.33150277 -0.18172441 0.0027107988
0.029564969 -0.0094669377 0.014830308 0.92599231 -0.29895857 -0.23056887 0.0025560865
-0.0020889342 -0.0062425593 0.014598407 -0.93348479 -0.3405298 -0.11245262 0.00096141378
0.030156139 -0.0064421771 0.014912633 0.96165234 -0.18317325 -0.20413806 0.001150167
0.030323703 -0.0035616904 0.014501361 0.97348905 -0.12500612 -0.19155319 0.00042175764
0.0098885056 -0.026185144 0.018658374 -0.27247661 -0.77127087 -0.57523715 0.0045170584
0.012652691 -0.026269052 0.018293962 -0.011011845 -0.82001591 -0.57223481 0.003327335
0.015349474 -0.026153214 0.01867247 0.22594936 -0.81269622 -0.53709561 0.0024350565
0.0045301449 -0.023053467 0.018963449 -0.67016029 -0.57571155 -0.46844578 0.002158751
0.0064422088 -0.023921598 0.018072374 -0.47479528 -0.69090617 -0.54517722 0.0029094724
0.0091865491 -0.024881713 0.017341407 -0.29290077 -0.7438159 -0.60078871 0.0056384332
0.012593657 -0.025140233 0.016776958 -0.024957383 -0.81752324 -0.57535464 0.003305549
0.015692875 -0.025016032 0.017163094 0.17469284 -0.80466968 -0.56744081 0.0018866402
0.018488962 -0.024392586 0.017831162 0.33579805 -0.78599113 -0.51909316 0.0010977892
0.020805018 -0.023324762 0.018292256 0.49257147 -0.73249751 -0.46991584 0.0015443441
0.0037022559 -0.021115817 0.017931543 -0.68428797 -0.55117339 -0.47744945 0.0029526243
0.0055620316 -0.022243056 0.016912224 -0.55609941 -0.65748662 -0.50839436 0.0037795925
0.019681035 -0.022915795 0.016407155 0.46917847 -0.74492401 -0.47429925 0.001044338
0.021907689 -0.02198799 0.017389016 0.57101071 -0.70363516 -0.42289996 0.00075496302
0.023711439 -0.020580981 0.017593302 0.6230948 -0.6689474 -0.40529272 0.0010095856
0.0012679454 -0.017673314 0.018304467 -0.79808092 -0.46237749 -0.38635996 0.0025498136
0.0025087749 -0.018903334 0.017212229 -0.76024216 -0.49662834 -0.41879854 0.0020428034
0.025113726 -0.018979803 0.017304812 0.68077183 -0.63712025 -0.36142424 0.001279323
0.026451347 -0.017674051 0.017835625 0.75688297 -0.56345123 -0.3311356 0.0019522014
0.00041369488 -0.015444486 0.017699461 -0.86133778 -0.40099141 -0.31193438 0.0013951481
0.027749084 -0.015456858 0.017637569 0.84404975 -0.45582375 -0.28249738 0.0025122897
-0.0013762566 -0.011240468 0.018958442 -0.95269477 -0.26074666 -0.15615326 0.0016252478
-0.00063413777 -0.012671207 0.01748191 -0.91458654 -0.32909817 -0.23500174 0.0018962907
0.028538045 -0.013641805 0.017171614 0.87340832 -0.40635902 -0.26838449 0.0033166367
0.029268432 -0.012192315 0.017868862 0.91284925 -0.34841248 -0.21287304 0.0028411914
-0.0016185646 -0.009496198 0.018109567 -0.96265858 -0.23495905 -0.13447218 0.00065438385
0.030023713 -0.0092348168 0.017401509 0.94366658 -0.27481458 -0.18431072 0.00089251879
-0.001855623 -0.0077463547 0.016575865 -0.94645756 -0.29289404 -0.13576107 0.0010486594
0.030567706 -0.0072890883 0.018215399 0.96811551 -0.19611727 -0.15585406 0.00096324953
0.0066202627 -0.026669193 0.021228015 -0.4582594 -0.67767853 -0.57510883 0.0021002905
0.0091833072 -0.027581282 0.020786989 -0.27987537 -0.74749815 -0.60242528 0.0041017691
0.012305668 -0.027816556 0.020462632 -0.00048264107 -0.83090931 -0.55640769 0.0031052369
0.015439395 -0.027554747 0.020779084 0.25064534 -0.80112678 -0.54348218 0.0025042258
0.018163862 -0.026663102 0.02109183 0.39883682 -0.77159941 -0.49554369 0.0014615201
0.003879264 -0.02410138 0.021124952 -0.65744942 -0.5708406 -0.49183461 0.0024682428
0.0057332003 -0.025136929 0.020223338 -0.50732237 -0.67425287 -0.53666288 0.003149549
0.019256724 -0.025411412 0.019997742 0.41440165 -0.78836983 -0.45469138 0.0018502773
0.02152162 -0.024314296 0.020775534 0.55747652 -0.72454941 -0.40527514 0.0011913378
0.023363767 -0.0231947 0.021586351 0.66176862 -0.64922792 -0.37492043 0.0020222408
0.0014173016 -0.020798806 0.021510743 -0.79531831 -0.44354379 -0.41320431 0.0023455247
0.0026374008 -0.021752246 0.020327255 -0.75880778 -0.48588967 -0.4337303 0.0010059293
0.022773217 -0.022595674 0.019615404 0.61494684 -0.67824888 -0.40226722 0.0021040384
0.024465889 -0.021460444 0.020560864 0.68465811 -0.63859206 -0.35134521 0.001508079
0.00069779856 -0.018704705 0.020794906 -0.85238481 -0.38996366 -0.34837982 0.001560556
0.025744637 -0.019650057 0.019870274 0.72730094 -0.61257154 -0.30949882 0.001368463
0.026914654 -0.018414505 0.020613302 0.80104733 -0.53676492 -0.26496539 0.0012519072
-0.00044508162 -0.015582231 0.020551782 -0.90137088 -0.3267844 -0.28415239 0.0010697682
0.028347794 -0.015713103 0.020097069 0.8591758 -0.4559586 -0.23220378 0.0011649741
-0.0013856324 -0.012786201 0.021134768 -0.96227771 -0.20181894 -0.18245739 0.0009684363
-0.00088637089 -0.013479033 0.019673698 -0.94976741 -0.24393523 -0.19605498 0.0023281896
0.029479429 -0.013009184 0.020435952 0.93271285 -0.32280809 -0.16075337 0.00078975159
-0.0018806874 -0.0098208347 0.021230321 -0.95916897 -0.23716179 -0.15410741 0.00067368709
0.030544348 -0.0093176579 0.02086921 0.94977188 -0.27417144 -0.15087557 0.00035134674
0.0070074704 -0.029647082 0.024587251 -0.42109343 -0.70862448 -0.56615525 0.0024034977
0.0093522696 -0.030002441 0.023873262 -0.20484166 -0.78588349 -0.58346128 0.0042852513
0.01227545 -0.030012868 0.023548905 0.037760545 -0.81697452 -0.57543617 0.0046580634
0.015083503 -0.0297965 0.024030298 0.273763 -0.81649226 -0.5083248 0.0018169414
0.017289078 -0.029344216 0.024719141 0.41562873 -0.78469008 -0.45990679 0.00098777667
0.0040064445 -0.027038831 0.024272617 -0.6151942 -0.57476258 -0.5396148 0.002232386
0.0060344925 -0.028092995 0.023465358 -0.46331733 -0.69209975 -0.55347538 0.0029822474
0.0082833916 -0.028710969 0.022666194 -0.23352148 -0.76333648 -0.6023165 0.0030986036
0.015726 -0.02870952 0.022644244 0.27381998 -0.80487502 -0.52649683 0.0036700829
0.018365124 -0.028054487 0.023541577 0.43047059 -0.76989722 -0.47111928 0.0026025132
0.02054785 -0.026856743 0.023883022 0.53193629 -0.73440629 -0.4215343 0.0010211937
0.0014639944 -0.023719285 0.024387561 -0.78710335 -0.43439204 -0.43791765 0.001674946
0.0027561788 -0.024852648 0.023580324 -0.7387498 -0.48471844 -0.46829128 0.0010113524
0.022086374 -0.02534166 0.02337978 0.62345338 -0.68145639 -0.38330537 0.001891708
0.023648081 -0.024209116 0.023980051 0.67090058 -0.65671748 -0.34440452 0.0012753071
0.0006913445 -0.021522693 0.023791071 -0.83410311 -0.38237202 -0.39757216 0.0015974193
0.0020798068 -0.022735581 0.022266082 -0.75268388 -0.46753582 -0.46354848 0.00064414053
0.025190515 -0.022131085 0.0233544 0.74322617 -0.60520142 -0.28521231 0.0014117971
0.026225645 -0.021091036 0.02409976 0.7821514 -0.56290102 -0.26717311 0.0018804823
-0.00044760411 -0.018561251 0.023685414 -0.89160246 -0.31922933 -0.32115066 0.0010783098
0.027335301 -0.01902286 0.02348958 0.81365037 -0.52578926 -0.24802966 0.0012691626
-0.0013979569 -0.015612825 0.023995567 -0.95075864 -0.21776971 -0.22053237 0.00065812643
-0.00089698285 -0.016317945 0.022957992 -0.93586171 -0.25568503 -0.24246235 0.00194203
0.028414268 -0.016825572 0.023248188 0.8945117 -0.41890106 -0.15611112 0.0027763853
-0.0018960992 -0.012629933 0.024092264 -0.96079731 -0.20069127 -0.19128905 0.00092716829
0.030438788 -0.011376754 0.023824744 0.94036698 -0.310395 -0.13915761 0.0003102539
-0.0018878302 -0.01084517 0.022556715 -0.96156967 -0.21105434 -0.17561278 0.0011870101
0.030361917 -0.010847301 0.022635154 0.94789767 -0.28550774 -0.14133398 0.00049369136
0.0070140194 -0.032157734 0.027783424 -0.34196973 -0.75056827 -0.56542361 0.0034501124
0.0094367191 -0.032494489 0.027297135 -0.12480915 -0.82064992 -0.55763465 0.0039081359
0.012216255 -0.032412894 0.027149435 0.11067908 -0.84358478 -0.52546632 0.0029275923
0.014737038 -0.032148842 0.027659953 0.31446651 -0.82374042 -0.47176525 0.0021884425
0.0038867872 -0.029742103 0.027453452 -0.57951468 -0.61488372 -0.5348652 0.0034380597
0.0061432384 -0.030678101 0.026488427 -0.36039263 -0.72885835 -0.58213627 0.0024627487
0.009155686 -0.031341206 0.02577002 -0.1534479 -0.80409545 -0.57435548 0.0031123373
0.012327751 -0.031401008 0.025607724 0.075499773 -0.82487822 -0.56024611 0.0026689745
0.015600998 -0.031114768 0.026447754 0.31028217 -0.82694227 -0.4689258 0.0021896965
0.018211575 -0.030010715 0.026697751 0.43698493 -0.78393197 -0.44101575 0.0019093397
0.020325033 -0.029212754 0.027756307 0.55702698 -0.73082602 -0.39447972 0.0014772334
0.0013085403 -0.026520673 0.0274808 -0.73701388 -0.49027807 -0.46522906 0.0020167429
0.0029056086 -0.027740404 0.026450947 -0.67615765 -0.5288679 -0.51294214 0.0025199787
0.019315142 -0.028649412 0.025527827 0.43961152 -0.7727105 -0.45788679 0.0021054838
0.021501048 -0.027536664 0.026545793 0.58792728 -0.72033632 -0.36804491 0.0018926762
0.02330851 -0.026170082 0.027209286 0.67618722 -0.66014665 -0.32707375 0.001371956
0.00059171394 -0.024292905 0.026674222 -0.79889047 -0.42701846 -0.42359078 0.0014690707
0.0020908359 -0.02591233 0.025679581 -0.7148096 -0.51287133 -0.47540528 0.00083507795
0.024730599 -0.024250399 0.026722144 0.74519211 -0.60245061 -0.28590572 0.0012544318
-0.0014154045 -0.020279765 0.028045587 -0.90321016 -0.25942743 -0.34191939 0.0020258687
-0.00045039225 -0.021582004 0.026482332 -0.87821227 -0.31848609 -0.35680497 0.0014147403
0.026737014 -0.021483395 0.026997119 0.81186789 -0.53448683 -0.23493463 0.0014391693
-0.0015540237 -0.018117484 0.026942037 -0.95579243 -0.19095936 -0.22359647 0.0022523862
-0.0009055594 -0.019167073 0.025612436 -0.91819036 -0.25332111 -0.30455688 0.0020120898
0.028054114 -0.018415436 0.025555335 0.89119816 -0.42742491 -0.15190074 0.0027926476
-0.0019098821 -0.015460721 0.026651733 -0.959741 -0.17442936 -0.22016269 0.0015732043
0.029936738 -0.014243999 0.027698137 0.92580086 -0.35477951 -0.13047668 0.00025291706
0.030231874 -0.012764192 0.025778983 0.93648291 -0.32753921 -0.12537085 0.00032804476
0.0040687015 -0.032648332 0.030530669 -0.52177125 -0.63143212 -0.57362735 0.0027548526
0.0064171134 -0.033432815 0.029792137 -0.35794708 -0.73185891 -0.57987624 0.0043215826
0.0093428036 -0.034161258 0.029736888 -0.059205838 -0.85027874 -0.52299207 0.0035162426
0.012430578 -0.033958778 0.029688831 0.15637626 -0.84746051 -0.50730383 0.0028705483
0.015360849 -0.033082049 0.029755205 0.34847611 -0.82162327 -0.45110926 0.0025499833
0.017408762 -0.032412283 0.030368678 0.46229467 -0.78311276 -0.41595432 0.0013610978
0.0013134452 -0.02973992 0.030640587 -0.69056469 -0.50384831 -0.5189001 0.002143872
0.0029844693 -0.030805286 0.029620096 -0.6459887 -0.5470736 -0.53236169 0.0015168297
0.005112974 -0.031593293 0.028313033 -0.45825592 -0.66099042 -0.59421641 0.0068151345
0.018671276 -0.031122167 0.029406924 0.45658332 -0.78907162 -0.41097152 0.0013903253
0.0209103 -0.029857259 0.030237041 0.61133766 -0.72494477 -0.31736615 0.00137117
0.00051220413 -0.027507775 0.0297805 -0.77570903 -0.42657647 -0.46508929 0.0023161948
0.0020996672 -0.028586119 0.028412871 -0.65213859 -0.54425126 -0.52773649 0.0015535877
0.022342436 -0.028248806 0.029422477 0.69178557 -0.66022927 -0.29245543 0.00092496717
0.023780951 -0.026924796 0.030003421 0.72531176 -0.63518608 -0.26544595 0.0014797117
-0.0014266102 -0.023935452 0.030646652 -0.88019979 -0.2836439 -0.38051865 0.0020231209
-0.00058244285 -0.02470503 0.029367249 -0.85198432 -0.33434927 -0.402906 0.0011676919
0.025176693 -0.024941564 0.02970171 0.79937541 -0.56189418 -0.21277654 0.0019408473
0.026251391 -0.02309601 0.02909606 0.81763941 -0.53610915 -0.20988737 0.0015173979
-0.0017907268 -0.021447014 0.029972546 -0.93147469 -0.18808618 -0.31141371 0.0015224522
-0.00091418019 -0.022550747 0.028280638 -0.88403302 -0.29816905 -0.35997337 0.0037959863
0.027716931 -0.020042419 0.028342836 0.88678473 -0.44133466 -0.13724631 0.0018849723
-0.0022292207 -0.018544726 0.02972731 -0.96532482 -0.14056025 -0.21997924 0.0021238602
-0.0024321177 -0.015330384 0.030018009 -0.98027128 -0.044506114 -0.19258115 0.0039680554
0.029559601 -0.01582469 0.029713996 0.91796893 -0.3774381 -0.12195675 0.00034579405
0.0040631117 -0.03518457 0.033577811 -0.45143944 -0.71051365 -0.53978956 0.0027326762
0.0065541696 -0.035929102 0.033088543 -0.24649347 -0.79512817 -0.55408674 0.005083919
0.0094623491 -0.035950836 0.032562502 0.0041714241 -0.86182165 -0.50719428 0.0039841095
0.012261642 -0.035831191 0.033022374 0.2147294 -0.86088932 -0.46126005 0.0033902703
0.015069714 -0.0351438 0.033598103 0.40013078 -0.8384918 -0.36990127 0.0017945871
0.001269713 -0.032733243 0.033627726 -0.63566351 -0.55977631 -0.5315848 0.0020067389
0.0031264112 -0.033649564 0.03263098 -0.52578038 -0.65125889 -0.54718995 0.0058766799
0.005737585 -0.034713611 0.031863119 -0.31808376 -0.76462483 -0.56051004 0.0047576874
0.013236878 -0.03485851 0.031557344 0.23322752 -0.85711998 -0.45929337 0.0049358979
0.015786031 -0.034176227 0.032188974 0.35721251 -0.83647162 -0.41558945 0.0014742308
0.01823888 -0.033026408 0.032773662 0.53248507 -0.78073257 -0.32698044 0.0010475938
0.00043164939 -0.030601434 0.03275533 -0.73129213 -0.4670788 -0.49704051 0.0028020092
0.0021100082 -0.031827912 0.031613342 -0.6427967 -0.5707742 -0.51091015 0.0017852088
0.019664245 -0.031692293 0.032076739 0.60846364 -0.73174816 -0.30711013 0.0011574704
0.0213177 -0.030619536 0.032953516 0.6643815 -0.70048815 -0.26060241 0.0010048846
-0.00158328 -0.027163453 0.033323701 -0.85206288 -0.31627637 -0.41708285 0.0018797261
-0.00067374669 -0.027918201 0.032173555 -0.82093298 -0.36220255 -0.4414503 0.001071752
0.022892324 -0.028852165 0.032530122 0.70120734 -0.67232579 -0.23724739 0.001123611
0.024077022 -0.027504545 0.032582037 0.77097124 -0.60156602 -0.20909724 0.0013654907
-0.0020598783 -0.024611566 0.032684803 -0.91498148 -0.21338286 -0.3424567 0.0022076471
0.025695477 -0.025322512 0.03283181 0.81713945 -0.55132538 -0.16829582 0.00088735909
0.026426613 -0.023770899 0.0322861 0.86735016 -0.48268726 -0.12131241 0.0020122468
-0.0027279714 -0.021637842 0.03291573 -0.95084625 -0.12374618 -0.28386325 0.0020271977
0.026950084 -0.02277343 0.032588236 0.87797105 -0.46779031 -0.10168087 0.00095738139
-0.0029561631 -0.018468644 0.032662559 -0.97719198 -0.0051884744 -0.2122944 0.0027898613
0.029247772 -0.017716099 0.032861352 0.91087371 -0.39559287 -0.11753883 0.00039290602
-0.0029613357 -0.016212266 0.033348683 -0.98636842 0.028284881 -0.16210285 0.0013536767
-0.0024443066 -0.013374322 0.031904258 -0.98572701 0.027540369 -0.16608392 0.0015311987
0.0064739613 -0.03833751 0.036847424 -0.16144638 -0.85017848 -0.50113046 0.0048672091
0.0092853019 -0.03832617 0.036712561 0.12183809 -0.88456208 -0.45022812 0.0037372264
0.0012058499 -0.035464667 0.036735468 -0.60787457 -0.60333484 -0.5162127 0.00099301909
0.0034545609 -0.036451768 0.035783015 -0.39263022 -0.73475063 -0.55315727 0.0023486533
0.0063093491 -0.037334356 0.035304915 -0.20197606 -0.82462317 -0.52839595 0.0033899106
0.0095100207 -0.037424311 0.035071753 0.084407695 -0.87292331 -0.48050004 0.0048535033
0.01256397 -0.037106182 0.035732701 0.28734323 -0.87339234 -0.39321712 0.0017422483
0.015333828 -0.035919778 0.035734389 0.44821712 -0.83413416 -0.32143685 0.00091326161
0.016939353 -0.035223737 0.036267094 0.50679773 -0.80650616 -0.30447328 0.00084540149
-0.0014542718 -0.032215625 0.037067644 -0.74958402 -0.44947827 -0.48589414 0.0021023783
0.00029034074 -0.033467669 0.035750281 -0.71221215 -0.49338302 -0.49932665 0.0013683575
0.0021201125 -0.03459616 0.034740679 -0.58979046 -0.62045974 -0.51689166 0.00063685392
0.016876882 -0.034574255 0.034454428 0.51980299 -0.79898453 -0.30237171 0.0010779916
0.018364508 -0.034073271 0.035680998 0.51979095 -0.79899549 -0.30236346 0.0010576554
0.020393072 -0.032533281 0.035787076 0.62751555 -0.73565543 -0.25502032 0.0015040967
-0.0018035474 -0.030098751 0.036008891 -0.82447654 -0.35111865 -0.44379526 0.0022749172
-0.00076573901 -0.030955359 0.034857374 -0.77408242 -0.40486664 -0.48670262 0.0020205076
0.0221272 -0.030797366 0.035771191 0.71794838 -0.66307855 -0.21184197 0.0015662531
0.023275902 -0.029281944 0.035240687 0.75031036 -0.63227391 -0.19303903 0.000692298
-0.0026403775 -0.027430836 0.035807539 -0.88602757 -0.25310376 -0.38845038 0.0018531635
0.024523178 -0.027465641 0.034711383 0.77819896 -0.5982455 -0.1910723 0.001177248
-0.0031912972 -0.024459165 0.035593223 -0.93421167 -0.13707858 -0.32932961 0.0019204674
-0.0034893621 -0.021404255 0.035708398 -0.96676135 -0.048035488 -0.2511276 0.003750809
0.028224666 -0.020958453 0.037073009 0.88910729 -0.44659644 -0.10019916 0.0006551136
-0.0034900429 -0.018599823 0.035787385 -0.98542362 0.044446159 -0.16420975 0.0016785471
0.028614592 -0.019587554 0.035017215 0.90431142 -0.4110989 -0.11497241 0.0004432209
0.02915385 -0.019099839 0.035510652 0.90431142 -0.4110989 -0.11497241 0.0004432209
-0.0029736613 -0.015000516 0.034983568 -0.9888097 0.077485345 -0.12748109 0.0017254095
0.0014501675 -0.038240489 0.039775025 -0.57067382 -0.65877444 -0.4902527 0.0039282055
0.0035138237 -0.038803142 0.038945623 -0.33769435 -0.78858447 -0.51390368 0.0048116306
0.0065739434 -0.039499301 0.038801394 -0.064919934 -0.87918764 -0.47203228 0.00269792
0.0094772615 -0.039235868 0.038602736 0.16103935 -0.89260679 -0.42109323 0.0028100968
0.012344532 -0.038578447 0.038948309 0.31716847 -0.87542313 -0.36474451 0.0021078663
0.013956573 -0.03802152 0.039204352 0.45560968 -0.83662969 -0.30408984 0.0013502362
-0.0014658133 -0.034978956 0.039746635 -0.69920731 -0.52197146 -0.48852322 0.0019858629
0.00040251529 -0.036449395 0.038823862 -0.61276042 -0.59467965 -0.5204621 0.0043235687
0.0027442663 -0.037481911 0.037638649 -0.37837511 -0.74693292 -0.54673904 0.0044501936
0.013398737 -0.037631057 0.037583582 0.33337894 -0.86861533 -0.36655945 0.0025124575
0.015478948 -0.036942124 0.038566422 0.47555661 -0.83275408 -0.28348994 0.0006940061
0.017543415 -0.035683233 0.03887859 0.52319229 -0.80846536 -0.26954308 0.00026472952
-0.0020163474 -0.033261862 0.038993798 -0.77403468 -0.42326248 -0.47087076 0.0024213833
-0.00077474839 -0.034247532 0.037997719 -0.72619301 -0.46666038 -0.50484824 0.0025019026
0.019062426 -0.034358468 0.038335446 0.57481736 -0.78620017 -0.22687963 0.0018131468
-0.0030021265 -0.030532256 0.038666636 -0.86809903 -0.27952307 -0.41020828 0.0011643694
0.023172058 -0.030259997 0.038433157 0.72587633 -0.66427946 -0.17842734 0.00081203948
-0.0045569427 -0.026508041 0.040082298 -0.92292589 -0.12607498 -0.36374843 0.0021513836
-0.0037949905 -0.027567416 0.038640819 -0.90513182 -0.19062148 -0.37999982 0.0015251555
0.024149895 -0.028658286 0.037454091 0.750301 -0.63227689 -0.19306572 0.00068768446
-0.0045538582 -0.024432819 0.039795868 -0.95928931 -0.028532574 -0.2809802 0.001720816
-0.0040218122 -0.024335183 0.038000103 -0.94137317 -0.090005562 -0.32513916 0.0013779273
-0.0045522731 -0.022109386 0.039648715 -0.97281164 0.098505951 -0.20960453 0.0016074762
-0.0040204106 -0.021251507 0.037855495 -0.97452694 0.048524033 -0.2189579 0.0036108091
0.028283563 -0.02126471 0.038099624 0.88579106 -0.45684332 -0.081659831 0.00069724879
-0.004036136 -0.019014828 0.039477788 -0.97450918 0.18048015 -0.1332618 0.0014947454
-0.0035074363 -0.016893208 0.037806086 -0.98611677 0.1096888 -0.12466813 0.0021170201
0.0037006219 -0.041312624 0.04297062 -0.25846428 -0.83352113 -0.48830202 0.0057159523
0.0065448051 -0.04140183 0.042519148 0.010856139 -0.9101426 -0.41415292 0.0038404779
0.0092295026 -0.041282378 0.043115202 0.23771684 -0.90097827 -0.36294478 0.0028835009
0.00059226248 -0.03913014 0.041932158 -0.51800334 -0.69117892 -0.50392878 0.0050830785
0.0032773116 -0.040268533 0.041388672 -0.29333428 -0.82063752 -0.49041727 0.0036851305
0.0063425284 -0.040682197 0.041064315 -0.040785812 -0.88177252 -0.46990833 0.0038436085
0.0095383022 -0.040421154 0.041166287 0.18988203 -0.90059036 -0.39100114 0.0024243589
0.012152106 -0.039709173 0.041641422 0.36673465 -0.87520516 -0.31547037 0.0022539387
0.014539691 -0.038476977 0.041578956 0.47176865 -0.83711916 -0.27688596 0.00064458553
-0.0021754382 -0.03612151 0.041957133 -0.70457399 -0.51350045 -0.48978862 0.0016582101
-0.00061159465 -0.03731297 0.041027587 -0.64612484 -0.57558686 -0.501221 0.00036406404
0.016099865 -0.037555095 0.04189115 0.56796247 -0.79943836 -0.19574697 0.0026275052
0.017102152 -0.036621854 0.040990792 0.58479691 -0.78741145 -0.19492516 0.001527558
-0.0045869583 -0.032110035 0.042869262 -0.8563478 -0.29215455 -0.42581001 0.0026831313
-0.0034116851 -0.033442881 0.041612275 -0.82183242 -0.35976741 -0.44176793 0.00100544
0.019757239 -0.034700915 0.042884402 0.60781765 -0.77463704 -0.17462894 0.00069636165
-0.0047743656 -0.030126207 0.042239752 -0.90401059 -0.19495358 -0.38047066 0.0015796798
-0.0039451397 -0.030825425 0.040719911 -0.87201232 -0.2467858 -0.42271894 0.0014250026
-0.0048584864 -0.027704947 0.041415799 -0.93318802 -0.1268585 -0.33625433 0.0025558872
-0.005089662 -0.024529982 0.041582413 -0.95508152 -0.018953053 -0.29573658 0.0017471568
-0.0048324494 -0.021434076 0.041642409 -0.97689831 0.12319731 -0.17461999 0.0011714511
-0.0045778882 -0.019642085 0.042027049 -0.97063917 0.17433472 -0.16573152 0.0014084845
-0.0040489463 -0.018040702 0.040799372 -0.97450835 0.18047817 -0.13327095 0.001493808
-0.0035363613 -0.016507268 0.041163199 -0.9745096 0.18047972 -0.13325976 0.0014949348
0.0008284729 -0.04149529 0.045148607 -0.43494681 -0.76362556 -0.47717649 0.0043195542
0.0033776565 -0.042190515 0.0446884 -0.21092206 -0.87306678 -0.43962052 0.0066178497
0.0065719308 -0.042375773 0.044685654 0.060052246 -0.92507112 -0.37501609 0.0028381152
0.0094346041 -0.041873556 0.044884641 0.27090025 -0.90719384 -0.32188895 0.0022277739
0.01151666 -0.041096061 0.044917427 0.41306198 -0.86875868 -0.27319992 0.0020255393
-0.0022259546 -0.038846429 0.044968646 -0.64652044 -0.58101696 -0.49439925 0.0025189698
-0.00044641574 -0.039990325 0.04415264 -0.50210088 -0.70278269 -0.50397539 0.0054325694
0.012858158 -0.040331922 0.044501785 0.40884843 -0.87201101 -0.26914638 0.0020536419
0.014890466 -0.039127868 0.04470513 0.54284692 -0.81712127 -0.19398443 0.001576128
-0.0044193943 -0.035933249 0.045414004 -0.80050224 -0.39524797 -0.45052782 0.0013013799
-0.0030435161 -0.037033062 0.044193719 -0.74130291 -0.47648644 -0.47268462 0.0021122759
0.018778881 -0.035857596 0.04443166 0.60781366 -0.77464259 -0.17461777 0.00069053721
-0.0049175322 -0.033509504 0.044547204 -0.86192781 -0.28953403 -0.41623381 0.0020876715
-0.0057213153 -0.030492023 0.044690035 -0.92121255 -0.12345039 -0.36895457 0.0011369024
-0.0059280749 -0.027405813 0.04451504 -0.9543007 -0.013434756 -0.29854596 0.0025708063
-0.0057694828 -0.02479868 0.044139147 -0.96510375 0.066525809 -0.25327671 0.0017932117
-0.0053911349 -0.021596644 0.045048546 -0.97293377 0.1720178 -0.15430421 0.00086851651
-0.0045934245 -0.019187212 0.0434696 -0.97385782 0.17615649 -0.14342181 0.0011279082
0.0034759534 -0.044057094 0.048762247 -0.1076857 -0.92495602 -0.36449993 0.0046389252
0.0055740736 -0.044063628 0.048831902 0.14764473 -0.94168293 -0.30238095 0.0027348585
-0.0018514569 -0.041734204 0.048185907 -0.54983658 -0.70018804 -0.45542997 0.0039179879
0.00020901347 -0.042625159 0.047615092 -0.38683546 -0.79931837 -0.45983538 0.0054061082
0.0032791765 -0.043300807 0.047062378 -0.1457658 -0.89828575 -0.41452992 0.0028190562
0.0063417368 -0.043388199 0.047201052 0.12117795 -0.93234974 -0.34064642 0.0045771254
0.0091121355 -0.042913392 0.047717597 0.30392295 -0.91518402 -0.26470548 0.0020392183
0.011746157 -0.041660011 0.04735947 0.42362767 -0.87064332 -0.25003955 0.0013217537
-0.0044488357 -0.038837723 0.048252694 -0.73493439 -0.50337708 -0.45440406 0.001395218
-0.0028425027 -0.040030908 0.047224272 -0.64767528 -0.59792638 -0.4722296 0.0048750797
0.01420458 -0.040326595 0.048060946 0.50664526 -0.83852243 -0.20047626 0.0034640599
-0.0053913109 -0.036434326 0.047663771 -0.80041379 -0.40018636 -0.44630563 0.0015190695
0.01757252 -0.037367664 0.047067098 0.59754908 -0.78595871 -0.15875767 0.00073607557
-0.0072768331 -0.032019317 0.049067251 -0.9324801 -0.09734866 -0.34785652 0.00089555583
-0.0063379593 -0.033616118 0.047570001 -0.88710022 -0.22879973 -0.40087882 0.0010416929
-0.0072712256 -0.030422695 0.048720174 -0.9457249 -0.036846131 -0.32287267 0.0021253321
-0.00664814 -0.030764729 0.047108252 -0.92477185 -0.10424475 -0.36596465 0.0017758384
-0.0072718384 -0.02806573 0.048758104 -0.96073514 0.092867538 -0.26146445 0.0032265412
-0.0067219501 -0.027439885 0.047060512 -0.96204007 0.039475627 -0.27003822 0.0025455023
-0.0064331274 -0.024377547 0.047709908 -0.96095514 0.21113259 -0.17885263 0.0012626544
-0.0056968248 -0.021504343 0.04859256 -0.96516609 0.19929367 -0.16951813 0.00088519504
0.00059172697 -0.044434544 0.050914884 -0.26262498 -0.89163911 -0.36879238 0.0051718601
0.0034870594 -0.044757485 0.050620116 -0.044640426 -0.95078135 -0.3066301 0.0052518537
0.0063813645 -0.044442676 0.050626956 0.18333511 -0.94856369 -0.25809902 0.0016770398
-0.004504621 -0.041503295 0.051516145 -0.65254277 -0.62181216 -0.43305606 0.0014970916
-0.0027054837 -0.042547274 0.050613508 -0.51631457 -0.7347948 -0.43988168 0.0022874358
-0.00058985921 -0.04349611 0.049783327 -0.31215543 -0.85132068 -0.42167768 0.0032677893
0.0095340014 -0.043417141 0.050349765 0.32031599 -0.91536063 -0.24395217 0.0012710078
0.012327986 -0.041879319 0.049823932 0.43729296 -0.87489665 -0.20816039 0.00082696148
-0.0055950852 -0.039413236 0.050831579 -0.75279021 -0.484083 -0.44606104 0.003126272
-0.0074917823 -0.035964414 0.051481918 -0.87416124 -0.27480462 -0.40040535 0.0015695281
-0.0064750798 -0.036817934 0.050042868 -0.84364617 -0.33092114 -0.42279118 0.0011729196
-0.0077092159 -0.033389002 0.050728239 -0.91470677 -0.16315605 -0.36971825 0.0011872889
-0.0080782147 -0.030442197 0.051201902 -0.95999861 0.035918817 -0.27769142 0.0018398453
-0.0076553943 -0.027310014 0.050752722 -0.96634305 0.14708033 -0.21106514 0.0018125636
-0.0073046586 -0.025556915 0.050789677 -0.95277309 0.22441269 -0.20460303 0.00091365556
-0.006772344 -0.023956925 0.050402679 -0.95277536 0.22441299 -0.20459192 0.00091474468
-0.0062398636 -0.022619545 0.049944274 -0.96121359 0.21154837 -0.17696235 0.0013452807
-0.0041889907 -0.044133484 0.05524721 -0.54860681 -0.7364769 -0.39576805 0.0069837314
-0.002453919 -0.0445293 0.053800486 -0.46796471 -0.77453148 -0.42557028 0.0028203335
6.2508974e-05 -0.045398749 0.053658329 -0.20213595 -0.92507708 -0.32151741 0.0042462386
0.0035045049 -0.045552887 0.053427696 0.065312997 -0.95955706 -0.27383304 0.003812836
0.0066755945 -0.044989057 0.053063594 0.17654085 -0.95165485 -0.251369 0.0014718269
0.0082672201 -0.044487946 0.053360589 0.26822585 -0.93436193 -0.23456885 0.003262446
-0.005237354 -0.042429179 0.054009534 -0.67343038 -0.60682815 -0.42219782 0.0034458325
-0.0031071738 -0.043542676 0.052672997 -0.4766731 -0.77636182 -0.4123652 0.0033982606
-0.0075576692 -0.039061829 0.054136388 -0.81127262 -0.40750352 -0.41925839 0.002492934
-0.006514803 -0.040253937 0.053356491 -0.79246813 -0.4445442 -0.41758204 0.0017865865
-0.0083317626 -0.036419317 0.053791128 -0.89365 -0.25010163 -0.37261099 0.0025760038
-0.0087375334 -0.033578482 0.053450391 -0.94561613 -0.064951867 -0.3187339 0.0019855434
-0.0088716149 -0.030317683 0.054039493 -0.96518791 0.078747682 -0.24942149 0.0024929035
-0.0081960242 -0.02734993 0.053525694 -0.95976299 0.18767764 -0.20888315 0.00063330116
-0.0073349494 -0.024868324 0.05266463 -0.95419872 0.23558134 -0.18440807 0.00053895614
-0.004830597 -0.044670798 0.057207882 -0.57489413 -0.73709935 -0.35522011 0.0039425343
-0.0028035287 -0.045519378 0.05654753 -0.41678214 -0.84327114 -0.33939138 0.00473365
0.00032480806 -0.046401188 0.056718439 -0.16815861 -0.93394756 -0.31538004 0.0099080484
0.0029919269 -0.046413004 0.056840286 -0.067502879 -0.95836908 -0.27743822 0.0050836769
0.0053776801 -0.045763209 0.055621706 0.065300785 -0.95954359 -0.27388322 0.0037842945
-0.0076168319 -0.041514985 0.056900933 -0.74002999 -0.55457866 -0.38052356 0.0026644208
-0.0063340878 -0.042985827 0.05665601 -0.68271452 -0.62173939 -0.38385022 0.005858527
-0.0086894371 -0.039254501 0.056751646 -0.86651289 -0.34386697 -0.36181614 0.0012634055
-0.010090334 -0.035833582 0.057905607 -0.95349592 -0.11398711 -0.27902061 0.0046192002
-0.009324153 -0.036645077 0.056312554 -0.91740614 -0.19175284 -0.34870738 0.0017880367
-0.010086713 -0.033417679 0.057737522 -0.96879631 0.050335005 -0.24269359 0.0036935273
-0.009512363 -0.033278689 0.055763856 -0.95633054 -0.013400769 -0.29197979 0.0033501158
-0.00953124 -0.030678816 0.05668629 -0.96294326 0.12222472 -0.24041921 0.0011754222
-0.0088088829 -0.028066337 0.056047998 -0.96269268 0.16901878 -0.21131833 0.00075789634
-0.007467459 -0.044116631 0.060866915 -0.71194243 -0.62167048 -0.32659426 0.0025294216
-0.0057823402 -0.04508948 0.059780031 -0.55048901 -0.77040541 -0.32161683 0.0043838439
-0.002621477 -0.046537537 0.059229501 -0.41749141 -0.85124433 -0.31793699 0.0034241697
-0.0082534375 -0.042403191 0.059715629 -0.78965497 -0.5126825 -0.33704838 0.0036888032
-0.010138165 -0.038683899 0.060126156 -0.91346323 -0.286598 -0.2888709 0.0027137692
-0.0094108712 -0.040153317 0.059520073 -0.86354291 -0.38946548 -0.3203283 0.0035547328
-0.010492489 -0.036613226 0.059956834 -0.965877 -0.11283536 -0.23313068 0.0033361083
-0.010672981 -0.034117363 0.060050182 -0.97410733 -0.024436949 -0.22476147 0.0026681782
-0.010123486 -0.031126644 0.059444636 -0.9708544 0.099338375 -0.2181139 0.0019148061
-0.0095706992 -0.02946797 0.058614604 -0.96730518 0.15375434 -0.20169374 0.00038072013
-0.0042660744 -0.047029406 0.063199632 -0.49112886 -0.82246691 -0.28695065 0.001367669
-0.007937097 -0.044761587 0.063192345 -0.70686698 -0.63547426 -0.31066296 0.0041982457
-0.0060340669 -0.046056315 0.062698394 -0.56096631 -0.77080756 -0.3019478 0.0054300413
-0.0037144301 -0.046896666 0.061830156 -0.49213487 -0.81910682 -0.29473236 0.0011482
-0.010206132 -0.041368246 0.063281529 -0.8545112 -0.41731822 -0.3092832 0.0034824626
-0.0091823786 -0.042868137 0.062687643 -0.8099525 -0.48533288 -0.32928556 0.0022485824
-0.010577494 -0.039656498 0.062629201 -0.91710198 -0.28280491 -0.28097203 0.0027501071
-0.011201752 -0.036975529 0.063509837 -0.96068186 -0.12027954 -0.25024626 0.0034238684
