# .PCD v0.7 - Point Cloud Data file format
VERSION 0.7
FIELDS x y z normal_x normal_y normal_z curvature
SIZE 4 4 4 4 4 4 4
TYPE F F F F F F F
COUNT 1 1 1 1 1 1 1
WIDTH 550
HEIGHT 1
VIEWPOINT 0 0 0 1 0 0 0
POINTS 550
DATA ascii
0.014360664 -0.0053925328 -0.012311012 0.18911253 -0.27735505 -0.94197166 0.0018469974
0.016829308 -0.0052049737 -0.011717586 0.32174525 -0.24803093 -0.91376179 0.0013951797
0.0026838896 -0.0020797476 -0.011962755 -0.46084487 -0.37011322 -0.80662149 0.0030460795
0.0053628334 -0.0023917523 -0.012978079 -0.27329832 -0.35842815 -0.89265746 0.001193373
0.0083452668 -0.0023877039 -0.013587905 -0.097694062 -0.33500239 -0.93713892 0.0019181779
0.011332178 -0.0023872801 -0.013640285 0.059499752 -0.29863453 -0.95251095 0.001661911
0.01433302 -0.0023900019 -0.013212136 0.21611142 -0.26194003 -0.94057608 0.0013873214
0.017359417 -0.0023960453 -0.012272431 0.3584795 -0.21725921 -0.90790468 0.0014174877
0.019367354 -0.0017407546 -0.011501305 0.48032239 -0.19992957 -0.85400152 0.0015686756
0.00032814228 0.00089365104 -0.011894771 -0.60825896 -0.37467942 -0.69974017 0.002450054
0.0023703887 0.00060047396 -0.01303063 -0.39482626 -0.37332615 -0.83948773 0.0014554268
0.0050052502 0.00016869046 -0.013889343 -0.25372115 -0.36382505 -0.89624602 0.001730633
0.0077386787 -0.00045526167 -0.014185123 -0.069703594 -0.33258355 -0.94049436 0.0019311034
0.011686208 -0.00036344957 -0.014194412 0.075098649 -0.28638083 -0.95516813 0.0014725655
0.014438016 0.00044488208 -0.013892231 0.25300118 -0.23226164 -0.93917245 0.0023635956
0.017335081 0.00060094055 -0.012919039 0.37643439 -0.17122149 -0.9104836 0.001693439
0.019736461 0.0006624544 -0.011724981 0.5195269 -0.13193819 -0.84420621 0.0017104185
-0.002475081 0.0047594383 -0.011474364 -0.67256796 -0.40445635 -0.61973172 0.00067521585
-0.0004514918 0.0037120946 -0.012753845 -0.57206267 -0.40201974 -0.71492958 0.0043516629
0.0020367694 0.0027951987 -0.013891244 -0.37141019 -0.38619316 -0.84433961 0.001971459
0.015298954 0.0027428519 -0.01413821 0.29632589 -0.1833747 -0.93731779 0.00091631513
0.017345104 0.0035609794 -0.013418161 0.40824914 -0.16662724 -0.89753443 0.0010858856
0.019908497 0.0036007492 -0.011964081 0.56183618 -0.089801863 -0.8223598 0.0021546069
-0.0030514868 0.0068506352 -0.012234208 -0.69675732 -0.41471726 -0.5852682 0.0024380379
-0.0012122901 0.0063270102 -0.013604517 -0.51098257 -0.40838727 -0.75638396 0.0027874901
0.01772297 0.0065387571 -0.013635357 0.49440113 -0.067129284 -0.86663789 0.001526477
0.02002986 0.0066747935 -0.012124375 0.60882282 -0.037867799 -0.79240191 0.0025867226
-0.0055295541 0.010466777 -0.011862677 -0.72227848 -0.42876992 -0.54265112 0.0026728103
-0.0037860167 0.009405639 -0.013163744 -0.60902458 -0.41268745 -0.67733169 0.0025830795
-0.0019929153 0.0084044933 -0.014156051 -0.58557814 -0.41584155 -0.69582611 0.0021459502
0.017884372 0.0094736759 -0.013676904 0.53111273 -0.016563479 -0.84713924 0.0017366621
0.019938899 0.0095470287 -0.012181707 0.65322334 0.02657716 -0.75669867 0.0019949418
-0.0062857619 0.012713442 -0.012637632 -0.73052579 -0.42737296 -0.53262043 0.0036496019
-0.0048274524 0.012007408 -0.013900273 -0.62458885 -0.40476176 -0.66787475 0.0010465686
0.017998835 0.01255222 -0.013592172 0.57490057 0.034750212 -0.81748503 0.0017272
0.019763304 0.012501901 -0.012121091 0.70221615 0.077564843 -0.70772612 0.0023298762
-0.0087870779 0.016327031 -0.01219968 -0.74153244 -0.46797276 -0.48076108 0.0013207194
-0.0073751602 0.015197411 -0.013209387 -0.72743189 -0.43178746 -0.5332939 0.0025355227
0.017860495 0.015631013 -0.013461929 0.61235821 0.094575085 -0.78490323 0.0014821123
0.019604582 0.015447439 -0.011873696 0.74008459 0.13463905 -0.65889841 0.0022376217
-0.011255827 0.019778632 -0.011346065 -0.78058761 -0.47131097 -0.41054708 0.0023271628
-0.0095985616 0.018554598 -0.012956327 -0.74843854 -0.43087089 -0.50417268 0.0049386481
-0.0079599246 0.017354809 -0.014191829 -0.63397348 -0.41021305 -0.65559357 0.002425669
0.017625721 0.018602256 -0.013119967 0.67583519 0.14401361 -0.72284633 0.0034871064
0.019324759 0.018013416 -0.0115732 0.76583475 0.20810509 -0.60843194 0.0053883963
-0.011962613 0.021942344 -0.012411654 -0.77097875 -0.44750679 -0.45313296 0.0024230089
-0.010695909 0.021091487 -0.013582953 -0.74485147 -0.43052602 -0.5097487 0.0027758302
0.015451942 0.022865839 -0.014138781 0.66233283 0.16604684 -0.73057771 0.0022234479
0.01718832 0.021494478 -0.012858914 0.71117681 0.1870136 -0.6776824 0.0022273788
-0.014470329 0.025753237 -0.011895083 -0.78779632 -0.45250881 -0.4178668 0.0015255064
-0.013025414 0.024519492 -0.01312817 -0.78303075 -0.46227095 -0.4161351 0.0013312902
0.015101333 0.024818197 -0.013833852 0.66577423 0.22461124 -0.71154368 0.00082211371
0.016652973 0.024440836 -0.012402451 0.71886021 0.27372584 -0.63899463 0.0020283759
-0.015150426 0.02777298 -0.012775118 -0.76629537 -0.44653535 -0.46194965 0.0034072599
-0.013828322 0.026562396 -0.013745718 -0.73979789 -0.44866475 -0.50139713 0.0070149279
0.014654817 0.02774417 -0.013238595 0.6856578 0.27315304 -0.67473012 0.0028604728
0.016163046 0.026967708 -0.011851087 0.7437703 0.31717363 -0.58839315 0.0014223439
-0.017620828 0.031132104 -0.011966811 -0.77813303 -0.46455798 -0.42272314 0.0029024363
-0.016440773 0.030452859 -0.013233537 -0.75904453 -0.43411225 -0.4851782 0.0047664861
0.012448268 0.031145368 -0.013918671 0.61817425 0.29642925 -0.72800428 0.0016671311
0.014053535 0.030386595 -0.012612199 0.71781427 0.32510751 -0.61566865 0.002378741
-0.018584358 0.033678439 -0.012763327 -0.77758902 -0.40534145 -0.48068038 0.0020514738
-0.017148567 0.032516874 -0.014001213 -0.74385977 -0.4199256 -0.51993769 0.0041840142
0.011903591 0.033831172 -0.013140467 0.70433974 0.36363229 -0.60965323 0.0027267891
0.01347814 0.032886937 -0.011817766 0.7268064 0.39095306 -0.56471962 0.0015017773
-0.020737134 0.036977589 -0.012224516 -0.75965363 -0.39522451 -0.51645333 0.0028218217
-0.019522611 0.036366079 -0.013515502 -0.74293661 -0.33950713 -0.57687098 0.0038660266
0.0091308542 0.03731969 -0.013928419 0.65362519 0.39577442 -0.64508659 0.00068958965
0.010859368 0.036407575 -0.012690214 0.70667064 0.38887438 -0.59109503 0.002371764
-0.023254676 0.041009031 -0.011615835 -0.73785084 -0.32071489 -0.5939008 0.0027813199
-0.021527382 0.039620098 -0.012907378 -0.74742132 -0.30572316 -0.58982587 0.0023961368
-0.019893786 0.038468532 -0.014205895 -0.68774486 -0.27998334 -0.66978836 0.0054368535
0.0067299237 0.040773399 -0.014101945 0.62069732 0.42446429 -0.65921539 0.0013193521
0.008478241 0.039738845 -0.01304361 0.68008482 0.41300425 -0.60573268 0.0019944278
0.010144544 0.038759846 -0.011811353 0.70245749 0.45085204 -0.55071396 0.002334215
-0.023701349 0.042704269 -0.01187853 -0.74494708 -0.29824731 -0.59674317 0.0032726268
-0.022299118 0.042691395 -0.013448432 -0.70682013 -0.21031348 -0.67540616 0.0034108823
0.0058548758 0.042871188 -0.013432844 0.59653085 0.47799832 -0.64472365 0.0038433881
0.0076780492 0.042095002 -0.012141617 0.65744454 0.50192213 -0.56199718 0.0029027422
-0.024333928 0.045715149 -0.012290526 -0.71167368 -0.18871066 -0.67668962 0.0045687733
-0.02267372 0.045631457 -0.013748359 -0.64564586 -0.10740417 -0.75604618 0.0034977687
0.0029057143 0.046169095 -0.013738239 0.52206385 0.46518335 -0.71488029 0.0013675721
0.0048529133 0.04538912 -0.012476631 0.64373964 0.49372694 -0.58466482 0.0025928828
-0.024627231 0.048675898 -0.012519911 -0.63298756 -0.041078608 -0.77307135 0.0045624762
-0.022664286 0.048599556 -0.013915593 -0.56412256 0.01681128 -0.82551986 0.0026678124
-4.2893807e-05 0.049196597 -0.013717865 0.52437812 0.51317358 -0.67947072 0.002757458
0.0021070226 0.048238199 -0.012729924 0.57033145 0.5341472 -0.6240263 0.0027115904
0.0039917473 0.047482125 -0.011543475 0.66756278 0.56978309 -0.47927776 0.0029469412
-0.024848908 0.051585749 -0.01228564 -0.55747372 0.093625851 -0.8248983 0.003770574
-0.022336356 0.051725324 -0.01377914 -0.45740688 0.1427543 -0.87772441 0.0022798944
-0.0032399893 0.052198678 -0.013648781 0.39088449 0.51285046 -0.76432562 0.0013781516
-0.00091300206 0.051413585 -0.012662794 0.50505704 0.55808485 -0.65837574 0.0020667834
0.0012205048 0.050226741 -0.011772476 0.58168513 0.5380916 -0.60999978 0.0028092691
-0.024448343 0.054510638 -0.011969071 -0.46860912 0.26339477 -0.84322512 0.0020789106
-0.021716021 0.054533899 -0.013282382 -0.33136472 0.33479241 -0.8821063 0.0017112736
-0.018968465 0.055316221 -0.013902453 -0.20279689 0.3949734 -0.89602983 0.001687467
-0.015937073 0.055860266 -0.01415325 -0.072795309 0.48912627 -0.86916995 0.0019320617
-0.012779688 0.055913024 -0.01418858 0.066899285 0.53557587 -0.84183311 0.0016511353
-0.009480386 0.05555192 -0.013850584 0.20583579 0.57572341 -0.79131168 0.0017091918
-0.0065556751 0.054808978 -0.013361992 0.34633851 0.57364827 -0.7422784 0.0030754772
-0.0039714249 0.054106183 -0.012555761 0.4390752 0.59732914 -0.67112654 0.0027082681
-0.0020114966 0.05346816 -0.011691414 0.49077392 0.60018152 -0.6316036 0.002345355
-0.023718676 0.056714877 -0.011580305 -0.42697465 0.36790392 -0.82603836 0.0038744793
-0.021563629 0.057471067 -0.012105512 -0.3025296 0.42608812 -0.85259885 0.0024271873
-0.018773085 0.057750057 -0.012708785 -0.15314171 0.50244713 -0.85093737 0.0014109587
-0.015771491 0.05763289 -0.013141696 -0.042933144 0.52654529 -0.84906232 0.0017260396
-0.012697274 0.057744965 -0.012913177 0.11468374 0.5792951 -0.80700982 0.0024841283
-0.0098535996 0.0574589 -0.012500168 0.25838342 0.62458163 -0.73697746 0.0027907419
-0.0069419928 0.056760564 -0.011891888 0.37674949 0.64504445 -0.66481388 0.0025389241
-0.018386513 0.05965345 -0.011582678 -0.13202372 0.58396393 -0.80097181 0.001831239
-0.015632631 0.059703652 -0.011675412 0.018209811 0.63979405 -0.76833063 0.0028861952
-0.013294844 0.059620246 -0.011562515 0.15599842 0.66608942 -0.72937608 0.0023225765
0.0090511851 -0.016065856 -0.0084609315 -0.22207907 -0.38869765 -0.8942008 0.0028526396
0.011288182 -0.01634484 -0.008561288 -0.056427203 -0.3772147 -0.92440522 0.0026162928
0.013996662 -0.016219324 -0.0085038412 0.1294072 -0.37096018 -0.91958809 0.0012814894
0.0059743468 -0.013632478 -0.0085890852 -0.37829319 -0.3783004 -0.84485692 0.0027830827
0.0082472293 -0.014206491 -0.0090076504 -0.22141382 -0.36667272 -0.90361881 0.0024157111
0.011200768 -0.014251959 -0.009381149 -0.026665652 -0.3541207 -0.93481952 0.0010514192
0.014223197 -0.014257304 -0.0092228809 0.13374257 -0.34983778 -0.92721432 0.0011767232
0.016991496 -0.014005428 -0.0087340381 0.26303014 -0.33706492 -0.90399247 0.0012597839
0.018901004 -0.013122 -0.0083842501 0.40882236 -0.32335505 -0.85340834 0.0010522758
0.0033911131 -0.010482264 -0.008511317 -0.54975474 -0.34557307 -0.7604925 0.0025544621
0.0053859544 -0.011328479 -0.009247357 -0.39017546 -0.35262817 -0.85053891 0.0036332894
0.0082779434 -0.011499792 -0.010127095 -0.1884314 -0.36762288 -0.91068494 0.0014976931
0.011218498 -0.011404566 -0.010506367 -0.019348903 -0.36690289 -0.930058 0.0014413972
0.014225018 -0.011470087 -0.01028602 0.1362946 -0.35049459 -0.9265945 0.0011103955
0.017227935 -0.011460774 -0.0095970593 0.27926821 -0.31141531 -0.90831149 0.0012402659
0.019583926 -0.011251537 -0.0087423492 0.39110252 -0.29694286 -0.87112784 0.0005106185
0.0027220054 -0.0082388064 -0.0090765078 -0.56420738 -0.35681346 -0.74454963 0.0023929842
0.0053071161 -0.0085090138 -0.010411379 -0.34431154 -0.3827197 -0.85730696 0.0019366144
0.008182928 -0.0092893783 -0.011000287 -0.17509098 -0.38059095 -0.90801638 0.0019405652
0.011390453 -0.0096309036 -0.01117414 -0.0066761337 -0.3573446 -0.93394876 0.0013799703
0.014681988 -0.0092370734 -0.011041518 0.14127244 -0.33857787 -0.93027264 0.0010583504
0.017267309 -0.0085191187 -0.010611553 0.29205415 -0.3101843 -0.90470445 0.00097089523
0.020194666 -0.008400036 -0.0093785767 0.47384498 -0.23988202 -0.84730613 0.0014959659
0.022151655 -0.0075364187 -0.0085139396 0.60197198 -0.21436007 -0.76920712 0.0018768788
0.00049718795 -0.0049498538 -0.0087257884 -0.65810192 -0.34082431 -0.67137218 0.00213462
0.0023450102 -0.0054554548 -0.010108909 -0.52083516 -0.36941916 -0.76958454 0.0024585798
0.0043035885 -0.0062578693 -0.010984363 -0.36877558 -0.36380422 -0.85536599 0.0029419507
0.018004587 -0.005917347 -0.011082863 0.34584576 -0.24271265 -0.90635604 0.0022551361
0.020220352 -0.0054216273 -0.010142417 0.46613798 -0.2078478 -0.85995036 0.001978185
0.022427458 -0.0053510787 -0.0087291338 0.62335885 -0.16348948 -0.7646535 0.0022781561
-0.00015828718 -0.0022165091 -0.0096102674 -0.69157636 -0.3731499 -0.61845064 0.0036975588
0.0016829786 -0.0031167874 -0.01083431 -0.50961459 -0.38159651 -0.77115315 0.0030405845
0.020638332 -0.0025391378 -0.010550212 0.52226406 -0.17638625 -0.8343429 0.0019017034
0.022707781 -0.0023004892 -0.0090302797 0.66449952 -0.12899216 -0.73607153 0.0024905547
-0.0026133363 0.0014164485 -0.0089222118 -0.7521522 -0.39667132 -0.52623087 0.0018557052
-0.0011662075 0.00043918146 -0.010105254 -0.67265135 -0.39957064 -0.62280297 0.0049621221
0.021143675 0.00053422246 -0.010784917 0.57151854 -0.1018075 -0.81424928 0.0021916188
0.022806821 0.00060294336 -0.0093760509 0.67690521 -0.07066036 -0.73267084 0.0020429892
-0.0032442478 0.0037911069 -0.0097565148 -0.74291307 -0.39550811 -0.54004949 0.0025290151
-0.0018636564 0.0027609344 -0.010853915 -0.7246691 -0.41167736 -0.55260879 0.0028386898
0.021343367 0.003609007 -0.010876348 0.68328905 -0.045046598 -0.72875708 0.0018507636
0.022801798 0.0036197109 -0.0094779693 0.73450196 -0.018206581 -0.67836231 0.0028602483
-0.0054396135 0.0072629424 -0.0089640049 -0.81323755 -0.41713026 -0.40576735 0.0019136237
-0.0042853816 0.0063390308 -0.010202633 -0.7838794 -0.40873078 -0.46741012 0.0020142961
0.021417202 0.0063838968 -0.010945866 0.65714848 0.0024208028 -0.7537573 0.0019017181
0.022773769 0.0065864762 -0.0094339736 0.77317512 0.051641416 -0.63208652 0.0027249027
-0.0062858118 0.009626314 -0.0097377226 -0.83026153 -0.41417301 -0.37299669 0.00089499686
-0.0047894921 0.0082302466 -0.011140786 -0.71643758 -0.39787531 -0.57307291 0.0028519747
0.021364275 0.0097312108 -0.010810492 0.76833463 0.067394249 -0.63649029 0.0025237508
0.022547672 0.0095842201 -0.0094497129 0.80430484 0.10411912 -0.58502394 0.0027894408
-0.0086490661 0.013491385 -0.0091554374 -0.8271293 -0.45108348 -0.3352325 0.0017817137
-0.0075848037 0.012348075 -0.01011315 -0.81494081 -0.44729671 -0.36850652 0.0020019107
0.021184823 0.012754543 -0.010560561 0.79509616 0.11851762 -0.5947904 0.0029608833
0.022310939 0.012495792 -0.0090647861 0.8259933 0.15653612 -0.5415085 0.0028161299
-0.0094408104 0.015608991 -0.010018781 -0.8140679 -0.45554468 -0.36023974 0.0020380474
0.021009604 0.01572635 -0.010056213 0.84495407 0.22539133 -0.48502719 0.0018299406
0.022147514 0.01455494 -0.0085993335 0.82370353 0.2196449 -0.52275097 0.0037627423
-0.011600956 0.019109311 -0.0094590746 -0.83940846 -0.45800906 -0.29261068 0.001992424
-0.010666289 0.018046141 -0.010388775 -0.82619441 -0.45738101 -0.32894576 0.0026366881
0.020295473 0.018728353 -0.0098700598 0.83643389 0.23341875 -0.49587709 0.0039638109
-0.012752716 0.021579776 -0.010138007 -0.82315129 -0.46089119 -0.33166447 0.0019055716
0.018327303 0.02279485 -0.011105083 0.7753185 0.2720921 -0.56995362 0.0054267789
0.019468591 0.021539856 -0.0098309983 0.84378994 0.26822686 -0.46483648 0.0028388973
-0.014832742 0.025116567 -0.0099151619 -0.83753401 -0.45542076 -0.30187541 0.0022621192
-0.01398162 0.023729289 -0.010057596 -0.82524598 -0.47642744 -0.30329204 0.0022556349
0.018042069 0.02492632 -0.010222688 0.8213039 0.31064713 -0.47849572 0.0035032365
0.019027336 0.023984754 -0.009081739 0.83654445 0.29682338 -0.4605315 0.003839046
-0.017380204 0.028737091 -0.0086243376 -0.83472204 -0.50297958 -0.22416642 0.00070635782
-0.016197916 0.027521351 -0.01007162 -0.83191794 -0.48402599 -0.27135107 0.0021460175
0.01702976 0.027585207 -0.010088233 0.80934113 0.35377187 -0.46884161 0.002466853
-0.018107925 0.030611129 -0.0099523682 -0.8188464 -0.49656424 -0.28794897 0.0022588538
0.015325394 0.031206083 -0.010227865 0.82185197 0.40047964 -0.40518573 0.0023094707
0.016362306 0.02990021 -0.0094672516 0.82567644 0.39656267 -0.40124369 0.0022650864
-0.020683249 0.034524977 -0.0095142769 -0.81273973 -0.4715524 -0.34218773 0.002426351
-0.019629316 0.033224285 -0.010197356 -0.81783766 -0.49386141 -0.29536822 0.0018950714
0.014296468 0.033569597 -0.0098786522 0.81456864 0.40671644 -0.41359362 0.0027451373
-0.021815157 0.036705539 -0.0099382345 -0.8052702 -0.44770575 -0.38871509 0.0021375432
0.012152023 0.037057009 -0.010315766 0.78971857 0.46032429 -0.40551966 0.0032796853
0.013237611 0.036009584 -0.009408297 0.79824328 0.44651255 -0.40427002 0.003144715
-0.023759419 0.04002608 -0.0097450111 -0.80923569 -0.43307823 -0.39696461 0.0022974568
-0.022693837 0.038864903 -0.010631068 -0.8177886 -0.4323504 -0.37986186 0.0024936488
0.0095418468 0.040590815 -0.01115071 0.72676146 0.47759405 -0.49368188 0.0044988287
0.01086522 0.039505154 -0.0098758042 0.77021551 0.47715807 -0.42318815 0.0027771813
-0.026224298 0.043631472 -0.0084865317 -0.81891364 -0.42121494 -0.38981837 0.0028273859
-0.024965078 0.04264136 -0.0099156704 -0.81038153 -0.34861061 -0.47090602 0.0030907085
0.0086373845 0.042770136 -0.010010726 0.75431448 0.54361987 -0.36808577 0.0010183987
0.010047011 0.041484132 -0.009055905 0.76949936 0.51484925 -0.37789029 0.0016095161
-0.026900902 0.045930266 -0.0091377506 -0.7959559 -0.32505527 -0.51067924 0.0027344581
-0.025745291 0.045477007 -0.010564968 -0.78203988 -0.25451532 -0.56888974 0.0035328511
0.0060655898 0.045934189 -0.010397986 0.71520269 0.54767036 -0.43421462 0.0025657776
0.0073334859 0.045018684 -0.0093186423 0.73060787 0.55149066 -0.40257931 0.0014276782
-0.027362704 0.048706211 -0.0097158123 -0.77589667 -0.23263694 -0.58639956 0.0036524641
-0.026052933 0.048214991 -0.011183336 -0.69714028 -0.12138049 -0.70658487 0.0030277439
0.0030210465 0.049389727 -0.010568287 0.67675316 0.60087425 -0.42538834 0.0018347761
0.0046609435 0.048145808 -0.0097276252 0.6829735 0.58590746 -0.43618765 0.0018477846
-0.027751803 0.051612489 -0.0098229405 -0.72530913 -0.031101555 -0.6877203 0.0050763292
-0.026047822 0.05305896 -0.01126375 -0.59763503 0.085488908 -0.79719764 0.0069392091
0.00019238651 0.052368872 -0.010602033 0.62015051 0.61515182 -0.48682809 0.0035166861
0.0019943472 0.051043935 -0.0097978758 0.63960856 0.63119125 -0.43874654 0.0023773022
-0.027750418 0.054574858 -0.009656582 -0.65956938 0.13235457 -0.73989892 0.0057832394
-0.025834475 0.055036005 -0.010983159 -0.53601527 0.1966165 -0.82099313 0.003585207
-0.0031992812 0.055475775 -0.010438846 0.53948778 0.69921243 -0.46910012 0.0025026165
-0.0011520933 0.054157835 -0.0098707583 0.58588117 0.65853208 -0.47231209 0.0019881339
-0.027511515 0.057369519 -0.0090459855 -0.52606404 0.33893344 -0.77998769 0.0018690336
-0.02500063 0.057775564 -0.010447766 -0.40663192 0.40017915 -0.82128382 0.0018756574
-0.022124549 0.058848992 -0.011169337 -0.26623905 0.52220941 -0.8101939 0.0019108086
-0.0092608547 0.058790356 -0.011033846 0.28714538 0.67672729 -0.67792886 0.0020834664
-0.0064811222 0.058038197 -0.010078313 0.42260692 0.72687113 -0.5413518 0.0030857283
-0.0041792337 0.056905728 -0.009486882 0.52167636 0.70057547 -0.48687565 0.0019147529
-0.026691096 0.059799474 -0.0084614828 -0.45276403 0.49117145 -0.74414742 0.0027469876
-0.024535134 0.060254008 -0.0092751868 -0.37708288 0.51740098 -0.76818275 0.0031065999
-0.021773152 0.060519349 -0.010181473 -0.24634399 0.5650869 -0.78739536 0.0025348787
-0.018693704 0.061074119 -0.010382015 -0.09241347 0.63415623 -0.76766235 0.0031991126
-0.015782969 0.061173655 -0.010378922 0.05275216 0.73607755 -0.67483848 0.0023151641
-0.01256205 0.060789175 -0.010100242 0.20307805 0.75024492 -0.62919933 0.0023625223
-0.0098097194 0.059964683 -0.0098815113 0.34726259 0.75310493 -0.55878592 0.004447863
-0.0077014146 0.059573099 -0.008925627 0.44494104 0.77190566 -0.45408049 0.0026622771
-0.021559421 0.062356502 -0.0087423883 -0.1917232 0.6677385 -0.71928263 0.002935336
-0.01897775 0.062646724 -0.0088800918 -0.037311122 0.73673165 -0.67515504 0.0034922301
-0.015511358 0.062496018 -0.0088500902 0.10047486 0.77283877 -0.626598 0.0030142323
-0.013655246 0.06219884 -0.0087605836 0.22569461 0.77953202 -0.58428735 0.0060425485
0.0087851696 -0.022467647 -0.0055779624 -0.21940701 -0.39016604 -0.89422095 0.0025777242
0.011286716 -0.022805126 -0.0056705824 -0.023500472 -0.4122746 -0.91075641 0.0015624875
0.014145158 -0.022574818 -0.0055960221 0.13008825 -0.42008749 -0.89811116 0.0012353832
0.016212223 -0.022116564 -0.0053992197 0.28558108 -0.42016715 -0.8613379 0.0017027174
0.0057917954 -0.020090755 -0.005703696 -0.39357048 -0.37292325 -0.84025627 0.0030513764
0.0082322042 -0.020432571 -0.0063368226 -0.22582799 -0.38497257 -0.89487308 0.0024359515
0.011261806 -0.020413 -0.0067455256 -0.030125555 -0.39489582 -0.91823184 0.0012579215
0.014303483 -0.020421833 -0.0065615508 0.13775238 -0.40671188 -0.90311116 0.0017202019
0.017191174 -0.020278778 -0.0059629455 0.27040336 -0.40513408 -0.87335467 0.0014540293
0.019369779 -0.019417416 -0.0055161491 0.40401193 -0.40786451 -0.81879234 0.0015545033
0.0033010785 -0.016690707 -0.0057147369 -0.5921731 -0.33113119 -0.73463136 0.002461778
0.0052195881 -0.017349906 -0.0065810694 -0.45384383 -0.33967984 -0.82379824 0.0028825076
0.0080928868 -0.01751611 -0.0075896578 -0.23623563 -0.38008845 -0.89427376 0.0022249061
0.011189877 -0.01798423 -0.0078416532 -0.033865321 -0.41826558 -0.90769321 0.001271355
0.014376994 -0.017815385 -0.0077544735 0.13535596 -0.40266913 -0.90528244 0.0013145396
0.017313534 -0.017355107 -0.0072930651 0.271988 -0.38760582 -0.88078618 0.0011153868
0.020026332 -0.017259708 -0.0062218821 0.44511873 -0.35762322 -0.82095981 0.0013679336
0.021945942 -0.016373362 -0.0055107847 0.54833728 -0.35285306 -0.75816947 0.0018920797
0.0027482128 -0.014230119 -0.0063086296 -0.59867442 -0.32221875 -0.73332387 0.0038212794
0.0049142083 -0.014526825 -0.0076317657 -0.43812773 -0.34632766 -0.82951874 0.0029193675
0.0070392853 -0.015456162 -0.0081716403 -0.24812543 -0.34429905 -0.90547884 0.0034567597
0.017982118 -0.014993845 -0.0080852704 0.27896953 -0.3550888 -0.89223766 0.0014473607
0.020270726 -0.014296904 -0.0073259249 0.40877324 -0.33849171 -0.84754223 0.00078447443
0.022605438 -0.014322348 -0.0059153112 0.5800249 -0.3008962 -0.75698912 0.0019359506
0.00057682255 -0.010687619 -0.0057836473 -0.7271769 -0.29312208 -0.62071991 0.0022529594
0.0022625527 -0.011571232 -0.0070693358 -0.57895643 -0.35113928 -0.73587412 0.0017063672
0.0041692955 -0.012510754 -0.0080788163 -0.45258856 -0.34937382 -0.8204276 0.0034086341
0.021093663 -0.01176725 -0.0077568218 0.47788718 -0.2695156 -0.83605331 0.0021131733
0.023302265 -0.011246985 -0.006352148 0.62553835 -0.24025124 -0.74228096 0.0026905863
0.00015191437 -0.0081735495 -0.0065517747 -0.74685639 -0.31946376 -0.58322257 0.0021961201
0.0015593104 -0.0089493208 -0.0077083064 -0.65434009 -0.34430489 -0.67327052 0.00079923554
0.021706378 -0.0096391737 -0.008094795 0.57287651 -0.27241084 -0.773049 0.0033816884
0.02343379 -0.0084153777 -0.0071167881 0.63626063 -0.21165428 -0.74187255 0.0024518585
0.025105493 -0.0078250058 -0.0055460185 0.74333352 -0.16025193 -0.64944184 0.0014060895
-0.00070222199 -0.0055191116 -0.0068713166 -0.79430044 -0.33664712 -0.50572264 0.0015307021
0.023866536 -0.005508435 -0.0074438443 0.73827893 -0.12605418 -0.66261196 0.0016498694
0.025301076 -0.0053726779 -0.0058608279 0.77751708 -0.097793423 -0.62121141 0.0027337959
-0.0026965104 -0.0017925072 -0.0061449483 -0.83825386 -0.33127573 -0.4331131 0.0026402117
-0.0016370873 -0.0028365795 -0.0072708968 -0.79862899 -0.35784501 -0.48387885 0.0019549266
0.024140619 -0.0025813594 -0.0075592408 0.77659839 -0.078330263 -0.62510735 0.0023928129
0.025309211 -0.0024355389 -0.006098744 0.81701732 -0.032952502 -0.57567078 0.0027494358
-0.0032935012 0.00060439995 -0.0068894601 -0.84333754 -0.35635507 -0.40223488 0.0023143641
0.024286328 0.00060383743 -0.0077373786 0.81366014 -0.025005272 -0.58080292 0.0027176177
0.025304412 0.00060481811 -0.006185852 0.85294497 0.021414477 -0.52156144 0.0032008928
-0.0053283772 0.0045804903 -0.006062103 -0.87169582 -0.36695555 -0.32479236 0.0018443115
-0.00437835 0.0033364901 -0.0072094575 -0.85298538 -0.38836214 -0.34869868 0.0012130718
0.024290454 0.0036336503 -0.0076609245 0.84864545 0.049265567 -0.52666295 0.0034014462
0.025213983 0.0033643723 -0.0061285244 0.88032013 0.10081844 -0.46354303 0.0039275619
-0.0059539904 0.0066109481 -0.0068251444 -0.87707841 -0.38341102 -0.28936052 0.0017574959
0.024263047 0.0067598401 -0.0071689002 0.8889975 0.12351014 -0.44094071 0.0048799347
0.025109284 0.005757764 -0.0054770038 0.91001636 0.16700146 -0.379448 0.0037391977
-0.0073417462 0.0095557142 -0.0067799943 -0.86427873 -0.43329567 -0.25549376 0.00077777705
0.023884155 0.0095585389 -0.0070846416 0.89264399 0.16763309 -0.41843262 0.0049454467
-0.0090019964 0.01281262 -0.0064980462 -0.85064524 -0.4586831 -0.25692895 0.00037779828
-0.0081136385 0.011338316 -0.0070557073 -0.86195385 -0.43617788 -0.25842673 0.00074840657
0.023196198 0.012716141 -0.0071031349 0.90854782 0.18087631 -0.37659606 0.0028728275
-0.01021811 0.015368929 -0.0069003664 -0.85347039 -0.45824853 -0.24818659 0.00030024067
0.022531383 0.015407132 -0.0071081477 0.92774308 0.21654035 -0.30397868 0.0076447888
-0.011997923 0.018596075 -0.0064896736 -0.85418838 -0.46029037 -0.24185741 0.00024863539
-0.010881416 0.017127521 -0.0082150325 -0.8430804 -0.46017975 -0.27829862 0.0011318743
0.021544175 0.01856341 -0.0072973594 0.90771216 0.26996079 -0.32121632 0.007065061
0.022245426 0.017190941 -0.0065790638 0.93235612 0.26817721 -0.24247287 0.0042999745
-0.013475697 0.021598589 -0.0072088516 -0.84521228 -0.4697206 -0.25490913 0.00079861371
0.020595757 0.021614688 -0.0068999305 0.8659054 0.27049908 -0.42075896 0.00098483346
-0.015341287 0.024980355 -0.0072257519 -0.84489214 -0.48782083 -0.21951786 0.00050556898
0.019409092 0.024545457 -0.007362254 0.84372503 0.32659885 -0.42598262 0.0020638022
-0.01746585 0.028400563 -0.0066362843 -0.83472425 -0.50297445 -0.22416981 0.00070428732
-0.016826134 0.027440596 -0.0070424899 -0.83749121 -0.50519001 -0.20830649 0.00050526613
0.018094596 0.027500048 -0.0075883316 0.84798044 0.37935671 -0.37015903 0.0011032296
-0.018692698 0.030473785 -0.0070505515 -0.82630223 -0.51432794 -0.22954589 0.00064353598
0.016846031 0.030455004 -0.0073187426 0.82567853 0.39656758 -0.40123442 0.0022538456
-0.021013828 0.033909038 -0.0066769943 -0.8271758 -0.52302438 -0.20548925 0.0004526882
-0.019994168 0.032542571 -0.00746838 -0.8270067 -0.51891214 -0.21631028 0.00027005773
0.015219209 0.033735178 -0.0071316138 0.82736671 0.44979811 -0.33637178 0.0010517344
0.016167579 0.032133557 -0.0066946074 0.84993744 0.42167908 -0.31590039 0.00028067431
-0.023532964 0.037734739 -0.0067405328 -0.82524824 -0.51030707 -0.24197525 0.0014327039
-0.022513304 0.036408372 -0.0072400533 -0.83185309 -0.50089759 -0.23900199 0.0014480987
0.013724227 0.036481317 -0.0072061047 0.82532859 0.45485514 -0.33457369 0.0011080645
-0.024531098 0.039542321 -0.0069789737 -0.8244921 -0.50561589 -0.25409684 0.0011404202
0.011717902 0.039795764 -0.0071941442 0.80705917 0.50291425 -0.30940723 0.00039889172
0.012909782 0.038244255 -0.0062535629 0.82366878 0.48185414 -0.29897532 0.00019556377
-0.02662833 0.043048386 -0.0067250542 -0.84080118 -0.44321817 -0.31082308 0.0013092097
-0.025715455 0.041765586 -0.0073211193 -0.83397537 -0.47794798 -0.27577305 0.0013583286
0.009466623 0.043313835 -0.0070023262 0.77239597 0.54319376 -0.32915795 0.00049183943
0.010393395 0.041882534 -0.0073240725 0.79351109 0.52827018 -0.30211064 0.00074135279
-0.0278797 0.045628183 -0.0069327014 -0.8413201 -0.39940616 -0.36421865 0.0042639738
0.0077555347 0.045647349 -0.007001949 0.7594822 0.58693069 -0.28053352 0.00040715432
-0.029814515 0.049172983 -0.0062556118 -0.83082682 -0.37257057 -0.41342223 0.0026798116
-0.028865566 0.048258625 -0.0072981417 -0.83729446 -0.29172534 -0.46242225 0.0065781907
0.005244025 0.04877162 -0.0072421841 0.73171365 0.60029155 -0.32287017 0.0013746831
-0.030197926 0.051708497 -0.0068896427 -0.79841655 -0.17773312 -0.57527566 0.0084558912
-0.029043108 0.050189562 -0.0080892667 -0.8178826 -0.17577158 -0.54787993 0.0093636597
0.002353088 0.051994607 -0.0074548605 0.68816906 0.64844197 -0.32549405 0.001235991
0.0040195431 0.050287195 -0.0072421059 0.72855991 0.61393923 -0.30377468 0.0021400487
-0.030574255 0.054619182 -0.0068516638 -0.73395431 -0.0026927211 -0.6791935 0.0072193295
-0.0002255151 0.054719206 -0.0072418945 0.6547792 0.69032413 -0.30776089 0.0020782875
0.0014542479 0.053429611 -0.0063411668 0.67221701 0.67974901 -0.29336938 0.0016140229
-0.030489095 0.057547063 -0.0065185982 -0.6726824 0.21363717 -0.70841902 0.0048905294
-0.028631119 0.058126237 -0.0079283752 -0.60608566 0.26442352 -0.75016016 0.0028543596
-0.0052998448 0.058588408 -0.0079543814 0.50503719 0.75239938 -0.42288595 0.0030240524
-0.0036024847 0.057674058 -0.0070462353 0.57722276 0.7457996 -0.33256117 0.0022410769
-0.0020455038 0.056359731 -0.0071806237 0.62285405 0.69751078 -0.35430437 0.0021016491
-0.029940061 0.060196541 -0.0058622235 -0.57848519 0.42135176 -0.69843936 0.0020874802
-0.027857017 0.060702972 -0.0070625134 -0.49416062 0.47604576 -0.7274515 0.0049787373
-0.025249342 0.061693612 -0.0079527674 -0.31897792 0.63270557 -0.70564634 0.0020735406
-0.011351765 0.061835445 -0.0080468878 0.32553521 0.8354587 -0.44275913 0.003101242
-0.0096321059 0.061375633 -0.007407181 0.42626306 0.82847679 -0.36321613 0.0012820518
-0.0067655174 0.060011994 -0.0067481892 0.4655416 0.80658263 -0.364274 0.0016238835
-0.027366104 0.062691331 -0.005867342 -0.42776152 0.62306464 -0.65483636 0.0025064971
-0.02457924 0.063254267 -0.0067461631 -0.30452055 0.68844879 -0.65825951 0.0033594628
-0.021707997 0.063919283 -0.0068976814 -0.13281873 0.79211944 -0.59573984 0.0043331999
-0.018775225 0.064043105 -0.0070389025 0.029973323 0.85986722 -0.509637 0.003977899
-0.015849937 0.063782305 -0.0068776999 0.12894589 0.85199338 -0.50742507 0.0022608843
-0.012881693 0.062916651 -0.0070105079 0.29785964 0.86370891 -0.40655443 0.0033368981
-0.01094396 0.06259694 -0.0059815273 0.38471711 0.83627486 -0.39068794 0.0041375812
0.006173973 -0.0279347 -0.0023623779 -0.36657652 -0.39776531 -0.84107339 0.0040861685
0.0084175719 -0.028566606 -0.0025711376 -0.17847066 -0.42859778 -0.88569307 0.0034114548
0.01135728 -0.028860748 -0.0026268354 0.0084049497 -0.44996408 -0.89300716 0.0013206117
0.014119516 -0.028323289 -0.0026048794 0.18442386 -0.46535832 -0.86569589 0.0018075086
0.015843712 -0.027931966 -0.0024047121 0.22960317 -0.46483254 -0.85510999 0.0017466109
0.0035796468 -0.025107734 -0.0023006424 -0.57780129 -0.34740421 -0.73854995 0.0043502916
0.0054955422 -0.026032327 -0.0029121276 -0.37770417 -0.38344303 -0.84279954 0.0040088217
0.0083386377 -0.026316274 -0.003641672 -0.17050342 -0.40857878 -0.89665598 0.0019530766
0.011328437 -0.026427913 -0.0038704174 0.010669847 -0.45579574 -0.89002049 0.0011119092
0.014122213 -0.026246432 -0.0037176493 0.13631791 -0.46193546 -0.87637496 0.00081929803
0.017047282 -0.026060674 -0.003048823 0.30128458 -0.46262076 -0.83379233 0.0015887503
0.01929676 -0.025250128 -0.0025555417 0.41851798 -0.47411191 -0.77463579 0.0015802601
0.0032062903 -0.023191454 -0.0028448391 -0.59412557 -0.31879199 -0.73850286 0.0029536004
0.0052150367 -0.023366679 -0.0039612036 -0.43022251 -0.35868454 -0.82840449 0.0049161711
0.0080141779 -0.02368301 -0.0048308154 -0.22861816 -0.39935508 -0.88783401 0.0023754076
0.011302638 -0.02424836 -0.0049832859 -0.01538488 -0.44908127 -0.89335847 0.0014064693
0.014524844 -0.023956208 -0.0048737573 0.14111893 -0.45920974 -0.87704724 0.0011265515
0.017454797 -0.023376741 -0.0043940502 0.29877889 -0.435922 -0.84894234 0.0012743463
0.020114793 -0.023231022 -0.0032790299 0.46432635 -0.41593131 -0.7819221 0.0014334958
0.022130897 -0.022425996 -0.0024553363 0.56171197 -0.40781027 -0.71984071 0.0019250131
0.002517316 -0.020308431 -0.0034125689 -0.63166881 -0.28442985 -0.72117555 0.0035872443
0.0046773152 -0.020840775 -0.0047668959 -0.43810892 -0.35762289 -0.82472205 0.0040152925
0.018253503 -0.021349985 -0.0051155216 0.30303875 -0.39120865 -0.86897832 0.0021019813
0.020340061 -0.020655882 -0.0044295257 0.42394438 -0.40648881 -0.80934423 0.0010297169
0.022675931 -0.020142665 -0.003145288 0.5773629 -0.35761118 -0.734007 0.0025765782
0.00063128688 -0.017068049 -0.0027761534 -0.76100576 -0.24973528 -0.59875089 0.0020189367
0.0021903249 -0.017555982 -0.0042769071 -0.63745624 -0.31055236 -0.70512891 0.0025658524
0.0040323338 -0.018843167 -0.0052626953 -0.52375495 -0.33384842 -0.78372568 0.0084946901
0.021196708 -0.01847983 -0.0049977051 0.4548029 -0.38336259 -0.8038578 0.0016333816
0.023257928 -0.017341573 -0.0039986484 0.60037595 -0.33106035 -0.72797507 0.0015939211
0.025035679 -0.0168419 -0.002524972 0.69727713 -0.3029947 -0.64961439 0.0015952777
0.00027891994 -0.014270578 -0.0035208934 -0.79523289 -0.26137385 -0.54707247 0.0029318933
0.0014549817 -0.014735539 -0.0048000677 -0.7508167 -0.29282564 -0.59205353 0.002270564
0.024149338 -0.014577311 -0.0045180372 0.69781345 -0.27007538 -0.66341209 0.0021263326
0.025566958 -0.014229754 -0.0030859634 0.74199235 -0.24980226 -0.62213033 0.002193613
-0.00040795433 -0.011436876 -0.0038599814 -0.81450444 -0.27328208 -0.51176113 0.0026799683
0.024510289 -0.012211781 -0.0050006486 0.67849362 -0.20381661 -0.70576572 0.0023246557
0.02583161 -0.011275882 -0.0036444422 0.78405553 -0.17071991 -0.59675097 0.0015606695
-0.0013651826 -0.0083243558 -0.0039916644 -0.85475332 -0.28367624 -0.43465456 0.0012806277
0.026134197 -0.0083247209 -0.0039513279 0.81560397 -0.12630512 -0.56465667 0.0022143845
-0.0026641125 -0.0052799024 -0.0032122135 -0.89774781 -0.27099952 -0.34728688 0.0023642085
-0.0019312176 -0.0059326468 -0.0045618382 -0.8653394 -0.30137923 -0.40044764 0.0015928153
0.026560482 -0.0055679027 -0.003849579 0.85961437 -0.045159321 -0.50894368 0.0026340242
-0.0033250721 -0.0025125756 -0.003846328 -0.91352504 -0.27932116 -0.29572228 0.0020442372
0.026584392 -0.0025203116 -0.0038838356 0.89083087 0.026795341 -0.45354414 0.0030606403
-0.0043763132 0.00046480168 -0.0037286177 -0.91561854 -0.32415661 -0.23783429 0.0016655278
0.026368236 0.00060652057 -0.0039582527 0.92170221 0.086439036 -0.37814444 0.0032655234
-0.0055948868 0.003895449 -0.0039691753 -0.92325133 -0.33930716 -0.18021554 0.0013708746
-0.0048801657 0.0024825782 -0.004664652 -0.90240961 -0.37109691 -0.21896127 0.0011708173
0.025941987 0.0038021863 -0.0040129409 0.93511933 0.12336459 -0.33216411 0.0014603338
-0.0066760615 0.0067633167 -0.0039793835 -0.90694624 -0.37422937 -0.19339299 0.0018530469
0.025401697 0.0066847065 -0.0038280627 0.95255989 0.1987066 -0.23053288 0.001745012
-0.0077055516 0.0092978105 -0.004227581 -0.87886584 -0.42417249 -0.21834061 0.0016712373
0.024711804 0.0097681899 -0.0041598403 0.95087087 0.22008558 -0.21773139 0.0015951978
0.025255073 0.0083825216 -0.0028227791 0.95244759 0.21818897 -0.21269019 0.0016383427
0.024088636 0.01196254 -0.004094772 0.94714022 0.26825556 -0.1759672 0.00069502823
0.022910735 0.016402937 -0.0025807247 0.94568861 0.27195427 -0.17808419 0.0011012914
-0.023654871 0.037449397 -0.0046048984 -0.82818997 -0.52258474 -0.202501 0.00051251106
-0.022713255 0.036037005 -0.0046581253 -0.82936382 -0.52200097 -0.19917519 0.00049331994
-0.025078055 0.039584048 -0.0043568239 -0.83755714 -0.51737601 -0.17555653 0.00032709239
-0.027211621 0.042901263 -0.0040381625 -0.8455978 -0.49328187 -0.20405214 0.00057223544
-0.025970668 0.04115776 -0.0051001534 -0.84589338 -0.49031487 -0.20989437 0.00088465202
-0.029464636 0.046574414 -0.0037490651 -0.8493917 -0.46150744 -0.25601685 0.0019971395
-0.028617036 0.045244396 -0.0041055679 -0.85382318 -0.46006346 -0.24357246 0.0019687905
-0.030528586 0.048680555 -0.0039202725 -0.85725731 -0.40870261 -0.31316462 0.0030600936
0.0059126429 0.048700042 -0.00472828 0.73549646 0.61579442 -0.2825636 0.0011548053
-0.032590818 0.052324634 -0.0028481632 -0.86427069 -0.36802784 -0.34291646 0.0043804878
-0.031701785 0.051582363 -0.0041504768 -0.86267149 -0.30380794 -0.40434957 0.0074747982
0.0028630798 0.052222669 -0.0046968088 0.69955844 0.66348392 -0.26534337 0.0020789159
-0.033069994 0.054834787 -0.0035043396 -0.83709341 -0.19347173 -0.51170623 0.006969227
-0.032077875 0.054539151 -0.0049349293 -0.81838036 -0.092781447 -0.56713778 0.0051359362
-0.033373959 0.057556473 -0.0033844635 -0.76941282 0.064686097 -0.63546807 0.0093817702
-0.03197369 0.057848819 -0.0049349326 -0.72250605 0.14810167 -0.67531532 0.0043288749
-0.0011266068 0.056232251 -0.0045347437 0.64673132 0.71028459 -0.27791086 0.0015904845
-0.033011191 0.060292199 -0.0029997632 -0.64804888 0.3238641 -0.68930739 0.0059992485
-0.0312481 0.060855985 -0.0043100291 -0.62201571 0.35422263 -0.69829983 0.0034236845
-0.0086387973 0.061874278 -0.0044713244 0.42143145 0.84782881 -0.32184112 0.00089848699
-0.0072177406 0.060845099 -0.0051204786 0.47547248 0.81628108 -0.32804108 0.0008645443
-0.032251693 0.062129579 -0.0026618168 -0.51183051 0.57273102 -0.64031923 0.0045157913
-0.030215601 0.063143544 -0.0033799428 -0.51544791 0.58332866 -0.62772691 0.0030053975
-0.027845636 0.064071849 -0.0040554507 -0.32121524 0.7850669 -0.52961379 0.0035197521
-0.025421152 0.064535797 -0.0048893257 -0.23517346 0.78393149 -0.57458234 0.0044812048
-0.022691032 0.065072455 -0.0050650761 -0.088699117 0.86528105 -0.49337718 0.0032462003
-0.018238749 0.065079086 -0.0050204769 0.060261682 0.87291265 -0.48414052 0.0020414074
-0.015440032 0.064667568 -0.0046316013 0.22701502 0.88787711 -0.40017313 0.0018338439
-0.012566763 0.063823596 -0.0039806888 0.33498526 0.89066869 -0.30739903 0.0011257099
-0.010046223 0.062571973 -0.0045176968 0.39534962 0.85070038 -0.34642097 0.0021178236
-0.0268187 0.065402858 -0.002842091 -0.3277244 0.79083562 -0.51689041 0.003533348
-0.024560019 0.065484643 -0.003731769 -0.24524546 0.81055647 -0.53183913 0.0034690513
-0.021571403 0.065691642 -0.0040608668 -0.088754408 0.86518073 -0.49354336 0.0033583352
-0.018997923 0.065608412 -0.0038332418 0.037138443 0.8957029 -0.4430995 0.0025157663
-0.016876757 0.065240093 -0.0039371774 0.18581676 0.89922965 -0.39605331 0.0027803094
0.0085400436 -0.034486365 0.00044700503 -0.1245608 -0.4502911 -0.88415074 0.0023101072
0.011320129 -0.034502659 0.00042553572 0.074886471 -0.48468494 -0.87147719 0.0021107965
0.013570059 -0.034302577 0.00062629348 0.21993196 -0.49566096 -0.84020835 0.0015361359
0.0034362767 -0.031125151 0.00047335774 -0.5605461 -0.33330116 -0.75808865 0.0032371399
0.0053823325 -0.03223737 4.2490195e-05 -0.32197666 -0.40721855 -0.85469532 0.0032411674
0.008326265 -0.032554492 -0.00052874535 -0.14332761 -0.4434841 -0.88474792 0.0022586992
0.011403212 -0.032545708 -0.00064693205 0.052458283 -0.4818379 -0.87468874 0.00093907269
0.014201052 -0.032505747 -0.00024865707 0.20181273 -0.47983789 -0.85383093 0.0013803949
0.016949976 -0.03172832 0.00016834866 0.33971506 -0.4905377 -0.80247521 0.0015087208
0.018792637 -0.030973889 0.00057224184 0.46329674 -0.46914688 -0.751836 0.0010734757
0.0028902688 -0.029136047 -5.1448122e-05 -0.56048119 -0.34156552 -0.75444937 0.0031680325
0.0052464721 -0.02938728 -0.0012571062 -0.37275523 -0.38105926 -0.84607762 0.0038672769
0.0081140194 -0.030090988 -0.0017608551 -0.13659924 -0.4629555 -0.87579268 0.0015727729
0.011374854 -0.030328229 -0.0018691579 0.02587042 -0.47969297 -0.87705493 0.001361705
0.01429309 -0.029974181 -0.001681084 0.18277958 -0.4889155 -0.85296738 0.0010038284
0.017284822 -0.029303536 -0.0011139307 0.32963952 -0.46689087 -0.82057947 0.0013340958
0.020036215 -0.028879959 2.6510097e-05 0.47860101 -0.46362907 -0.74564683 0.0014735953
0.00074571691 -0.025504977 0.00044708699 -0.72145784 -0.24609941 -0.64725089 0.0024317848
0.0024029615 -0.026380215 -0.00078055589 -0.60422361 -0.29768112 -0.73912096 0.0031307226
0.0044209841 -0.026965249 -0.0019397528 -0.50288099 -0.34722018 -0.79154837 0.0014267671
0.018220754 -0.027220462 -0.001932686 0.34560561 -0.46173203 -0.81692117 0.0014283557
0.02047373 -0.026451249 -0.0011497247 0.46056038 -0.45497796 -0.76215422 0.0017160844
0.022526128 -0.025915135 2.3195986e-05 0.59692371 -0.4305476 -0.67698669 0.0030005721
0.00046936763 -0.023145119 -3.1200703e-05 -0.77122384 -0.21751396 -0.59824872 0.003358969
0.0018861452 -0.023655105 -0.0014173503 -0.64713609 -0.2693817 -0.71319586 0.0032350873
0.021209871 -0.024340179 -0.0019679293 0.53947341 -0.44957164 -0.71193665 0.0019772176
0.02323609 -0.023537716 -0.00081192888 0.60444599 -0.39533234 -0.69163382 0.0017836223
0.025074443 -0.022296205 0.00036884844 0.70689785 -0.37644348 -0.59882027 0.0012894708
0.000164937 -0.020208234 -0.00067906547 -0.82014638 -0.21128984 -0.53171098 0.003282937
0.0013778631 -0.021274867 -0.001890036 -0.68403655 -0.25243196 -0.68437719 0.0024812976
0.023960147 -0.020833205 -0.0016703084 0.66074938 -0.3514806 -0.66322827 0.0013642631
0.025386527 -0.020059958 -0.00043872325 0.72760409 -0.33186814 -0.60037977 0.0011731843
-0.00043700659 -0.017379535 -0.00089131761 -0.84393424 -0.21492888 -0.49150845 0.002685013
0.026076937 -0.017382551 -0.0008096844 0.76574934 -0.28920206 -0.57444769 0.00031304924
-0.0010068348 -0.014602492 -0.0010786541 -0.88017803 -0.21276084 -0.42428705 0.0036431486
0.026917148 -0.014511734 -0.0010071965 0.82217675 -0.21190928 -0.52831793 0.0011968378
0.027902197 -0.014631527 0.00042376667 0.85262686 -0.19606261 -0.48434177 0.0029054941
-0.0025775982 -0.010311238 0.00042394549 -0.94639963 -0.19549221 -0.25711983 0.0012208087
-0.0017542919 -0.01162787 -0.001039091 -0.8964144 -0.23609714 -0.37509912 0.0014522529
0.027314221 -0.011537859 -0.0013867375 0.82898122 -0.13149427 -0.54359859 0.0010238647
0.028266469 -0.011254245 0.00017121201 0.91958046 -0.069048643 -0.38678688 0.0066191452
-0.0026859865 -0.0081525408 -0.00075271726 -0.93875551 -0.20984434 -0.27331933 0.0016252924
-0.0020862278 -0.0090770647 -0.001778933 -0.91217035 -0.25699124 -0.3192189 0.0018396737
0.027494797 -0.0085603008 -0.0016253695 0.86916041 -0.072680533 -0.48916024 0.0017698016
0.028248735 -0.0084014302 -0.0001176619 0.96524638 -0.0069465623 -0.26124904 0.002972184
-0.0032758866 -0.0055451225 -0.00095769018 -0.94348383 -0.23255779 -0.23612529 0.0011188161
0.027685441 -0.0055363448 -0.0015952114 0.93487602 0.022470215 -0.3542625 0.0048292885
0.028270654 -0.0065100268 0.00023940951 0.96265101 0.028468421 -0.26924461 0.0025124126
-0.0040672775 -0.0025485307 -0.00074702734 -0.93232578 -0.27709642 -0.2323494 0.0014405064
0.027607659 -0.0027505709 -0.0013199495 0.95796663 0.079733364 -0.27557683 0.0024431266
0.027805835 -0.0017651469 0.0004009679 0.96573591 0.12173154 -0.2292065 0.001171922
-0.0049359226 0.00060742348 -0.00068234652 -0.92706746 -0.31741387 -0.1994853 0.0013882616
0.027233407 0.00013545156 -0.0012482181 0.95572203 0.12678009 -0.26556018 0.0023359689
-0.0056409109 0.0029735789 -0.0010254607 -0.93780291 -0.30983368 -0.15661678 0.00059949799
0.026677182 0.0034003065 -0.0010529505 0.95880467 0.17885758 -0.22068873 0.00084979192
-0.0063550989 0.0051057562 -0.00077160448 -0.92328864 -0.34916478 -0.16006874 0.0008113677
0.026041592 0.0066947811 -1.812214e-05 0.9608829 0.22042127 -0.16768573 0.00057632034
0.025129944 0.0098395348 -0.00079336017 0.95128441 0.24393183 -0.18856102 0.0010189997
0.024129122 0.012887798 -0.0018247589 0.94714051 0.26825425 -0.17596765 0.00069287885
0.023397541 0.014998414 -0.0022788867 0.94897473 0.27742013 -0.14995046 0.00032072503
-0.028042333 0.043793269 -0.0021587238 -0.8463648 -0.49251911 -0.20271058 0.00054464623
-0.029989198 0.046712689 -0.0013295636 -0.85694647 -0.45797619 -0.23643285 0.0012092553
-0.029014885 0.04525166 -0.0017439947 -0.84883869 -0.48762932 -0.2041824 0.00048444656
-0.031566624 0.049255475 -0.00078634173 -0.8583473 -0.45335037 -0.24023603 0.00086027768
-0.033038661 0.051907241 -0.00088642538 -0.84964061 -0.40125093 -0.34221134 0.0045000198
-0.035329044 0.055669837 0.00033726543 -0.84602189 -0.40488818 -0.34686106 0.0052838624
-0.034225393 0.054636929 -0.0011610356 -0.86076039 -0.27975708 -0.42523819 0.0053375787
-0.035722416 0.057622276 -0.00016445667 -0.82561964 -0.14567432 -0.54509747 0.012240315
-0.034848139 0.05785381 -0.0014730766 -0.80876094 -0.02851448 -0.58744586 0.0067623374
-0.035766065 0.060592547 -0.0001147408 -0.74817801 0.15090607 -0.64610922 0.012573799
-0.034258064 0.060840998 -0.0015380178 -0.70633197 0.2263466 -0.67071772 0.0062965024
-0.035499901 0.062732287 0.00048810011 -0.56799382 0.47514221 -0.67202896 0.0074637015
-0.03345836 0.063418329 -0.00060710637 -0.5319308 0.53974092 -0.65247935 0.006715544
-0.03126632 0.064227208 -0.0015025823 -0.37749225 0.74561685 -0.54914027 0.004930988
-0.028999163 0.065059982 -0.0019720718 -0.35807455 0.76172519 -0.53996038 0.0079900688
-0.030533634 0.065457493 -0.00034936192 -0.34906119 0.77161241 -0.53176183 0.0028695031
-0.02796372 0.06594298 -0.00097889267 -0.31323192 0.80813241 -0.4988063 0.0034738111
-0.025078947 0.066201486 -0.0017086689 -0.2185455 0.86403406 -0.45352301 0.0013170455
0.0032284386 -0.037302632 0.0035146968 -0.49429643 -0.36876956 -0.78719765 0.0040580984
0.0054483595 -0.038247954 0.0030999361 -0.26555502 -0.45775419 -0.8484937 0.0029308805
0.008140875 -0.038527701 0.0027549071 -0.058271736 -0.50624049 -0.86042142 0.0020799311
0.011184031 -0.038469199 0.0027681887 0.096924484 -0.52215242 -0.84732664 0.0013950286
0.014138383 -0.038018528 0.0030490784 0.24867424 -0.52151501 -0.81620049 0.001300653
0.016613375 -0.03729827 0.0034635384 0.37326878 -0.5238511 -0.76566994 0.001314191
0.0026518968 -0.035121541 0.0028109187 -0.51473719 -0.36359513 -0.77643043 0.0042119878
0.0052673686 -0.035580084 0.0017237654 -0.29616606 -0.43176317 -0.85197788 0.0034357368
0.0082237525 -0.03590928 0.0012386781 -0.11096194 -0.47972468 -0.87037438 0.0027436565
0.011429488 -0.03600093 0.0012791506 0.094321169 -0.50259376 -0.85936207 0.0016669349
0.014378545 -0.035683569 0.0016662427 0.23333809 -0.50366867 -0.83178794 0.0012186439
0.017172813 -0.035335492 0.0025120936 0.37990025 -0.50229996 -0.77676928 0.0016837557
0.019375233 -0.034504939 0.0031979512 0.50055736 -0.48273578 -0.71861571 0.0015063416
0.00056347717 -0.03193954 0.0032312386 -0.70610076 -0.24814314 -0.66320932 0.0032003985
0.0023163389 -0.032346766 0.0018102974 -0.56274509 -0.3158761 -0.76389807 0.0029489906
0.0044884668 -0.033438988 0.00097730383 -0.30974698 -0.4377026 -0.84408134 0.0029283334
0.015239056 -0.033843644 0.00083314627 0.21993591 -0.49571997 -0.84017247 0.001523479
0.01733523 -0.033116926 0.0012008902 0.34639561 -0.49855801 -0.79463828 0.0015657892
0.020189477 -0.03223075 0.0022914684 0.50353342 -0.48651078 -0.71397579 0.0025636586
0.022251807 -0.031415053 0.0034149513 0.64194161 -0.44619879 -0.62355238 0.0022091602
0.0002153776 -0.029390439 0.0026694974 -0.76763016 -0.20932102 -0.60574639 0.0039111828
0.0015496837 -0.029600047 0.0013180976 -0.67379284 -0.27899846 -0.68422437 0.0015483917
0.021044977 -0.029920448 0.0013669147 0.5186187 -0.45006773 -0.72696197 0.0019353993
0.02292848 -0.029208716 0.0025790678 0.62152237 -0.44085157 -0.64758003 0.0011026708
-0.00019233243 -0.026433967 0.0022215825 -0.82192844 -0.20477109 -0.53150964 0.0038695659
0.0012205048 -0.027667545 0.00085750967 -0.65202427 -0.29274616 -0.69940263 0.0023624685
0.023707833 -0.026753888 0.0017899829 0.68638945 -0.40894011 -0.60136306 0.00096970733
0.025293145 -0.025612207 0.0030865986 0.72025138 -0.38929269 -0.57418567 0.00046246327
-0.00068599905 -0.023383016 0.0019327705 -0.85429734 -0.16722375 -0.49215072 0.0023890014
0.024359243 -0.024669459 0.0010635131 0.68687081 -0.39336136 -0.61112624 0.0019455482
0.026022773 -0.023227489 0.0024531973 0.75128978 -0.35582057 -0.55583751 0.00054235879
-0.0012578549 -0.020499408 0.0020285263 -0.91143084 -0.14069676 -0.38665009 0.0023093359
