# .PCD v0.7 - Point Cloud Data file format
VERSION 0.7
FIELDS x y z normal_x normal_y normal_z curvature
SIZE 4 4 4 4 4 4 4
TYPE F F F F F F F
COUNT 1 1 1 1 1 1 1
WIDTH 548
HEIGHT 1
VIEWPOINT 0 0 0 1 0 0 0
POINTS 548
DATA ascii
-0.0031704772 -0.041222092 -0.0062969304 -0.26979434 -0.38761863 -0.88145489 0.0014103901
-0.00051132776 -0.041708134 -0.006568776 -0.10486086 -0.42333257 -0.89988542 0.0014715812
0.0022141312 -0.041702952 -0.0066220397 0.069716878 -0.44451976 -0.89305192 0.0016868631
0.0049443408 -0.041236222 -0.0064051496 0.074557237 -0.47236618 -0.87824339 0.002111943
0.0083801001 -0.041372478 -0.0063525774 0.15756546 -0.43329325 -0.88737255 0.010217323
0.010196611 -0.040531866 -0.0061859596 0.50039601 -0.41879296 -0.75777054 0.0054280981
-0.0060909642 -0.038306925 -0.0064562447 -0.40126377 -0.34567416 -0.84823155 0.0012558249
-0.0035487968 -0.038771819 -0.0072400682 -0.28490061 -0.368898 -0.88472927 0.0014897016
-0.00057839591 -0.038933724 -0.0078499261 -0.13084735 -0.40956354 -0.9028492 0.001492365
0.0022451491 -0.038964577 -0.0079931039 0.048521612 -0.43659204 -0.89835018 0.0015089503
0.0053353375 -0.038860351 -0.0075880336 0.091429554 -0.43771315 -0.89445394 0.0017187181
0.0083029252 -0.038779117 -0.0074798046 0.14282741 -0.40233094 -0.9042843 0.0029654645
0.010711035 -0.038416162 -0.006955551 0.48300526 -0.3750746 -0.79121739 0.010633642
-0.0084120966 -0.035227131 -0.0063030776 -0.55602485 -0.27170739 -0.78550076 0.0013184403
-0.0066090184 -0.035778068 -0.0071580303 -0.44914058 -0.30505198 -0.83977145 0.0017969285
-0.0037732623 -0.03588121 -0.0083608991 -0.31360063 -0.33163017 -0.88976187 0.0012951532
-0.00070021267 -0.036919482 -0.0087586325 -0.14204122 -0.38834754 -0.91050011 0.0012614013
0.0024067438 -0.037193116 -0.0088528246 0.033313617 -0.41025183 -0.9113636 0.0016554215
0.005493633 -0.036551874 -0.0086832931 0.10395759 -0.40106449 -0.91013181 0.00034002436
0.0081218369 -0.035980504 -0.0085649155 0.14778513 -0.40963635 -0.90019864 0.0039598574
0.011426713 -0.035785988 -0.0077315783 0.48223495 -0.37224272 -0.79302263 0.012207326
0.013345283 -0.035028279 -0.0063535082 0.67769253 -0.33588585 -0.65415102 0.0025572639
-0.0089124441 -0.032618716 -0.0067376806 -0.56380492 -0.21917164 -0.7962963 0.0011846964
-0.0066632722 -0.032965224 -0.0080583468 -0.43792027 -0.28049162 -0.85413712 0.0008715876
-0.0046476987 -0.033704478 -0.0087901261 -0.39334875 -0.28197429 -0.8750813 0.00056242582
0.012273552 -0.033192765 -0.0082146311 0.55698329 -0.3485603 -0.75384039 0.006610387
0.013859112 -0.032579523 -0.0069735353 0.67787617 -0.31499371 -0.66427618 0.0013003049
-0.0093385689 -0.029665047 -0.0071232594 -0.6341694 -0.16969877 -0.75434184 0.0021201465
-0.0072598779 -0.030196918 -0.0085096294 -0.51552588 -0.21451324 -0.82958847 0.0021654835
0.012691872 -0.031230865 -0.0087456517 0.64711887 -0.32287687 -0.69064301 0.0018739831
0.014443237 -0.029803736 -0.0076400456 0.73826367 -0.28669724 -0.61055005 0.000727001
0.016037244 -0.028618483 -0.0061752903 0.78653026 -0.26167595 -0.55937099 0.0015103646
-0.009620402 -0.026792772 -0.0075086961 -0.68186468 -0.14659916 -0.71663743 0.0023567069
-0.007742587 -0.027972443 -0.0088531487 -0.59814107 -0.22171229 -0.77011096 0.0017465884
0.015062677 -0.027057569 -0.0081936214 0.75685906 -0.26043269 -0.5994491 0.00083774043
0.01634171 -0.026465712 -0.0066897953 0.7803995 -0.24913381 -0.57350588 0.00088871643
-0.011531975 -0.023016814 -0.0060825455 -0.77848494 -0.081426002 -0.62235916 0.0022293583
-0.0099360105 -0.023854803 -0.0077743479 -0.72677022 -0.1324475 -0.67399013 0.0033823082
0.015481669 -0.024733538 -0.0086609237 0.73518544 -0.24835478 -0.63073158 0.0012202528
0.016714236 -0.023666713 -0.007331186 0.79577571 -0.23590945 -0.55775231 0.00077816512
-0.011529204 -0.020908676 -0.0061853933 -0.82029533 -0.041713364 -0.57041705 0.0029786553
-0.0103222 -0.020826755 -0.0078247096 -0.7826432 -0.087100685 -0.61634654 0.0024728733
0.017385712 -0.020840913 -0.007537974 0.83579093 -0.19653308 -0.51266783 0.00038148972
-0.011526819 -0.017867921 -0.0062739956 -0.85303068 -0.017810753 -0.52155679 0.0022798709
-0.010509085 -0.017858785 -0.0079581467 -0.82169354 -0.050192844 -0.56771505 0.0024591559
0.017967261 -0.017847985 -0.0076710391 0.85443819 -0.15621895 -0.49551088 0.00076265656
0.018843926 -0.017875416 -0.0060989964 0.87410069 -0.14321554 -0.46415231 0.00097335951
-0.011526156 -0.014830666 -0.006298657 -0.92895585 0.0064401519 -0.37013432 0.0025811689
-0.010547359 -0.014764985 -0.008121606 -0.84574151 -0.033988349 -0.53250927 0.0020616504
0.018361188 -0.014890656 -0.0078641511 0.86521137 -0.1282133 -0.48473766 0.0010299808
0.019310055 -0.014136089 -0.0061259079 0.92416841 -0.10928781 -0.36601761 0.0010091951
-0.011525789 -0.011794128 -0.0063122832 -0.91266716 0.024778036 -0.40795189 0.0043685478
-0.010787375 -0.011750417 -0.0078158742 -0.87421322 -0.023888081 -0.4849543 0.0031746093
0.018535309 -0.011844264 -0.0082864817 0.88048971 -0.097274728 -0.46397802 0.0015397813
0.019281512 -0.011781177 -0.0067722821 0.90475011 -0.080015272 -0.41835964 0.0016872
-0.011527605 -0.0087594101 -0.0062448191 -0.92468756 0.011755384 -0.38054529 0.0039745504
-0.010787159 -0.0087246876 -0.0078245066 -0.8856023 0.01023701 -0.4643316 0.0019457435
0.018742448 -0.0087109338 -0.0084546264 0.89157397 -0.06334269 -0.44842348 0.0016804417
0.019390825 -0.0085105859 -0.0069430615 0.9194479 -0.045304377 -0.39059311 0.001560058
-0.011534764 -0.0071293544 -0.005978893 -0.95722353 0.022468869 -0.28847587 0.00056903652
-0.010786613 -0.0056989095 -0.007846362 -0.90324318 0.010196987 -0.42900795 0.002007901
0.018731445 -0.0059182202 -0.0087099681 0.87146735 -0.02498934 -0.48981637 0.00081765186
0.019506659 -0.0057124184 -0.0069624824 0.92670369 -0.014553835 -0.37551084 0.0016212477
-0.010785097 -0.0026731235 -0.007906368 -0.91465223 0.0001379225 -0.40424156 0.001693256
0.018730562 -0.0028986186 -0.0087304348 0.87636226 -0.0026833271 -0.48164508 0.00065580837
0.019504225 -0.0026802327 -0.0070173424 0.93405819 0.010379806 -0.3569698 0.001757291
-0.010782747 0.00011921395 -0.0079996716 -0.91752267 -0.02072992 -0.39714283 0.0015865763
0.018733481 0.00012034865 -0.0086626569 0.87716204 0.01417132 -0.47998524 0.00054529024
0.019507144 0.00011761941 -0.0069527188 0.93497884 0.01158133 -0.35451448 0.0016323345
-0.011532225 0.0045559127 -0.0060732174 -0.960765 -0.032764912 -0.27542177 0.00036967211
-0.010778548 0.0031424868 -0.0081656659 -0.91282755 -0.039910886 -0.40639028 0.0017126513
0.018741792 0.003141318 -0.0084698731 0.9014467 0.043856598 -0.4306629 0.00091158081
0.019369133 0.0028887857 -0.0071397265 0.93047547 0.028890772 -0.36521316 0.0018780546
-0.011519635 0.0061854613 -0.0065407809 -0.9249838 -0.017538615 -0.3796016 0.0031655845
-0.010855399 0.0059331525 -0.0081902947 -0.9022212 -0.052567732 -0.42805791 0.0012983273
0.01863775 0.0063976911 -0.0081906542 0.89797419 0.066357337 -0.43501604 0.0010099118
0.019274671 0.0061812866 -0.0069272127 0.92311203 0.068786398 -0.37832877 0.0017009516
-0.011507994 0.0092116855 -0.0069731367 -0.93085206 -0.039276708 -0.36327919 0.0030273786
-0.011011124 0.009188775 -0.0081530148 -0.91951829 -0.023359837 -0.39235234 0.0042381105
0.018527331 0.0091913398 -0.0080557959 0.90690422 0.086467221 -0.41236889 0.0018955024
0.019298986 0.008756781 -0.0063765692 0.95804757 0.089466274 -0.27228785 0.0016254155
-0.011665981 0.012479031 -0.0068909368 -0.93384469 -0.043618511 -0.35500914 0.0042279763
-0.01100171 0.012202403 -0.0085171424 -0.88772517 -0.032792911 -0.45920444 0.0021729253
0.018410137 0.012368247 -0.0075342823 0.90660828 0.11347377 -0.40642977 0.0018943168
-0.011739727 0.015272291 -0.0070383316 -0.91870701 -0.038559277 -0.39305297 0.0038772274
-0.010995302 0.015214887 -0.0087651247 -0.87507701 -0.042208683 -0.48213965 0.0027547595
0.017920922 0.015405148 -0.0077247377 0.89331418 0.12679306 -0.4311766 0.00099223317
0.018848713 0.013905333 -0.0059878933 0.94638759 0.1232278 -0.29860577 0.0012207391
-0.011729445 0.018288314 -0.0074121463 -0.90819389 -0.045664825 -0.41605121 0.0048159026
-0.010995695 0.018234434 -0.0087498836 -0.86256826 -0.0042636171 -0.50592273 0.0031171662
0.017462222 0.018282704 -0.0075577619 0.88483787 0.15281577 -0.44012415 0.0011470452
-0.011760874 0.021280387 -0.0074813068 -0.88221794 -0.006919919 -0.47079036 0.002868695
-0.010997377 0.02125656 -0.0086848121 -0.84111685 0.020951716 -0.54044747 0.0033108271
0.016918434 0.021039752 -0.0075696325 0.88092268 0.16895789 -0.44207293 0.00044314755
-0.011997171 0.024203606 -0.0070114052 -0.86099911 0.014441151 -0.50840139 0.0033107819
-0.01100073 0.024283038 -0.0085550752 -0.75235224 0.056969032 -0.65629309 0.0016579326
0.015477318 0.02543162 -0.008783292 0.84803224 0.17449608 -0.50039226 0.0026237385
0.016401617 0.024114231 -0.0073754541 0.88418525 0.17783366 -0.43196252 0.00079259154
-0.011977229 0.02717242 -0.0068905759 -0.8313601 0.033572108 -0.55471909 0.0042322255
-0.010768874 0.027304361 -0.0085405121 -0.71331739 0.084456503 -0.69573367 0.0024747057
0.015340833 0.027321357 -0.0082660327 0.85173792 0.20919453 -0.48039573 0.0022035406
0.016131395 0.02694514 -0.0067934426 0.87673724 0.1932393 -0.4404434 0.0018208713
-0.011742217 0.030201092 -0.0069418186 -0.78803378 0.074508257 -0.61110663 0.0038826817
-0.010569213 0.030261248 -0.0082187559 -0.73118019 0.12438946 -0.67074788 0.00251713
0.014869615 0.030333232 -0.0076778987 0.8316204 0.24082516 -0.50041062 0.0016564759
0.016036671 0.028850125 -0.006191026 0.86352068 0.22597562 -0.4508515 0.0018713404
-0.011707665 0.033079159 -0.0064971973 -0.73058587 0.13812207 -0.66870511 0.0026575241
-0.01018879 0.033231173 -0.0079973117 -0.69049019 0.17261821 -0.70244312 0.0017864715
0.01253707 0.034103617 -0.0087477872 0.66794688 0.31343994 -0.67498326 0.0013885582
0.013989026 0.033109643 -0.0075484137 0.74426997 0.3018893 -0.59575588 0.0028490929
-0.011531169 0.035397477 -0.006112447 -0.69081932 0.17973141 -0.70033234 0.001677689
-0.009660257 0.03623135 -0.0075939591 -0.59991503 0.21283016 -0.77123624 0.0014695714
-0.0075581423 0.037135195 -0.0087830713 -0.47587663 0.28309077 -0.83270705 0.00092362275
0.011953082 0.036462292 -0.0081044305 0.59504372 0.34844726 -0.72422886 0.003122526
0.013584044 0.035815302 -0.0067291474 0.71589178 0.33161172 -0.61443681 0.0029850781
-0.009333184 0.039147254 -0.0069445632 -0.54999018 0.27840176 -0.78740281 0.0024470789
-0.0068388898 0.039352585 -0.0083607901 -0.43949908 0.29686552 -0.84776855 0.0019637365
-0.0049565742 0.040287405 -0.0088464729 -0.3643696 0.34335542 -0.86564535 0.00083715381
0.0087805446 0.039780356 -0.0085865175 0.38001141 0.43505901 -0.8162812 0.0024945994
0.011145113 0.039154548 -0.0073010223 0.59396237 0.40326062 -0.69612461 0.0037168423
0.013238147 0.037740678 -0.0060327756 0.73652995 0.35173759 -0.57775795 0.0062922295
-0.0086878128 0.041777048 -0.0064229751 -0.52101314 0.33612329 -0.78458041 0.0013494069
-0.0065732012 0.042092521 -0.0074288896 -0.39008757 0.34733874 -0.85275286 0.0012888929
-0.0037658438 0.042427082 -0.0083334045 -0.26513577 0.38449177 -0.88423365 0.0013576209
-0.00072318106 0.043091409 -0.008665856 -0.095095135 0.43593788 -0.89493859 0.0010942712
0.0023809695 0.043180898 -0.0087002739 0.068399869 0.45195028 -0.88941687 0.0012864385
0.0054618572 0.042665776 -0.0084126629 0.23705897 0.44774139 -0.86216635 0.0015593893
0.0082697589 0.042073317 -0.0076317852 0.43248501 0.43728808 -0.78850222 0.003540135
0.01038344 0.041628294 -0.0065264339 0.58210713 0.42797777 -0.69136554 0.0015937438
-0.0062695905 0.044595201 -0.0064255954 -0.36467174 0.39940485 -0.84112442 0.0016169692
-0.0035457443 0.045324851 -0.0070047821 -0.22562537 0.4310948 -0.87364209 0.0012005134
-0.00054743618 0.045296468 -0.0075580883 -0.066817664 0.45954517 -0.8856374 0.00082322228
0.0022471433 0.04529411 -0.0075814566 0.064410016 0.47030807 -0.88014865 0.0011009931
0.0052228621 0.045291863 -0.0070362757 0.24988885 0.47288874 -0.84494478 0.0022133726
0.0079016909 0.044423781 -0.006504735 0.40984944 0.47328815 -0.7797575 0.0024313547
-0.0029440657 0.04724662 -0.0061923745 -0.22474331 0.44465196 -0.86704969 0.001641024
-0.00054925715 0.047517445 -0.0063905246 -0.06911099 0.47466332 -0.87744993 0.0012174897
0.0021843289 0.047492124 -0.0063704182 0.11448757 0.48594162 -0.8664602 0.0022683148
0.0044503603 0.047170743 -0.0061371257 0.25853601 0.49623644 -0.82879943 0.0021723737
-0.0030986564 -0.046946712 -0.003263392 -0.22122149 -0.48312134 -0.84714514 0.0015254479
-0.00055394077 -0.047134679 -0.0034999789 -0.053647261 -0.52796221 -0.84757173 0.0014972395
0.002149672 -0.047082141 -0.0034429613 0.082512669 -0.54642457 -0.83343381 0.00062493113
0.0052583162 -0.046827342 -0.0032373008 0.073747493 -0.55945462 -0.82557356 0.0036939154
0.0077274605 -0.047043163 -0.0033812001 0.21102823 -0.5303914 -0.82106763 0.018076824
-0.0083183516 -0.043413416 -0.0031058895 -0.52068859 -0.35511437 -0.77638727 0.001701482
-0.0064106709 -0.044420369 -0.0035638427 -0.36217338 -0.43160057 -0.82616663 0.0015626802
-0.0036032903 -0.044935759 -0.0043005873 -0.23159754 -0.47755864 -0.84752601 0.0011793004
-0.00055171514 -0.044871185 -0.0049161706 -0.078221917 -0.50007093 -0.8624444 0.0016922075
0.0022602205 -0.044873089 -0.0048983563 0.08479064 -0.50721312 -0.85763943 0.0012912991
0.0053137764 -0.044938754 -0.0042725462 0.050327994 -0.51608008 -0.85506046 0.0038462346
0.0083254585 -0.04487649 -0.0045461482 0.12050852 -0.50425887 -0.85510278 0.0090410355
0.010529593 -0.04410243 -0.0036527596 0.56315207 -0.46083945 -0.68592036 0.0038038129
-0.0089432057 -0.041458506 -0.0036180171 -0.52234614 -0.34684175 -0.77900922 0.001521312
-0.0065955962 -0.04168392 -0.0048468197 -0.4155364 -0.36509535 -0.83308762 0.0015859862
-0.0039477521 -0.042436238 -0.0055509531 -0.26445949 -0.41552976 -0.87028515 0.001935197
-0.00078387768 -0.04313321 -0.0058737681 -0.09157107 -0.46351209 -0.88134629 0.0014527302
0.0024892169 -0.043133263 -0.0058733332 0.085522287 -0.48265815 -0.87162322 0.0015463986
0.0055840174 -0.042560793 -0.005501084 0.061756957 -0.45630521 -0.88767767 0.0025518937
0.008260522 -0.04275354 -0.0056201983 0.17032862 -0.49233222 -0.85357904 0.011990915
0.011209156 -0.041676138 -0.0045472626 0.55550402 -0.43254805 -0.71015304 0.0046569956
0.01301112 -0.041055441 -0.0031612325 0.68779325 -0.39574161 -0.60854667 0.0013271886
-0.011612579 -0.037297934 -0.0030888426 -0.70536971 -0.21208271 -0.67636865 0.001120599
-0.0095697213 -0.038753904 -0.0042403252 -0.56924522 -0.2599147 -0.78000271 0.001759903
-0.0072245249 -0.039088584 -0.005594315 -0.42607129 -0.3271901 -0.8434512 0.0023874156
0.0121981 -0.039094657 -0.0051631588 0.65430015 -0.37838423 -0.65476453 0.00026118814
0.013672566 -0.038638994 -0.0038752386 0.73030508 -0.37497556 -0.571006 0.00090549624
-0.01176065 -0.035388842 -0.0034143634 -0.72159636 -0.18645258 -0.6667338 0.0023644522
-0.0099555999 -0.035941016 -0.0048708161 -0.59510708 -0.24373138 -0.76579541 0.0020859148
0.012776246 -0.037057564 -0.0058441269 0.68056643 -0.36567816 -0.63490844 0.0013117261
0.01446316 -0.03580853 -0.0045912187 0.75038195 -0.34148303 -0.56596494 0.00068420696
0.016152266 -0.034478992 -0.0030342448 0.78144121 -0.3083255 -0.54248047 0.00053481082
-0.012005161 -0.032656435 -0.0037889532 -0.75136399 -0.14268024 -0.64427829 0.0031894732
-0.010498615 -0.032887049 -0.0053580869 -0.63702661 -0.18961114 -0.74715769 0.0018892513
0.015170464 -0.032998465 -0.0051300693 0.77521926 -0.29159361 -0.56036437 0.00054468424
0.016384441 -0.032503344 -0.003698701 0.80076128 -0.27381995 -0.53273261 0.0010093623
-0.01207478 -0.029833697 -0.0042841733 -0.80339736 -0.084352009 -0.5894382 0.0036256027
-0.010961542 -0.030064765 -0.005548771 -0.75307465 -0.13596793 -0.64373231 0.0030082616
0.015586916 -0.030755674 -0.0056997049 0.7535795 -0.2766881 -0.59628981 0.00082227495
0.016828308 -0.029805481 -0.0043973448 0.81266415 -0.26435155 -0.51932198 0.00078087021
-0.012214724 -0.026708493 -0.0044569466 -0.85322887 -0.046535261 -0.51945639 0.005213893
-0.01107065 -0.027705444 -0.0058501172 -0.73036599 -0.10895745 -0.67430985 0.0023298345
0.017560149 -0.026863957 -0.0046915985 0.84013754 -0.2299974 -0.49119255 0.0013086514
-0.012382379 -0.023912791 -0.0044067409 -0.88591552 -0.031640854 -0.4627662 0.0044867885
0.018151222 -0.023976441 -0.004966123 0.86429161 -0.20769699 -0.45810705 0.0013243351
0.018953122 -0.023390496 -0.0035642865 0.88985842 -0.18163793 -0.41852069 0.0016778297
-0.012321709 -0.020846223 -0.0046303659 -0.91967207 0.010502169 -0.39254686 0.0033240251
0.018400198 -0.021643126 -0.0055375006 0.86996412 -0.18573561 -0.45679823 0.0025551491
0.019136699 -0.020659044 -0.004337505 0.90117055 -0.16565654 -0.40056163 0.00092159439
-0.012276243 -0.017706109 -0.0045801187 -0.93460929 0.023157055 -0.35492152 0.0023530156
0.019520815 -0.01784794 -0.0044039767 0.93279517 -0.12361903 -0.33854324 0.0010909527
-0.012154702 -0.015122227 -0.0047333683 -0.93390429 -0.0015317239 -0.35751987 0.0024279321
0.019750893 -0.01493633 -0.0046485858 0.93173367 -0.12275445 -0.34176558 0.001125131
-0.012046413 -0.011849053 -0.0044002854 -0.94515574 0.014933934 -0.32627821 0.0019870321
0.020066239 -0.011737732 -0.0045350119 0.93308008 -0.082412459 -0.35009956 0.00066605193
-0.012069331 -0.0088180285 -0.0035818277 -0.95290768 0.012675921 -0.30299559 0.00085797929
0.020121949 -0.0089800842 -0.0047357725 0.9348318 -0.046879046 -0.35198286 0.00030418768
-0.011620276 -0.0057381671 -0.0052989572 -0.93079436 0.0080386093 -0.36545494 0.0023300715
0.020326322 -0.0057515991 -0.004361866 0.94477189 -0.0010514166 -0.32772702 0.00052433996
-0.011551112 -0.0026935074 -0.0053717652 -0.92347109 0.013019406 -0.38344699 0.0011496884
0.02033205 -0.0027025421 -0.004238179 0.95253754 0.031192997 -0.30281875 0.0012308523
-0.011551794 0.00011497177 -0.0053464333 -0.92555493 -0.026673047 -0.37767258 0.0010905846
0.020352436 0.00011280121 -0.0037979889 0.96012312 0.035598323 -0.27730182 0.00094829191
-0.011543555 0.0029219459 -0.0056524286 -0.92616117 -0.028110418 -0.37607867 0.001539481
0.019892937 0.0033127787 -0.0053037759 0.95753497 0.031479176 -0.28659374 0.0015868818
0.019824853 0.0062043583 -0.0050755301 0.95865399 0.045112979 -0.28097582 0.0015957094
-0.012050118 0.0092632342 -0.0042680185 -0.9665584 -0.029115129 -0.25478834 0.00086631911
0.01972089 0.0092605595 -0.0044198269 0.95804739 0.08946953 -0.27228725 0.0016221427
-0.012015093 0.01157962 -0.0055187549 -0.96486163 -0.03621285 -0.26025122 0.001308944
0.019360112 0.012296245 -0.0049922671 0.95787954 0.09840288 -0.26978454 0.0015508319
-0.012527848 0.015373882 -0.0039776256 -0.96473438 -0.052967008 -0.25784108 0.0014940116
0.019080726 0.014998648 -0.0046944837 0.95348591 0.11291413 -0.27949053 0.0019296074
-0.012553189 0.018322675 -0.0051287669 -0.95234674 -0.055428531 -0.29993904 0.0035145867
0.018405806 0.018604048 -0.0054039704 0.93754756 0.13728629 -0.3196201 0.0017340237
0.018936809 0.01795996 -0.0039429921 0.94734615 0.13215443 -0.29166839 0.0011386143
-0.012753913 0.021090014 -0.0050049694 -0.95485556 -0.045522567 -0.29356188 0.0036556853
0.018133698 0.021313043 -0.004792877 0.92057496 0.17133828 -0.35097697 0.00074484374
-0.013157876 0.024363535 -0.0043281098 -0.94307756 -0.046516016 -0.32930356 0.0043595899
0.017561899 0.02429131 -0.0046700826 0.91394955 0.18740895 -0.35996401 0.00058995758
-0.01323672 0.0271952 -0.0044325055 -0.91340703 -0.026530575 -0.40618196 0.0039999397
0.017004127 0.027304158 -0.0044244635 0.92054206 0.18288948 -0.34518671 0.00054707594
-0.012941536 0.030182198 -0.005034986 -0.88367748 0.0071042497 -0.46804231 0.00478748
0.015585816 0.031686112 -0.0057306099 0.85810757 0.26639175 -0.43896109 0.0032669001
0.01641443 0.030137017 -0.0044293785 0.91579598 0.19464386 -0.35132802 0.00065056834
-0.012912154 0.033335373 -0.0047113202 -0.87325674 0.063531868 -0.48310086 0.0023144921
0.015353527 0.033648398 -0.0050866576 0.87840337 0.25513637 -0.40411997 0.0018063459
0.016127925 0.03277104 -0.0036989737 0.90157008 0.21811506 -0.37362698 0.0018490844
-0.012616349 0.036302909 -0.0045590168 -0.81780398 0.13612708 -0.55916554 0.0017135132
0.014799802 0.03623632 -0.0045836498 0.85625637 0.27471688 -0.43744221 0.0011457113
-0.012304351 0.039084475 -0.0042442097 -0.75000417 0.18346713 -0.63547903 0.0035113015
-0.010843314 0.039742891 -0.0055981325 -0.68823361 0.23080322 -0.68779665 0.0020384118
0.012521829 0.04013475 -0.0054022949 0.71589118 0.37186435 -0.59094566 0.0015385387
0.013861969 0.038950242 -0.0043809819 0.78082937 0.34771314 -0.51903862 0.0035281226
-0.011974365 0.041987687 -0.0036241102 -0.6824742 0.25315443 -0.68566889 0.0027489003
-0.010172194 0.042459771 -0.0050397697 -0.57833093 0.29313809 -0.7613169 0.0017716551
0.011677934 0.042441644 -0.004846707 0.67039257 0.42143774 -0.61070776 0.001876623
0.013383869 0.041522399 -0.0034298196 0.74050635 0.38124543 -0.55344576 0.0025428361
-0.011612412 0.044343099 -0.0030950713 -0.66086501 0.31977278 -0.67897189 0.0021208795
-0.0096072182 0.045080245 -0.0043346086 -0.52774668 0.34232193 -0.77736682 0.0013451176
-0.0069660516 0.045810793 -0.0055441963 -0.35973853 0.42183709 -0.83225095 0.0016313216
-0.0049909726 0.046630487 -0.0059429514 -0.28049141 0.45792454 -0.8435815 0.0026436762
0.0064640446 0.046642229 -0.0058317292 0.34134474 0.51487094 -0.78637874 0.0050649024
0.0086453315 0.045559395 -0.0053225635 0.46753252 0.47178486 -0.7475509 0.0024059368
0.010715365 0.044949777 -0.0040800786 0.61849052 0.45532736 -0.64042681 0.0023323826
-0.0088906363 0.047685444 -0.003548915 -0.50506443 0.40151927 -0.76399755 0.0014675527
-0.0066441358 0.048235364 -0.0044583702 -0.36590227 0.44290763 -0.81850374 0.0015159675
-0.0037458502 0.048571914 -0.0052972226 -0.23180987 0.46851829 -0.85249913 0.0013491831
-0.00055052189 0.049007319 -0.005589453 -0.056006156 0.51305026 -0.85652947 0.0011196255
0.0023187534 0.048965566 -0.0055220625 0.10818414 0.52351981 -0.84511727 0.0013147886
0.0054189316 0.048512675 -0.0050312579 0.27364364 0.52218944 -0.80773598 0.0016571227
0.0082311481 0.047868382 -0.0040374873 0.49888501 0.49626753 -0.71051556 0.0023328306
0.010028269 0.046909496 -0.003299247 0.55527055 0.47759029 -0.68086869 0.002039725
-0.0064330301 0.050342914 -0.0033317131 -0.36918306 0.46035132 -0.80732924 0.0014420321
-0.0034930063 0.051174611 -0.00379839 -0.202437 0.5021196 -0.84077054 0.0013388273
-0.00055280363 0.051279023 -0.0041600894 -0.069370225 0.5221085 -0.85005331 0.0011267608
0.0022308121 0.051257666 -0.0040549855 0.13549511 0.54119813 -0.829907 0.0023345465
0.0049324832 0.050833162 -0.0036824504 0.29371014 0.55452341 -0.77861297 0.002929996
0.0073642116 0.049896013 -0.0032309699 0.46435887 0.52386141 -0.71410084 0.0018312165
-0.00055466325 0.053059679 -0.0029993313 -0.027642557 0.54956144 -0.83499587 0.0029773025
0.0013279974 0.053060405 -0.0029932666 0.14208047 0.56633759 -0.81183428 0.0021208813
-0.0064490805 -0.050091699 -0.00041243108 -0.33446366 -0.46971112 -0.81701016 0.0016475098
-0.0035278359 -0.050793998 -0.00081317034 -0.18786615 -0.51534081 -0.83613998 0.0012593613
-0.00055782916 -0.05095515 -0.0010092729 -0.0097135743 -0.56437695 -0.82546008 0.0016326739
0.0021736138 -0.05071513 -0.00089834817 0.080348842 -0.58139741 -0.80964255 0.00072572834
0.00556206 -0.050721522 -0.00072934059 0.09500242 -0.58150107 -0.80797958 0.0033938566
0.0080938609 -0.050371349 -0.00078080967 0.30036995 -0.59840602 -0.74275708 0.015823543
-0.0091408174 -0.047362585 -0.00064336415 -0.47551566 -0.41890115 -0.7735675 0.0013755775
-0.0066942787 -0.047728926 -0.0016766828 -0.35801402 -0.44621867 -0.82019198 0.0014757368
-0.0038026739 -0.048301399 -0.0022949222 -0.20241916 -0.50646889 -0.83816212 0.0020590888
-0.00055544206 -0.048654441 -0.0025323671 -0.027974047 -0.55503911 -0.83135372 0.001313125
0.0023667845 -0.048579011 -0.0023667039 0.073239826 -0.56050879 -0.82490355 0.00051586982
0.0053514731 -0.048196889 -0.0021744436 0.048803527 -0.54535961 -0.83678025 0.0019956445
0.0085653793 -0.048193436 -0.0021072065 0.22861919 -0.58515728 -0.77802587 0.013276216
0.010666596 -0.047279108 -0.0009222175 0.60401583 -0.50647324 -0.61534524 0.0016740933
-0.011474252 -0.044369794 -0.00041595194 -0.61056304 -0.32324296 -0.72299838 0.0013781975
-0.0095614325 -0.044775113 -0.00165335 -0.51169425 -0.38056016 -0.77028757 0.0021183405
-0.0072567943 -0.045429379 -0.0026507513 -0.40652066 -0.402803 -0.82005531 0.0015352056
0.0095665175 -0.046258733 -0.0029010582 0.45879626 -0.54544508 -0.701424 0.022016011
0.011605898 -0.044956237 -0.0018548789 0.65054142 -0.46526134 -0.60027307 0.00405289
0.013084939 -0.044213973 -0.00065548811 0.71214902 -0.44911388 -0.53957433 0.00091173017
-0.012038199 -0.041738819 -0.00096709374 -0.66396737 -0.27133134 -0.69679743 0.001933721
-0.010187419 -0.042157121 -0.0024255528 -0.57124913 -0.30507722 -0.76197255 0.0018861429
0.012394965 -0.042741954 -0.0027620303 0.68367434 -0.42200539 -0.59539974 0.00062458444
0.014005834 -0.041763633 -0.0012925146 0.75744706 -0.4019585 -0.51449329 0.00063275237
-0.012508003 -0.038772076 -0.0015571304 -0.69980794 -0.23838378 -0.67338097 0.0013154129
-0.010992721 -0.039678007 -0.0027939486 -0.669146 -0.26101139 -0.69578493 0.0016961594
0.015078148 -0.038903736 -0.001692662 0.78508669 -0.35327357 -0.50875992 0.00047889701
0.016241875 -0.037989706 -0.00058715604 0.81654698 -0.33294088 -0.47159457 0.0010770889
-0.013177954 -0.035861276 -0.0015130318 -0.83249933 -0.12832831 -0.53895885 0.0044960408
0.015580351 -0.036518589 -0.0025728825 0.77278852 -0.32330692 -0.54614151 0.00074094388
0.01671806 -0.035681803 -0.0013086009 0.837322 -0.30082807 -0.45650238 0.0015035362
-0.013475062 -0.032954041 -0.0015902515 -0.86569273 -0.055662543 -0.49747142 0.0051206332
0.017482519 -0.032899417 -0.0016138768 0.84648156 -0.2760542 -0.45526141 0.0010303423
-0.013509557 -0.029782511 -0.0018838826 -0.89537936 -0.024806857 -0.44461277 0.003756176
0.018233979 -0.029937336 -0.0017257486 0.88504696 -0.23879617 -0.39958501 0.0011020732
0.019096654 -0.028784981 -0.00023261784 0.92970514 -0.21026485 -0.30238548 0.00070609542
-0.013636466 -0.027135266 -0.001595329 -0.91575092 -0.0088912705 -0.40164801 0.0037124304
0.018523039 -0.027447207 -0.0026129691 0.90172762 -0.2127668 -0.37632126 0.0014616408
0.019211095 -0.026591092 -0.0012383964 0.92446595 -0.18607391 -0.33277494 0.0011037759
-0.013552569 -0.023754556 -0.0012395019 -0.93778676 0.024696769 -0.34633213 0.0011118507
0.019553045 -0.023819782 -0.0016080355 0.93099719 -0.16547285 -0.32536587 0.0005548218
-0.013176236 -0.020884069 -0.0019738111 -0.9396525 0.01084883 -0.3419584 0.00079956098
0.019971691 -0.020713165 -0.0018376331 0.93618673 -0.14783034 -0.31890514 0.00069965603
-0.013067005 -0.018538127 -0.0016710963 -0.94459683 0.031569872 -0.32671106 0.00076733378
0.020483175 -0.017860482 -0.00097494898 0.94176084 -0.12465512 -0.31232622 0.00037601721
-0.012567118 -0.014256207 -0.0026272284 -0.9454785 0.032388605 -0.32406995 0.0014394145
0.020422235 -0.014975937 -0.0022908307 0.93969619 -0.10672662 -0.32493138 0.00054936466
0.020415982 0.0027025258 -0.0024258005 0.96526712 0.040824357 -0.25805554 0.00065020053
0.019933935 0.010237442 -0.0026640403 0.9620384 0.089693643 -0.25775385 0.0011261944
0.019952826 0.01071793 -0.0022464204 0.96797508 0.10099513 -0.22983542 0.00066877453
-0.012566013 0.014005529 -0.0026651728 -0.96493679 -0.054613043 -0.25673816 0.0013163511
0.019490631 0.015911626 -0.0020365524 0.97344494 0.10090002 -0.20548509 0.00021021227
-0.013049316 0.018967928 -0.0022576409 -0.96770322 -0.074027397 -0.24097827 0.0012057131
0.018987341 0.019653173 -0.0027700174 0.94774085 0.13638993 -0.28841829 0.0011954772
-0.013562268 0.022569792 -0.0009289491 -0.9618926 -0.068908133 -0.26460189 0.0018238288
0.018510986 0.02247216 -0.0028998959 0.95422411 0.16990374 -0.24614839 0.00039068615
0.019009214 0.020382317 -0.0022623199 0.94036907 0.14435516 -0.30800581 0.001746056
-0.013524806 0.023217531 -0.0021283883 -0.96189284 -0.068908907 -0.26460114 0.0018219937
0.018483112 0.02418449 -0.0016954201 0.94970608 0.1845599 -0.25297442 0.00041763455
-0.014012137 0.027490394 -0.0016412297 -0.95715332 -0.060576607 -0.28317469 0.0027407426
0.017906142 0.027301973 -0.0018564383 0.94260925 0.19061857 -0.27413911 0.00069872628
-0.014515087 0.031096049 -0.00071768044 -0.95767945 -0.034588736 -0.28575093 0.0032028493
-0.01398343 0.030264415 -0.0025296665 -0.93876803 -0.024047269 -0.34370983 0.0054313666
0.01736642 0.030261025 -0.0014177137 0.93824917 0.20399468 -0.27941844 0.00041902461
-0.014502844 0.033198036 -0.0010843929 -0.958413 -0.03812173 -0.28282729 0.0038017486
-0.013975205 0.033072732 -0.0027842827 -0.89716035 0.022495773 -0.4411318 0.0028120957
0.016733211 0.033088192 -0.001509727 0.939026 0.20647016 -0.27495483 0.00040658194
-0.014494937 0.036251716 -0.0013212543 -0.93509507 0.022364646 -0.35369053 0.0047535426
-0.013987074 0.036163561 -0.0024169493 -0.88972783 0.075047873 -0.45028016 0.0029666715
0.015618226 0.037032198 -0.0021697627 0.91224349 0.25353205 -0.3217659 0.001466083
0.016216833 0.035784397 -0.0012709727 0.9307282 0.22754386 -0.28630197 0.00066229946
-0.014515068 0.039376047 -0.0007182816 -0.89064085 0.094510175 -0.44477725 0.0029524029
-0.013783066 0.039361443 -0.0021034696 -0.85637856 0.14228286 -0.49635801 0.0027419659
0.015114566 0.039386023 -0.0016346863 0.89113373 0.28977346 -0.34915897 0.0012209958
-0.014535286 0.041560799 -0.00011273287 -0.85365272 0.15415683 -0.49750641 0.0029252542
-0.013341118 0.042278856 -0.0018547866 -0.81705749 0.19536258 -0.54244876 0.0014153598
0.013988964 0.04232711 -0.0017082575 0.82995778 0.35298103 -0.43194279 0.0025202732
-0.012676792 0.045193575 -0.0015141657 -0.72639549 0.28612897 -0.62488383 0.0028270644
-0.01091397 0.046255313 -0.0028053331 -0.64925623 0.33374122 -0.6834349 0.0017055194
0.011940645 0.045688372 -0.0021563647 0.73141879 0.4347007 -0.5254159 0.0017088158
0.0132623 0.044792291 -0.00096313236 0.77054358 0.41836011 -0.48087141 0.0032134128
-0.01190808 0.048063975 -0.00091761071 -0.64858103 0.35053292 -0.67562521 0.0017316809
-0.010046421 0.048529483 -0.0022937779 -0.52954084 0.39209604 -0.7522282 0.0029108934
0.0092625245 0.049042821 -0.0024362511 0.62086362 0.49082223 -0.61124623 0.0015802077
0.01101765 0.048076272 -0.0013720924 0.67747551 0.47056884 -0.5653246 0.0029866495
-0.011334958 0.050433159 -0.00020750193 -0.61258113 0.4098714 -0.67583263 0.0014282885
-0.0094425157 0.05104515 -0.0012922008 -0.48528445 0.43682402 -0.75741911 0.0016843582
-0.0068329838 0.051655199 -0.0023848277 -0.35913721 0.47974691 -0.80053949 0.0020271286
-0.0044638086 0.052524637 -0.002747898 -0.19440618 0.52912122 -0.82597631 0.0013699092
0.0034469769 0.052605778 -0.0028577554 0.16137531 0.5621717 -0.81112331 0.0025048293
0.0057177399 0.05197287 -0.0024840045 0.33087865 0.57062298 -0.75160414 0.0020735422
0.0083765425 0.051109616 -0.0014716228 0.53201723 0.54125464 -0.65115362 0.0048693609
0.010248974 0.050200563 -0.00052052829 0.62592655 0.51046711 -0.58960944 0.001560749
-0.0086846855 0.053201593 -0.00049324427 -0.47134197 0.50136393 -0.7255832 0.00183497
-0.0066571641 0.053943366 -0.0010181791 -0.34845984 0.53190571 -0.7717849 0.0020960353
-0.0035657031 0.054326255 -0.0017890208 -0.16375351 0.56674713 -0.80745435 0.00086013216
-0.00055632077 0.054597516 -0.0019801087 -0.019671872 0.58859879 -0.80818594 0.001168589
0.0023308047 0.054452293 -0.0018085814 0.14676341 0.58580518 -0.79705256 0.0016749551
0.0052794875 0.053983763 -0.0011454439 0.32630095 0.5876742 -0.74038279 0.0011351896
0.0075689647 0.053213075 -0.00039699767 0.53637218 0.55359215 -0.63705629 0.0023525443
-0.0057709706 0.05577565 -9.6003991e-05 -0.31160462 0.56261992 -0.76574242 0.0011112829
-0.0034790197 0.056296453 -0.00034982525 -0.1774161 0.58967996 -0.78790933 0.0013272192
-0.00044028065 0.056612175 -0.00050626462 -0.015419368 0.6083011 -0.79355657 0.0018481701
0.0020927489 0.056402128 -0.00038787583 0.18166608 0.61463094 -0.76761079 0.0027903521
0.0040979227 0.055911407 -0.00027369522 0.34793237 0.60352093 -0.71742982 0.0024753592
-0.0059300261 -0.055584013 0.0028615114 -0.27413464 -0.53928113 -0.79625756 0.0019304213
-0.0035026916 -0.055818338 0.0025171363 -0.10456692 -0.58220059 -0.80629283 0.0016322035
-0.00063353835 -0.055865664 0.0024849367 0.05842673 -0.59322804 -0.80291152 0.0016199382
0.0018545061 -0.055586051 0.0027437615 0.044488102 -0.58783871 -0.80775392 0.0024196189
0.0055140303 -0.055710934 0.0026097293 0.16978382 -0.58478224 -0.79322326 0.012098715
-0.0091246925 -0.053040903 0.0025397432 -0.4265224 -0.48483422 -0.7635538 0.0019575544
-0.0067153368 -0.053637449 0.0018489626 -0.27836722 -0.52107644 -0.80684012 0.0015044706
-0.0037140306 -0.053745225 0.0011467664 -0.13627328 -0.54866225 -0.82486314 0.0020212058
-0.00056101778 -0.053804137 0.0010004882 0.032741338 -0.58079338 -0.81339228 0.0015110994
0.0023559388 -0.053729884 0.0014457027 0.055671472 -0.5855931 -0.80869114 0.0026297807
0.0053050872 -0.053741369 0.0014024614 0.10238378 -0.55355358 -0.82649618 0.0039854576
0.0081228428 -0.053314477 0.0018527801 0.41462362 -0.59175289 -0.69131458 0.01431353
-0.011585625 -0.050241299 0.0025440757 -0.58348227 -0.39586562 -0.70911133 0.0014719939
-0.0095627997 -0.050738618 0.0014770385 -0.44939503 -0.43418008 -0.78072518 0.0018847217
-0.0071056751 -0.051264551 0.00055655278 -0.31972015 -0.48534238 -0.81377012 0.0021998324
-0.0039966251 -0.052157491 0.00015120627 -0.15957664 -0.53729886 -0.82815778 0.001501561
0.0025217647 -0.052042454 0.00018009217 0.068217248 -0.5893054 -0.80502522 0.00088842161
0.0048256079 -0.051820841 0.00030916277 0.10478739 -0.58919209 -0.8011694 0.0036249119
0.0089695659 -0.05134299 0.00084846141 0.39286476 -0.58935094 -0.70591974 0.014909871
0.010650078 -0.050486308 0.0018262477 0.6685645 -0.51450855 -0.53693801 0.0012001347
-0.012238741 -0.047689542 0.0018496872 -0.61841142 -0.3538608 -0.70167649 0.0020759983
-0.010220289 -0.048328448 0.00057916343 -0.50028956 -0.41090643 -0.76214582 0.0022233061
0.01181847 -0.048172109 0.001136736 0.70252293 -0.48957038 -0.51650977 0.00078557519
0.013353495 -0.046955038 0.0022993027 0.73621798 -0.47099397 -0.48595044 0.00074358872
-0.014476303 -0.044337824 0.0028831153 -0.77386624 -0.22407588 -0.59238589 0.0030785017
-0.012925761 -0.044879448 0.0012317924 -0.70907605 -0.2879858 -0.64364231 0.0024542464
0.012476582 -0.04611358 0.00015266659 0.68386781 -0.47494605 -0.55385107 0.0010226634
0.014154172 -0.04468374 0.0014573541 0.77120125 -0.43547401 -0.46433923 0.0011155475
-0.014734961 -0.041578632 0.0022962061 -0.82621932 -0.16349585 -0.53910178 0.0033116585
-0.013649384 -0.041919358 0.00089677656 -0.78917724 -0.2165118 -0.57473636 0.0029872989
0.015398264 -0.041864 0.0008665151 0.79885942 -0.3864342 -0.46096891 0.0012535454
0.016263843 -0.041408658 0.0021781023 0.84181708 -0.36423182 -0.39834565 0.0014334503
-0.014842922 -0.038929023 0.0019641961 -0.90599394 -0.057070866 -0.41942573 0.0062412294
-0.014010021 -0.038956802 0.0003893096 -0.81269741 -0.14987227 -0.56308192 0.0040306034
0.016952334 -0.038711078 0.0014837971 0.87384057 -0.30871701 -0.37562805 0.0011858592
-0.014825655 -0.035792604 0.0014542211 -0.90889215 -0.031627346 -0.41583019 0.0049091033
0.017914779 -0.035702024 0.0014128769 0.90885705 -0.27304733 -0.31531578 0.00094406493
-0.014777722 -0.032891192 0.0014358773 -0.92059344 -0.0118025 -0.39034384 0.0027895472
0.018551737 -0.032897424 0.00089254649 0.91968137 -0.23391147 -0.31539121 0.00097665773
0.019205913 -0.031813916 0.0023035449 0.92803651 -0.22349338 -0.29799142 0.00060290657
-0.014586866 -0.029847229 0.0014321599 -0.93206173 0.021815438 -0.3616423 0.0017270531
0.019377066 -0.029820563 0.0015364522 0.93079984 -0.21378674 -0.29649097 0.00070160412
-0.014075 -0.026212735 0.00030441023 -0.93033212 0.0042817616 -0.36669293 0.00161001
0.019822728 -0.026835982 0.0011758935 0.94178402 -0.18349656 -0.28172997 0.00034435335
-0.014087057 -0.025286553 0.00067754509 -0.93033212 0.0042817616 -0.36669293 0.00161001
0.020083895 -0.024336088 0.00065111043 0.93370944 -0.16910903 -0.31557703 0.00049749424
0.018661007 0.025496738 0.00067173364 0.95029646 0.1841516 -0.25104728 0.00037353052
0.018175937 0.028328421 0.00041608931 0.94800854 0.18824716 -0.25659853 0.00044886157
-0.014574163 0.030268177 0.0010517132 -0.96729469 -0.05258086 -0.24814571 0.0014273785
0.017882058 0.030578937 0.00096957805 0.94852304 0.19474274 -0.24975863 0.00044139347
-0.015078042 0.034368798 0.0018892479 -0.97131974 -0.032693967 -0.23551871 0.0013914356
0.017359231 0.033521906 0.0013652756 0.9483006 0.21524751 -0.23322631 0.00028001043
-0.015034633 0.036171943 0.00062968768 -0.95692843 0.010794119 -0.29012325 0.0018229129
0.016708154 0.036228433 0.0013248315 0.94922286 0.23156972 -0.21295877 0.00059899047
-0.015261997 0.039329264 0.001461905 -0.93946439 0.042565148 -0.3399924 0.0046724956
0.01581688 0.039744072 0.00077062752 0.93347323 0.26520458 -0.24144202 0.0016946192
0.016328368 0.038405519 0.0017749164 0.94934684 0.23146425 -0.21252026 0.00070155947
-0.015164752 0.042386737 0.0016229544 -0.90434963 0.15139492 -0.39903811 0.0040277992
0.015061799 0.042577393 0.0012431485 0.90827519 0.31370401 -0.2768141 0.0015369918
0.015877265 0.040846825 0.0024696481 0.94961584 0.2426151 -0.19841272 0.00071333686
-0.014894271 0.045184348 0.0018559131 -0.89916575 0.14911094 -0.41142049 0.0051760972
-0.013984269 0.045785476 0.00043060305 -0.78568679 0.22600488 -0.57586288 0.002975862
0.014111569 0.045332711 0.0014173281 0.86526692 0.36031792 -0.34854588 0.0021545235
-0.014619347 0.047988623 0.0024050423 -0.84145725 0.24848971 -0.47979409 0.0050286078
-0.013458161 0.048436157 0.0010383721 -0.77505934 0.29855028 -0.55691183 0.0017812992
0.012226874 0.04877948 0.00091724936 0.77764589 0.45176184 -0.43723911 0.0015237755
0.013263468 0.047660608 0.0018073479 0.81808072 0.42611849 -0.38622144 0.0030971628
-0.012575254 0.051210534 0.001560248 -0.71894759 0.36066064 -0.59417033 0.00074110046
-0.01059705 0.052346017 0.00028595235 -0.55689371 0.49502659 -0.66694677 0.0038130453
0.0095221307 0.052178826 0.00054473104 0.61267757 0.54227728 -0.57494473 0.00062520971
0.011113901 0.051073719 0.001605852 0.70787728 0.4971652 -0.50173348 0.0018976702
-0.011758819 0.053697612 0.0023348448 -0.63560915 0.4581497 -0.62136942 0.0014327244
-0.0097645223 0.05444809 0.0011889189 -0.47600803 0.51260579 -0.71459889 0.00099950784
-0.0075556771 0.055239763 0.00035953941 -0.37362775 0.53260493 -0.75943029 0.0023656182
0.0064123916 0.05517349 0.00039866706 0.51073426 0.58288413 -0.63197839 0.0016180879
0.0084724408 0.054306686 0.0014625518 0.58832687 0.5637157 -0.57973802 0.0040763211
0.010321807 0.053258773 0.0026530414 0.68292797 0.5331834 -0.49932435 0.0021160394
-0.0090590641 0.056713458 0.0023233802 -0.48434684 0.53142208 -0.69498104 0.0015917863
-0.0067646448 0.057193644 0.0014438196 -0.35240078 0.55357969 -0.75456154 0.0023090562
-0.0038175471 0.05761297 0.00077539077 -0.15930104 0.62152469 -0.76702684 0.0011138746
-0.00069591799 0.057890873 0.00055638375 -0.0046208827 0.64519531 -0.76400369 0.001897109
0.0023826377 0.05768609 0.00075376732 0.18562898 0.65392858 -0.73342985 0.0021207125
0.0052963616 0.057105534 0.00154411 0.36541605 0.63705808 -0.67869592 0.001800735
0.007457017 0.056244604 0.002385804 0.57732862 0.58865356 -0.56584334 0.00085587957
-0.0061256448 0.059136223 0.0026356769 -0.31162974 0.61421317 -0.72500288 0.0016579157
-0.0035451679 0.059557695 0.0022643567 -0.15968592 0.64762729 -0.74503642 0.0016478741
-0.00056278287 0.059614312 0.002044139 0.014486244 0.67719352 -0.73566228 0.0023875937
0.0021757917 0.05933987 0.0022213445 0.22245826 0.67963105 -0.6990093 0.0027263525
0.0042046364 0.058992662 0.0027528447 0.40668619 0.66054857 -0.63109577 0.0020322322
-0.0084934235 -0.058735624 0.0059248102 -0.39999545 -0.54417884 -0.73747748 0.0016220076
-0.0065662456 -0.059056178 0.0055010146 -0.25495505 -0.5828712 -0.77153033 0.0025510003
-0.00368466 -0.059357382 0.0051910109 -0.075489707 -0.61074001 -0.78822458 0.001881558
-0.00065498881 -0.059297033 0.0052285413 0.085929625 -0.62573814 -0.77528566 0.0011011582
0.0022924992 -0.05902072 0.0055704289 0.062672675 -0.65421921 -0.75370371 0.0024362076
0.0049801082 -0.059078541 0.0053775483 0.17834231 -0.63690883 -0.75002748 0.01388396
0.0068754344 -0.058739111 0.0059508574 0.39530823 -0.67434675 -0.62368888 0.021373492
-0.011527624 -0.055497576 0.0056374264 -0.53838593 -0.46417546 -0.70333612 0.0021862688
-0.0094883498 -0.056693047 0.0051124045 -0.42289066 -0.51939964 -0.74255478 0.0020350465
-0.006889604 -0.056958638 0.004140994 -0.27220032 -0.53396851 -0.8004902 0.0019775971
-0.0037912382 -0.057364527 0.003706302 -0.081463978 -0.60402459 -0.79279119 0.0014071818
-0.00050255051 -0.057437886 0.0037385258 0.073682912 -0.61200041 -0.78741747 0.0012306987
0.0024109737 -0.057072468 0.0040851315 0.040176023 -0.64689416 -0.7615208 0.0027079175
0.0051968005 -0.057109129 0.0038151336 0.10009209 -0.63383043 -0.76696837 0.0071177026
0.0078636231 -0.056566723 0.0047440776 0.54447412 -0.58253795 -0.60348779 0.0052824588
-0.012292411 -0.053549133 0.005073694 -0.5994966 -0.40007237 -0.69321418 0.0017706418
-0.0099289436 -0.054320585 0.0038312892 -0.43064091 -0.49017495 -0.75781065 0.0013527753
-0.0079635736 -0.055032492 0.0032165241 -0.34085497 -0.51829189 -0.78434139 0.0035477888
0.0090298671 -0.05443202 0.0038687908 0.56777412 -0.57034999 -0.59357679 0.010186619
0.010762339 -0.053365868 0.0049259956 0.68797594 -0.53278446 -0.49277753 0.00075536763
-0.014420168 -0.050332904 0.0054157008 -0.74962014 -0.2964744 -0.59175384 0.0034126381
-0.012779538 -0.05100954 0.0040405518 -0.63321221 -0.35631192 -0.68708378 0.0019075742
-0.0108236 -0.052148834 0.0030527008 -0.47155592 -0.45432183 -0.75579536 0.0018769241
0.011962911 -0.050972335 0.0042127245 0.71875674 -0.50644803 -0.47633931 0.001262935
0.01329142 -0.049920421 0.0052694273 0.7681362 -0.47683731 -0.42730877 0.0010019805
-0.014836062 -0.047701575 0.0047735353 -0.81170791 -0.22891085 -0.53733623 0.0047952491
-0.013421902 -0.048428133 0.0033085491 -0.68982834 -0.2892077 -0.66369855 0.0022526507
0.014060494 -0.047847934 0.0043547847 0.80061108 -0.4475058 -0.39844754 0.0012779906
-0.015216395 -0.044964258 0.0043371622 -0.82420844 -0.22284152 -0.52059788 0.0039410498
0.015216969 -0.045395717 0.0040678312 0.83295488 -0.41549757 -0.36544204 0.00077969366
0.016059203 -0.044319205 0.0048889765 0.86612499 -0.37883103 -0.3260591 0.0018226947
-0.015709449 -0.041974187 0.0045573064 -0.92844129 -0.082864627 -0.36211914 0.0035475199
0.016813787 -0.041990563 0.0043258346 0.87336934 -0.3629615 -0.32478461 0.0017475813
-0.015619347 -0.038848478 0.0037289918 -0.92687762 -0.077204563 -0.36733833 0.0036788164
0.017984344 -0.038797189 0.0044968654 0.91014796 -0.30588198 -0.27940458 0.0011181716
-0.015646314 -0.036043596 0.004487677 -0.94518328 -0.010893026 -0.32635853 0.0014904675
0.01855004 -0.035979267 0.0037130234 0.91584152 -0.27476957 -0.29280719 0.0010882794
0.018858384 -0.036117241 0.0053708148 0.929434 -0.27052167 -0.25093901 0.00042267298
-0.015126614 -0.03188714 0.0032985252 -0.93832117 -0.008299279 -0.3456654 0.0014279902
0.0192755 -0.033128805 0.0039188261 0.93234229 -0.23636453 -0.27362329 0.00087161927
0.019731231 -0.030224128 0.0034121764 0.93956226 -0.20460214 -0.27451888 0.00034574786
0.017117903 0.036424309 0.003763054 0.95327646 0.2294156 -0.19655141 0.00051762944
0.016607393 0.039320402 0.0050266474 0.95616692 0.2412193 -0.16600654 0.00023343669
-0.016161902 0.043039702 0.0054945736 -0.93268132 0.10378661 -0.34544724 0.00095088512
0.01544687 0.043357849 0.0038086069 0.93379515 0.29964232 -0.19555326 0.0011873454
0.015959738 0.04177589 0.0047901166 0.94783652 0.26094505 -0.18306732 0.00085929071
-0.015914543 0.045225266 0.00466809 -0.91312003 0.14832985 -0.3797501 0.0031659773
0.014981618 0.045065757 0.004172687 0.91138208 0.32034591 -0.2583819 0.0013540898
-0.015399829 0.048186645 0.0042684912 -0.87933373 0.21965913 -0.42251867 0.0015314815
0.013787609 0.048343327 0.0042447089 0.88063681 0.38114312 -0.28144056 0.00068362005
-0.014751105 0.051241454 0.004645498 -0.83868295 0.28401941 -0.46469769 0.0024125355
-0.013702031 0.052170262 0.0035458398 -0.7467432 0.3372049 -0.57329518 0.002495538
0.012174195 0.051718868 0.0042955955 0.82072741 0.45568711 -0.34460956 0.00084556924
0.013257809 0.050205603 0.0052148788 0.85532552 0.43315789 -0.28424025 0.0026061307
-0.014339782 0.053695444 0.0055272472 -0.78259826 0.36620453 -0.50342256 0.0029746643
-0.013005232 0.054397792 0.0041876412 -0.7009356 0.41868064 -0.57740444 0.0025694773
0.009344941 0.055260833 0.00342897 0.63699293 0.57438064 -0.51412731 0.0014339588
0.01086867 0.054071847 0.0045385961 0.75463521 0.51412988 -0.4076716 0.0024908739
-0.011958331 0.056759499 0.0047915471 -0.6434319 0.49199718 -0.5864591 0.0018357802
-0.0099920407 0.057719048 0.0037679351 -0.47091174 0.56515378 -0.67737967 0.0014084715
-0.0079606809 0.058555663 0.003058542 -0.34991336 0.60263067 -0.71721464 0.0016033631
0.0063601271 0.058248933 0.0034522382 0.48099667 0.64436615 -0.59450364 0.0034480125
0.0083343657 0.057136644 0.0044102375 0.66700357 0.59291703 -0.45117134 0.00081114081
0.010239251 0.056060508 0.0060290885 0.74734658 0.56246465 -0.35370415 0.0024620835
-0.0093287006 0.059746709 0.0050430153 -0.48384982 0.60293216 -0.6343202 0.0018549411
-0.0068590059 0.060430944 0.004171154 -0.32138357 0.63987899 -0.69804543 0.0024954637
-0.0038412344 0.061152112 0.0037796195 -0.13802558 0.69145417 -0.70911217 0.0015067665
-0.00056511455 0.061250795 0.0035760268 0.039799061 0.7128129 -0.7002241 0.0019763841
0.0023408574 0.060931694 0.0039096386 0.23359498 0.71946907 -0.65406245 0.0019962008
0.0050266683 0.060099989 0.0045496053 0.45014665 0.69619519 -0.55917823 0.0037772688
0.0072261449 0.058971785 0.0053313863 0.59658384 0.62916863 -0.49823144 0.0028639815
-0.0064300019 0.062106002 0.0055764043 -0.33155414 0.68591845 -0.64775592 0.0020616935
-0.0035586338 0.062621675 0.0052084583 -0.13687925 0.72553194 -0.6744386 0.0022886889
-0.00056747778 0.062658362 0.0051087164 0.065554984 0.75331479 -0.65438467 0.0029411095
0.0020705387 0.062327895 0.0054183831 0.27190974 0.74480075 -0.60937428 0.0022526393
0.0039927699 0.061799917 0.005845387 0.46791238 0.70048976 -0.53886181 0.0022841243
-0.0089336578 -0.061714053 0.0086866263 -0.38985148 -0.61414552 -0.68617868 0.0013606533
-0.0066268705 -0.062196825 0.0081926268 -0.22723208 -0.65921021 -0.71680361 0.0020508971
-0.0035971813 -0.062593289 0.0079871621 -0.026137305 -0.69315487 -0.72031468 0.0018223948
-0.00053785171 -0.062342644 0.0079835951 0.096954122 -0.68996018 -0.71732473 0.00049485167
0.0023864941 -0.061971951 0.0080922376 0.11154661 -0.70348126 -0.70190555 0.0034194258
0.0047754282 -0.061825857 0.0079867635 0.30665177 -0.74341273 -0.5943923 0.012163909
-0.011741268 -0.059128642 0.0084129721 -0.56508106 -0.52416134 -0.63713276 0.0021740047
-0.0097783282 -0.059738226 0.007530848 -0.37781817 -0.58781582 -0.71535027 0.0013540474
-0.0070346589 -0.060306258 0.0066522569 -0.25813988 -0.60176927 -0.75580263 0.0021938139
-0.0036955927 -0.060970969 0.0064596827 -0.05803068 -0.65145409 -0.75646555 0.0019316124
-0.00056993775 -0.060816064 0.0064985049 0.089645706 -0.66747183 -0.73921919 0.00084880082
0.0023302641 -0.060278501 0.0066687535 0.067588158 -0.63905579 -0.7661851 0.0022512632
0.0054129749 -0.060360041 0.0067957793 0.30058184 -0.73083776 -0.61280239 0.022362409
0.0076642609 -0.059244141 0.0076246853 0.59609389 -0.65006667 -0.47125939 0.0040319217
-0.014346363 -0.055965602 0.008703012 -0.70163262 -0.40107045 -0.58894324 0.0032088368
-0.012576185 -0.056752324 0.0073671495 -0.59562159 -0.44670966 -0.6675967 0.0017536971
-0.010327855 -0.057826608 0.0063170739 -0.41963467 -0.53173429 -0.73563939 0.0024196133
0.0090919584 -0.057224948 0.0069687837 0.69009513 -0.56565642 -0.45144388 0.00071234582
0.0105574 -0.056105036 0.0078958385 0.71133679 -0.56034082 -0.42428547 0.001027477
