# .PCD v0.7 - Point Cloud Data file format
VERSION 0.7
FIELDS x y z normal_x normal_y normal_z curvature
SIZE 4 4 4 4 4 4 4
TYPE F F F F F F F
COUNT 1 1 1 1 1 1 1
WIDTH 553
HEIGHT 1
VIEWPOINT 0 0 0 1 0 0 0
POINTS 553
DATA ascii
-0.00039613037 0.03283684 -0.01942078 0.6351822 0.53871179 -0.55347377 0.00065063714
-0.046086393 0.038273428 -0.020051442 -0.75980431 -0.53084058 -0.37537408 0.003081498
-0.044844713 0.036896229 -0.020756107 -0.73835802 -0.54366934 -0.39906287 0.0028453118
-0.0074335472 0.038233373 -0.021318663 0.52203935 0.58602297 -0.61971921 0.00079820643
-0.005361788 0.037060745 -0.020519208 0.55364943 0.63655156 -0.53691196 0.0021153141
-0.0034054224 0.036138836 -0.01953489 0.59786606 0.58909363 -0.5436219 0.0012170865
-0.04707934 0.040035177 -0.020489138 -0.74153733 -0.51342624 -0.43187487 0.0045663347
-0.010282397 0.040787634 -0.021249916 0.54922336 0.6151886 -0.56559414 0.0032252327
-0.0084964614 0.039923232 -0.020403966 0.54496074 0.66464192 -0.5111447 0.0021059748
-0.0065062847 0.038911097 -0.019498767 0.55803287 0.65107757 -0.51448739 0.0012051885
-0.049740214 0.043700535 -0.020204067 -0.70851505 -0.50679666 -0.49108401 0.0055309725
-0.048293497 0.042317409 -0.021047987 -0.71451694 -0.47845697 -0.5104357 0.0073075471
-0.013779238 0.043860789 -0.020884987 0.5467121 0.70069152 -0.45840746 0.0012761072
-0.011603508 0.042572726 -0.020276453 0.52507621 0.69223255 -0.49508485 0.0025235701
-0.009581862 0.041731577 -0.019283928 0.55581725 0.6810869 -0.47664219 0.0013194906
-0.052416064 0.046566393 -0.019475173 -0.66489625 -0.49875379 -0.55601948 0.0055504977
-0.050782897 0.045977812 -0.020837136 -0.65344292 -0.45093012 -0.6080085 0.012633654
-0.019186683 0.047350857 -0.021523573 0.49056888 0.73832524 -0.46283701 0.0016767195
-0.017197276 0.046457816 -0.020761378 0.49440119 0.73649174 -0.46167895 0.0018536008
-0.015000213 0.045314915 -0.02012872 0.54114771 0.70341825 -0.46082738 0.0014539381
-0.055243202 0.050346892 -0.019013233 -0.60740322 -0.33743182 -0.71916693 0.01339398
-0.053337604 0.049035706 -0.020172894 -0.60756195 -0.33730343 -0.71909308 0.01333308
-0.05145821 0.048704628 -0.021471826 -0.59295309 -0.19232497 -0.78193212 0.0091426633
-0.022795495 0.049880773 -0.020822775 0.43444359 0.80650443 -0.40101033 0.0014843958
-0.020362869 0.048750117 -0.020475661 0.46538112 0.77951038 -0.41926605 0.0028417641
-0.018148536 0.047789451 -0.019641593 0.49696243 0.75602764 -0.42597002 0.0013944139
-0.055194084 0.051883671 -0.019381039 -0.70107263 0.0050030639 -0.71307236 0.022909911
-0.053428736 0.051932305 -0.020810874 -0.47057524 0.047253404 -0.88109362 0.0096647497
-0.05164222 0.052073345 -0.021687612 -0.44761717 0.064660497 -0.89188451 0.0083817206
-0.031310722 0.053179327 -0.021623753 0.29764178 0.86209905 -0.41011551 0.0030636846
-0.02916226 0.052813977 -0.020705651 0.32361582 0.84868723 -0.41833344 0.0022786499
-0.026313335 0.05180259 -0.020407889 0.36533695 0.82947588 -0.42249107 0.001919891
-0.024140054 0.050802026 -0.020389203 0.40007934 0.81931591 -0.41067973 0.0023122705
-0.053232066 0.054797743 -0.020355854 -0.43970129 0.37796044 -0.81474453 0.011627683
-0.050533321 0.05492416 -0.021168616 -0.15168479 0.51148587 -0.84579784 0.011810836
-0.047442235 0.055396333 -0.020998269 -0.046956304 0.69988656 -0.71270883 0.017376723
-0.044447683 0.055624075 -0.020728111 -0.033727065 0.79804385 -0.60165483 0.011812731
-0.041350883 0.055633578 -0.02051067 0.038687322 0.87342185 -0.48542508 0.00533912
-0.038476456 0.055323821 -0.020562816 0.12627032 0.88918072 -0.43978798 0.0035593899
-0.035185441 0.054769374 -0.020564646 0.20691185 0.88765204 -0.41141379 0.0032885526
-0.03252814 0.054081615 -0.020434722 0.25649762 0.8819828 -0.39536747 0.0024112575
-0.030062815 0.053782742 -0.01924447 0.3175441 0.86883229 -0.37986329 0.0021604518
-0.05237247 0.056739919 -0.019372545 -0.20466545 0.57681423 -0.79082072 0.030388324
-0.050445966 0.056845054 -0.019430805 -0.062553413 0.80076259 -0.59570652 0.014748707
-0.04795913 0.056615956 -0.01945373 0.030039299 0.79711902 -0.60307455 0.014579693
0.0017188839 -0.0007388331 -0.015856631 -0.11442384 -0.64544523 -0.75518721 0.0025559023
0.0035401401 -0.00073868874 -0.015929736 0.024895873 -0.59958243 -0.79992568 0.0028477914
0.005362404 -0.0007388778 -0.015846021 0.1063125 -0.54569346 -0.83121371 0.002283975
-0.0071592629 0.0024483465 -0.016002022 -0.43487346 -0.75347614 -0.49311134 0.0031958304
-0.0051273438 0.001939496 -0.016626367 -0.3134717 -0.72086769 -0.61813051 0.0031823949
-0.0023012608 0.0013934877 -0.017065993 -0.17568007 -0.68724751 -0.70485985 0.0033168891
0.00058096368 0.001078377 -0.017220296 -0.054887075 -0.61180151 -0.78910482 0.0033948338
0.0035322206 0.0010787379 -0.017176056 0.060290713 -0.55527151 -0.82948089 0.00079894206
0.0066044996 0.0011707349 -0.016798358 0.15773025 -0.50180095 -0.85048044 0.00075646624
0.0093294121 0.0015714355 -0.016313892 0.29529247 -0.41738394 -0.85941434 0.00095862889
0.011280449 0.0024486296 -0.015952565 0.33796847 -0.3404071 -0.87743962 0.0028343522
-0.010553611 0.0049111098 -0.016758867 -0.49695849 -0.75149262 -0.43392518 0.0044151824
-0.0083334595 0.0040446259 -0.017338021 -0.35920346 -0.74557418 -0.5613305 0.0029418583
-0.0056583574 0.0034664753 -0.01806993 -0.23260665 -0.68332148 -0.69207364 0.0024942479
-0.0025484995 0.0030757808 -0.018527504 -0.11569351 -0.62019384 -0.7758702 0.002237486
0.00074337423 0.0029512858 -0.018624365 0.01030573 -0.55497742 -0.83180153 0.0020270965
0.0037499066 0.003289612 -0.018503349 0.11994419 -0.49581206 -0.86010683 0.0015368416
0.0068039768 0.0039142547 -0.018157318 0.26157209 -0.3853122 -0.88493758 0.0011591424
0.0096602812 0.0040298868 -0.017244682 0.33423498 -0.35065106 -0.87483186 0.001973907
0.01209045 0.0042842599 -0.016322423 0.40433586 -0.31198201 -0.85975564 0.00085017947
-0.014199574 0.0076325238 -0.017264239 -0.52424163 -0.76419085 -0.37574351 0.0042924201
-0.011626583 0.0062589925 -0.017812964 -0.49441719 -0.75981724 -0.42217225 0.0022414906
-0.0096002584 0.0056024007 -0.018541284 -0.37986887 -0.75254846 -0.53793168 0.0049008993
0.0078654196 0.0059626005 -0.018670853 0.34558403 -0.2851668 -0.8940087 0.0010074261
0.0097689219 0.0068307044 -0.018182985 0.3689917 -0.28192821 -0.88564187 0.00085398654
0.012593679 0.0070151915 -0.016860131 0.48152018 -0.19320977 -0.85487318 0.00076668075
0.014466707 0.0079118572 -0.015983449 0.57011783 -0.12908563 -0.81135845 0.0046744123
-0.019220855 0.011096876 -0.016064383 -0.6112892 -0.75825453 -0.22666182 0.0021321559
-0.017206009 0.0099561652 -0.017560476 -0.55300707 -0.77136707 -0.31492224 0.0023495331
-0.015342247 0.0089261895 -0.018285085 -0.54448855 -0.77212822 -0.32764342 0.0023161343
0.010499438 0.0097123897 -0.018560946 0.45698747 -0.14928021 -0.87685686 0.0018347383
0.012606643 0.009927379 -0.01741495 0.55689228 -0.069144592 -0.82770175 0.0023920331
0.014460664 0.0099563608 -0.016170464 0.65144008 0.045663826 -0.75732464 0.0085667837
-0.022489434 0.014089625 -0.01732537 -0.60941052 -0.76149195 -0.22079132 0.0015878687
-0.020358391 0.01241798 -0.017579367 -0.61176556 -0.7508418 -0.24895707 0.003183489
-0.018641692 0.011479985 -0.018741108 -0.5729478 -0.751638 -0.32675862 0.0012868299
0.010758789 0.011931942 -0.018752325 0.54696971 -0.039952096 -0.83619851 0.0094421702
0.012491724 0.012781473 -0.017572055 0.61435193 0.14465113 -0.77565956 0.0068669198
0.01446812 0.011783142 -0.01593978 0.68731809 0.15259862 -0.71014607 0.0041584359
-0.025631551 0.01694219 -0.01789831 -0.64184463 -0.7511453 -0.15432441 0.001215588
-0.023899911 0.015359268 -0.017769761 -0.62987709 -0.75227869 -0.19321407 0.0022065877
0.010519683 0.016727209 -0.018231923 0.6599955 0.21421894 -0.72008073 0.0056827641
0.012001777 0.015842458 -0.01699147 0.70263416 0.28625029 -0.65143377 0.00046634662
-0.028151412 0.019176643 -0.018581249 -0.61539882 -0.75840062 -0.21473894 0.0031093981
-0.027286857 0.018297683 -0.017972846 -0.63969672 -0.75297141 -0.15434422 0.0011100135
0.0098201279 0.019161949 -0.017574264 0.68940067 0.35218072 -0.63300508 0.0010176925
0.011592267 0.018464211 -0.016227884 0.69922298 0.36145088 -0.61679852 0.00050111365
-0.032469489 0.023036133 -0.018335409 -0.66275448 -0.70692462 -0.24701029 0.00095077313
0.0076588453 0.022309449 -0.0181721 0.67746097 0.3797099 -0.62997377 0.00029910513
0.0092660375 0.021647703 -0.016884632 0.69084185 0.40065736 -0.60183984 0.00096021179
-0.034247559 0.024823997 -0.018730588 -0.66671854 -0.70540845 -0.24059352 0.00080637453
-0.033356924 0.023929086 -0.018558122 -0.66230571 -0.70917606 -0.24170287 0.00083466474
0.0048796688 0.02641144 -0.018662222 0.67848551 0.39892823 -0.61685795 0.00083939108
0.0067364485 0.025015451 -0.01753255 0.69821924 0.42717436 -0.57446665 0.0023109482
0.0083943252 0.024296418 -0.016087769 0.69695061 0.45660049 -0.55297005 0.0018438551
0.0043098847 0.028384246 -0.017735183 0.69099909 0.48124826 -0.5393703 0.003582486
0.0058446047 0.027247205 -0.016805502 0.69667751 0.47595063 -0.53676009 0.0018092521
-0.040859677 0.031422868 -0.018196423 -0.7148363 -0.65362579 -0.24856061 0.0010941912
-0.039448146 0.030024908 -0.018743899 -0.70670813 -0.66120529 -0.25173616 0.001160223
0.0014124298 0.032042168 -0.017990161 0.68017471 0.57727617 -0.45179039 0.0023560452
0.0030352981 0.030673757 -0.017223042 0.69852561 0.53167474 -0.4789404 0.0025908651
-0.043974929 0.035003182 -0.018709578 -0.7347697 -0.60754514 -0.30166599 0.0017669933
-0.0011169123 0.034708351 -0.018172465 0.65952283 0.62109941 -0.42339715 0.0010772643
0.00030443026 0.033697482 -0.017436828 0.65998232 0.60319591 -0.44785941 0.0023095864
0.0021725041 0.032464501 -0.016415425 0.6856637 0.58664781 -0.43094033 0.0013526033
-0.045146849 0.036392685 -0.018335424 -0.76681507 -0.54593116 -0.33757043 0.001488107
-0.0043270751 0.038081978 -0.018010832 0.60913569 0.69489056 -0.38220525 0.0012987126
-0.0025828131 0.036782015 -0.01742352 0.6353665 0.65330338 -0.41170871 0.0021127278
-0.047962178 0.040184487 -0.018130429 -0.75938487 -0.54634219 -0.35333398 0.0012693842
-0.0077304272 0.041054908 -0.017722629 0.58431822 0.71614569 -0.38171661 0.0017343279
-0.0056774048 0.039516319 -0.017398465 0.60039151 0.69850391 -0.38938731 0.001359891
-0.050409302 0.043230943 -0.017882314 -0.7149235 -0.5094716 -0.47887686 0.0052216575
-0.01085994 0.043546584 -0.017615713 0.56906152 0.75409794 -0.32788014 0.00095786049
-0.0087705813 0.042166878 -0.017181529 0.56543398 0.73163831 -0.38077509 0.0017991221
-0.053030778 0.04624619 -0.017753933 -0.65748733 -0.51212186 -0.55266774 0.0037507529
-0.051579673 0.044708762 -0.018185366 -0.69380319 -0.50534385 -0.51309329 0.0045594117
-0.016103666 0.047132578 -0.018114604 0.52945721 0.78587717 -0.31948736 0.001068189
-0.01428302 0.046105564 -0.017589603 0.55516773 0.76315069 -0.33074147 0.001240189
-0.012509178 0.044967305 -0.017179824 0.55629152 0.75826347 -0.33996511 0.0012716285
-0.055321451 0.049137034 -0.017747816 -0.641316 -0.41533646 -0.64514297 0.0077680703
-0.054531142 0.048265196 -0.01824118 -0.64136684 -0.41532081 -0.64510244 0.007752907
-0.020159015 0.049815137 -0.01777235 0.47167483 0.81685722 -0.33206499 0.00088798703
-0.017610312 0.048351847 -0.017486978 0.50264937 0.80248505 -0.32149857 0.00074475032
-0.015581759 0.047520306 -0.015999444 0.54381919 0.78541309 -0.29561284 0.00079435261
-0.026320247 0.052766815 -0.017734624 0.38362575 0.8589229 -0.33923855 0.00068452419
-0.023233034 0.051431283 -0.017531509 0.40984344 0.82423747 -0.39071861 0.0016052005
-0.021222143 0.050592419 -0.016959511 0.45087889 0.84068722 -0.29992205 0.00069968018
-0.053965088 0.05630314 -0.018414922 -0.38234439 0.47637549 -0.79175699 0.037018348
-0.040176757 0.056328122 -0.018227883 0.096595846 0.92189926 -0.3751947 0.001534826
-0.03719905 0.055825245 -0.018605448 0.17322072 0.9185583 -0.35531017 0.0013159462
-0.034537006 0.055455264 -0.017977543 0.23675594 0.91136587 -0.33668798 0.00091323926
-0.032434639 0.05487147 -0.017821189 0.2592333 0.90925974 -0.32564524 0.00066143088
-0.02942065 0.053979423 -0.017707147 0.30164915 0.89597273 -0.32594576 0.00088751677
-0.053025313 0.056946013 -0.018682726 -0.27086374 0.47458717 -0.83749616 0.04205459
-0.050205883 0.057532351 -0.017702095 -0.062652797 0.80088699 -0.59552884 0.014657809
-0.04752548 0.057119898 -0.017732961 0.064926952 0.82704616 -0.55837184 0.0090651503
-0.045230977 0.056870628 -0.017562084 0.076983869 0.88333154 -0.46238387 0.0027260282
0.0017253994 -0.0039561279 -0.012831815 -0.2459058 -0.70001435 -0.67045516 0.0024788533
0.0038082981 -0.0041202195 -0.01310919 -0.10224889 -0.67420805 -0.73142922 0.0028093588
0.0065369396 -0.0041820128 -0.013180894 0.026010102 -0.62093902 -0.78342724 0.0020867246
0.0090608839 -0.0040689996 -0.013016544 0.15887366 -0.55854988 -0.81411374 0.0013641875
-0.0045765569 -0.00085909292 -0.013236322 -0.45639911 -0.748173 -0.48159847 0.0026344438
-0.0021475079 -0.0014293417 -0.014083675 -0.31198728 -0.73455179 -0.60257584 0.0055608242
0.00059699966 -0.0020794179 -0.01442223 -0.16242212 -0.67260742 -0.72195446 0.00081718515
0.003548319 -0.0023412453 -0.014641875 -0.046762191 -0.6374138 -0.76910144 0.0011890705
0.0065444573 -0.002146163 -0.014692765 0.070197657 -0.58540493 -0.80769634 0.0013424198
0.0094957501 -0.0021153344 -0.014187054 0.18453504 -0.52634567 -0.83000422 0.00077604974
0.012354108 -0.0018130448 -0.01351898 0.30889213 -0.44750574 -0.83924031 0.0019182691
0.014409745 -0.0010506827 -0.013018158 0.39276856 -0.41831616 -0.81898987 0.00070929999
-0.0078502167 0.0018001841 -0.014226241 -0.47976059 -0.76340896 -0.43247715 0.0018456896
-0.0053917053 0.00051937439 -0.014574598 -0.37390172 -0.75603187 -0.53722745 0.0030283965
-0.0026577236 -0.00014719646 -0.015368016 -0.24024726 -0.70994866 -0.66200775 0.0025868646
0.007641071 -0.00028352812 -0.01575432 0.18374519 -0.47080168 -0.86289245 0.0022758502
0.0099251904 0.00026777852 -0.015463151 0.24983385 -0.45527405 -0.854581 0.001645505
0.012680439 0.0010844865 -0.014764071 0.39018202 -0.35544476 -0.84936273 0.00092133071
0.015333395 0.0011588908 -0.01353333 0.45465797 -0.32635179 -0.8287223 0.0015754867
-0.012938794 0.0052125119 -0.013255157 -0.60990179 -0.75661755 -0.23568976 0.0027875998
-0.011163944 0.0042229071 -0.014447186 -0.5371058 -0.76783073 -0.34921831 0.0023147815
-0.009383779 0.0032139304 -0.01500269 -0.52264553 -0.76099646 -0.38435152 0.0031763811
0.013465099 0.0036846739 -0.015451023 0.44445124 -0.27106398 -0.85380751 0.0013454801
0.015715661 0.0039732819 -0.014222572 0.54508561 -0.20223765 -0.81362253 0.0018062233
0.017493332 0.0042514801 -0.013108705 0.62365961 -0.15536809 -0.76610017 0.0037704662
-0.016264733 0.0082506752 -0.014114587 -0.60419399 -0.76286048 -0.23020329 0.0007324664
-0.014264701 0.0066802762 -0.014617581 -0.5922398 -0.76101142 -0.26478994 0.0019884501
-0.012643984 0.0056439154 -0.015330143 -0.58995354 -0.75878179 -0.27605256 0.0024514454
0.014019309 0.0056387447 -0.015730865 0.52154326 -0.2228272 -0.82361436 0.0041876729
0.015732151 0.0069487281 -0.014884101 0.63011003 -0.063630462 -0.77389437 0.0041438197
0.017516319 0.0069399131 -0.013243291 0.70512891 0.00068563776 -0.70907873 0.0031210319
-0.017664723 0.0095981965 -0.015208505 -0.58116412 -0.76502454 -0.27746335 0.0005792462
0.015877783 0.0099897385 -0.014742598 0.70683122 0.081557259 -0.70266503 0.0027736847
0.017308962 0.010026962 -0.013132992 0.74216563 0.14078607 -0.65526289 0.0017152884
-0.021967847 0.013382029 -0.015771396 -0.6165933 -0.76135892 -0.20036301 0.001146957
-0.021375565 0.01275022 -0.014024056 -0.62031871 -0.75785613 -0.20213552 0.0013539442
0.013910614 0.013958182 -0.015564881 0.72190577 0.2291176 -0.6529603 0.00051992392
0.015585065 0.012923133 -0.014157297 0.72906655 0.22743995 -0.64554858 0.00055045902
-0.026131954 0.017066564 -0.014757134 -0.64256704 -0.75031424 -0.15535854 0.0011317779
0.013611859 0.016112451 -0.015092222 0.7314409 0.28343117 -0.62021041 0.0006629423
0.014967384 0.015673913 -0.013720486 0.74964374 0.33054432 -0.5733887 0.0015388419
0.012780368 0.018995985 -0.014574138 0.72064173 0.37183952 -0.58515871 0.0014691093
0.014250517 0.018044315 -0.013220546 0.7528187 0.40833101 -0.51626539 0.0018632974
0.010326223 0.022500049 -0.015013078 0.71378207 0.42300314 -0.55819672 0.0018098659
0.011788093 0.021427911 -0.013944255 0.72557175 0.4712753 -0.50144309 0.0019849495
0.0076472438 0.026161011 -0.015372224 0.7017284 0.55902183 -0.44166946 0.002635861
0.0092453882 0.024836723 -0.014263896 0.73967218 0.50488603 -0.44494399 0.0024857803
0.0066254106 0.028030548 -0.014678431 0.71643764 0.576325 -0.39314958 0.0011113363
0.0081352685 0.026962448 -0.013510846 0.72923416 0.55821997 -0.39573744 0.00094314595
0.004195753 0.031078469 -0.01463565 0.72095889 0.59928703 -0.34795585 0.0024666409
0.0055404962 0.030092422 -0.013499983 0.73170507 0.60119295 -0.32120833 0.0023499578
0.0010162164 0.034547649 -0.014693052 0.69076252 0.64509392 -0.32665116 0.0013625709
0.0025801859 0.033210665 -0.014140207 0.70103216 0.64077252 -0.3129929 0.0011771164
-0.0018784255 0.037278611 -0.015112726 0.65173948 0.69349885 -0.30707476 0.0010265594
-0.00040895725 0.035924584 -0.014938949 0.66407824 0.67803311 -0.31507361 0.0011393985
-0.0053898226 0.040426768 -0.014674926 0.60995275 0.74928343 -0.25793809 0.00071784656
-0.0034220435 0.039044093 -0.014101528 0.61913502 0.74117637 -0.25947917 0.00098220049
-0.010142305 0.043973353 -0.015078314 0.58041584 0.77413136 -0.25266212 0.0015053394
-0.0082700159 0.042710189 -0.014592294 0.58012092 0.77583539 -0.248071 0.0014367765
-0.013955295 0.046745706 -0.014761604 0.55327922 0.80651933 -0.20834768 0.00048480023
-0.011642673 0.045175508 -0.014504962 0.57235223 0.78952193 -0.22151323 0.00056595978
-0.017205728 0.048743125 -0.015255354 0.51361728 0.80156475 -0.30609 0.0010021222
0.0039224909 -0.0069805058 -0.010267933 -0.22664274 -0.71537358 -0.66096419 0.0025823426
0.0066329897 -0.0072552422 -0.010545774 -0.076310784 -0.68245864 -0.72692972 0.0026959665
0.0094606895 -0.0073556928 -0.010467906 0.065163448 -0.62283379 -0.77963573 0.0016624
0.012345647 -0.0071132462 -0.01021747 0.19511095 -0.56331837 -0.80287242 0.0018287401
0.014199223 -0.0067544766 -0.0099705234 0.31703073 -0.50251633 -0.8043437 0.00080293062
-0.0015550707 -0.0042657582 -0.010639217 -0.41663122 -0.74860018 -0.51576757 0.0024424584
0.00066487538 -0.0049572876 -0.011220631 -0.29423589 -0.73837978 -0.60681164 0.0017561055
0.0034779953 -0.0054660104 -0.011723786 -0.14585131 -0.69836235 -0.70072633 0.0014771443
0.006552205 -0.0055727446 -0.012038874 -0.02565597 -0.65487158 -0.75530452 0.0015819614
0.009648392 -0.005357272 -0.011993738 0.12001178 -0.58618277 -0.8012408 0.001939113
0.012541002 -0.0051200893 -0.011517378 0.21289831 -0.53543007 -0.81730592 0.0011789759
0.015276531 -0.0049153464 -0.010558205 0.34382349 -0.47706893 -0.80882055 0.00080858124
0.01758638 -0.0041380459 -0.0099489465 0.42675421 -0.42319751 -0.79924011 0.0011944467
-0.0052076224 -0.0015164595 -0.011271137 -0.51358193 -0.76066405 -0.39701867 0.0034247707
-0.0026417179 -0.0028804522 -0.01172746 -0.47043264 -0.76076615 -0.44713306 0.0025843373
-0.00033943355 -0.0034996234 -0.012580805 -0.2817474 -0.74502707 -0.60460991 0.0016852741
0.012997434 -0.0032450948 -0.012530828 0.2725344 -0.48282397 -0.8322295 0.0013944897
0.015671218 -0.0022773314 -0.011817349 0.3880032 -0.4164139 -0.82222438 0.00084050477
0.018270005 -0.0018419893 -0.01056027 0.50536174 -0.33948836 -0.79332024 0.0024254648
-0.0082125533 0.00081574405 -0.01139384 -0.58925796 -0.75546008 -0.2864528 0.0032108875
-0.0063853534 -0.00013423804 -0.012398966 -0.53438061 -0.76318753 -0.36329353 0.0010827264
0.01661952 0.00037587527 -0.012499804 0.52477038 -0.28575587 -0.80184758 0.0016228685
0.018527417 0.0008618515 -0.011408427 0.58170992 -0.25766292 -0.7715072 0.0028901391
0.020328948 0.0012930399 -0.010085143 0.67061055 -0.17890893 -0.71991193 0.0030068576
-0.013264626 0.0050166361 -0.010308228 -0.6377244 -0.75030512 -0.17421201 0.00038921161
-0.011380211 0.0035448582 -0.011686352 -0.62696397 -0.75262707 -0.20116836 0.0013095953
-0.0097433235 0.0024657808 -0.012765862 -0.56834292 -0.78097624 -0.25896445 0.0040562958
0.01881166 0.0037209629 -0.011825033 0.653871 -0.099192396 -0.75007576 0.0044880188
0.020419005 0.0038634487 -0.010280463 0.72883552 -0.018731536 -0.68443263 0.0026683032
-0.014826063 0.0066090012 -0.011744423 -0.62474227 -0.76119381 -0.17401475 0.00032788195
0.01890986 0.007070737 -0.011685344 0.74564552 0.055729546 -0.6640082 0.0011248888
0.020308152 0.0066336468 -0.010180004 0.7691828 0.10636613 -0.63011444 0.0022464334
0.018727735 0.0099486643 -0.01136679 0.78530836 0.19509633 -0.58756125 0.0027143718
0.020208267 0.0084864013 -0.0098357275 0.78525478 0.20834708 -0.58306634 0.002926083
0.016785463 0.013853981 -0.012426468 0.76780492 0.31150228 -0.55985898 0.0030087507
0.018001068 0.012761278 -0.011306263 0.79056233 0.304113 -0.53153217 0.0025547133
0.01620548 0.016174303 -0.011639988 0.78112006 0.36598462 -0.50587225 0.0022052785
0.01760217 0.015120818 -0.01033131 0.78632325 0.42128626 -0.45190004 0.0014190676
0.013665654 0.020147417 -0.012351565 0.76475531 0.50286919 -0.40282977 0.0018153245
0.01493139 0.018800594 -0.011369279 0.78446329 0.45211059 -0.42451543 0.0023468551
0.012711735 0.022109553 -0.011587074 0.75903165 0.55419397 -0.34167239 0.0014095767
0.014190741 0.020938288 -0.010242052 0.77407467 0.50757802 -0.37838203 0.001165624
0.010217309 0.025346357 -0.011616047 0.75496089 0.56669098 -0.32999298 0.0020602739
0.011517569 0.024009764 -0.011030979 0.73806518 0.58903062 -0.32909366 0.001358161
0.0073360489 0.028765392 -0.011888303 0.73394233 0.62657905 -0.26215911 0.00075214595
0.0086338352 0.027463395 -0.01130402 0.74487704 0.60225421 -0.28713772 0.0011171089
0.0046023321 0.03190114 -0.011754408 0.7073918 0.67567694 -0.20750292 0.0009075111
0.006140606 0.030144215 -0.011892701 0.73272055 0.62736952 -0.26368168 0.00078809058
0.0035724994 0.033264291 -0.010976158 0.70554453 0.67684609 -0.20996723 0.00078272476
-0.0014898791 0.037851118 -0.012077329 0.65070045 0.72716391 -0.21868177 0.0013351351
0.0001196214 0.036194492 -0.01264549 0.67834324 0.71361578 -0.17493705 0.00050339935
-0.0042504556 0.040180039 -0.011737116 0.62547618 0.75218821 -0.20734613 0.00081770995
-0.006082173 0.041513231 -0.012215801 0.61713332 0.75445181 -0.22349264 0.0010187266
-0.011139212 0.045203906 -0.012065031 0.5792951 0.78721493 -0.21144721 0.00047027005
0.0044472418 -0.0097394967 -0.0073397234 -0.33872259 -0.7401129 -0.58094728 0.0028181125
0.0067105205 -0.010174791 -0.0076575754 -0.17902671 -0.71917087 -0.67137378 0.0029116243
0.0096963216 -0.010446885 -0.0078031803 -0.029383363 -0.68103123 -0.7316646 0.0022119982
0.012568461 -0.010402708 -0.0076866434 0.11624914 -0.62596536 -0.77113783 0.0021429579
0.015366454 -0.010023977 -0.0073210541 0.27903169 -0.56499463 -0.77648073 0.0016878814
0.00091066537 -0.0073789293 -0.0080432864 -0.4323574 -0.7445603 -0.50862265 0.0029870048
0.0034912955 -0.0082793133 -0.0085832626 -0.28351051 -0.71897459 -0.63458449 0.0016582418
0.0065223812 -0.0086449711 -0.0091926605 -0.11986353 -0.69889092 -0.70511287 0.0016927923
0.0097580105 -0.0087239007 -0.0093186647 0.017588021 -0.65220451 -0.75783896 0.0015595049
0.012752034 -0.0084288893 -0.0091795344 0.1469795 -0.60185111 -0.78496647 0.0011823083
0.015665824 -0.0079635317 -0.0086165909 0.31068963 -0.52538788 -0.79211086 0.0020878427
0.018435825 -0.0076298313 -0.0075540328 0.42355275 -0.46514851 -0.77732867 0.0013830054
-0.004538463 -0.0037798174 -0.0070450231 -0.65628648 -0.72463006 -0.21023659 0.0017125378
-0.002274462 -0.005066053 -0.0083662849 -0.5680086 -0.73875779 -0.36277157 0.0013777836
-4.0548621e-05 -0.0061516175 -0.0091051832 -0.44625577 -0.7663092 -0.46219704 0.004598022
0.016525855 -0.005837894 -0.0094862357 0.36380228 -0.45015675 -0.81547952 0.0019868354
0.018730234 -0.0052456688 -0.008709196 0.4343816 -0.42071924 -0.79643452 0.000937631
0.020965321 -0.0046817372 -0.0074799405 0.55237436 -0.36272639 -0.75054115 0.00078057015
-0.0072196312 -0.0009088302 -0.0087058023 -0.64492822 -0.73184264 -0.22016834 0.0012904264
-0.0054468205 -0.0024536122 -0.0085452273 -0.6273874 -0.73069692 -0.26919726 0.004740133
-0.0038175513 -0.0035284497 -0.0092340782 -0.56949419 -0.74725866 -0.34246299 0.0014452663
0.01934132 -0.0028720889 -0.0094136596 0.52576554 -0.3328701 -0.78279513 0.0018333378
0.02136011 -0.0019711535 -0.0082223304 0.64375895 -0.21581541 -0.73416483 0.0020996546
0.02313319 -0.00075820461 -0.0068672374 0.72347963 -0.13982242 -0.67603767 0.0043558273
-0.010306285 0.0020244084 -0.0087343529 -0.63143998 -0.73740011 -0.23984294 0.0013769537
-0.0089236833 0.00063538458 -0.0084368419 -0.63947892 -0.74270135 -0.19864891 0.00093453558
0.021671321 0.00076315086 -0.0085931858 0.7260617 -0.088915862 -0.68185651 0.0020779234
0.023128958 0.00086945621 -0.0069490941 0.76766682 -0.04175273 -0.63948762 0.0035843693
-0.011447811 0.0031779334 -0.0092919394 -0.64498711 -0.74318922 -0.17793639 0.00031865347
0.021891184 0.0038788705 -0.0085023958 0.79860419 0.055573814 -0.59928542 0.0024796641
0.0231307 0.0029624118 -0.0069153877 0.81900495 0.080048606 -0.5681752 0.0025347495
0.021587335 0.0068921149 -0.0084008463 0.82630116 0.17478476 -0.53542197 0.0032730219
0.019765453 0.011037935 -0.009403266 0.8582381 0.27385882 -0.43408379 0.0031784852
0.020854821 0.0097317602 -0.0082476055 0.82795954 0.25763595 -0.49810317 0.0011922795
0.019371774 0.013023904 -0.0087124137 0.83822256 0.33469099 -0.43054038 0.0022651993
0.020305669 0.012010012 -0.0076825097 0.84110957 0.33933994 -0.4211688 0.0015562624
0.016994372 0.017052222 -0.0093190446 0.81223702 0.46286955 -0.35499701 0.003098517
0.018225024 0.01573474 -0.0083033731 0.81533313 0.45736006 -0.3550404 0.0023903188
0.016185846 0.018877599 -0.0084281992 0.80199528 0.51819724 -0.29711133 0.0025544039
0.01341938 0.022617958 -0.0090092644 0.77393377 0.58012909 -0.25392279 0.0014354646
0.01461341 0.021111973 -0.0085772891 0.7843079 0.55902338 -0.26898685 0.0018346462
0.010767749 0.0258816 -0.0086031035 0.75014871 0.61646628 -0.23926196 0.00039640869
0.012169253 0.024362262 -0.0081664296 0.7564804 0.60541189 -0.24741435 0.00033457583
0.0077562607 0.029354569 -0.0086241439 0.73655808 0.63216925 -0.24050824 0.00026384066
0.0098252334 0.026760783 -0.0093669817 0.73927587 0.62877208 -0.24107435 0.00023539734
0.0063584098 0.030695949 -0.0092962878 0.72670048 0.6444881 -0.23778453 0.00021957538
0.002197105 0.034898829 -0.0088015869 0.68477207 0.709086 -0.16817915 0.00043975125
-0.002426134 0.038982 -0.0097304359 0.65445459 0.73953962 -0.15738615 0.00061895658
0.0069314404 -0.013181257 -0.0043812362 -0.32140869 -0.71499372 -0.62087071 0.0035771506
0.0096670147 -0.0135166 -0.0048305751 -0.12799256 -0.70514315 -0.69741744 0.0025864153
0.012617288 -0.013803643 -0.0047520683 0.023198748 -0.66749108 -0.74425626 0.0019028703
0.015450092 -0.013556532 -0.0046272515 0.18139867 -0.6174382 -0.76541793 0.0023045987
0.017864915 -0.013192588 -0.004164584 0.32385582 -0.55270541 -0.76787645 0.0016482278
0.0013688155 -0.0098339831 -0.0045874016 -0.5446775 -0.71768165 -0.43388864 0.0045721475
0.0037290012 -0.010895994 -0.0053294883 -0.3925449 -0.74108744 -0.54469979 0.0019372856
0.0065361452 -0.011818388 -0.0057862489 -0.27070221 -0.73211819 -0.6250785 0.0054994617
0.0095123611 -0.012084193 -0.0062374342 -0.076994248 -0.69296664 -0.7168467 0.0017774736
0.012823625 -0.012030116 -0.0062973811 0.066410094 -0.64675075 -0.75980473 0.0016380972
0.015607538 -0.011645594 -0.0060639195 0.2042118 -0.59461606 -0.77764344 0.0013244577
0.018545786 -0.011031547 -0.0053283139 0.33459985 -0.52539527 -0.78230613 0.00090316206
0.021076923 -0.010274311 -0.0044257496 0.49166083 -0.4498682 -0.74557918 0.0021420969
-0.0013693844 -0.0071373517 -0.005542832 -0.61275285 -0.71228009 -0.34233165 0.0025709693
0.00037236419 -0.0084723039 -0.0056686238 -0.56854928 -0.72771692 -0.38364032 0.0015384804
0.0022040806 -0.0091349827 -0.0066425875 -0.48387295 -0.75098974 -0.44931212 0.0029325935
0.019304562 -0.0087164668 -0.0064269109 0.43634614 -0.44279432 -0.78328484 0.0021911159
0.021581041 -0.0079975324 -0.005309639 0.54451174 -0.38062087 -0.7474187 0.00065746048
0.02356681 -0.0073753474 -0.0041402169 0.58928388 -0.35491931 -0.7257939 0.0010764116
-0.004789568 -0.0040261531 -0.005607096 -0.67024219 -0.70683348 -0.22619005 0.0014197145
-0.0029217829 -0.0056558037 -0.0058441274 -0.65048832 -0.71646875 -0.25206667 0.0010535077
0.022143308 -0.0053484328 -0.0061978204 0.61298162 -0.30370653 -0.7293942 0.0017649017
0.023973418 -0.0048018051 -0.0048318314 0.67330152 -0.24596274 -0.69725698 0.0037443102
-0.0071366467 -0.0016973503 -0.0047998503 -0.66661716 -0.71952468 -0.19469397 0.00097292534
-0.0061970642 -0.0026298296 -0.0051130331 -0.67671287 -0.70816505 -0.20139989 0.0010485157
0.022672191 -0.0030843504 -0.0067860559 0.65223712 -0.21159738 -0.72788274 0.0017783212
0.024174003 -0.0019683028 -0.005433789 0.77939355 -0.092226572 -0.61970955 0.002697085
0.024383301 0.00087239733 -0.0052794651 0.84576464 0.070630431 -0.52886051 0.0023061314
0.023907496 0.0039049853 -0.0054448633 0.86195928 0.16909698 -0.4779461 0.002810033
0.022694996 0.0073904432 -0.0063355342 0.86929804 0.23433229 -0.43521178 0.0028816722
0.02348436 0.0066693751 -0.0050098943 0.87602347 0.27237093 -0.3979913 0.0031144503
0.022104045 0.0099703325 -0.0055076513 0.865731 0.36238518 -0.34523436 0.002980361
0.019895753 0.013906043 -0.0064524636 0.85936564 0.40119702 -0.31706741 0.0018953772
0.020821771 0.012667801 -0.0054501337 0.85539228 0.40588194 -0.32181352 0.001852064
0.019006073 0.015977796 -0.0054784268 0.83168375 0.491007 -0.25925699 0.0011936246
0.016403243 0.019491058 -0.0064809099 0.80493855 0.54594946 -0.23240726 0.00055189367
0.017365415 0.018362936 -0.0056528226 0.81051987 0.53817707 -0.231134 0.00062863989
0.013383543 0.023459982 -0.0062617138 0.76834917 0.59811151 -0.22782081 0.00052366045
0.015273657 0.021168556 -0.005474396 0.78616834 0.58593369 -0.19652237 0.00027932477
0.0074983877 -0.01603594 -0.0012494642 -0.38245401 -0.72447193 -0.57347143 0.0024710302
0.009679269 -0.016418301 -0.0017380146 -0.21544161 -0.72186756 -0.65764129 0.0023590389
0.012609679 -0.016735978 -0.0019465806 -0.048398614 -0.71558833 -0.6968435 0.0020817507
0.015562534 -0.016700741 -0.0018321658 0.10937089 -0.65725917 -0.74568659 0.0018724768
0.018256547 -0.016360991 -0.0015189173 0.26568696 -0.6170305 -0.74073189 0.0019389823
0.020292886 -0.016013049 -0.0010177167 0.38278404 -0.56729656 -0.72914398 0.0005469367
0.004129034 -0.013439291 -0.0019899569 -0.51443797 -0.71805429 -0.46877667 0.0030271851
0.0066013834 -0.014528538 -0.0025428631 -0.32680282 -0.72931272 -0.60108465 0.0019413949
0.0093507562 -0.014970991 -0.0032310626 -0.16442198 -0.72386229 -0.6700663 0.001671786
0.012433078 -0.015156207 -0.0034853355 -0.013626148 -0.69590414 -0.71800542 0.0015314064
0.015711598 -0.014966068 -0.0033712438 0.13610451 -0.64660615 -0.75058383 0.0015875336
0.018765697 -0.014348972 -0.0029047583 0.27631396 -0.59243804 -0.75674808 0.0015181527
0.021377726 -0.013995108 -0.0018246816 0.4335818 -0.52889049 -0.72957641 0.0015473376
0.023587639 -0.012710265 -0.0011166111 0.53707242 -0.43350676 -0.72361946 0.0012492473
0.00083689159 -0.010674407 -0.0020572636 -0.67678457 -0.6756236 -0.29239595 0.0019229725
0.0029413775 -0.012033339 -0.0028563025 -0.52998346 -0.7353847 -0.42228764 0.0048882365
0.02001418 -0.012475927 -0.0037705675 0.43262061 -0.50327665 -0.74803209 0.00077181368
0.021991877 -0.011523687 -0.0030709016 0.48911667 -0.45608479 -0.74347264 0.0018062576
0.024352955 -0.010716331 -0.0018051965 0.57890403 -0.38771024 -0.71732199 0.00075642142
-0.0018223969 -0.007860777 -0.0025873976 -0.70087373 -0.68058884 -0.21348299 0.0024839498
-0.00044326787 -0.0090554496 -0.0030815974 -0.63714129 -0.71320617 -0.29221195 0.003382762
0.024771154 -0.0082292734 -0.0027706474 0.66344583 -0.28343561 -0.69246215 0.0022496236
0.026399776 -0.0078355605 -0.0013846131 0.73355484 -0.22891733 -0.63991731 0.004134858
-0.0045886487 -0.0047552995 -0.0030007288 -0.6999048 -0.69513732 -0.16406502 0.00094429386
-0.0034159839 -0.0060468502 -0.0029542893 -0.709391 -0.68255532 -0.17573483 0.0012353489
0.025363304 -0.0053220252 -0.0032606074 0.72618073 -0.16702272 -0.66690701 0.0032550301
0.026644686 -0.0048812749 -0.0017216923 0.80760878 -0.093914323 -0.58219248 0.0039910721
0.025652507 -0.0019374732 -0.0034724749 0.83427632 -0.039620526 -0.54992104 0.0029590097
0.026434265 -0.001943782 -0.0021375022 0.86685026 0.031652514 -0.49756277 0.0034203054
0.025665224 0.00087581156 -0.0032496825 0.87497067 0.096011862 -0.47456089 0.0026442807
0.02637402 0.00064265914 -0.0018272474 0.89552385 0.15314163 -0.41783333 0.0023573542
0.02529655 0.0039615543 -0.002584137 0.89204276 0.22099151 -0.39423656 0.0019784844
0.026254244 0.0027638189 -0.0011860654 0.90935194 0.28670692 -0.30146009 0.0025718666
0.024354648 0.0069591794 -0.0024351454 0.89186877 0.33054364 -0.30872488 0.0022043688
0.022639824 0.010736186 -0.0027879924 0.86402941 0.43678227 -0.2503486 0.0035281042
0.023466023 0.0089771226 -0.0027040467 0.8812629 0.38696423 -0.2713567 0.0011283166
0.021386698 0.013045176 -0.0024852171 0.85424316 0.47560796 -0.20991802 0.0012829367
0.020141941 0.01526187 -0.00087723881 0.84787828 0.4973124 -0.18380089 0.00069806899
0.017671442 0.01844072 -0.0037840977 0.82386237 0.53200829 -0.19549419 0.0010982252
0.0079274923 -0.018813226 0.0019749328 -0.42229593 -0.70877308 -0.56507248 0.0018101867
0.0098776128 -0.019232038 0.0014185552 -0.28877231 -0.73890406 -0.60879499 0.0023439715
0.012692751 -0.019596443 0.00098542776 -0.11748204 -0.73311764 -0.66987801 0.0025212769
0.015673524 -0.019751534 0.0010340493 0.042695597 -0.70447761 -0.70844072 0.0017804329
0.018479459 -0.019513704 0.0012626695 0.21260239 -0.66128534 -0.71937603 0.0021721441
0.020792266 -0.019100625 0.0017606653 0.35681722 -0.59935552 -0.71655732 0.0010330398
0.004695469 -0.016137727 0.0014980361 -0.5605967 -0.69978338 -0.4427579 0.0025565817
0.0067618839 -0.01704029 0.0006150892 -0.40863237 -0.73057461 -0.5470652 0.0022057416
0.0093421247 -0.017812558 -1.1406839e-05 -0.23640282 -0.73669589 -0.63355577 0.0018232984
0.012430845 -0.018176954 -0.0004693158 -0.079136312 -0.72375202 -0.68550748 0.0019565781
0.015911266 -0.01811716 -0.00048905239 0.072407566 -0.68801028 -0.72207963 0.0012435854
0.018727848 -0.017721657 -0.00022778194 0.22282983 -0.64004344 -0.73531711 0.0014675643
0.021585235 -0.017090771 0.00056879688 0.36948976 -0.58022141 -0.725824 0.001046345
0.02388994 -0.016625963 0.001654543 0.4598648 -0.53390932 -0.70955288 0.00050491618
0.0015967758 -0.012766055 0.00077583641 -0.68422985 -0.65506327 -0.32050207 0.0023546654
0.003574735 -0.014516444 0.00050198007 -0.62825501 -0.68346864 -0.37170711 0.0022358967
0.0055270432 -0.015400727 -0.00055933744 -0.42527395 -0.73380667 -0.52978277 0.0024956821
0.022521077 -0.014932797 -0.00044981111 0.46456078 -0.50896633 -0.72466308 0.00026204501
0.024747113 -0.014082427 0.00049927738 0.53383923 -0.43390492 -0.72577006 0.0015900356
0.026759058 -0.013364113 0.0015611658 0.630862 -0.40417475 -0.66231114 0.0042869337
-0.0010871696 -0.0097778188 0.0012041852 -0.75434756 -0.62962377 -0.18583256 0.0016929127
0.00033442909 -0.011364914 0.0007468164 -0.70977312 -0.64750993 -0.27740407 0.0022017865
0.025558049 -0.011629879 -0.00040303729 0.61182094 -0.35296404 -0.70787817 0.0027384083
0.027217023 -0.010875604 0.00087853149 0.70383561 -0.29111853 -0.64797032 0.0043835412
-0.0019110651 -0.0085773515 0.00037871301 -0.74295878 -0.64743423 -0.16982707 0.0015191071
0.027631259 -0.0082059605 0.00040455721 0.81730944 -0.1597501 -0.55361092 0.0047243899
-0.0039211931 -0.0059759803 0.00038903207 -0.74033135 -0.65226239 -0.16267504 0.00086389697
0.028054701 -0.0051572109 0.00063835829 0.88756317 0.0033833394 -0.46067369 0.0029102457
0.02770322 -0.0020740302 0.00033974275 0.90952277 0.11520931 -0.39936835 0.002396296
0.027261369 0.00090322876 0.00059149507 0.92163318 0.21799664 -0.32104471 0.0034094581
0.025856586 0.0051346533 0.00010272115 0.91771859 0.30083501 -0.25940475 0.0015867286
0.026607374 0.0034856978 0.00081192236 0.91606194 0.30319831 -0.26249057 0.0015646734
0.025098028 0.0070337937 0.00062879641 0.90310705 0.35968241 -0.23457661 0.00075983384
0.023722749 0.0096213482 -3.2909214e-05 0.88463229 0.39591894 -0.24632083 0.0008061016
0.010146378 -0.022060398 0.0046784971 -0.3578628 -0.72472101 -0.58882397 0.0017019683
0.012579056 -0.022417352 0.0041014859 -0.18348174 -0.74576092 -0.64044911 0.0019637535
0.015589768 -0.02271701 0.0040179864 -0.012506841 -0.71205497 -0.7020123 0.0019583467
0.018621689 -0.022577129 0.004157614 0.16460758 -0.67654347 -0.71776968 0.0023005474
0.021120477 -0.022136815 0.0045672692 0.32900819 -0.63956636 -0.69477218 0.00089825207
0.0070806486 -0.019651458 0.0039438577 -0.49505785 -0.6991148 -0.51590329 0.0021469288
0.0093997195 -0.02059469 0.0033172434 -0.30167544 -0.73260856 -0.61014473 0.0017888867
0.012217168 -0.021062061 0.0026778104 -0.14653464 -0.7387386 -0.65786994 0.0019327905
0.015537921 -0.021210033 0.0024631545 0.013091953 -0.71568394 -0.69830161 0.0015272424
0.018833051 -0.020942912 0.002670194 0.17384112 -0.66722524 -0.72428578 0.0018863769
0.021703815 -0.020316135 0.0032963157 0.33708525 -0.62448615 -0.70454991 0.00083804491
0.02422403 -0.019775912 0.0042858291 0.41505376 -0.57459837 -0.70538437 0.00029455818
0.026294254 -0.019101959 0.0049787881 0.53992999 -0.50262457 -0.67516232 0.0011554718
0.0039603184 -0.016765714 0.0037993873 -0.64610279 -0.6567564 -0.38887289 0.0018930568
0.0057565211 -0.018054575 0.0031389911 -0.58796883 -0.68577141 -0.42896408 0.003342716
0.022653779 -0.018349398 0.0022320673 0.40035084 -0.56304926 -0.72297627 0.001406604
0.024996361 -0.017466281 0.0029756101 0.45350873 -0.53227633 -0.7148509 0.00071565807
0.02726692 -0.016864549 0.0042567709 0.58103079 -0.462809 -0.66948557 0.0033797333
0.001224454 -0.013466087 0.0036500841 -0.7581085 -0.61694896 -0.21129505 0.0025437668
0.0025212145 -0.014867258 0.0031679738 -0.71517628 -0.63597119 -0.28993696 0.0018224149
0.025976477 -0.015498896 0.0022030994 0.51640821 -0.47732204 -0.71097559 0.0016155007
0.027983045 -0.014182248 0.003355613 0.74416214 -0.31345868 -0.58988667 0.0016375639
0.029469242 -0.013203389 0.0048126206 0.79417467 -0.26280591 -0.54792315 0.0033289166
-0.0010968847 -0.010305037 0.0034592673 -0.78463578 -0.59826189 -0.16257106 0.0012824342
-0.00014365022 -0.011569559 0.003234419 -0.78692025 -0.59288114 -0.17102151 0.0010799989
0.028711664 -0.011243247 0.0029011127 0.82323366 -0.19499402 -0.53316379 0.0029102762
0.029655585 -0.010933355 0.0043360544 0.8644594 -0.12737331 -0.48629823 0.0040225317
-0.0020513178 -0.0088826166 0.0037648305 -0.77654219 -0.61276317 -0.1466406 0.0007840661
0.028835559 -0.0081414273 0.0023576692 0.85911882 -0.075587556 -0.50616336 0.0023307991
0.029657615 -0.0081729116 0.0040332628 0.90859109 -0.0076140398 -0.41761735 0.0019909972
0.028831424 -0.0050524361 0.002292648 0.91758889 0.043632623 -0.39512879 0.0022656228
0.029519955 -0.0053372355 0.0039544431 0.93405938 0.098586865 -0.34323996 0.0018913832
0.028774397 -0.0017314805 0.0032642521 0.93744087 0.18245395 -0.2965048 0.0028309086
0.029465565 -0.0029324032 0.0047556683 0.94279927 0.21277788 -0.25662243 0.0022552491
0.028195644 0.00064834021 0.0035268189 0.93237406 0.26164964 -0.2494355 0.0010051731
0.027139632 0.0036269836 0.0037899837 0.92350984 0.31816989 -0.21423697 0.00042735602
0.025980579 0.0058714412 0.0022749826 0.9063732 0.34883183 -0.23833568 0.001056789
0.010666227 -0.024834346 0.0077881292 -0.38845357 -0.72928536 -0.56324661 0.0016333291
0.012787946 -0.025260024 0.0073401816 -0.23246576 -0.7486127 -0.62091768 0.0016459968
0.015448615 -0.025510069 0.0069833808 -0.066480398 -0.74375904 -0.66513371 0.0022854477
0.018573252 -0.025515717 0.0070821103 0.1272468 -0.72080898 -0.68135351 0.0025316768
0.021397103 -0.025143448 0.0075827707 0.28257012 -0.66347444 -0.69278842 0.00083335215
0.007532692 -0.022404917 0.0072858911 -0.52828038 -0.68402094 -0.50302613 0.0020404493
0.0096205566 -0.023309398 0.0065909978 -0.35584775 -0.72855043 -0.58530903 0.0015251664
0.012402594 -0.023907397 0.0058896914 -0.19816044 -0.74546206 -0.63641083 0.0017108989
0.015642624 -0.024233423 0.0056029353 -0.036505021 -0.72021157 -0.69279337 0.0017825246
0.018947382 -0.024045531 0.0056656254 0.13660979 -0.69383997 -0.70705289 0.0021714752
0.021853561 -0.023442246 0.0061898101 0.30851158 -0.65386194 -0.69085819 0.001012758
0.024444856 -0.022905178 0.0070421584 0.39097652 -0.60245967 -0.69583017 0.00084795262
0.026611784 -0.022266094 0.007715635 0.51602972 -0.54723042 -0.65897816 0.001722036
0.0043635233 -0.019240268 0.0074217133 -0.72621053 -0.58730966 -0.35733119 0.0030219676
0.0061315312 -0.020544615 0.0064265002 -0.63894826 -0.6500212 -0.41136068 0.0028374838
0.025029754 -0.021033872 0.005739199 0.40228587 -0.58649939 -0.70298254 0.00044513776
0.027391857 -0.020208467 0.006700296 0.52264279 -0.51941109 -0.67605966 0.0020634502
0.029294388 -0.018939178 0.0076855645 0.69063228 -0.40828589 -0.5969336 0.0040436252
0.0017699366 -0.01569942 0.0078445598 -0.80774736 -0.54655516 -0.22095604 0.0012337565
0.0032841973 -0.017243404 0.0063288938 -0.75125831 -0.59939134 -0.27629867 0.0026975919
0.028473573 -0.017405555 0.005807478 0.66995406 -0.36732608 -0.64516133 0.0039498061
0.029848224 -0.016797397 0.0072028916 0.77697051 -0.31150171 -0.54706818 0.0038923577
0.0010951278 -0.014212723 0.0065056309 -0.81270397 -0.55285048 -0.18403399 0.0010573644
0.03026277 -0.013990601 0.0066025276 0.86080855 -0.19070047 -0.47184956 0.003938193
-0.00039076596 -0.0118193 0.0066171214 -0.79983264 -0.57295513 -0.17885822 0.00072104321
0.030740825 -0.011195649 0.0067766532 0.92121023 -0.044603523 -0.38649994 0.0019424345
0.030780973 -0.0080959918 0.0068258066 0.94173342 0.05877446 -0.33118534 0.0017480457
0.03022288 -0.0049800957 0.0062722303 0.95491964 0.14849843 -0.25705406 0.0025126759
0.02975147 -0.002387125 0.006700756 0.94673127 0.21128918 -0.24301596 0.0019562254
0.028604655 0.00097101601 0.0062667653 0.93759042 0.28236115 -0.20296903 0.00041068214
0.013004132 -0.028141286 0.010660974 -0.28162146 -0.73327738 -0.61886472 0.0015306196
0.015651444 -0.028451771 0.010210391 -0.11505636 -0.75060678 -0.65065473 0.0018689681
0.018367328 -0.028530058 0.01019576 0.088179603 -0.7151733 -0.69336247 0.0025274204
0.021048818 -0.028213289 0.010522947 0.23347414 -0.69618094 -0.67883867 0.00064366549
0.023091024 -0.02792393 0.011057697 0.2720058 -0.67867172 -0.68221509 0.00024950519
0.0079059266 -0.0251549 0.010629497 -0.58362657 -0.65814364 -0.47563326 0.0027658611
0.0098744258 -0.025970243 0.009805765 -0.38558507 -0.72885716 -0.56576616 0.0010679511
0.012459209 -0.026726045 0.0092495997 -0.23945339 -0.73943287 -0.62920678 0.0011337778
0.015504528 -0.027053241 0.0086873919 -0.092146471 -0.74561465 -0.65997559 0.0019115011
0.018523758 -0.027031425 0.0086338911 0.10091946 -0.7259295 -0.68032461 0.0022779664
0.021881739 -0.026594926 0.0092338193 0.26215029 -0.67573023 -0.68896002 0.00099044887
0.024591763 -0.02594725 0.0098144636 0.37172264 -0.62951577 -0.6822992 0.0011361949
0.026997047 -0.025291033 0.010540653 0.52017498 -0.57284462 -0.63345635 0.0025334216
0.0046826913 -0.02162293 0.010982983 -0.81175512 -0.51317936 -0.27874824 0.0022825147
0.0066034547 -0.023209989 0.0097490251 -0.68910408 -0.59803593 -0.40925369 0.0016150714
0.0086756423 -0.024233863 0.0085324068 -0.48503724 -0.67390138 -0.55731112 0.0049446858
0.025298905 -0.024238404 0.00861644 0.36655891 -0.61804724 -0.69545108 0.00076701894
0.027704393 -0.023362387 0.0095073674 0.50086218 -0.55380553 -0.66515899 0.0024023058
0.029659243 -0.022146914 0.010557234 0.68435764 -0.44094044 -0.58071184 0.0037642454
0.0039474242 -0.01987344 0.0097595025 -0.8163901 -0.4981716 -0.292117 0.0032676484
0.0053865598 -0.021274891 0.0087741837 -0.73333973 -0.58249325 -0.35059151 0.0029691583
0.028629353 -0.021145791 0.0085888654 0.5751071 -0.50031143 -0.64725596 0.0032114366
0.030226016 -0.019884262 0.0097478218 0.76752174 -0.35418144 -0.53429008 0.0021440142
0.0017738878 -0.01624753 0.0096789524 -0.825616 -0.53122485 -0.19015352 0.00088050333
0.0026407694 -0.017578695 0.0091434754 -0.83400702 -0.51020354 -0.21005869 0.0009834813
0.031162331 -0.017048653 0.0095837992 0.87400615 -0.20992512 -0.43822911 0.0017728483
0.0010495069 -0.014786814 0.0093087032 -0.82833523 -0.53179282 -0.17623037 0.00040149485
0.031489428 -0.014251922 0.0091950465 0.92358351 -0.10202149 -0.36957425 0.0026146485
0.032291885 -0.013390283 0.011015119 0.95014781 -0.048731714 -0.30796811 0.0031815255
0.031690303 -0.011167356 0.0093145743 0.95252115 0.026436893 -0.30332258 0.003746598
0.031625547 -0.0083301729 0.0097726695 0.96494639 0.099456921 -0.24287184 0.0009754019
0.030972308 -0.0051375255 0.0093962923 0.9611668 0.16713229 -0.21960241 0.0010034568
0.029984782 -0.0019970275 0.00906495 0.95228207 0.21427293 -0.21736117 0.0011584683
0.013115833 -0.030902863 0.013877608 -0.3168914 -0.7280196 -0.60792041 0.0014529772
0.015808446 -0.031387985 0.013489677 -0.14174709 -0.73891306 -0.6587224 0.0024648022
0.018509129 -0.031449787 0.013388908 0.061826926 -0.73226923 -0.67820287 0.002426031
0.021274911 -0.031177685 0.01373814 0.20355955 -0.71391404 -0.66999263 0.00036997834
0.024215473 -0.030550245 0.01406806 0.31476668 -0.68437558 -0.65768683 0.0021167414
0.0099797454 -0.028561942 0.013084739 -0.47730589 -0.69418067 -0.53878778 0.0031138004
0.012652479 -0.029531624 0.012471244 -0.31440377 -0.72124213 -0.61721969 0.0019509043
0.015490478 -0.029982302 0.01195142 -0.12515007 -0.73580754 -0.66552597 0.0017690449
0.018659769 -0.03005502 0.01187375 0.068107553 -0.72717577 -0.68306422 0.0020625226
0.021612773 -0.029659379 0.012260584 0.20858772 -0.7075569 -0.67516994 0.00039573028
0.024380952 -0.029063608 0.012713695 0.2946476 -0.67299199 -0.67842811 0.00097040407
0.027143795 -0.028306887 0.013545884 0.48884222 -0.59968358 -0.63357151 0.0027507965
0.0069290097 -0.025659032 0.012800854 -0.64915431 -0.6179381 -0.44356641 0.0025832574
0.008953467 -0.027071014 0.012084976 -0.46590567 -0.70620042 -0.53311628 0.0031743248
0.025456578 -0.027304899 0.011496605 0.36519456 -0.63544059 -0.6803295 0.00087247934
0.027945729 -0.026247438 0.012272786 0.5676831 -0.56356955 -0.60010439 0.0047453614
0.0298371 -0.025205761 0.013327159 0.69850314 -0.50477958 -0.50723863 0.0040934985
0.0045036511 -0.022391349 0.012781315 -0.81268823 -0.52287644 -0.25717291 0.0035116863
0.0054591163 -0.0236407 0.012497073 -0.76131213 -0.54699886 -0.34813228 0.0019363303
0.028911738 -0.024055306 0.011181943 0.62550145 -0.5157662 -0.5854342 0.0050456477
0.030637575 -0.022953935 0.012585741 0.77448696 -0.40659508 -0.4846136 0.0037437247
0.0033759759 -0.02016544 0.012417395 -0.8428818 -0.49332508 -0.2148969 0.0016123832
0.031638943 -0.020279065 0.012409627 0.85660994 -0.28135738 -0.43250141 0.0017237294
0.032486685 -0.019566562 0.013797708 0.92429692 -0.20684117 -0.32076758 0.0036883673
0.0017780177 -0.016802747 0.011596136 -0.83401048 -0.51019776 -0.21005885 0.00098504964
0.0022663367 -0.018057387 0.012625553 -0.85656512 -0.48392877 -0.17919034 0.000378759
0.031836078 -0.018008586 0.011429451 0.88317728 -0.18155794 -0.43247506 0.0032467106
0.032545701 -0.016851958 0.012900054 0.94075269 -0.12391489 -0.31564143 0.00089674292
0.032761294 -0.014424794 0.013078418 0.95740569 -0.045365822 -0.28515998 0.0020866499
0.032427814 -0.011176768 0.012086213 0.96557009 0.068531029 -0.25095391 0.0017703826
0.031896334 -0.007356924 0.012303643 0.96594375 0.15276931 -0.20884024 0.001107592
0.032510486 -0.0090948539 0.014137737 0.97534347 0.10378879 -0.19476366 0.00043071283
0.013810424 -0.033683445 0.016857199 -0.33679575 -0.7371074 -0.585868 0.0013858469
0.015854342 -0.033956368 0.016466808 -0.15443163 -0.7673502 -0.62235403 0.0026838228
0.018576324 -0.034078337 0.016394284 0.043545566 -0.76846868 -0.63840395 0.0020738717
