# .PCD v0.7 - Point Cloud Data file format
VERSION 0.7
FIELDS x y z normal_x normal_y normal_z curvature
SIZE 4 4 4 4 4 4 4
TYPE F F F F F F F
COUNT 1 1 1 1 1 1 1
WIDTH 557
HEIGHT 1
VIEWPOINT 0 0 0 1 0 0 0
POINTS 557
DATA ascii
0.02460549 0.0042353179 -0.0055952445 0.60935301 0.74462974 -0.27242491 0.001624724
0.026290042 0.002655755 -0.0054186238 0.73387486 0.63224286 -0.24838807 0.00086656772
0.0070910184 0.0055622859 -0.0055253161 -0.56109363 0.79875684 -0.21716675 0.0021767586
0.009373229 0.0068064779 -0.0055205179 -0.39888802 0.87493968 -0.27453411 0.0031932183
0.012083584 0.0076083224 -0.0059128325 -0.18066737 0.9329164 -0.31149036 0.0022396031
0.015325304 0.0077532148 -0.0063266112 0.036264811 0.94021058 -0.33865774 0.0024325582
0.018473856 0.0074726911 -0.0056929053 0.24569519 0.91574252 -0.31788281 0.0022951155
0.021346066 0.0062934784 -0.0058203046 0.43396014 0.84871644 -0.30225646 0.0021385099
0.023057712 0.0056904955 -0.0048955334 0.50510371 0.8168183 -0.27870792 0.001004299
0.013049972 0.0082627712 -0.0045035435 -0.13614693 0.94846696 -0.28613725 0.0043490562
0.015137548 0.0082536293 -0.0048730075 0.023829445 0.95515162 -0.29515666 0.0028548611
0.017019149 0.008266191 -0.0043656928 0.16593194 0.94193727 -0.29192588 0.0049171313
0.031129012 -0.0048070448 -0.0026725186 0.92035693 0.3443512 -0.1853788 0.0024993122
0.00035807327 -0.0019956143 -0.0026365351 -0.87711805 0.47083452 -0.094756819 0.00080702727
0.030195335 -0.0021143451 -0.0026378883 0.88451439 0.43571419 -0.16669564 0.002214276
0.0012325258 -0.00012201769 -0.0026580049 -0.83585745 0.53746974 -0.11166218 0.0035529737
0.0020911696 0.0012811639 -0.0029229401 -0.80615461 0.56697422 -0.16927804 0.0035425485
0.028194105 0.0010477856 -0.0027981503 0.80780435 0.55289704 -0.20434552 0.00041334485
0.029274644 -0.00035503204 -0.0023696376 0.81853849 0.54333913 -0.18648684 0.00045592483
0.0038337631 0.0034670115 -0.0027894368 -0.73425066 0.65337873 -0.18431556 0.0023737126
0.0052873585 0.00486477 -0.0032103611 -0.62466151 0.74771351 -0.22521654 0.0026490032
0.025266895 0.004676613 -0.0028098775 0.66050804 0.71106052 -0.24108511 0.004354795
0.026695648 0.0032781658 -0.0023819683 0.74416286 0.62999809 -0.22208989 0.0019927744
0.0066457642 0.0061252741 -0.0025462592 -0.55006951 0.79806077 -0.2460134 0.0033422832
0.0089285234 0.0074652229 -0.002677829 -0.44842112 0.84997213 -0.2765246 0.003365664
0.019611802 0.0078152148 -0.0037093712 0.35177344 0.88390118 -0.30817893 0.0012686676
0.021386167 0.0072798152 -0.002980046 0.40337515 0.86250836 -0.30556145 0.0013709415
0.023780655 0.0060248142 -0.002370012 0.56209666 0.78388584 -0.26376212 0.0027767138
0.010301924 0.0083273621 -0.0018965751 -0.36547658 0.88246572 -0.29611003 0.0020286134
0.012377138 0.0087379618 -0.0025332551 -0.20548996 0.93584216 -0.28630996 0.0026172877
0.015209265 0.0090147043 -0.0025350004 0.015497737 0.9580065 -0.28632745 0.0018131128
0.018124949 0.0086088888 -0.00258034 0.22569704 0.92565858 -0.30367243 0.0023051174
0.020168418 0.0083351759 -0.0015811874 0.3767879 0.87080711 -0.31579384 0.0022690792
-3.1242147e-05 -0.0019924722 0.00073883403 -0.91949558 0.37034261 -0.13181129 0.0017894841
0.030344633 -0.0015219569 -0.00032874476 0.88002658 0.45061469 -0.14999901 0.0018467881
0.0010075148 0.00036740047 0.00062160939 -0.88080001 0.44680509 -0.15670511 0.0028074242
0.00185724 0.0017738224 -0.00035547744 -0.84988487 0.48940572 -0.19539155 0.0031008841
0.028459011 0.0015379966 -0.00036866497 0.82570684 0.53661233 -0.17394084 0.00041319066
0.029409615 0.00012621586 -0.00022886228 0.82505322 0.53982848 -0.16695033 0.00042655834
0.0031705776 0.0036677413 0.00040258467 -0.77802837 0.58584136 -0.22685191 0.0015732727
0.027111996 0.0036647504 0.00018548127 0.77323413 0.60558516 -0.18808378 0.0023763184
0.0045357542 0.0057299957 0.0013802201 -0.64943987 0.71596897 -0.25615677 0.0024239977
0.0063927993 0.0068979124 0.00042371359 -0.54975581 0.78943872 -0.27304795 0.0010798539
0.0082152775 0.0078978715 -0.00022121798 -0.43673384 0.85147148 -0.29027566 0.0022008498
0.022233261 0.0077830581 -0.00010165852 0.4573186 0.84952283 -0.26300305 0.0019759107
0.024147365 0.0066770809 0.00049723405 0.5957225 0.76336861 -0.24976605 0.0020872131
0.0093595469 0.008766978 0.00060277712 -0.38894153 0.87157512 -0.29846507 0.0020289544
0.012175813 0.0096832402 0.00044575054 -0.22030254 0.92390603 -0.31283295 0.0031954043
0.015302932 0.010038725 0.00051548053 0.015248518 0.94457996 -0.32792702 0.0023008543
0.018247345 0.0095034717 0.00017454103 0.24941505 0.92028809 -0.3014333 0.002659484
0.020896282 0.0087605976 0.00075813942 0.40543732 0.87095964 -0.27757883 0.0018354137
-0.00042208622 -0.0019886168 0.0033480814 -0.93051374 0.31975129 -0.17861484 0.0018158439
0.00059085863 0.00070065283 0.0032325564 -0.89905614 0.39385685 -0.19124557 0.0023037728
0.029538864 0.00069832127 0.0030696737 0.84238815 0.51915479 -0.14443134 0.00024647478
0.0013818163 0.002766622 0.0039028777 -0.82175529 0.52196497 -0.22862828 0.0024925733
0.0026334568 0.0042238357 0.0031238841 -0.78962266 0.55851096 -0.2540895 0.00201563
0.027554341 0.0039402749 0.0029513584 0.80261415 0.57709271 -0.15091223 0.0024057303
0.0040975614 0.0062269513 0.0037559224 -0.67339694 0.6787051 -0.29308015 0.0015764131
0.0057069464 0.0074516153 0.0031775748 -0.57147044 0.76299381 -0.30209616 0.0016643087
0.024644723 0.0071367435 0.0032628858 0.63040948 0.73736399 -0.24264835 0.0026617968
0.026258038 0.005775583 0.0038187942 0.73029643 0.66035509 -0.17492349 0.003148884
0.007005007 0.0086253854 0.0037349155 -0.53678167 0.78428543 -0.31106576 0.0014541408
0.0091844443 0.009715098 0.0034323735 -0.41265923 0.8465063 -0.33636209 0.0022986606
0.01204263 0.010657471 0.0032973504 -0.1968185 0.91779321 -0.34484524 0.0026444762
0.015373355 0.010815131 0.0028084358 0.031955637 0.93988681 -0.33998778 0.0027771723
0.018280458 0.010494824 0.0031919619 0.24564822 0.92008787 -0.3051151 0.0021564669
0.021186862 0.0094576115 0.0034499364 0.43904698 0.85596186 -0.27306956 0.0022068454
0.02304188 0.0087238802 0.0044959532 0.55632246 0.79492682 -0.24206747 0.003534619
0.013282697 0.01134221 0.0045001255 -0.16152516 0.92861301 -0.33404723 0.0024428351
0.015421234 0.011338055 0.0043670041 0.060523074 0.95263743 -0.29802489 0.0038775806
-0.0010045932 -0.0038946392 0.0053405212 -0.96525359 0.18729764 -0.18222307 0.0030195629
-0.00094336545 -0.00205336 0.0064058183 -0.94799721 0.24281827 -0.20576821 0.0053724707
-0.00015136984 0.00083590974 0.0064453175 -0.91925591 0.31912386 -0.23049614 0.0019477267
0.029797478 0.0008793131 0.0059317844 0.83024299 0.54138225 -0.13267167 0.00048836495
0.0009538061 0.0033286808 0.0065033259 -0.83885658 0.47169605 -0.27170289 0.002462795
0.0020160901 0.0045344355 0.0055009769 -0.80744952 0.50883597 -0.29851505 0.0025914966
0.028136546 0.0039858622 0.0061067836 0.81075174 0.57012475 -0.13281351 0.0015485706
0.029074974 0.0023113072 0.0058344351 0.82671648 0.54701352 -0.13159101 0.00059368741
0.0033707132 0.0066733146 0.0063831089 -0.72266269 0.61381793 -0.31778339 0.0016622706
0.0051973592 0.008033785 0.0055148052 -0.57533896 0.75038564 -0.32543281 0.0023719533
0.024798842 0.0078913989 0.0062362691 0.63368475 0.75017017 -0.18891351 0.0021489027
0.026463417 0.0061388491 0.0061251419 0.70229411 0.68643397 -0.18865657 0.0014352576
0.0047323694 0.0085575907 0.0073981928 -0.62106538 0.7100817 -0.33175576 0.00062792678
0.0064896261 0.0094625782 0.0065082246 -0.49012387 0.80331248 -0.33833078 0.0009186797
0.0089274393 0.010675156 0.0060807271 -0.37833831 0.850308 -0.36583659 0.0013744882
0.019266745 0.010891366 0.0053367065 0.2988047 0.9018417 -0.31208548 0.0034061288
0.021296907 0.010283771 0.0063139247 0.47250709 0.84637272 -0.2457442 0.0022986254
0.023617456 0.008894681 0.0065209912 0.5910154 0.77656722 -0.21827571 0.0016952098
0.0099025983 0.01152062 0.0071426788 -0.32808948 0.87312847 -0.36056072 0.0019243732
0.01215466 0.011842653 0.0063745836 -0.16037224 0.92804754 -0.33616725 0.0025286276
0.015250625 0.012125509 0.0065944782 0.083712012 0.94685483 -0.31057718 0.0026854614
0.018111277 0.011558867 0.0063283788 0.25446284 0.91667533 -0.30814779 0.001961444
-0.0015133643 -0.0039082738 0.0095584141 -0.97596622 0.10327611 -0.19189595 0.0039135502
-0.001510698 -0.0022227932 0.0092047555 -0.97596622 0.10327597 -0.19189592 0.0039135641
-0.0015195031 -5.1480485e-05 0.010372664 -0.94251472 0.19545168 -0.27104372 0.0044563203
-0.00090853521 0.0009042637 0.0090706879 -0.9098894 0.2895827 -0.29705751 0.0017147156
0.00015379675 0.0036076044 0.0093154563 -0.87147653 0.38276088 -0.30663124 0.00099029008
0.001099926 0.0057261083 0.0097569404 -0.79989314 0.49822083 -0.33458471 0.0011716605
0.0025599522 0.0072309347 0.0090893926 -0.73355502 0.57040572 -0.36950552 0.0018992068
0.025471102 0.008138421 0.0099304067 0.7146768 0.6893307 -0.1185758 0.0035900499
0.026635779 0.0065586111 0.0092153298 0.7452727 0.65353382 -0.13214439 0.0017311843
0.0042108018 0.00914496 0.0094976472 -0.60229468 0.70899129 -0.36684147 0.0014874756
0.0061140442 0.010530981 0.0093342243 -0.50394684 0.77713251 -0.37696511 0.0015822783
0.021880582 0.010820638 0.0093733957 0.51677525 0.82632387 -0.22390258 0.0029588721
0.024002224 0.0093304142 0.009451245 0.60733509 0.76844448 -0.20158653 0.0028064167
0.0072810203 0.011638781 0.010133554 -0.45277756 0.80188709 -0.38983271 0.0013698407
0.0093351649 0.012268117 0.0094631454 -0.32693747 0.87216395 -0.36392593 0.0020047061
0.012138004 0.013009479 0.0094224801 -0.12556732 0.92162067 -0.36721677 0.0020379138
0.015099691 0.013186477 0.0095746936 0.077469528 0.93561119 -0.34442735 0.0025685991
0.018222213 0.012497861 0.0093799857 0.29458568 0.91619051 -0.27168778 0.0024413676
0.020513479 0.011618639 0.0094906064 0.45500138 0.85631031 -0.244349 0.0017927047
-0.0020260329 -0.0041627632 0.013174181 -0.981453 -0.02561575 -0.18998377 0.0014624014
-0.0021825209 -0.0019786609 0.012534567 -0.97608984 0.0048739701 -0.21731269 0.003158723
-0.0019229974 0.0007828332 0.012414196 -0.95429045 0.16248445 -0.25085562 0.0034845739
-0.0016617586 0.0027540282 0.013128002 -0.8851074 0.3317301 -0.32640481 0.0016389523
-0.00078479381 0.0038773085 0.012163061 -0.86646485 0.36213049 -0.34365708 0.0010114207
0.028419411 0.0042975424 0.010889565 0.78786248 0.59861398 -0.14468567 0.0021326328
0.00040281774 0.0065011438 0.012409641 -0.76638043 0.51461744 -0.3844865 0.0023569616
0.00185724 0.0076827584 0.011092191 -0.75459546 0.53663349 -0.37763759 0.0029145975
0.027196849 0.0064144405 0.012059902 0.75216734 0.64781767 -0.12073358 0.0010367674
0.0012095999 0.0083818408 0.013370122 -0.69030499 0.61399549 -0.38273823 0.0019063306
0.0032090966 0.0097472109 0.012213751 -0.62225908 0.66775918 -0.40852323 0.00046792041
0.005242195 0.011076096 0.011461978 -0.51589346 0.75321263 -0.40807429 0.0017145232
0.022710305 0.011115017 0.012752538 0.58239472 0.79063559 -0.1889753 0.00077711634
0.023383085 0.010355334 0.011616086 0.58240759 0.79062724 -0.18897076 0.00077288644
0.004528583 0.011622581 0.01347666 -0.57886499 0.70437652 -0.41081503 0.0016683269
0.0065326886 0.012390848 0.012495584 -0.46517676 0.78928953 -0.4007898 0.0025018582
0.0092612663 0.013486801 0.012220181 -0.28004572 0.86948913 -0.40689448 0.0016536688
0.012086131 0.013916714 0.011687449 -0.10057195 0.91277635 -0.39588445 0.0025328752
0.01516762 0.013992062 0.011860262 0.10281534 0.93286222 -0.34524941 0.0025472674
0.018135939 0.013427898 0.012318552 0.31021053 0.90839738 -0.2803278 0.0025644735
0.020976169 0.012222251 0.012703712 0.47528201 0.85297543 -0.21573122 0.001643118
0.01060606 0.014547842 0.013765101 -0.19495404 0.88463348 -0.42357594 0.0058161947
0.012292233 0.014524139 0.013135879 -0.061635159 0.93282163 -0.35502791 0.0025248849
0.014966713 0.014529534 0.013279228 0.14229207 0.93942505 -0.31182307 0.0034724206
-0.0025386214 -0.0044179279 0.015978161 -0.96842921 -0.13000304 -0.21270657 0.001877205
-0.0028127895 -0.0022541084 0.015462165 -0.9646427 -0.082823567 -0.25020909 0.0017606331
-0.0027972935 0.00081658713 0.015183988 -0.94396687 0.10241672 -0.31374735 0.0051607755
-0.0022420725 0.0036516197 0.015516051 -0.8942157 0.28628191 -0.34412345 0.0020686747
-0.0016852308 0.0057204282 0.016136479 -0.82965291 0.40057603 -0.38886362 0.0014219875
-0.00065602071 0.0069503691 0.015168325 -0.78834623 0.46593788 -0.40176123 0.0025353353
0.00060592894 0.0092828013 0.015719708 -0.71816301 0.55032456 -0.42589298 0.0032032009
0.0021817381 0.010363571 0.014749517 -0.66562742 0.60618222 -0.43529671 0.0017857464
0.02449921 0.0099533154 0.014587049 0.66426837 0.73507249 -0.13570549 0.0018269414
0.0032905906 0.011965958 0.015667986 -0.57390571 0.68789876 -0.44432816 0.001325087
0.005928901 0.013423651 0.015121398 -0.42523491 0.80236334 -0.41879392 0.0015644075
0.0084244767 0.014076257 0.014159416 -0.26637581 0.87235367 -0.40993053 0.0026323693
0.018666867 0.013980085 0.01485828 0.37515664 0.89584696 -0.23815061 0.0034870859
0.020883245 0.012952991 0.01544653 0.48470998 0.84786379 -0.2149028 0.00107766
0.023107613 0.011459257 0.016061593 0.5539636 0.81306553 -0.17902178 0.0008100642
0.0070386464 0.014645388 0.016351175 -0.37494355 0.82129967 -0.42998159 0.0024654483
0.0094690258 0.015070541 0.015533769 -0.23197423 0.89227974 -0.38733029 0.0031967449
0.012339559 0.01533247 0.015168804 -0.063069075 0.938196 -0.34030962 0.004197611
0.015171839 0.015192002 0.015316927 0.18529341 0.93346393 -0.30710179 0.0032231009
0.017352963 0.014740283 0.015626561 0.34068644 0.90001315 -0.27186212 0.0024679829
-0.00305146 -0.004182023 0.018244568 -0.96236479 -0.13777842 -0.23424579 0.0024941557
-0.0035456587 -0.0022178157 0.018481411 -0.95221239 -0.16321878 -0.25816894 0.0026118727
-0.0037855587 0.00072539202 0.018034581 -0.94769263 0.0074566593 -0.31909746 0.004543128
-0.0034795003 0.0037561629 0.018411819 -0.90126657 0.21391864 -0.37677222 0.0031670353
-0.0023994274 0.0066208644 0.018418286 -0.82532936 0.37570623 -0.42151666 0.0011706561
-0.0017821472 0.0087492429 0.019096725 -0.7612018 0.45829788 -0.45884088 0.0017293642
-0.00044397602 0.0098993834 0.01820061 -0.73266912 0.50951523 -0.4512096 0.0014020249
0.00087423506 0.01178403 0.018634878 -0.63606423 0.61838675 -0.46154112 0.0021749192
0.0027460305 0.01308584 0.018089127 -0.52146006 0.71726453 -0.46218082 0.0011177879
0.021605408 0.012992015 0.018036347 0.50442606 0.84037906 -0.19828647 0.00083400961
0.0037417326 0.014418734 0.019033775 -0.47724527 0.74058843 -0.47303876 0.0014216668
0.0061590653 0.015305888 0.018348824 -0.3785232 0.80525184 -0.45638758 0.0018203423
0.0093266135 0.016333492 0.01832699 -0.17501727 0.90083647 -0.39731929 0.0022727323
0.012403218 0.016420977 0.017902985 0.030395845 0.93137807 -0.36278227 0.0029749679
0.015256522 0.016139049 0.018203262 0.23607092 0.92500705 -0.29771212 0.0034574149
0.018241277 0.015087672 0.018297654 0.42506981 0.87503588 -0.23157686 0.0029706231
0.020050276 0.014254199 0.019018684 0.48676449 0.85326153 -0.18709673 0.00066697301
0.011215832 0.017238574 0.019811396 0.078528069 0.91813421 -0.38841069 0.0035006695
-0.0033790534 -0.0047362894 0.021120064 -0.94323212 -0.25735345 -0.20995815 0.0015909793
-0.0045749024 -0.0017219826 0.021875147 -0.92911541 -0.25966978 -0.26327953 0.0023898846
-0.0040671709 -0.0027112784 0.020873044 -0.94254231 -0.23307098 -0.23935738 0.0028112398
-0.0048128432 0.00074692047 0.021196146 -0.94380289 -0.040154379 -0.32806045 0.004209769
-0.0048147943 0.0037145212 0.021337595 -0.91890335 0.12447546 -0.37432939 0.0032700521
-0.0040583611 0.0046843616 0.020191345 -0.86967069 0.22856645 -0.43752748 0.0046116128
-0.0046801721 0.0060549174 0.022314236 -0.85048056 0.29059249 -0.43845057 0.0016401249
-0.0036825123 0.0069219088 0.021106675 -0.83081573 0.32682562 -0.45047793 0.00060247083
-0.0026158206 0.009682266 0.021431278 -0.76670355 0.43369105 -0.47336864 0.0030526309
-0.0011007739 0.010847318 0.020224396 -0.68093419 0.55764526 -0.47472137 0.0015353768
-0.0018076434 0.011799391 0.022300735 -0.67322046 0.54534733 -0.49937013 0.0015335982
-5.4976088e-05 0.012786308 0.021148544 -0.64700079 0.58606869 -0.48776376 0.0013813057
0.00185724 0.013803558 0.020174477 -0.57522118 0.66255409 -0.47973171 0.0011477745
0.021102866 0.013821037 0.020665709 0.53631735 0.82753778 -0.16596662 0.00021881401
0.00096566766 0.014570313 0.02223948 -0.5643068 0.65367985 -0.50424242 0.0011732884
0.0031600671 0.015532022 0.021374643 -0.45762387 0.74565232 -0.48433769 0.0027438325
0.0059282063 0.016537843 0.020726442 -0.32119012 0.83427787 -0.44812652 0.0016373543
0.016077684 0.016693803 0.020914629 0.27100274 0.92443448 -0.26828793 0.0045748698
0.018363727 0.015724428 0.021361902 0.44912338 0.8712917 -0.19783588 0.0018824476
0.02066548 0.014364706 0.022036199 0.47364002 0.86248982 -0.17825969 0.00092987926
0.0065236147 0.017476218 0.022042856 -0.28185737 0.85390246 -0.43750077 0.0020499432
0.0093561625 0.017680224 0.021277085 -0.10476903 0.91549855 -0.38844037 0.0023226084
0.01234688 0.017681286 0.021249078 0.10212485 0.93506753 -0.33943942 0.0037292929
0.014967645 0.017324323 0.021801967 0.29354969 0.9226594 -0.25005615 0.0042609684
-0.0046180412 -0.0039580436 0.02495626 -0.91217524 -0.34226945 -0.22536191 0.0025284647
-0.0039100656 -0.0049506696 0.024117325 -0.89562964 -0.39047301 -0.21302198 0.0012746821
-0.0051526818 -0.0020661622 0.024057709 -0.92149091 -0.28991547 -0.25846359 0.0023679177
-0.0059616696 0.00091196108 0.024425458 -0.92034978 -0.14574537 -0.36292514 0.0028272849
-0.006102208 0.003754182 0.024322513 -0.90813881 0.043242097 -0.41643006 0.0040223799
-0.0056069372 0.0067409053 0.024449524 -0.84247524 0.23871142 -0.48296207 0.0025735314
-0.004951227 0.0094093941 0.025011819 -0.7842564 0.37017992 -0.49790433 0.0012254169
-0.0038558275 0.010055674 0.023730151 -0.77556187 0.3890318 -0.49714994 0.0010831039
-0.0027739853 0.012661688 0.024563525 -0.67558253 0.51209056 -0.53042573 0.0030386911
-0.00095618155 0.013754373 0.023445144 -0.61467022 0.60426337 -0.50699741 0.00029928196
-0.0017992947 0.01465516 0.02542818 -0.60413188 0.59931374 -0.52521211 0.00035494624
0.00016929046 0.015601521 0.02448209 -0.53290963 0.66392922 -0.52460015 0.0025004263
0.0024157984 0.016598653 0.023688268 -0.4321287 0.75231141 -0.49728504 0.0028551249
0.018107262 0.01644009 0.024362747 0.46352252 0.86391217 -0.1969841 0.00060140435
0.020225419 0.014911564 0.023413721 0.49503928 0.85068154 -0.17685312 0.00040917916
0.0033502036 0.017797163 0.02476969 -0.37588146 0.79338336 -0.47880691 0.0018676906
0.0059746122 0.0184834 0.024312407 -0.22730717 0.87149006 -0.43455324 0.0031654509
0.008923009 0.019031839 0.02446156 -0.02868522 0.92209601 -0.38589665 0.0027266515
0.012001257 0.018770639 0.024195258 0.16706252 0.93793893 -0.30390891 0.0033432585
0.014785334 0.018005814 0.024150886 0.33683562 0.91066313 -0.23923726 0.0017810792
-0.0049887188 -0.0045510326 0.027554169 -0.87080866 -0.41429257 -0.26467723 0.0022705549
-0.004148419 -0.0057174088 0.027159605 -0.86409676 -0.45338154 -0.21859096 0.00073928252
-0.0061538992 -0.0021171563 0.027332768 -0.8774181 -0.36006457 -0.3170031 0.0025699288
-0.0076755444 0.0012988143 0.02832384 -0.89838046 -0.25033122 -0.36089736 0.0024148263
-0.0069491845 0.00058795442 0.027048219 -0.90591723 -0.21360797 -0.36563048 0.0037814956
-0.007919047 0.0038027463 0.027959678 -0.90007573 -0.050021835 -0.43285257 0.0032302821
-0.0071362797 0.0037817566 0.026387461 -0.88467091 -0.0010832866 -0.46621469 0.0035502126
-0.0078729531 0.0066144345 0.028157439 -0.8549822 0.16507138 -0.49168777 0.0034245513
-0.0068688812 0.0070803817 0.026646912 -0.84518987 0.19785224 -0.49649632 0.0023527155
-0.0076831896 0.0085831014 0.028697435 -0.79993892 0.28450173 -0.52835262 0.00094984344
-0.0062492304 0.0098855365 0.027317639 -0.79372156 0.31567162 -0.51995927 0.00052170485
-0.0052158171 0.012507167 0.02762565 -0.71523917 0.43863821 -0.54408592 0.0017748298
-0.003829743 0.013472227 0.026666198 -0.69501549 0.4746626 -0.54004532 0.001712315
-0.004671148 0.014610501 0.028749231 -0.63089496 0.54108793 -0.55605346 0.0015558277
-0.00271744 0.015637258 0.027626552 -0.58932173 0.59386003 -0.54775006 0.0025807277
-0.00058028445 0.016720813 0.026646834 -0.52323663 0.67009246 -0.52649742 0.00027443448
-0.0016587689 0.017627763 0.028845135 -0.51933253 0.6731357 -0.52648079 0.0025006824
0.00041248789 0.01813761 0.02766934 -0.44846085 0.72876883 -0.51747352 0.001745817
0.003058627 0.019215412 0.027328823 -0.32717657 0.80964977 -0.48726049 0.0029102606
0.0059947306 0.019817108 0.026885096 -0.15967783 0.88250244 -0.44237152 0.0022752674
0.009110841 0.020046538 0.026933752 0.039219521 0.9334957 -0.35643753 0.0050895037
0.012145905 0.019671084 0.027210757 0.23805515 0.93331462 -0.26880029 0.0032693814
0.015125584 0.018564342 0.027343124 0.31520352 0.92104596 -0.22873832 0.0022455927
0.016838437 0.017511206 0.0261398 0.40053165 0.8942768 -0.19960831 0.0020609873
0.0063738022 0.020622745 0.028467301 -0.10418557 0.90767443 -0.40653723 0.0028075255
0.0088833598 0.020621225 0.028436676 0.087828875 0.94050211 -0.32824057 0.0024133965
-0.0054510729 -0.0049840109 0.030449741 -0.8297326 -0.50413072 -0.23957476 0.00057370111
-0.0078583658 -0.0013284727 0.031084988 -0.85099125 -0.42039788 -0.314769 0.002265142
-0.0068484573 -0.0026080091 0.030090384 -0.85842073 -0.42277136 -0.29047936 0.0036496245
-0.0084571019 0.00089590182 0.03036315 -0.88643658 -0.29258284 -0.35864389 0.0027607155
-0.0091304081 0.0039873691 0.030429199 -0.90034878 -0.10195061 -0.42305809 0.0031151094
-0.0091317873 0.0069618225 0.030473895 -0.86500823 0.063619845 -0.49770814 0.0039433595
-0.0083910907 0.0096879452 0.030417427 -0.78797185 0.28114095 -0.54777735 0.00090686796
-0.007190207 0.010605005 0.029169176 -0.77583915 0.31442615 -0.54700071 0.00050850218
-0.008038776 0.01222885 0.031263079 -0.73600328 0.35543108 -0.57616657 0.0013539087
-0.0065411339 0.012979601 0.02972956 -0.7397238 0.38576314 -0.55135787 0.0012294521
-0.0072359964 0.014207216 0.031531129 -0.68977594 0.43636349 -0.57775086 0.0016044155
-0.0056307185 0.015385345 0.030622348 -0.64172775 0.50618958 -0.57615769 0.003229398
-0.003675662 0.016433628 0.029479161 -0.58242577 0.59064025 -0.55850184 0.00034650878
-0.0047075823 0.017230736 0.03135151 -0.59625208 0.57494587 -0.56028622 0.0014448996
-0.0027778023 0.018260932 0.030708537 -0.47842184 0.68494618 -0.54951 0.00075690681
-0.00031168759 0.019259531 0.029862724 -0.39443967 0.76191014 -0.51372194 0.0011416289
0.0028622246 0.020148413 0.02903581 -0.26454899 0.84415215 -0.46628416 0.0022611362
0.014463689 0.01947164 0.03067765 0.28597903 0.92238617 -0.25965321 0.0012516775
0.00053229067 0.020431083 0.030961141 -0.3551949 0.78801137 -0.50286645 0.0027437066
0.0031170484 0.020971498 0.030407939 -0.20720465 0.87444365 -0.43865088 0.0031668902
0.0060438709 0.021415383 0.03037224 -0.031570725 0.92969775 -0.36696771 0.0040664445
0.0090815546 0.021282448 0.030470636 0.15830703 0.94654602 -0.28105098 0.0025671497
0.011935458 0.020513996 0.030338977 0.2268049 0.93336678 -0.27818352 0.004164611
-0.0072899051 -0.0039882483 0.034311865 -0.79634655 -0.5526067 -0.24588211 0.0011415844
-0.0059366366 -0.0052517699 0.033125892 -0.76744509 -0.60026562 -0.22518712 0.0027697366
-0.00820514 -0.002209797 0.033510927 -0.82144886 -0.48803428 -0.29503262 0.0022255485
-0.010466922 0.001728955 0.034342322 -0.85377592 -0.36308867 -0.3731398 0.00285748
-0.0094983838 0.0006281666 0.03316069 -0.86521184 -0.35280263 -0.35628477 0.0031547686
-0.010728437 0.0040314775 0.033656567 -0.85889995 -0.18886635 -0.47604665 0.0030653086
-0.0097781299 0.0031008001 0.032186512 -0.89896405 -0.17934403 -0.3996242 0.0042380001
-0.010995592 0.0067526354 0.033510208 -0.85688031 -0.0080924425 -0.51545185 0.0035219139
-0.010799373 0.0093868598 0.033629779 -0.81628209 0.17242517 -0.55131942 0.0021155812
-0.0096361544 0.0098972796 0.032288283 -0.80896699 0.22221306 -0.54423672 0.00146989
-0.010485715 0.012057612 0.034369357 -0.75216395 0.30451238 -0.58439851 0.00098932732
-0.0092123495 0.012659844 0.033011261 -0.75043458 0.31523478 -0.58092606 0.00074385211
-0.0082301879 0.015375977 0.033566851 -0.68613374 0.44102901 -0.57854468 0.0027230263
-0.0064102523 0.016433084 0.032442633 -0.61018133 0.54062414 -0.57914096 0.0017779083
-0.0074639628 0.017534371 0.034544334 -0.60140854 0.55087352 -0.57865888 0.00053672894
-0.0055768276 0.018404242 0.033536866 -0.5599457 0.61058992 -0.56003636 0.0025020281
-0.0035106645 0.019311136 0.032652181 -0.47978666 0.67874724 -0.55597377 0.0029867752
-0.0042448202 0.020418989 0.03461862 -0.48268026 0.68431944 -0.54655892 0.0020681396
-0.0024999715 0.020800723 0.033760011 -0.41103661 0.73914409 -0.5335868 0.0017931215
6.4653577e-06 0.02159515 0.033238102 -0.3229515 0.80638123 -0.49543083 0.0017941074
0.0029982433 0.022452071 0.033385482 -0.11673115 0.90143102 -0.41688836 0.0029996035
0.0060539106 0.022624206 0.033484966 0.047737878 0.93602592 -0.34867841 0.0036153288
0.009177532 0.022105025 0.033513878 0.19440308 0.93969172 -0.28140172 0.0015527487
0.011665875 0.021210061 0.033499662 0.23348171 0.93081522 -0.28119275 0.0025346659
-0.0077475971 -0.0044050636 0.036818758 -0.73003656 -0.6473878 -0.21894221 0.0020542904
-0.006222045 -0.0058658663 0.036246423 -0.73003823 -0.6473884 -0.21893452 0.0020539616
-0.010418138 -0.0011852353 0.03737529 -0.78168637 -0.51914132 -0.34562796 0.0019862182
-0.0092152553 -0.0022087591 0.036228653 -0.78513086 -0.54919171 -0.28628317 0.0019719736
-0.011176744 0.00097318715 0.036420066 -0.822456 -0.4295705 -0.37287435 0.0013387628
-0.0098539647 -0.00042700465 0.035247926 -0.82055324 -0.43645 -0.36905795 0.0035599959
-0.012179322 0.0036609739 0.036368333 -0.84332377 -0.24784841 -0.47683972 0.0027326851
-0.013487473 0.0067428825 0.037390534 -0.84897316 -0.11828483 -0.51502752 0.0025084077
-0.012523093 0.0063070012 0.035935502 -0.83921331 -0.082741834 -0.53747088 0.0031984434
-0.013486712 0.0095559433 0.037366994 -0.80944842 0.096384138 -0.57922649 0.0037885392
-0.012364039 0.0095837824 0.035818718 -0.79697984 0.12164956 -0.59162867 0.0026187692
-0.013502168 0.011359724 0.037845317 -0.78078854 0.13753134 -0.60947067 0.0018911397
-0.011824768 0.01263052 0.03631806 -0.75648475 0.25808153 -0.60093653 0.00056860776
-0.011020856 0.015441809 0.036751524 -0.69068813 0.38338575 -0.61316007 0.0018207426
-0.0095058717 0.01618609 0.035587028 -0.67665356 0.39969251 -0.61837345 0.0019235438
-0.010421415 0.017489063 0.037502084 -0.61463231 0.50622767 -0.60494691 0.0013671517
-0.0084778666 0.018593764 0.036559328 -0.5799228 0.55453211 -0.59681123 0.0023420525
-0.0062954929 0.019664284 0.035564885 -0.52372694 0.63558125 -0.56722713 0.00043602617
-0.0073514907 0.020558076 0.037488643 -0.53567183 0.61387831 -0.57983536 0.0010269326
-0.0053696381 0.021258615 0.03665119 -0.47333139 0.69318825 -0.54355079 0.0015117864
-0.0028247493 0.022296885 0.036193024 -0.32862765 0.79119563 -0.51576465 0.0011862101
-0.00018132781 0.022884339 0.0355496 -0.22506167 0.85440534 -0.46833605 0.0022205617
0.007459403 0.023000645 0.035345171 0.1421002 0.93746078 -0.31776536 0.0029485696
0.008659984 0.022878366 0.036228463 0.13736464 0.94412655 -0.29959309 0.0035150817
-0.0017251803 0.02363676 0.037654106 -0.29492089 0.82383543 -0.48406282 0.0030382201
0.00032391981 0.02372787 0.036983799 -0.15140817 0.89106959 -0.42786726 0.0033764446
0.003133782 0.023833515 0.036580298 0.0065685799 0.93990576 -0.34137091 0.0028101888
0.0057728793 0.023666615 0.036644846 0.10123641 0.94816214 -0.30123049 0.0017939397
-0.0053108698 -0.0070717903 0.037870888 -0.68881899 -0.70587987 -0.16511205 0.00078521733
-0.0081565604 -0.0047748098 0.039290275 -0.6899665 -0.69340956 -0.20767638 0.0026710657
-0.0066287201 -0.0063210996 0.040004123 -0.66819412 -0.7262904 -0.161304 0.0011044558
-0.011121884 -0.0015001304 0.039726641 -0.77804601 -0.53907114 -0.32256275 0.0010639979
-0.0095330141 -0.0030794353 0.038848057 -0.73908228 -0.60970747 -0.28638107 0.0021690978
-0.013596925 0.0016573698 0.040778015 -0.77839333 -0.48637414 -0.39691794 0.001665643
-0.01232009 0.00073472015 0.039135281 -0.80986172 -0.42646655 -0.40280306 0.0012268421
-0.013961211 0.0037015232 0.039543852 -0.83581519 -0.32004717 -0.44607481 0.0024845065
-0.01300063 0.0029157803 0.038179625 -0.85153836 -0.30433172 -0.42692474 0.0030438593
-0.01467426 0.0065719215 0.039403416 -0.84628439 -0.16395719 -0.50687343 0.0027442602
-0.014833533 0.0096043488 0.039285321 -0.83147365 0.020552995 -0.55518395 0.0022658869
-0.014508307 0.012655927 0.03959284 -0.75668228 0.21154393 -0.61861223 0.0015902993
-0.012998356 0.01341654 0.038106821 -0.75505942 0.24014065 -0.61009645 0.0011332905
-0.013980843 0.015542531 0.040141609 -0.68443727 0.34448981 -0.64255154 0.001609093
-0.012474909 0.016002096 0.038723484 -0.69615734 0.3576051 -0.62248182 0.0014264042
-0.011522654 0.018536301 0.039491583 -0.6418907 0.47154289 -0.60466826 0.00082851568
-0.0094856778 0.019645115 0.038479514 -0.53844976 0.60230738 -0.58931965 0.0012689654
-0.010753376 0.020441325 0.040389035 -0.54055554 0.59055597 -0.59920239 0.0006222275
-0.0084894337 0.021498559 0.039532989 -0.4943389 0.64901191 -0.57828414 0.0020714144
-0.0061216988 0.022383645 0.038700808 -0.43232068 0.72687364 -0.53362298 0.0024455686
-0.0037776718 0.023149522 0.038109455 -0.294918 0.82385772 -0.48402661 0.0030326759
-0.0053413827 0.023599727 0.039854135 -0.34325385 0.79397857 -0.50177175 0.0025618086
-0.0027656672 0.024245789 0.039380055 -0.26307186 0.84171271 -0.47150075 0.0016898862
8.0591999e-06 0.024800135 0.039489351 -0.10014915 0.92131871 -0.37568867 0.0039272266
0.003141952 0.024759205 0.039386787 0.017620828 0.94188523 -0.3354724 0.0037591602
0.0063475305 0.024093384 0.03895719 0.078082077 0.9522711 -0.29509825 0.0021005415
-0.0058806958 -0.0071064951 0.041449849 -0.65049452 -0.74179381 -0.16309147 0.00056284561
-0.0088220332 -0.0049327035 0.04224886 -0.65336227 -0.73090494 -0.19722006 0.0011441575
-0.006950995 -0.0066087963 0.043556694 -0.63453054 -0.75614685 -0.1600399 0.00051222945
-0.011723469 -0.0020874846 0.04240169 -0.72076297 -0.64004952 -0.26615292 0.0015150409
-0.0099962587 -0.0034944834 0.040992204 -0.70947284 -0.64831424 -0.27629119 0.0010676578
-0.014057771 0.00086815865 0.042586911 -0.7724117 -0.50617784 -0.38361993 0.0021195866
-0.012974551 -1.3586832e-05 0.04147071 -0.78555661 -0.49458814 -0.37186468 0.0018429946
-0.016391203 0.0043954356 0.043141071 -0.80104607 -0.38819498 -0.45566428 0.0017300275
-0.015190355 0.0033213741 0.042117223 -0.80630767 -0.39146686 -0.44342038 0.0024108919
-0.017068334 0.0067399479 0.042957336 -0.81209368 -0.23861918 -0.53250796 0.0025356021
-0.016008029 0.0064363768 0.041542564 -0.80655718 -0.19010536 -0.55975485 0.0020305614
-0.01742629 0.0098005645 0.042656329 -0.78489017 -0.023596667 -0.61918545 0.0027815835
-0.016183695 0.0096494406 0.041071825 -0.78367549 -0.0043449248 -0.62115526 0.0034282033
-0.017341005 0.012731355 0.042863447 -0.74255764 0.14316034 -0.65430367 0.0020511984
-0.016025942 0.013012344 0.041446541 -0.73818362 0.17487247 -0.65154028 0.0013891086
-0.01673883 0.015614448 0.043201063 -0.71354002 0.28208765 -0.64131683 0.00097287772
-0.015243635 0.015841056 0.041681472 -0.69762397 0.31901661 -0.64152104 0.0021464245
-0.016278716 0.017485904 0.043592636 -0.65830404 0.39393327 -0.64144552 0.00086549838
-0.014598514 0.018487649 0.042532939 -0.62122369 0.43123528 -0.65430671 0.0016893626
-0.012756607 0.0193709 0.041369919 -0.62294102 0.45383352 -0.63716537 0.0014864356
-0.013852182 0.020496117 0.043332979 -0.59563977 0.5102399 -0.62037772 0.00089572166
-0.01175386 0.021484764 0.042372216 -0.52880895 0.59942693 -0.60087305 0.0023296601
-0.0094937421 0.022522794 0.041524317 -0.46426588 0.68248171 -0.5645138 0.00091492455
-0.010578059 0.023443135 0.043562178 -0.47047552 0.67170227 -0.572249 0.001697854
-0.0085152788 0.023969116 0.042648215 -0.39570767 0.74622178 -0.53532094 0.001919525
-0.0056816703 0.024956735 0.042302098 -0.31498861 0.81261086 -0.49035281 0.0016808888
-0.0026341034 0.025635401 0.042195428 -0.11442363 0.91462857 -0.38776523 0.0040741563
0.00030558486 0.025983438 0.042711727 0.019840701 0.94491315 -0.32671928 0.0032349445
0.0027185038 0.025513623 0.042041555 0.071460083 0.95772904 -0.27865475 0.0011508227
0.0049504805 0.024859907 0.041150574 0.063585833 0.95351183 -0.29457089 0.0019061677
-0.01081338 -0.0041996907 0.045944694 -0.64338702 -0.73513615 -0.213607 0.0011799828
-0.0092362808 -0.005237666 0.045324031 -0.62968755 -0.74954665 -0.20414069 0.0010756709
-0.01375099 -0.0012932352 0.045543116 -0.69700789 -0.65218508 -0.29805124 0.0014929801
-0.012172118 -0.0026590067 0.04492588 -0.67032015 -0.68765664 -0.2789253 0.0015452884
-0.016380953 0.0014442012 0.046304766 -0.72823805 -0.55970335 -0.39547619 0.0025103374
-0.015123571 0.0006113362 0.045114659 -0.73517859 -0.5651508 -0.37432203 0.0023779101
-0.017272197 0.0036329601 0.045399833 -0.79169625 -0.42830276 -0.43563032 0.0022242768
-0.015785435 0.0022064031 0.044272307 -0.76305461 -0.51750284 -0.38721889 0.001394638
-0.019617943 0.0073354216 0.046443414 -0.79936945 -0.32033604 -0.50832397 0.0021839922
-0.018415254 0.0064335503 0.045099046 -0.79972309 -0.24987483 -0.54589885 0.0016643499
-0.019949397 0.0099038547 0.045983162 -0.78162301 -0.12646933 -0.6107955 0.0030500714
-0.018731825 0.0094744191 0.044407863 -0.80277288 -0.081801362 -0.59064728 0.0029081127
-0.020015061 0.012638373 0.045995012 -0.77468324 0.07695052 -0.6276499 0.0025534658
-0.018645102 0.012848156 0.04440305 -0.76574403 0.11276723 -0.63318211 0.0020838592
-0.019682545 0.015254747 0.046333332 -0.71846247 0.23649146 -0.65412807 0.001088249
-0.018323554 0.015724653 0.04497825 -0.71719474 0.27112415 -0.64196843 0.0011405603
-0.017487243 0.018479312 0.045472387 -0.67283267 0.39530629 -0.6253233 0.0022172304
-0.015655035 0.019459208 0.04425313 -0.62186575 0.46217325 -0.63220155 0.002901796
-0.016730392 0.020814063 0.046352554 -0.58890605 0.53104168 -0.60924911 0.0012878986
-0.014785113 0.021719901 0.045346126 -0.56332266 0.57048464 -0.59767467 0.0025918623
-0.012851613 0.022627803 0.044485126 -0.52120984 0.62583834 -0.58022982 0.0021115332
-0.013649231 0.023727553 0.046423238 -0.49645302 0.68170434 -0.53741378 0.0026135608
-0.011515075 0.024342503 0.045474429 -0.43660825 0.7290889 -0.52706987 0.0021618244
-0.0090179974 0.025323538 0.045064457 -0.32771814 0.80913603 -0.48774964 0.0010440652
-0.006102589 0.02600004 0.044451021 -0.21239705 0.87711871 -0.43075544 0.0026682995
0.0023765538 0.026098536 0.044654492 0.07461714 0.9631176 -0.25852814 0.0010508536
-0.0083039692 0.026326707 0.046305019 -0.27376443 0.85019356 -0.44969311 0.0030419976
-0.0056906715 0.026683075 0.045736082 -0.14462151 0.91768968 -0.37004086 0.0027388395
-0.0026506982 0.026836518 0.045397922 -0.047117293 0.94719285 -0.31718394 0.0041795997
3.7039281e-05 0.026674693 0.045597214 0.0019803189 0.96032727 -0.27886856 0.0022959465
-0.011747518 -0.004033518 0.04831839 -0.62746423 -0.75410974 -0.1939256 0.0014125617
-0.0096435472 -0.0053383308 0.047823403 -0.60599744 -0.77719158 -0.16953012 0.00050734135
-0.014241369 -0.0018249608 0.048134919 -0.67897201 -0.68885851 -0.25391138 0.0011558263
-0.01251715 -0.0032478692 0.047805447 -0.61907488 -0.75895411 -0.20182915 0.0013845861
-0.0171143 0.0011340582 0.048395723 -0.71914184 -0.60383785 -0.34382385 0.0019705039
-0.015742088 -0.00019858475 0.047842506 -0.70569402 -0.63471049 -0.31486261 0.0017018357
-0.019836696 0.0044528963 0.049009297 -0.7539137 -0.46438751 -0.46471319 0.0015915659
-0.018542284 0.0032088447 0.048128244 -0.75295478 -0.52395773 -0.39815512 0.0015319551
-0.020698614 0.0067076711 0.04842528 -0.78779584 -0.34045583 -0.51329094 0.0028531521
-0.022409754 0.0098192655 0.049270362 -0.7877351 -0.23009926 -0.57142591 0.0029255336
-0.021358022 0.0097710118 0.047944862 -0.7872135 -0.1475106 -0.59877825 0.0020949994
-0.022863004 0.012518203 0.049346507 -0.74819291 0.0011023288 -0.66348046 0.0034633074
-0.021672266 0.012699481 0.047954194 -0.75134486 0.040643111 -0.65865707 0.0028592553
-0.022436609 0.015363665 0.049308263 -0.73109984 0.17789057 -0.65867138 0.0015560724
-0.02099744 0.015685437 0.047896747 -0.71624011 0.23069727 -0.65861893 0.0027516363
-0.022288792 0.017482983 0.049853925 -0.66297483 0.32640433 -0.67373925 0.0013232377
-0.020488303 0.018562306 0.048579387 -0.64084268 0.34949902 -0.68349916 0.0013660775
-0.018737495 0.019474193 0.047451802 -0.66151375 0.40219483 -0.63296044 0.0016147512
-0.019779997 0.021009525 0.049505372 -0.59694874 0.49187234 -0.63380897 0.00074205792
-0.017960034 0.021743957 0.048335891 -0.59350222 0.52143764 -0.6130724 0.0020208429
-0.015725682 0.022953158 0.047393128 -0.51199919 0.64425415 -0.56814903 0.0013503401
-0.017012035 0.023518564 0.049132273 -0.52320117 0.61367238 -0.59132624 0.0013472771
-0.014604084 0.024674993 0.04844651 -0.44118205 0.70860422 -0.5506708 0.0013057393
-0.01225007 0.025452329 0.047601365 -0.40155846 0.75459558 -0.51897615 0.0019189479
-0.011567425 0.026545586 0.0488826 -0.3192564 0.8324554 -0.45287231 0.0022569394
-0.0090384074 0.026954841 0.048066258 -0.26120305 0.86128581 -0.43584377 0.0027746251
-0.0057325019 0.027632907 0.048457287 -0.04676798 0.95633101 -0.28852001 0.0029860623
-0.0023199599 0.027305212 0.047392044 -0.018864436 0.96140063 -0.27450475 0.0019212324
-0.00076161535 0.027391197 0.048792992 0.0055397274 0.96164197 -0.27425179 0.0024214843
-0.011820011 -0.0043043913 0.050878752 -0.60169685 -0.7825247 -0.16005005 0.00037036516
-0.016585568 -0.00088292058 0.051732901 -0.64588857 -0.71957445 -0.25503045 0.0020590299
-0.015206355 -0.0018627318 0.051040646 -0.63464105 -0.73666602 -0.23356768 0.0019292546
-0.01284201 -0.003513691 0.049909178 -0.62941325 -0.75435793 -0.18650234 0.0012076996
-0.019526927 0.0014963329 0.052722234 -0.68972516 -0.65778327 -0.30265543 0.0013567662
-0.017945372 0.00069325999 0.05098908 -0.68804562 -0.66043836 -0.30069005 0.0019335313
-0.022433376 0.0049290685 0.052772347 -0.72895712 -0.54361862 -0.41605324 0.00076871866
-0.0207102 0.0038183078 0.051274527 -0.74650759 -0.51953608 -0.41570255 0.0017833305
-0.019174196 0.0022683472 0.050663773 -0.70035785 -0.62329781 -0.34784859 0.0018879721
-0.022929864 0.0071145417 0.051487442 -0.76527411 -0.41586971 -0.49133277 0.0025772508
-0.021672262 0.0058173491 0.050674412 -0.7556963 -0.41328967 -0.50804996 0.0023844459
-0.023889909 0.0096458159 0.051331569 -0.78043008 -0.25558314 -0.57061911 0.0026334741
-0.025589528 0.012843009 0.052554686 -0.78237695 -0.091720849 -0.61601424 0.003945305
-0.024220407 0.012518879 0.050965268 -0.77805603 -0.05873245 -0.62544334 0.0043026526
-0.025592094 0.014956098 0.052600507 -0.72594142 0.14503706 -0.67228961 0.0022409507
-0.024050783 0.01578255 0.051165845 -0.72577888 0.16047892 -0.66894811 0.0015935706
-0.023449808 0.018536963 0.05154093 -0.66896325 0.34577826 -0.65797079 0.0018863484
-0.021579113 0.019711532 0.050376613 -0.63327068 0.43538025 -0.6398533 0.00057109853
-0.022737281 0.020812154 0.052248862 -0.61872244 0.44836465 -0.64509815 0.0012414332
-0.020908339 0.021828122 0.051194225 -0.60117793 0.50915861 -0.61590791 0.0025115872
-0.019159885 0.022756817 0.050331566 -0.57246625 0.52959961 -0.62594455 0.0014584481
-0.019992597 0.02383144 0.052168984 -0.54491901 0.59156889 -0.59423012 0.0017890275
-0.017819481 0.024658171 0.051215556 -0.48902157 0.67564207 -0.55169356 0.0023418867
-0.015401633 0.025745658 0.050527457 -0.39994818 0.76005948 -0.51220196 0.0019207427
-0.014384499 0.02685843 0.051548626 -0.34606442 0.82620698 -0.44454628 0.0029941287
-0.011744419 0.02767954 0.051337462 -0.25485495 0.88516849 -0.38926306 0.0024862289
-0.0087956749 0.02811547 0.050939891 -0.094605006 0.94483835 -0.3135767 0.0027591973
-0.0036642121 0.028036576 0.050739218 -0.019920848 0.96631813 -0.25657815 0.001418251
-0.017203517 -0.0010516811 0.054064017 -0.621705 -0.7616114 -0.18284129 0.0012682821
-0.014820082 -0.0027279304 0.054026123 -0.61278778 -0.77137786 -0.1716606 0.0008745201
-0.020201972 0.0013542117 0.054816004 -0.66874248 -0.68665642 -0.28510788 0.001925452
-0.018253559 -8.2288636e-05 0.053853575 -0.66078228 -0.71747011 -0.22046164 0.0019569732
-0.022908796 0.0042763492 0.05472308 -0.71806848 -0.60341072 -0.34680408 0.00093514728
-0.021379944 0.0028892856 0.05405983 -0.69622105 -0.64479786 -0.31545517 0.00083285948
-0.025568556 0.0074445931 0.055341657 -0.74091369 -0.51163644 -0.43505758 0.0024300267
-0.024284003 0.0066687306 0.054050077 -0.75704277 -0.44637984 -0.47710726 0.0016073041
-0.026329752 0.0097893588 0.054625455 -0.77759814 -0.33632681 -0.53124905 0.0036741025
-0.025096245 0.0091630789 0.053183537 -0.76698023 -0.28833219 -0.57324153 0.0024306716
-0.028431246 0.014008971 0.05585504 -0.77171803 -0.13627099 -0.62119365 0.0030679086
-0.026921634 0.012631329 0.054255325 -0.75453168 -0.12819588 -0.64362091 0.0022830244
-0.028429909 0.014805259 0.055833254 -0.76849562 0.043306146 -0.63838792 0.0054003829
-0.026802868 0.01579495 0.054155495 -0.73986697 0.14379597 -0.65720594 0.0021177744
-0.026533643 0.018504243 0.05472612 -0.68825352 0.28678119 -0.66638094 0.0028526888
-0.024928322 0.019123508 0.053333458 -0.67527419 0.30257374 -0.67264694 0.0018764206
-0.025877059 0.020758903 0.055318583 -0.62826526 0.46451011 -0.62410986 0.0013058868
-0.024005953 0.021725751 0.054143909 -0.62759197 0.45200709 -0.63389111 0.0010060924
-0.021917896 0.022896396 0.053031806 -0.58492714 0.52967739 -0.61424917 0.00099795207
-0.022898905 0.023883915 0.055027183 -0.54205447 0.63682413 -0.54829925 0.0012530206
-0.020838 0.02484611 0.054151196 -0.48771372 0.69944924 -0.52240413 0.0011328857
-0.018365597 0.025953768 0.053366225 -0.43807906 0.72936344 -0.52546728 0.0023142614
-0.019909989 0.02638224 0.055418324 -0.44135645 0.74934584 -0.49364507 0.0025800089
-0.017507525 0.027064955 0.054455932 -0.37447634 0.81574476 -0.44082651 0.0029400347
-0.015088217 0.027864952 0.054149944 -0.33511838 0.84096885 -0.42481413 0.0029339569
-0.011839929 0.028713126 0.054299112 -0.18488817 0.92779231 -0.32406449 0.0031349885
-0.0088885482 0.028716072 0.053157177 -0.12752132 0.94114137 -0.31303564 0.0041502626
-0.0068714945 0.028748449 0.053666715 -0.094600827 0.94485134 -0.31353894 0.0027498391
-0.017878445 -0.0011297956 0.057704929 -0.60178733 -0.78198516 -0.16233051 0.00041843651
-0.015703453 -0.0024637254 0.056565527 -0.59727126 -0.78596532 -0.15976733 0.00039661297
-0.02079073 0.0010894348 0.057230841 -0.64984727 -0.72841448 -0.21705049 0.0019116009
-0.018921945 -0.00033253129 0.057175968 -0.60753042 -0.77263743 -0.18422316 0.00090955634
-0.025383011 0.0050139753 0.05840433 -0.70419532 -0.62894392 -0.3294518 0.0016450688
-0.02377405 0.0038433282 0.057420116 -0.68765163 -0.66408098 -0.29348198 0.00053289783
-0.022113159 0.0023303509 0.057060782 -0.66481304 -0.70557898 -0.24532013 0.0016401968
-0.026230117 0.0066794902 0.057396863 -0.74923658 -0.53614092 -0.38884109 0.0030662487
-0.024734363 0.0055137603 0.056277577 -0.72828525 -0.58142841 -0.36268678 0.0015018146
-0.028898811 0.010278617 0.058032963 -0.77690887 -0.38101339 -0.50123978 0.005606466
-0.027613832 0.0091640316 0.056995254 -0.77024037 -0.40275264 -0.4944897 0.0044956701
-0.029347794 0.012823312 0.057351876 -0.78295982 -0.20977345 -0.58563554 0.0021720126
-0.027907308 0.011355507 0.055978362 -0.77664208 -0.23365098 -0.58500797 0.0013445058
-0.029686639 0.01572936 0.057407413 -0.78450143 0.060857423 -0.61713356 0.0043835086
-0.029271826 0.018507147 0.057688739 -0.71079302 0.27484825 -0.64748114 0.0025296002
-0.027773071 0.019037522 0.056271162 -0.70199639 0.28905404 -0.6508832 0.0018441065
-0.028719505 0.020902904 0.058374789 -0.65894389 0.43745232 -0.61190546 0.0014782385
-0.026819151 0.021817531 0.057058241 -0.65119892 0.43801451 -0.61974448 0.0014925249
-0.024715828 0.023046421 0.05593339 -0.58639157 0.58518672 -0.56009054 0.0012271316
-0.025901373 0.023922073 0.058118414 -0.57254034 0.58932549 -0.56999397 0.0020614134
-0.023869425 0.024829872 0.057083163 -0.54424781 0.66992903 -0.50496477 0.0029277075
-0.022082532 0.025731983 0.056428794 -0.50904441 0.69802737 -0.50361854 0.0014515535
-0.022973714 0.026372032 0.058286492 -0.4626078 0.75035709 -0.47218466 0.0033396571
-0.020760544 0.027046219 0.057430949 -0.3890641 0.81405389 -0.43121374 0.0027839874
-0.017859589 0.028207961 0.057265442 -0.3232089 0.87536991 -0.3595323 0.0018387883
-0.0149146 0.028860778 0.056828748 -0.31243774 0.88007891 -0.35755259 0.0016516459
-0.021006377 0.00075163762 0.060010653 -0.62488955 -0.75922394 -0.18191229 0.00043183868
-0.025947938 0.004621434 0.060868103 -0.67952007 -0.68870062 -0.25287166 0.0013010144
-0.024147229 0.0031657733 0.060317691 -0.65489089 -0.72126263 -0.22560604 0.0016932609
-0.02858565 0.0072061 0.061288219 -0.71945125 -0.60990196 -0.33227926 0.0037952107
-0.027441252 0.0065276604 0.060098637 -0.7281177 -0.60692352 -0.31857228 0.0031488317
-0.031475123 0.010976764 0.061650489 -0.77353704 -0.48671979 -0.40588713 0.0023807317
-0.029879414 0.0096006365 0.060327101 -0.76175171 -0.49659723 -0.41608357 0.0021904581
-0.03170269 0.012900943 0.060669374 -0.82615691 -0.29119673 -0.48235798 0.0023398313
-0.030632587 0.012290113 0.059335131 -0.80370992 -0.23136713 -0.54819661 0.0031737182
-0.031955771 0.015577698 0.060336445 -0.82566279 -0.024098422 -0.563649 0.0037459179
-0.031851299 0.018577455 0.060847279 -0.78276396 0.22465552 -0.58035362 0.0033359425
-0.030655272 0.018944141 0.059390392 -0.75028634 0.24572614 -0.61375004 0.001851633
-0.031460449 0.020643698 0.061430756 -0.72083539 0.42177653 -0.55000085 0.0017611505
-0.02982692 0.021656379 0.060145456 -0.6651026 0.45331934 -0.59341401 0.0036860674
-0.028092045 0.022672268 0.059041325 -0.64707828 0.47397515 -0.59719121 0.0028104349
-0.028998386 0.023863526 0.061340611 -0.62349445 0.6030556 -0.49757281 0.0026179734
-0.026925357 0.024711456 0.06013431 -0.55618107 0.67150617 -0.48963454 0.0028169597
-0.024627866 0.025893847 0.059264336 -0.48594603 0.75496936 -0.44031546 0.0026811194
-0.025548676 0.026554273 0.061420415 -0.4854801 0.75696397 -0.43739527 0.0026835157
-0.023490548 0.027125258 0.060334492 -0.43008617 0.82018721 -0.37725186 0.0039150664
-0.020811599 0.028247315 0.060235906 -0.31570843 0.90088755 -0.29787558 0.0018486942
-0.017942479 0.028840329 0.059325267 -0.30594459 0.89769518 -0.31708229 0.001990939
-0.01745463 0.029186267 0.060556833 -0.30743638 0.89821851 -0.31414396 0.0019579378
-0.022904312 0.001842621 0.062278036 -0.64186209 -0.74192637 -0.19379994 0.00048710592
-0.027035559 0.0048267571 0.063915081 -0.65967786 -0.72247797 -0.20700388 0.00087056513
-0.024823433 0.003195557 0.062942155 -0.64324701 -0.73510092 -0.21414931 0.00067055912
-0.029196577 0.0071324352 0.063054681 -0.72321725 -0.63830572 -0.26367152 0.0017050384
-0.027813222 0.0056282161 0.063362844 -0.68327844 -0.69766998 -0.21537693 0.00058224553
-0.031962659 0.010398301 0.063559555 -0.7894851 -0.51058155 -0.34061661 0.0028035808
-0.030591626 0.0087477202 0.062944673 -0.74468982 -0.60649443 -0.27857071 0.0014863623
-0.033006433 0.012687806 0.06327951 -0.84590143 -0.32720682 -0.42117277 0.0057204915
-0.03435082 0.015639812 0.064250335 -0.85606354 -0.15077604 -0.49439028 0.0069302619
-0.033432633 0.01558481 0.062721848 -0.85041237 -0.10097944 -0.51633513 0.0086741671
-0.034360204 0.018618487 0.064380452 -0.8090021 0.19022101 -0.55617589 0.0065489993
-0.033311952 0.018691635 0.062919304 -0.79869407 0.16916086 -0.57747066 0.0038516049
-0.032545209 0.021442315 0.063521646 -0.70170426 0.42907313 -0.56877708 0.0036968698
-0.030796481 0.022654485 0.062233131 -0.7020402 0.50225878 -0.50485206 0.0044486048
-0.03165229 0.023479136 0.064303704 -0.62912732 0.59916931 -0.49517158 0.0029219554
-0.029862668 0.024592634 0.063471392 -0.56741512 0.70459449 -0.42612982 0.0018495838
-0.027581614 0.02589819 0.062482085 -0.49744713 0.77159613 -0.39646661 0.0029089442
-0.028406173 0.026178436 0.064249702 -0.54202306 0.74680018 -0.38535768 0.0021019331
-0.026463149 0.026935322 0.063330725 -0.45292801 0.82439518 -0.33945349 0.00483103
