# .PCD v0.7 - Point Cloud Data file format
VERSION 0.7
FIELDS x y z normal_x normal_y normal_z curvature
SIZE 4 4 4 4 4 4 4
TYPE F F F F F F F
COUNT 1 1 1 1 1 1 1
WIDTH 551
HEIGHT 1
VIEWPOINT 0 0 0 1 0 0 0
POINTS 551
DATA ascii
0.0023494144 -0.036282036 -0.0027689924 0.045998115 0.35901299 -0.93219841 0.0020945291
0.0054110982 -0.036310043 -0.002433103 0.20087275 0.29583985 -0.93387848 0.0025853245
0.0077299373 -0.036696389 -0.0019150046 0.32406998 0.25627759 -0.91065937 0.0025947455
-5.7265861e-06 -0.03447758 -0.0017941778 -0.17749532 0.40795368 -0.89558321 0.0023787592
0.0024931594 -0.0340937 -0.0018787667 -0.012752968 0.35126507 -0.93618917 0.002055303
0.0049922657 -0.034285899 -0.0018331354 0.14730033 0.28205097 -0.94802421 0.0025483393
0.0025403141 0.030872116 -0.0018515205 -0.12595677 -0.33054349 -0.93534797 0.0016829896
0.0054160724 0.030586794 -0.0018853204 0.019217279 -0.29831803 -0.95427305 0.0013409751
0.0078530358 0.030906864 -0.001804842 0.15606239 -0.27268967 -0.94936025 0.0018975893
-0.0024808208 0.033772234 -0.0018438583 -0.32019523 -0.41400689 -0.85209936 0.0023005789
-0.0002404761 0.033061706 -0.0021709399 -0.21482491 -0.3765606 -0.9011395 0.00098992663
0.002349705 0.032890502 -0.0025857934 -0.092744984 -0.340397 -0.93569666 0.0019850805
0.0054087723 0.032886274 -0.0026431992 0.053974673 -0.29997045 -0.95242035 0.0012221092
0.0084092198 0.032759741 -0.0022416092 0.17753743 -0.24757697 -0.95246315 0.0020050053
0.010497283 0.03336386 -0.0018743726 0.26506445 -0.23422696 -0.9353494 0.00091743254
-0.0058962046 0.036703844 -0.0020221865 -0.4267846 -0.43957451 -0.79033482 0.0029792662
-0.0034403144 0.03583296 -0.0025446089 -0.30169457 -0.40738058 -0.86198694 0.0016799493
-0.00050063268 0.035692647 -0.0032721194 -0.17423129 -0.38850424 -0.90482485 0.00096122519
0.0023467916 0.035858508 -0.003697437 -0.036952659 -0.35278153 -0.9349758 0.0016623794
0.0053995345 0.035866022 -0.0036071381 0.093410932 -0.30744678 -0.94696933 0.0014136878
0.008490013 0.035711557 -0.0030451433 0.24030478 -0.2515718 -0.93753153 0.0018141689
0.011131083 0.035887491 -0.0022373251 0.36903292 -0.19974187 -0.90769923 0.0018198745
-0.0085647069 0.039680183 -0.0021160082 -0.55454546 -0.46935928 -0.68715441 0.0025795202
-0.0065559512 0.038787078 -0.0028164468 -0.42150265 -0.44214746 -0.79173297 0.0036252358
-0.0036136317 0.038776517 -0.0039062966 -0.25225693 -0.4281849 -0.8677696 0.00092778314
-0.00055307895 0.038088676 -0.0043080337 -0.13951053 -0.3962844 -0.90746653 0.0014521312
0.0023448286 0.037905809 -0.0044512665 -0.0044861827 -0.35485682 -0.93490988 0.0013296379
0.0056051826 0.038381934 -0.0043649003 0.12940785 -0.28748316 -0.94900316 0.0014466536
0.008400742 0.038824499 -0.0038680141 0.28255606 -0.22572875 -0.9323135 0.0024885177
0.011289496 0.0387596 -0.0027527132 0.43550593 -0.16067006 -0.88573122 0.0024703809
0.013026642 0.039006416 -0.0018718342 0.56608969 -0.11318892 -0.81653583 0.002258728
-0.011076603 0.042817853 -0.0021501367 -0.62049031 -0.46409595 -0.63214463 0.0015156682
-0.0092725977 0.041926604 -0.0030686089 -0.52444732 -0.48349819 -0.7008456 0.0048566815
-0.0067513953 0.041206453 -0.0040599131 -0.35221529 -0.45642689 -0.81707954 0.001377013
-0.004761795 0.040863808 -0.0045608068 -0.22102325 -0.43348292 -0.87363684 0.0016151639
0.0088807447 0.041518133 -0.0043149777 0.34478033 -0.17997089 -0.92126924 0.0036716359
0.011517606 0.041786872 -0.0030754916 0.51517421 -0.082072861 -0.85314685 0.0027572976
0.013431281 0.041668613 -0.0018514927 0.63472474 -0.040189777 -0.77169251 0.0032070389
-0.012158548 0.044975381 -0.0027357871 -0.64492011 -0.48649153 -0.58940983 0.0040486986
-0.010201086 0.044384129 -0.0041148905 -0.4751417 -0.49017441 -0.7307322 0.0026399889
0.0094895819 0.044454228 -0.0045777261 0.43814299 -0.10439344 -0.89282292 0.0028573261
0.011510803 0.044812489 -0.0033723009 0.54666388 -0.043819968 -0.83620477 0.0033026945
0.013431588 0.044734415 -0.0018405502 0.71699655 0.043003988 -0.69574893 0.0049323956
-0.014612006 0.048410337 -0.0026972666 -0.73409915 -0.4652946 -0.49456987 0.0016904619
-0.013107315 0.047399469 -0.0037000848 -0.64540142 -0.47856817 -0.59533983 0.0050646937
0.0096044904 0.046316292 -0.0046916194 0.50775802 -0.09331581 -0.85643089 0.0068932315
0.011377082 0.047689497 -0.0034894226 0.61538148 0.0090713231 -0.78817725 0.0052448083
0.013196644 0.047801986 -0.0018124615 0.76762861 0.11770941 -0.62999272 0.0041382783
-0.015627403 0.050753765 -0.0032880949 -0.78348094 -0.45020205 -0.42834073 0.0014386649
0.011272526 0.050750945 -0.003245282 0.69712472 0.12709904 -0.70559406 0.0062066279
-0.017489821 0.053978242 -0.0030387319 -0.85205215 -0.39440653 -0.34416658 0.0028371005
-0.016494133 0.053023349 -0.004103689 -0.78148276 -0.44236192 -0.44000068 0.0058751162
0.0094351945 0.054203641 -0.0043595545 0.70428139 0.16807483 -0.68973798 0.0048746443
0.010803327 0.053651787 -0.0030063614 0.77482456 0.26187515 -0.57538539 0.0032337918
-0.018603422 0.056805324 -0.0032776282 -0.88604909 -0.33102694 -0.32455838 0.0018967107
0.0090776151 0.056941252 -0.0036392875 0.77467757 0.32355592 -0.5433104 0.0059282258
0.010274972 0.05604526 -0.0024902606 0.78752214 0.37480247 -0.48921576 0.0028654425
-0.019450232 0.059776466 -0.0033130464 -0.94213802 -0.24070448 -0.23331812 0.0024029526
0.0067984229 0.060650092 -0.0043529756 0.76888067 0.42283839 -0.47961468 0.003922116
0.008059009 0.059653804 -0.0032413653 0.77070194 0.41414782 -0.48425221 0.0035125243
-0.019951425 0.062143348 -0.0037373563 -0.924254 -0.29023612 -0.24802718 0.0052057635
0.005926026 0.062773578 -0.0034908555 0.75066745 0.52955556 -0.39505616 0.001747141
0.0072978339 0.061897676 -0.0021646803 0.78832155 0.48130763 -0.38326496 0.0026157002
-0.020486664 0.064452551 -0.0024091487 -0.94700754 -0.26496807 -0.18157248 0.002322251
0.0031435746 0.066282205 -0.0040008249 0.70136493 0.60365099 -0.37906826 0.0019445679
0.0045984294 0.064946473 -0.0031560888 0.72925037 0.56077123 -0.3920835 0.0020978239
0.00023476995 0.069384299 -0.0039636083 0.6638422 0.64712375 -0.37489247 0.0021366775
0.0019383493 0.068164803 -0.0027582792 0.69360662 0.63795424 -0.33455086 0.0017425597
-0.0032823333 0.072400734 -0.0041652061 0.6193887 0.68891495 -0.37650204 0.00092639553
-0.0011753315 0.070858955 -0.0035530711 0.65050542 0.67814481 -0.34199753 0.0012239878
-0.0049165809 0.073489271 -0.0046600588 0.61508775 0.69280064 -0.37642294 0.001032523
-1.0149321e-05 -0.066757977 -0.00037140003 0.60214579 -0.73460507 -0.31269115 0.0023069347
0.0018043304 -0.065281928 -0.00074747059 0.65487778 -0.65684122 -0.37375736 0.002740189
0.0030647311 -0.064114273 -0.00065505854 0.67703724 -0.65012825 -0.34489682 0.0027956699
0.0047838432 -0.062546626 -4.0348386e-05 0.72293365 -0.58840227 -0.36214608 0.0011216807
0.006232908 -0.060344461 -0.00056762446 0.78129822 -0.48924056 -0.38757807 0.0020566129
0.0074966783 -0.059338897 0.0007441456 0.7870338 -0.49143788 -0.37291643 0.00145412
-0.019157082 -0.055846009 -0.00061656884 -0.90608811 0.39001149 -0.16399796 0.00081824482
0.0068338122 -0.058549467 -0.001614738 0.7699756 -0.46945679 -0.4321433 0.0017524578
0.0081858542 -0.057069201 -0.00040414487 0.8060599 -0.39301273 -0.44250256 0.0013173497
-0.018385464 -0.053368524 -0.00024093047 -0.89394021 0.4055005 -0.19089338 0.00151471
0.0093146656 -0.054443102 -0.00049649528 0.8225112 -0.36194682 -0.43871379 0.0011924326
0.010276305 -0.053726818 0.00061228219 0.82369614 -0.3595778 -0.43843874 0.0011382619
-0.017466456 -0.051148787 -0.0003449982 -0.86323124 0.44944757 -0.22984499 0.0015872095
-0.016787054 -0.049919043 -0.00076432875 -0.85625887 0.45826152 -0.23836347 0.0019031927
0.0096692862 -0.052212927 -0.0013492589 0.78655487 -0.23452184 -0.57125384 0.0041287737
0.010775603 -0.051107492 -0.00012730691 0.81325549 -0.24010669 -0.53006077 0.0026906829
-0.015857741 -0.048008002 -0.00036503724 -0.84827077 0.46750918 -0.24874055 0.0015823512
0.011321334 -0.048163962 -0.00034573872 0.77980042 -0.18165107 -0.59909457 0.0039843218
-0.014714639 -0.045771606 9.5216092e-06 -0.79937339 0.49673906 -0.33801273 0.0027737545
-0.013561573 -0.044533614 -0.00065517775 -0.76081514 0.51973701 -0.3886306 0.0021816159
0.011578692 -0.045220882 -0.00049327163 0.7199142 -0.04154636 -0.69281852 0.0026890105
0.013040707 -0.04491552 0.0011528621 0.77543133 -0.12279113 -0.61937755 0.0027623051
-0.012190166 -0.042218994 -0.00011383579 -0.70988345 0.51769215 -0.47755662 0.0054419907
-0.010514948 -0.041140895 -0.001130793 -0.63624251 0.54448205 -0.54656625 0.0038263532
0.011497953 -0.042178113 -0.00057607412 0.63963127 0.042692646 -0.76749539 0.0026609313
0.013032865 -0.042276673 0.00086160074 0.72386187 -0.029446714 -0.68931627 0.0023588999
-0.011315744 -0.040209875 0.00074085733 -0.67473072 0.53230882 -0.5112589 0.0026147098
-0.0095020458 -0.039189905 -0.00032907515 -0.59281087 0.54760474 -0.5905118 0.0048670964
-0.0072658602 -0.038119052 -0.001262672 -0.44433197 0.54826593 -0.70850098 0.0020169488
0.0095309978 -0.038542308 -0.0015307466 0.53066069 0.13982058 -0.83597219 0.0018847525
0.011287634 -0.039199471 -0.00049531541 0.56296426 0.095980443 -0.82088923 0.0022475941
0.013155237 -0.039323773 0.00099736848 0.69800746 0.026266946 -0.71560854 0.0019954138
-0.0086085498 -0.036988623 0.00074125477 -0.57013577 0.51180607 -0.64265054 0.0016882658
-0.0066343555 -0.0362501 -0.0003013094 -0.45151508 0.52100259 -0.72435522 0.0025160217
-0.0039678081 -0.035489757 -0.0012611318 -0.31304502 0.48314753 -0.81766212 0.002586799
0.0088203195 -0.035911299 -0.0013286369 0.34890041 0.20122354 -0.91530192 0.0043998873
0.011351542 -0.036268685 -8.3536957e-05 0.53002763 0.10446604 -0.84152097 0.0029181244
0.013038658 -0.036364369 0.0010767246 0.65118533 0.060838517 -0.75647628 0.0019587788
-0.0059809308 -0.034086131 0.00077097258 -0.52817351 0.49905515 -0.68700564 0.0035012576
-0.0035316753 -0.033220045 -9.0521877e-05 -0.3841961 0.44326732 -0.80988103 0.0059663164
-0.00053013267 -0.032971796 -0.0010161654 -0.21241833 0.4106555 -0.88670206 0.0016415998
0.0022519242 -0.032758236 -0.0013624401 -0.062774524 0.37681818 -0.92415768 0.0019770968
0.0055929767 -0.032981504 -0.0013533356 0.094558083 0.29942259 -0.94942343 0.0021931292
0.0084990961 -0.033138268 -0.0007892868 0.27941674 0.22281949 -0.93395811 0.0034353896
0.011362098 -0.033226304 0.00037656445 0.45865369 0.14539956 -0.87663883 0.0031280124
0.013043444 -0.034479838 0.0012544806 0.63871479 0.05600857 -0.76740241 0.0018150941
-0.0027335277 -0.030554963 0.00084556825 -0.43098807 0.37791812 -0.81940657 0.0034277709
-0.00048530044 -0.030135794 0.00022917055 -0.28000659 0.35209587 -0.89309841 0.0026230451
0.0023554587 -0.030326141 -0.00044425251 -0.099020906 0.33394861 -0.93737572 0.0021176788
0.0053997608 -0.030290598 -0.00053342537 0.055864114 0.29167679 -0.95488417 0.0021491076
0.0085111558 -0.030116396 -5.9378799e-05 0.24153878 0.21703568 -0.94580895 0.0030458539
0.01110045 -0.030212814 0.00075095799 0.42247471 0.13470858 -0.89630842 0.0046328702
4.9120979e-05 -0.027679123 0.0010041927 -0.30934751 0.31946436 -0.89568222 0.0023120393
0.0023580212 -0.027312454 0.00053117494 -0.15615577 0.28294414 -0.94633925 0.0020735739
0.0054370798 -0.027297344 0.00028633932 0.020739425 0.24773133 -0.96860677 0.0013958022
0.0085217385 -0.027315689 0.00058194227 0.17074354 0.20125456 -0.96454304 0.0025005983
0.010718219 -0.027556954 0.0010680272 0.33076617 0.17440806 -0.9274565 0.002962932
0.0028525614 -0.025210906 0.0010785735 -0.18646313 0.26468512 -0.946136 0.0019368569
0.0055593541 -0.02464173 0.00099682086 -0.012484033 0.23636046 -0.97158527 0.0018642066
0.0083137406 -0.024944419 0.0011104434 0.11600531 0.2117395 -0.97041702 0.00151757
0.010193864 -0.025693838 0.0012197013 0.25199753 0.19757341 -0.94734466 0.0076565491
0.0032299631 0.021936338 0.0011106944 -0.23177248 -0.28748634 -0.92931861 0.00086082035
0.0055933455 0.021158351 0.00095676561 -0.089768529 -0.24898629 -0.96433783 0.0016887058
0.0084956037 0.021013131 0.00094841397 0.04679488 -0.2298393 -0.97210294 0.0016772272
0.011041276 0.021603506 0.0011169945 0.21211436 -0.20050992 -0.95645344 0.0016444866
0.00017110916 0.024729349 0.0010723155 -0.32179534 -0.33157524 -0.88685149 0.0023264347
0.002451696 0.023983188 0.0006705483 -0.22298284 -0.31127137 -0.92379045 0.00095844449
0.0054362142 0.023864863 0.00021269138 -0.09024296 -0.28349221 -0.95471895 0.0022319905
0.0085156038 0.023865391 0.00022175885 0.075821102 -0.24005358 -0.96779406 0.0011319391
0.011367983 0.023888832 0.00065207784 0.22494298 -0.2159155 -0.95014799 0.0014648411
0.013371541 0.024435461 0.0010986205 0.36339968 -0.20245427 -0.90936953 0.0019328444
-0.0026228288 0.02746363 0.00094561535 -0.43386 -0.36581832 -0.8233726 0.0030559478
-0.00048620009 0.026723623 0.00048836228 -0.30994445 -0.33502999 -0.8897692 0.0012897938
0.0023557306 0.026677521 -0.00027006224 -0.17435308 -0.32368779 -0.92996091 0.00092371
0.0054569906 0.026858199 -0.00069793232 -0.037659924 -0.30520985 -0.95154017 0.0015480374
0.0084530124 0.026747417 -0.00055330247 0.10449194 -0.27030122 -0.95708865 0.0012392738
0.011352868 0.026693903 -3.650086e-06 0.27223241 -0.21744585 -0.93734032 0.0021070014
0.01387481 0.026822049 0.00080074789 0.40209913 -0.18463616 -0.89678639 0.002407558
-0.0056291027 0.031107523 0.0010325625 -0.58609879 -0.38608336 -0.71233976 0.0029045623
-0.0034252652 0.029909004 0.00028355001 -0.42405865 -0.37263432 -0.82541978 0.004055277
-0.00048177829 0.029724646 -0.00068574003 -0.26317975 -0.36314136 -0.89379239 0.0005204659
0.0022943234 0.029305147 -0.0012198694 -0.15450995 -0.35193855 -0.92318249 0.0014059982
0.0053561628 0.029160857 -0.0014169224 -0.011400565 -0.32318282 -0.94626784 0.0012729833
0.0086568929 0.029544622 -0.0012985416 0.14969566 -0.25630626 -0.95493364 0.0017105411
0.011335976 0.02972158 -0.00073551561 0.26574358 -0.24383315 -0.93269813 0.0012978434
0.014351737 0.029863901 0.00044766441 0.44574085 -0.15908636 -0.88091242 0.0027526801
-0.0063184388 0.033079244 0.00039834226 -0.54827654 -0.43639123 -0.71341115 0.0025526194
-0.0036644875 0.032670897 -0.0008830353 -0.35957605 -0.4208329 -0.83282936 0.0022187282
-0.00099782564 0.031893022 -0.0014283484 -0.24828376 -0.39351514 -0.88515592 0.00071965146
0.009662699 0.031543937 -0.001689065 0.20707527 -0.24659163 -0.94673771 0.0031183495
0.011593459 0.032532588 -0.0013117444 0.31210139 -0.23971756 -0.91930854 0.0023377992
0.014430298 0.032846872 -3.1185918e-05 0.50028896 -0.11955638 -0.85756475 0.0029906686
0.01636428 0.033411819 0.001171943 0.63930315 -0.085621953 -0.76417297 0.0022059011
-0.0087161111 0.036181759 0.0004193678 -0.63986689 -0.44928673 -0.6234675 0.0033797028
-0.0068474696 0.035568416 -0.00076328008 -0.47865573 -0.4424707 -0.75835896 0.002282074
-0.0046074223 0.034508757 -0.0014725735 -0.38289523 -0.4460552 -0.80896604 0.00083567557
0.012339705 0.034937561 -0.0015188491 0.38641542 -0.19262502 -0.90198594 0.0011298941
0.014352501 0.035757292 -0.00052718434 0.52844578 -0.11735553 -0.84081674 0.0029865415
0.016355885 0.035765655 0.00092840847 0.6299454 -0.048647691 -0.7751143 0.0044825315
-0.011314159 0.039697457 0.00068704924 -0.70119166 -0.46163872 -0.54334134 0.0020664779
-0.0095918169 0.038642328 -0.00043778657 -0.60361755 -0.46041006 -0.65089822 0.0018490911
-0.0077932216 0.037697118 -0.001435179 -0.56574035 -0.44110429 -0.69668132 0.0022910396
0.014729053 0.03875301 -0.00057626388 0.64789122 -0.036825392 -0.7608422 0.0042471546
0.016355816 0.03884951 0.00092637399 0.70641649 0.0073910668 -0.70775783 0.0032183642
-0.012079794 0.041933861 -0.00015732821 -0.7028569 -0.47038582 -0.53360045 0.0025285175
-0.010440371 0.040921316 -0.0012712305 -0.6325413 -0.47113189 -0.61475712 0.00033737271
0.014887813 0.041794188 -0.00053583831 0.69520038 0.0042471015 -0.71880341 0.0040581068
0.016361937 0.041713309 0.001103967 0.76885104 0.092080727 -0.63276315 0.0026802085
-0.014602561 0.045509573 0.00044939644 -0.7973941 -0.44678012 -0.40564796 0.0021292185
-0.013349723 0.044429827 -0.00070485496 -0.76062483 -0.45815885 -0.45993519 0.0015291915
0.014832668 0.04467218 -0.00029022351 0.79900551 0.11065435 -0.59105486 0.0034435906
-0.015467997 0.047709931 -0.00024513423 -0.81246686 -0.4327718 -0.39064848 0.0018901728
0.014347743 0.047754768 -0.00025149516 0.81469452 0.20432934 -0.54269916 0.0057175062
-0.017388878 0.051462229 5.4621138e-05 -0.88299668 -0.38184723 -0.27296451 0.0016679276
-0.016522406 0.050057475 -0.00063969544 -0.85605741 -0.40809333 -0.31721535 0.0012033413
0.012499139 0.051854711 -0.0014340167 0.84207374 0.2825729 -0.45941737 0.0037604056
0.013527154 0.050592553 -0.00033145829 0.8400535 0.27387464 -0.46829775 0.0034246929
-0.018169306 0.053712979 -0.00038594194 -0.8828485 -0.38461843 -0.26953143 0.0016364531
0.012174473 0.053917788 -0.00070634158 0.84806937 0.36456731 -0.38453767 0.0021216981
0.013142816 0.052917987 0.00053751864 0.84855711 0.36376488 -0.38422111 0.0019794104
-0.019157974 0.056681491 -0.00060404441 -0.92602253 -0.29547241 -0.23490073 0.0028022937
0.010983733 0.056676269 -0.00063946203 0.82510203 0.41281173 -0.38573706 0.0023431475
-0.020127812 0.061006751 -9.7919023e-05 -0.94213444 -0.24071684 -0.23331998 0.0024041811
-0.019600147 0.058486905 -0.0012439971 -0.92913139 -0.27872601 -0.24295403 0.0021403413
0.0092797838 0.059731185 -0.00053081475 0.81318676 0.47107008 -0.34178987 0.0022274004
0.010416632 0.058484394 0.00051350542 0.8178528 0.47783685 -0.32060677 0.0011486722
0.006602589 0.063443512 -0.0012479161 0.77308428 0.53365558 -0.34285924 0.0015397168
0.0077933124 0.062126536 -0.00054876856 0.78366083 0.52945018 -0.32489717 0.0018300348
0.0035317144 0.066926979 -0.0016239171 0.71195394 0.63665521 -0.29629651 0.00070289464
0.0049560913 0.065652288 -0.00067839678 0.74016804 0.59075004 -0.32119423 0.00049559533
0.00070135237 0.069771089 -0.0015370136 0.66689169 0.67786658 -0.30943874 0.00070497417
0.0066407872 -0.061149482 0.001834553 0.79198176 -0.53124183 -0.30091038 0.0015432634
0.0078453068 -0.059869595 0.0029122646 0.81140518 -0.50940049 -0.28658819 0.0012550191
0.0091589987 -0.057540558 0.0023149003 0.82793808 -0.47203848 -0.3028172 0.002555955
0.010229877 -0.056064952 0.0029796178 0.83209288 -0.44943899 -0.32500154 0.0014284881
0.010997597 -0.054023709 0.0024111604 0.85526371 -0.37549531 -0.35710949 0.0013620075
-0.017616393 -0.050716404 0.0020714367 -0.89808303 0.39742476 -0.18841565 0.00096080458
0.012166961 -0.051285621 0.0027107529 0.86986053 -0.33125377 -0.3655321 0.00079340104
0.013118336 -0.050225798 0.0040359609 0.8872577 -0.3352434 -0.31683692 0.00088971417
-0.01653203 -0.048125945 0.0022992843 -0.86390072 0.45164344 -0.22292112 0.0013902094
0.012582791 -0.048785128 0.0018022323 0.85087496 -0.21374889 -0.47992003 0.002635577
0.01340893 -0.048044421 0.0030112804 0.86725622 -0.25529861 -0.42742154 0.0018040199
-0.015241477 -0.04518453 0.0027380104 -0.86348063 0.44341353 -0.2403864 0.0013358394
0.013942822 -0.045166038 0.0026158097 0.84634638 -0.18568777 -0.4992173 0.003052013
-0.014337234 -0.043007337 0.0035064186 -0.83537841 0.46765858 -0.28885704 0.0020327466
-0.013296098 -0.041892312 0.0023197916 -0.81036294 0.48378393 -0.33055258 0.00099178834
0.014403958 -0.042125866 0.0026017542 0.79975712 -0.084554359 -0.59433919 0.0025432822
-0.011920596 -0.03936043 0.00289286 -0.76202852 0.50826263 -0.40122512 0.0026754308
-0.010553314 -0.038245983 0.0017955219 -0.69269109 0.53047854 -0.48864254 0.00064623274
0.014606966 -0.039253782 0.0025607802 0.79320258 -0.052637104 -0.60667872 0.00355735
0.015991149 -0.038296048 0.0042147255 0.78504723 -0.065175988 -0.61599749 0.0035309319
-0.011252851 -0.037334073 0.0041439049 -0.765881 0.47519642 -0.43314514 0.0021805167
-0.0095786694 -0.036187693 0.0026556866 -0.68944925 0.51573414 -0.50860399 0.0046516689
-0.0076971268 -0.034903262 0.0016058697 -0.6099993 0.4977802 -0.61653525 0.00052319455
0.014475442 -0.036193296 0.0023998932 0.68685263 0.017203981 -0.72659308 0.0017211012
0.015984917 -0.036129951 0.0040281285 0.76041108 -0.029306093 -0.64878047 0.0023222952
-0.0086727832 -0.03388948 0.0036317075 -0.68813753 0.47513142 -0.54837662 0.0021426296
-0.006904305 -0.03292264 0.0024402852 -0.57887834 0.44968876 -0.68020576 0.0024265395
-0.0050018579 -0.031881128 0.0014306421 -0.51160389 0.43680409 -0.73990786 0.00085856474
0.01430022 -0.033108633 0.0024196312 0.63465267 0.05030629 -0.77115846 0.0018968333
0.015983509 -0.033259884 0.0039859135 0.72656053 -0.0021551969 -0.68709898 0.0015347914
-0.0062213223 -0.030585228 0.0033101228 -0.62092954 0.41708922 -0.66368902 0.0044428469
-0.0041534822 -0.029996464 0.001943286 -0.48522118 0.39666501 -0.7792415 0.0031910371
0.012504781 -0.0300474 0.0014087714 0.48231384 0.10112038 -0.87014258 0.0048333481
0.014270727 -0.030296853 0.0025762946 0.6001035 0.054150838 -0.79808742 0.0040021292
0.015984161 -0.030155798 0.0040054517 0.67238957 0.016041901 -0.74002367 0.0021952598
-0.0055162562 -0.028246967 0.0040434618 -0.65631437 0.35164708 -0.66752964 0.0011683222
-0.0035326933 -0.027269134 0.0028644914 -0.52890772 0.34671924 -0.77462405 0.0060083675
-0.0010676727 -0.026763314 0.0017134051 -0.33846268 0.34804043 -0.87424874 0.0018695499
0.0120586 -0.026963569 0.001653525 0.39007151 0.1298594 -0.9115814 0.0028135991
0.014278147 -0.027216857 0.0028306621 0.55633008 0.069488071 -0.82805091 0.0042845751
0.015987307 -0.027055986 0.0040997081 0.61862683 0.032830823 -0.78499866 0.0035015058
-0.0029247208 -0.024322173 0.0036328461 -0.55703139 0.29784727 -0.77524388 0.0031481979
-0.00044348207 -0.024182832 0.0023898336 -0.35872081 0.29311538 -0.88622957 0.0016588843
0.0021397895 -0.023865961 0.0016347398 -0.21362431 0.28969029 -0.93297601 0.001606538
0.0050917231 -0.023092849 0.0014168089 -0.03826021 0.26653287 -0.96306622 0.0019403056
0.0087991999 -0.023458816 0.0014833813 0.099623889 0.23413186 -0.96708703 0.0011892776
0.011371577 -0.024155406 0.001882188 0.31590962 0.18169078 -0.93123025 0.0036779991
0.014287652 -0.024137266 0.003156137 0.48205668 0.11906679 -0.86801183 0.0037097584
0.01599139 -0.024673376 0.0042219646 0.55108738 0.062951781 -0.83206952 0.00390504
-0.0023311498 -0.021957565 0.0040798355 -0.57119507 0.27178177 -0.77451336 0.0025192543
-0.00049701659 -0.021282449 0.0032938907 -0.41505957 0.26138121 -0.87143868 0.0032301014
0.0023626594 -0.021236626 0.0023372865 -0.22629119 0.26524824 -0.937249 0.0011701345
0.0054522697 -0.021214189 0.0018684559 -0.066085398 0.24066231 -0.96835655 0.0018681972
0.0085440837 -0.021216756 0.0019206081 0.086234771 0.20608373 -0.97472721 0.0014346413
0.011409384 -0.021241641 0.0024389343 0.27113825 0.17398599 -0.94668519 0.0021292462
0.014298142 -0.021293232 0.0035135464 0.46902639 0.089558706 -0.87863159 0.0042416966
7.2492694e-05 -0.018494293 0.0038207753 -0.42370173 0.25260705 -0.86986583 0.0032726347
0.0023648734 -0.018176403 0.0031619186 -0.27310824 0.24144949 -0.93118954 0.0019001024
0.0054591768 -0.01815276 0.0025818965 -0.098553807 0.23169844 -0.96778256 0.0014958594
0.0085539911 -0.018150236 0.0025189982 0.059175625 0.19820167 -0.97837329 0.0013089058
0.011421157 -0.018167928 0.0029498355 0.24710219 0.14606489 -0.95791733 0.0022153303
0.01403826 -0.018243343 0.0037603748 0.41836709 0.08805839 -0.90399933 0.0037578177
0.00069514615 -0.016069386 0.0042255037 -0.44471779 0.24791515 -0.86067659 0.0031561344
0.0025287098 -0.015232296 0.0038771147 -0.29091528 0.21926914 -0.93128365 0.0021722419
0.0054656025 -0.015079952 0.0032486843 -0.14533427 0.18887326 -0.97118735 0.0022778851
0.008563417 -0.015074682 0.0030917723 0.068905413 0.1630329 -0.9842115 0.0030156788
0.01143185 -0.015085583 0.003411263 0.20453599 0.13104729 -0.97004718 0.0019698218
0.013690821 -0.015201171 0.0039987769 0.35733923 0.10555859 -0.92799032 0.0022888738
0.0032971576 -0.012747062 0.0041295867 -0.30668342 0.15559138 -0.9390083 0.0021943529
0.005470071 -0.012231168 0.0037183764 -0.14653148 0.13531509 -0.97990739 0.0015848466
0.0085703693 -0.012225493 0.0035114775 0.04131341 0.12421001 -0.99139553 0.0023262149
0.011439654 -0.012232084 0.0037498374 0.17144895 0.11530015 -0.9784227 0.0014720671
0.013382783 -0.012526255 0.0041735908 0.26925689 0.10027894 -0.95783341 0.0055857315
0.0057683918 -0.0094716307 0.0040385099 -0.15603408 0.091468744 -0.98350739 0.0020447788
0.0085761324 -0.0093694441 0.0038580804 -0.030886648 0.078139149 -0.99646389 0.0021398207
0.011446127 -0.0093730874 0.0040309764 0.14505088 0.072485186 -0.98676544 0.0013994104
0.0062003369 -0.0064108274 0.0041618319 -0.16910066 0.044152223 -0.98460937 0.0019316586
0.0085788015 -0.006267135 0.0040154867 -0.016423792 0.029481022 -0.99943036 0.0024878252
0.011086215 -0.0063613974 0.004139008 0.13718228 0.019710889 -0.99034965 0.0014240303
0.006431282 -0.003163144 0.0042285584 -0.18183425 0.013348202 -0.98323858 0.0021180669
0.0085800216 -0.0031621601 0.0040879687 -0.017290087 0.0082950033 -0.99981612 0.0026172448
0.010971677 -0.0031628762 0.0041895499 0.11714748 0.006812748 -0.99309117 0.0012813943
0.0064310287 -0.0002950622 0.004206975 -0.18441671 -0.029477941 -0.98240596 0.0020305691
0.0085796891 -0.00029498583 0.0040682536 -0.018005786 -0.027094644 -0.99947077 0.0028406989
0.011019003 -0.00024723087 0.0041679079 0.11638182 -0.026757037 -0.99284405 0.0013539337
0.0061329911 0.0029429153 0.0040931087 -0.1800143 -0.060996316 -0.98177099 0.0016463598
0.0085769929 0.0028098319 0.0039066561 -0.019605545 -0.061637774 -0.99790597 0.0028665916
0.011387038 0.00287059 0.0040606242 0.12221092 -0.053345446 -0.9910695 0.0010270274
0.013124467 0.0040073879 0.0042636506 0.28272 -0.0603959 -0.95729917 0.001557905
0.0056844596 0.0060212747 0.0039365701 -0.17551863 -0.093477994 -0.98002815 0.0014182137
0.0085729491 0.0059113805 0.0036639858 -0.046767354 -0.095195398 -0.99435949 0.0023032883
0.011441686 0.0059137535 0.0038397892 0.13251859 -0.09171401 -0.98692822 0.0012960539
0.013452826 0.0061572269 0.0041680355 0.27849379 -0.091727361 -0.95604771 0.0019603882
0.0033021676 0.009068314 0.0041666608 -0.31007418 -0.14324167 -0.93985945 0.0013836694
0.0054691043 0.0087752091 0.003635098 -0.19233076 -0.14416115 -0.97068352 0.0014687157
0.0085672261 0.0087689562 0.0033205554 -0.057618655 -0.1318568 -0.98959279 0.0029981583
0.011433979 0.0087726684 0.0035066579 0.14875634 -0.11944814 -0.98163313 0.0013468791
0.013900836 0.0089066029 0.0039899098 0.27996588 -0.11136343 -0.95352882 0.0019053189
0.00069506076 0.012852561 0.0043047182 -0.45565069 -0.18444337 -0.87084043 0.0031885514
0.0025288314 0.011777879 0.0039165383 -0.30211452 -0.18471545 -0.93520427 0.0012523772
0.005464674 0.011627191 0.0031733534 -0.17998876 -0.17008044 -0.96885329 0.001525442
0.0085595828 0.011857155 0.0028614772 0.03869589 -0.16677575 -0.98523515 0.0033822968
0.011424973 0.011625743 0.003117115 0.16332385 -0.15166435 -0.97484523 0.0013152523
0.014270807 0.011676674 0.0037526519 0.29349291 -0.13338351 -0.94661009 0.0020563088
0.01599171 0.012372371 0.0042315442 0.39388183 -0.12372247 -0.91079623 0.00056210562
0.00027736591 0.01517054 0.0039408524 -0.43242347 -0.22547613 -0.87302369 0.003955978
0.0023654124 0.014732884 0.0033581939 -0.29530388 -0.2128181 -0.93139893 0.0015916154
0.0054588988 0.014706681 0.0025720473 -0.15098864 -0.22232826 -0.96320951 0.0015551611
0.0085503412 0.014935949 0.002306992 0.0042743431 -0.20593771 -0.9785558 0.0010944051
0.011412867 0.014707487 0.0025938975 0.19360754 -0.17216343 -0.96585506 0.0021242637
0.014290814 0.014730264 0.0032754813 0.31585518 -0.15114716 -0.93669105 0.0018732694
0.016343338 0.015024315 0.0040269382 0.46126541 -0.13303246 -0.87723237 0.0020067091
-0.0021720678 0.018820535 0.004112225 -0.576249 -0.27752659 -0.76871061 0.0029291355
-0.00042746356 0.017894605 0.0034688844 -0.4162237 -0.24991703 -0.87424213 0.0038158568
0.002363293 0.017801698 0.0025596658 -0.26246706 -0.25850782 -0.92966914 0.00042339301
0.005452015 0.017773286 0.0018550649 -0.11404816 -0.2256768 -0.96750349 0.0016800644
0.0085402336 0.017767087 0.0017007671 0.018348292 -0.21913514 -0.97552198 0.0014337793
0.011399079 0.017779116 0.0019981272 0.17918991 -0.20105928 -0.96305043 0.0012391035
0.014274927 0.01780905 0.0027385757 0.34930551 -0.16306195 -0.92271149 0.002336801
0.016760446 0.017975761 0.0037876603 0.48659375 -0.13631505 -0.86292803 0.0024820378
-0.00270015 0.020927208 0.0037513969 -0.56388021 -0.28240204 -0.77607226 0.0033628631
-0.0004945629 0.020663179 0.0026497508 -0.392766 -0.2707437 -0.87888151 0.004042943
0.0022161249 0.020675991 0.0017947254 -0.2483179 -0.28621092 -0.92543048 0.0006937774
0.0049299924 0.01967866 0.0014437118 -0.11238457 -0.27927509 -0.95361161 0.0017921916
0.0087716058 0.0194149 0.0013376588 0.030167682 -0.20422372 -0.9784593 0.0014831885
0.011667225 0.020208707 0.0015400217 0.18816948 -0.21951215 -0.95729136 0.001088104
0.01440993 0.020749349 0.0022426362 0.3541666 -0.17686595 -0.91830522 0.0021659038
0.017208185 0.020733954 0.003586265 0.51339191 -0.14011018 -0.8466391 0.0027490545
-0.0055178413 0.025274154 0.0041486137 -0.66990834 -0.36031425 -0.64915049 0.0015821134
-0.0034185546 0.023905898 0.0031115867 -0.52561963 -0.34091353 -0.77942413 0.0064168456
-0.00067123014 0.023426648 0.0018241284 -0.34785751 -0.32810965 -0.87825912 0.0020255016
0.0013314553 0.022899412 0.0013746037 -0.2313529 -0.31477314 -0.92053992 0.0010217507
0.014846853 0.023589024 0.0018709383 0.39295354 -0.17635486 -0.90248901 0.0032044195
0.017505918 0.023870429 0.0033104362 0.57943314 -0.11133999 -0.80737889 0.0045530447
-0.0060156281 0.027235787 0.0035089611 -0.66547024 -0.38134509 -0.64165819 0.0015737233
-0.0038822591 0.026599303 0.0021057634 -0.49688128 -0.38001212 -0.7801922 0.0025722277
0.015524495 0.026650375 0.0016209974 0.45254424 -0.1504316 -0.87896192 0.0030084895
0.017619476 0.026875636 0.0029802716 0.6184333 -0.079383597 -0.7818175 0.0059920633
-0.0083822673 0.030760136 0.0040025674 -0.71142215 -0.38151917 -0.59018779 0.0018640787
-0.0066525401 0.02973998 0.0027280629 -0.63721365 -0.40012339 -0.65868044 0.0044816858
-0.0048141461 0.028834691 0.0015949423 -0.58076203 -0.38761088 -0.71587247 0.0020746428
0.015897058 0.028916748 0.0013966179 0.49749386 -0.12045194 -0.85906416 0.0031841232
0.017607233 0.029713294 0.0026473759 0.66158032 -0.095424265 -0.74377805 0.0029100084
-0.0089249518 0.033074908 0.0030247329 -0.70616508 -0.42529663 -0.56608629 0.0018507236
-0.0074220831 0.032149266 0.0019981144 -0.64269358 -0.41602823 -0.64332378 0.00017799682
0.017698275 0.032682747 0.0025009087 0.73419869 -0.033898722 -0.67808783 0.0063650305
0.019340208 0.03197534 0.004289519 0.82717973 0.02428757 -0.56141227 0.0050649433
-0.011399977 0.036628172 0.0037104751 -0.77746332 -0.43387175 -0.45530879 0.0020863523
-0.0099914754 0.035620652 0.0023452861 -0.74402118 -0.44194546 -0.50111538 0.0014167696
0.017875962 0.035851147 0.0026414536 0.81996936 0.055794276 -0.5696817 0.0031485111
-0.012099043 0.03880484 0.002851465 -0.77985865 -0.43148455 -0.45347729 0.0018758207
-0.010703997 0.037713211 0.0015095288 -0.68949157 -0.46447316 -0.55575722 0.0016962589
0.017652322 0.038710222 0.0025838835 0.8329553 0.079711221 -0.54756874 0.0056255627
-0.014189708 0.042310361 0.0033844227 -0.84323502 -0.41956317 -0.33603787 0.0021302858
-0.013244468 0.04135897 0.0023975361 -0.81512654 -0.43806586 -0.37903425 0.0011181862
0.017266024 0.041728333 0.002587951 0.86250198 0.15806594 -0.48073429 0.0041939295
-0.015213798 0.044850983 0.0028825102 -0.86754853 -0.40697187 -0.28589085 0.0019255636
-0.014025881 0.043641191 0.0014016444 -0.79882449 -0.46700376 -0.37919238 0.0055777845
0.015906287 0.04604442 0.0016730542 0.86712492 0.1907137 -0.46013331 0.0059061786
0.016795706 0.044631839 0.0028113069 0.88719416 0.21286431 -0.40935975 0.0023172279
-0.016444741 0.047797319 0.0025038274 -0.89437306 -0.39536172 -0.20925076 0.0013573598
0.015651451 0.047728986 0.0021811924 0.88047022 0.25618458 -0.39892563 0.0030586277
0.016212333 0.047687937 0.0036911855 0.89987522 0.31584075 -0.30078101 0.0034775615
-0.017685922 0.050900806 0.002577632 -0.91726989 -0.35843578 -0.17360824 0.00037225327
-0.016882675 0.049359929 0.0015721137 -0.89428973 -0.3930741 -0.21386603 0.0012262299
0.014769369 0.050676584 0.0024654882 0.89315945 0.3204248 -0.31558535 0.0031808345
-0.018565373 0.053689454 0.0020187611 -0.91755646 -0.34635606 -0.19526294 0.00043864563
0.012573964 0.055047851 0.0014607722 0.84683174 0.40507582 -0.3446587 0.0016314654
0.013555612 0.053522334 0.0025891575 0.87152523 0.36016247 -0.3327564 0.0011193318
0.011931892 0.056684382 0.0023744993 0.84928435 0.44595972 -0.28255263 0.00078032631
0.0094952853 0.060574461 0.0019267316 0.81987065 0.50453228 -0.27066433 0.00033179793
0.010446965 0.059151437 0.0019536729 0.82243115 0.47428605 -0.31410155 0.0011851423
0.0082984371 0.062171396 0.0014468546 0.79386115 0.53383368 -0.29121485 0.0011922198
0.008362717 -0.059969056 0.0054257028 0.81525004 -0.51068878 -0.27306485 0.0009700167
0.0093134437 -0.058474559 0.0049952976 0.83239442 -0.49767724 -0.24379671 0.00068735372
0.010754899 -0.056265339 0.0052007949 0.84078026 -0.46718466 -0.27354521 0.0016677241
0.011954436 -0.053958938 0.0052766567 0.87455446 -0.38559651 -0.29405743 0.00057853298
0.012667062 -0.052257527 0.0050624721 0.88283491 -0.3655045 -0.29497278 0.00086557883
0.013508896 -0.05076829 0.0058026128 0.89469939 -0.32680804 -0.30448231 0.001016645
-0.016519273 -0.047395233 0.0043764226 -0.88607335 0.42107522 -0.19382879 0.00034382724
0.014355934 -0.048230823 0.0054727606 0.89971042 -0.29570973 -0.32105604 0.0013778037
-0.015756909 -0.045255858 0.0052861189 -0.87754422 0.42952314 -0.21313356 0.00043233822
0.015222006 -0.045414012 0.0055797212 0.90438378 -0.27459401 -0.32663137 0.00088977569
0.016081035 -0.044058446 0.0069069676 0.92580229 -0.26846966 -0.2661095 0.00062418985
-0.014583804 -0.042461973 0.0056525068 -0.87769192 0.43458641 -0.20196913 0.00042903941
-0.01366778 -0.040988084 0.0049020462 -0.84977108 0.47483331 -0.22895952 0.0010111149
0.015529431 -0.043125071 0.0047187125 0.89942741 -0.22970872 -0.37183911 0.002011603
0.016233057 -0.041830257 0.0057066167 0.90224147 -0.2009435 -0.38155204 0.0022179463
-0.012885483 -0.039056934 0.0057665771 -0.85804373 0.4561502 -0.23598307 0.0012545043
0.016718276 -0.039156351 0.0056900531 0.8839047 -0.14809801 -0.44359839 0.0028749756
-0.011656958 -0.036537554 0.0060992381 -0.83401507 0.44953898 -0.31989604 0.0023077326
-0.010640512 -0.03557618 0.0050780345 -0.8018918 0.46293414 -0.37770554 0.0015754887
0.017096126 -0.036168542 0.005684481 0.84918541 -0.10989802 -0.5165332 0.0044315513
-0.009621704 -0.033197314 0.0058221575 -0.7840144 0.43040794 -0.44729227 0.0039469693
0.017266454 -0.033314764 0.0056159226 0.81974614 -0.046374675 -0.57084644 0.0041361046
-0.0086741243 -0.030701136 0.0063893553 -0.78496671 0.3805818 -0.48886076 0.0021958346
-0.007348842 -0.029754836 0.0051633436 -0.75470877 0.37914237 -0.53541183 0.0014582409
0.017437313 -0.030183481 0.0057004225 0.78247017 -0.013819925 -0.62253463 0.0024833125
-0.0065020612 -0.027155314 0.0057333428 -0.7359162 0.34611273 -0.58192211 0.0040899375
-0.0050446657 -0.026362214 0.0044880621 -0.68827182 0.33097875 -0.64555019 0.002311765
0.017479636 -0.027151521 0.0056684101 0.76552093 -0.019060155 -0.64312869 0.003350402
-0.0057465192 -0.024457878 0.0062455498 -0.72466201 0.30028498 -0.62023699 0.0020755865
-0.0042522796 -0.02391102 0.0048665171 -0.59787434 0.30246121 -0.74233651 0.0038165702
0.017385328 -0.024207709 0.0055470802 0.70795929 0.013136799 -0.70613104 0.0065049543
-0.0052584126 -0.021874774 0.006869588 -0.72140849 0.26707575 -0.63893682 0.0015742219
-0.003636274 -0.021119451 0.0055038072 -0.649463 0.29501382 -0.70083141 0.0034615505
0.017290354 -0.021260876 0.0055323215 0.64045072 0.062578127 -0.76544559 0.0051392461
0.018978035 -0.020988865 0.0071981708 0.7909227 -0.023414925 -0.6114679 0.0026896298
-0.0030545709 -0.018325329 0.0060436875 -0.64320195 0.27115509 -0.71607691 0.0027916923
-0.0011946358 -0.017888341 0.0047334768 -0.48818457 0.26366213 -0.83196032 0.0031064791
0.015460928 -0.018050093 0.0044484101 0.48790097 0.069180422 -0.87015337 0.0049665165
0.017181708 -0.018165471 0.0055923164 0.61293775 0.032001823 -0.78948289 0.0044331527
0.018975049 -0.018098526 0.0071232133 0.68774402 -0.0030172246 -0.72594702 0.0029903844
-0.0025756564 -0.015338444 0.0066186199 -0.6794982 0.22540478 -0.69819409 0.0024668046
-0.00057492545 -0.015090805 0.0052310806 -0.47230604 0.2476784 -0.8459211 0.0026103957
0.0013644437 -0.014308619 0.0044713905 -0.32786432 0.21238251 -0.9205426 0.0027488687
0.015106584 -0.01500588 0.0045834258 0.40666664 0.083456874 -0.90975666 0.0026194535
0.017244468 -0.015166814 0.0058019869 0.52818298 0.051132936 -0.84758955 0.0021424904
0.018975578 -0.015212133 0.0071364902 0.7176097 0.00089122413 -0.69644493 0.0028470294
-0.0021939315 -0.012562103 0.0070123244 -0.69340557 0.17032963 -0.70012611 0.0025452145
-0.00050696579 -0.012289612 0.0058491994 -0.52035683 0.18276893 -0.8341608 0.0064424872
0.0020589065 -0.012088047 0.0046327561 -0.35216969 0.17298493 -0.91981125 0.0018776493
0.01474411 -0.012133681 0.0046919761 0.361729 0.086475916 -0.92826396 0.0024985934
0.017249759 -0.012292622 0.0059510777 0.48191389 0.040837448 -0.87526643 0.0018384296
0.018977001 -0.012326237 0.0071721831 0.60072625 0.0063257329 -0.79942977 0.0040530004
-0.00038223085 -0.0092569189 0.0063252775 -0.54147965 0.11767793 -0.83243716 0.0045771124
0.0023144968 -0.0092642158 0.0049944539 -0.35847595 0.12015059 -0.92577469 0.0020540718
0.0042218887 -0.0089631416 0.0044344515 -0.1934735 0.1031099 -0.97567225 0.0022917897
0.014367076 -0.0093430439 0.0047570607 0.33253446 0.058565706 -0.94127089 0.0020921566
0.017253777 -0.0091758408 0.0060643591 0.50746542 0.028474059 -0.86120152 0.0032994098
0.01897688 -0.0091984691 0.0071691852 0.56241083 -0.0027443597 -0.82685345 0.00426827
-0.00023587246 -0.0061037038 0.006539952 -0.5453372 0.057232689 -0.83626062 0.0042704819
0.0024256064 -0.0061732884 0.0052153617 -0.35632497 0.057377722 -0.93259871 0.0017196902
0.0045867837 -0.0061006946 0.0045488635 -0.2151947 0.054532491 -0.97504741 0.0018443038
0.012475273 -0.0060113152 0.0043691453 0.14898938 0.029677909 -0.98839331 0.0015742322
0.014308525 -0.0062439279 0.004859698 0.32180807 0.011466955 -0.94673544 0.0014263459
0.017256141 -0.0060568135 0.0061313799 0.48253387 0.0071769627 -0.87584788 0.0028805623
0.018978391 -0.0060713231 0.0072070919 0.6423918 -0.0041676229 -0.76636505 0.0024390651
-2.850336e-05 -0.0031792806 0.0065326942 -0.55208415 0.011958757 -0.83370262 0.0046935184
0.0023707275 -0.0031710765 0.0053612934 -0.35106483 0.014495067 -0.93623894 0.0017195169
0.0047612074 -0.0031658546 0.0046166293 -0.22440183 0.017412141 -0.97434115 0.0018063679
0.012410909 -0.0031643566 0.004401884 0.15779287 0.0034124658 -0.98746639 0.0014619883
0.01433865 -0.0031677918 0.0048913397 0.3145012 -0.0040075709 -0.94924861 0.0015908689
0.017254865 -0.0031762505 0.0060969312 0.46788546 -0.014465136 -0.88367075 0.0026160695
0.018975595 -0.0031835451 0.0071368879 0.62487429 -0.022768037 -0.78039324 0.0022671279
-2.8419541e-05 -0.00029630121 0.0065023899 -0.55045611 -0.03279496 -0.83421975 0.0045567807
0.0023706644 -0.00029567012 0.0053372346 -0.34944654 -0.029841835 -0.93648094 0.0016744682
0.0047611059 -0.0002952728 0.0046035964 -0.22436067 -0.031570215 -0.97399473 0.0018098988
0.012432268 -0.00040382112 0.0043871002 0.15147649 -0.027887797 -0.98806739 0.0015510218
0.014337555 -0.00029541727 0.0048543168 0.30570129 -0.033940025 -0.95152241 0.0015997892
0.017252378 -0.00029606977 0.0060286094 0.46112427 -0.035871182 -0.88661021 0.0025411178
0.018972032 -0.00029662636 0.0070474958 0.61079943 -0.038834125 -0.7908324 0.0019467433
-0.00026878226 0.0028262849 0.0064606788 -0.56431842 -0.044909477 -0.82433474 0.0042769494
0.002370195 0.0028178894 0.00515668 -0.35613325 -0.06616921 -0.93208945 0.0015181043
0.0045213313 0.0026225187 0.0045167217 -0.22024578 -0.066040717 -0.97320622 0.0015433113
0.012648236 0.0016173981 0.0043341182 0.13150656 -0.070601545 -0.98879802 0.0013765431
0.014392977 0.0027552438 0.0047073057 0.30526429 -0.075994052 -0.94923055 0.001258768
0.017245589 0.0028223218 0.0058406796 0.46645582 -0.06069348 -0.88245982 0.0023596254
0.019211497 0.0028299247 0.0070188111 0.6101861 -0.05465265 -0.79037088 0.0020201276
-0.00050858629 0.0059464253 0.0062742336 -0.55692399 -0.12986846 -0.82034737 0.0045553413
0.002369449 0.0059276186 0.0048724758 -0.35829097 -0.11678077 -0.92627746 0.0015791866
0.0042017503 0.0052838558 0.0044026738 -0.2110651 -0.098713808 -0.97247475 0.0015691437
0.014819197 0.0057891482 0.0046201926 0.31968573 -0.0877354 -0.94345295 0.0017630953
0.017368989 0.0059939451 0.005677077 0.46518707 -0.073648289 -0.88214332 0.0035288539
0.019404918 0.005933878 0.0069355099 0.61477023 -0.067545883 -0.7858085 0.0022025655
-0.0021942481 0.0088432143 0.0070542954 -0.59905934 -0.15614431 -0.78533238 0.0048040892
-0.00050653168 0.0088172518 0.0057493048 -0.52896434 -0.17156377 -0.83112133 0.0075579304
0.0019575795 0.0086705852 0.0046237549 -0.3517279 -0.15871839 -0.92254865 0.0015216775
0.015260339 0.0085092159 0.0044629769 0.37331489 -0.11656977 -0.9203518 0.00050750258
0.017471036 0.0088111414 0.0054370007 0.46562898 -0.099899568 -0.87932348 0.0019833827
0.019742705 0.0089326724 0.0068899048 0.62471372 -0.076382235 -0.77710903 0.0022271944
-0.0025350009 0.011857252 0.0066852467 -0.69188017 -0.18247008 -0.6985746 0.0022935194
-0.0005387133 0.011647284 0.005229827 -0.4819631 -0.20564076 -0.85171801 0.0025348747
0.0013644302 0.010847908 0.0044424767 -0.33528578 -0.17486842 -0.92574531 0.0016596784
0.015516626 0.010462504 0.004322391 0.3044754 -0.14467922 -0.94146836 0.0024012746
0.01757168 0.011624797 0.0051700855 0.47216389 -0.12922546 -0.8719874 0.0015843615
0.019921327 0.011721305 0.0067360811 0.64610964 -0.0889396 -0.75804496 0.0024197528
-0.0029427493 0.014964152 0.0061743716 -0.6502251 -0.24157225 -0.72031248 0.0048602596
-0.00098110794 0.014524082 0.0048183296 -0.48916256 -0.23624235 -0.83958894 0.0036917366
0.017975915 0.014656636 0.0049745673 0.5111624 -0.11417934 -0.85186625 0.0022472038
0.0199735 0.014835272 0.0064152088 0.68522638 -0.093265474 -0.72233397 0.0032695262
-0.0052000177 0.018822741 0.0069904216 -0.72437274 -0.26639727 -0.63585907 0.0016494718
-0.0034721992 0.017821096 0.0055879494 -0.65214193 -0.28788295 -0.70130903 0.004078228
-0.001696349 0.016921829 0.0044481419 -0.57811695 -0.27890694 -0.76680619 0.0027938399
0.018404864 0.017710337 0.0048191771 0.6203894 -0.11453637 -0.77588552 0.0024301738
0.020179581 0.0178227 0.0062790383 0.72377062 -0.081334583 -0.68523037 0.0030840631
-0.0056067025 0.021056004 0.006472609 -0.73234349 -0.2823329 -0.61964601 0.0021535559
-0.0040409225 0.020559151 0.0049682055 -0.61321706 -0.2926763 -0.733693 0.003384873
0.018684721 0.020565325 0.0046381829 0.66379571 -0.10475042 -0.74054211 0.0027534887
0.020177746 0.020867266 0.0059721116 0.71444929 -0.054588627 -0.69755459 0.0030533655
-0.0061959401 0.023727264 0.0058721006 -0.71785688 -0.35039234 -0.60158682 0.0027757559
-0.0047267214 0.023065113 0.0045590121 -0.65139276 -0.33866072 -0.67896712 0.0010869629
0.018867476 0.023137774 0.0044237338 0.66347927 -0.069193155 -0.74498826 0.0072377683
0.02025711 0.02361054 0.0058263941 0.77593124 -0.021957712 -0.63043523 0.0041181333
-0.0085313916 0.027615592 0.006459021 -0.77675283 -0.39025018 -0.49432772 0.0017653233
-0.0072240885 0.026475007 0.0053816782 -0.75587022 -0.37151322 -0.53910857 0.0013185607
0.020081066 0.026733236 0.0054538446 0.77578324 -0.01808518 -0.63074028 0.0029962233
-0.00915273 0.029913837 0.0058008349 -0.78961837 -0.36840954 -0.49069056 0.0022883627
-0.007917475 0.028890368 0.0046368651 -0.69983828 -0.38007554 -0.60478842 0.001513282
0.020140944 0.029841725 0.0055523282 0.83955169 0.0064708819 -0.54324114 0.007461783
-0.011323661 0.033588894 0.0066725919 -0.86065936 -0.37745687 -0.34174806 0.00070994574
-0.010247741 0.032625336 0.005488581 -0.81493509 -0.40006715 -0.41931745 0.0017066045
0.019997576 0.03272092 0.0055331355 0.85913098 0.06584803 -0.50750166 0.0062459265
-0.011970955 0.035824951 0.0057906024 -0.85165036 -0.39384708 -0.34579775 0.0020592639
-0.010785971 0.034625296 0.0045540296 -0.7900489 -0.4236089 -0.44314599 0.00027324527
0.019737404 0.035529993 0.0056117736 0.88827741 0.1022877 -0.44777283 0.0046348004
-0.014227193 0.039888617 0.00724281 -0.90953285 -0.37136126 -0.18665668 0.0012836233
-0.01325679 0.038698871 0.0056427401 -0.87779027 -0.38959354 -0.27874914 0.00142666
0.018884541 0.039196867 0.0048520081 0.89303088 0.15608875 -0.42205718 0.0049555674
0.019536247 0.038350224 0.0061414614 0.90992463 0.15202193 -0.38591018 0.0031444526
-0.014599784 0.04172026 0.0056844037 -0.90446424 -0.36844924 -0.21491759 0.0017405917
0.018484106 0.041809812 0.0054901522 0.90850067 0.19474539 -0.3697308 0.0020025165
-0.015693117 0.04438689 0.0057019657 -0.902807 -0.38092008 -0.19959801 0.0013522028
0.017718997 0.044785798 0.0056883311 0.92029262 0.28539732 -0.26760048 0.002113319
-0.017070929 0.047954705 0.0061718635 -0.90576446 -0.38039115 -0.18679754 0.0010108155
-0.016714942 0.047219105 0.0052854735 -0.89928222 -0.39277738 -0.19239882 0.0012580764
0.016818434 0.047039442 0.0050840992 0.9181633 0.30801171 -0.2492086 0.0013321918
-0.017507238 0.049518447 0.0051291846 -0.91902483 -0.35851234 -0.16389735 0.00020240732
0.015522397 0.05016632 0.0045009963 0.89968008 0.33543518 -0.27939048 0.0017976209
0.016080534 0.049474921 0.006891977 0.90958041 0.32625487 -0.25733498 0.0014166996
0.013951998 -0.051170986 0.0081312321 0.89759934 -0.33502331 -0.28648698 0.00053550478
0.015268114 -0.047937918 0.0085672792 0.91710681 -0.31534031 -0.24387616 0.00038626458
0.015622262 -0.046293173 0.0075917654 0.9257971 -0.26848373 -0.26611298 0.00062078267
0.016335247 -0.044962816 0.0087332185 0.93335378 -0.25648141 -0.25113344 0.00077839626
-0.014485757 -0.041491847 0.0077511035 -0.87884706 0.43314847 -0.20002586 0.00037882922
0.017038373 -0.042221405 0.0084674694 0.93583763 -0.23444307 -0.26314321 0.00091793225
-0.014288511 -0.040642906 0.009021949 -0.88450032 0.42635632 -0.18941852 0.00029311699
-0.013561545 -0.038945481 0.0089501999 -0.88451868 0.42632559 -0.18940239 0.00029970586
0.017793266 -0.039364573 0.0086116176 0.93267715 -0.2116182 -0.29211473 0.0019146148
-0.012251171 -0.036127023 0.0087466855 -0.88394243 0.40507534 -0.2335806 0.0014914975
0.018345883 -0.036378864 0.0082750106 0.92047697 -0.16835208 -0.35267523 0.0031695312
0.019078439 -0.035140853 0.0097177289 0.93714249 -0.19542934 -0.28908703 0.002804707
-0.011398809 -0.033903204 0.0093562417 -0.88488799 0.3785812 -0.27138439 0.002182008
-0.010589672 -0.032689329 0.0084534921 -0.86096644 0.39695039 -0.31806782 0.0011032351
0.018511463 -0.033047311 0.0075757569 0.88086295 -0.090163119 -0.46470541 0.0037157594
0.019214872 -0.032917254 0.0090922359 0.9057886 -0.12620078 -0.40450019 0.0046390998
-0.0095444899 -0.030179517 0.0086206486 -0.84951258 0.35994133 -0.38570791 0.002253081
0.019429805 -0.030096291 0.0088243382 0.88669485 -0.079272665 -0.45550868 0.0031570613
-0.0087538483 -0.027639609 0.0090051759 -0.85729569 0.31241891 -0.40919253 0.0023686888
-0.0078460267 -0.026837558 0.0078702727 -0.82513708 0.33680233 -0.45355591 0.0020103743
0.019568266 -0.027240878 0.0086007351 0.87312222 -0.056986 -0.48415917 0.0031521239
-0.0085126096 -0.025481071 0.010053676 -0.86424738 0.30245668 -0.40199047 0.00469831
-0.0073215999 -0.024111176 0.0087321326 -0.82927591 0.29304343 -0.47584334 0.0019719931
0.019769594 -0.024251111 0.008622339 0.83585489 -0.058214124 -0.5458551 0.0028602409
-0.0062495777 -0.021094067 0.0085862018 -0.7962926 0.27058998 -0.54101682 0.001738632
0.020070849 -0.021114852 0.0087791616 0.83764666 -0.07446602 -0.54111254 0.0035816096
-0.0056178793 -0.018306611 0.0089627849 -0.79559374 0.26145837 -0.54650724 0.0020426414
-0.0044273199 -0.017700069 0.0077011995 -0.70031583 0.26450825 -0.66301811 0.0015585128
0.020248691 -0.018164933 0.0087648146 0.83361715 -0.045196064 -0.55049038 0.0013591459
