# .PCD v0.7 - Point Cloud Data file format
VERSION 0.7
FIELDS x y z normal_x normal_y normal_z curvature
SIZE 4 4 4 4 4 4 4
TYPE F F F F F F F
COUNT 1 1 1 1 1 1 1
WIDTH 554
HEIGHT 1
VIEWPOINT 0 0 0 1 0 0 0
POINTS 554
DATA ascii
-0.026115816 0.047534838 -0.039579846 0.284309 0.67340142 -0.68242145 0.0031367526
-0.042975813 0.050446332 -0.040192083 -0.061488669 0.63154024 -0.77290112 0.028650334
-0.040696338 0.050481923 -0.040252432 0.070947431 0.75331128 -0.65382612 0.013256616
-0.038293697 0.05027676 -0.039825678 0.2096155 0.73570883 -0.644045 0.010034685
-0.018828038 0.019857392 -0.036263131 -0.30562195 -0.69315106 -0.65279156 0.0045725806
-0.01655196 0.019540355 -0.036590651 -0.16116819 -0.65089786 -0.74186039 0.0051106503
-0.013652404 0.019224882 -0.036680277 -0.025747178 -0.58150816 -0.81313312 0.0042521469
-0.010746161 0.019324714 -0.036601782 0.11751013 -0.50412911 -0.85559642 0.0029075933
-0.0083059799 0.019650429 -0.036268439 0.24870694 -0.39234522 -0.8855564 0.0022588279
-0.024782183 0.022996627 -0.036274917 -0.45884368 -0.6962105 -0.55204463 0.002104467
-0.022501234 0.022342794 -0.03703583 -0.364849 -0.68352419 -0.63220245 0.0038481771
-0.019690285 0.021685027 -0.037580572 -0.23508565 -0.64499706 -0.7271269 0.0023982956
-0.016689509 0.021601006 -0.038155332 -0.044397421 -0.51470017 -0.85622001 0.0033324377
-0.013673417 0.021603368 -0.038114399 0.067245156 -0.46701998 -0.88168615 0.0032102412
-0.010666663 0.021623496 -0.037720304 0.1877833 -0.38781619 -0.90240562 0.0030374976
-0.0076894802 0.021691617 -0.036911175 0.27236673 -0.345514 -0.89801806 0.0009180879
-0.0054481761 0.022375938 -0.036311742 0.36327285 -0.26674807 -0.89268035 0.0013605432
-0.028165435 0.025692288 -0.036810085 -0.49679267 -0.69680011 -0.51736504 0.0034818368
-0.025706841 0.024742983 -0.037618786 -0.39714056 -0.64946699 -0.6484381 0.0023528065
-0.022925375 0.023886845 -0.038401917 -0.2879844 -0.66297585 -0.69103396 0.0039992607
-0.020102823 0.023396753 -0.038832601 -0.16944443 -0.60470057 -0.77821964 0.0036684587
-0.012945796 0.023499554 -0.038918588 0.13640781 -0.35033253 -0.92663908 0.0036897019
-0.01040208 0.024280552 -0.038632333 0.23476134 -0.31127426 -0.92086667 0.0017176842
-0.0076441723 0.024640061 -0.037794784 0.36082482 -0.21894106 -0.90657055 0.0023199767
-0.0049905172 0.024814203 -0.036615252 0.41030154 -0.17594525 -0.89481616 0.00087747583
-0.031291548 0.028459184 -0.037236147 -0.54835504 -0.68173009 -0.48430446 0.0027134879
-0.029047007 0.027246792 -0.037952844 -0.48319942 -0.68037558 -0.55100578 0.0052350676
-0.026667893 0.026411567 -0.038790204 -0.3882592 -0.66244823 -0.64063817 0.0021287091
-0.0094277514 0.026809447 -0.03896217 0.350658 -0.1428792 -0.92554009 0.0011956163
-0.0076338109 0.027627125 -0.038298599 0.38518983 -0.14471607 -0.91141981 0.001100379
-0.0046634767 0.02775082 -0.036829725 0.46619979 -0.059366949 -0.88268524 0.0013090392
-0.034313217 0.031242453 -0.03748351 -0.59014624 -0.64439464 -0.48629519 0.0028489688
-0.032308735 0.029916137 -0.038087163 -0.58031899 -0.67208797 -0.45992133 0.0019637535
-0.0074160667 0.03063472 -0.038419999 0.46637008 -0.0082223536 -0.88455147 0.0019125689
-0.0047829258 0.03069653 -0.036904112 0.54342043 0.10871074 -0.83239186 0.011683351
-0.037340134 0.034268569 -0.037436079 -0.61615652 -0.6615665 -0.42741179 0.0049821278
-0.03551323 0.032953627 -0.038140342 -0.62410748 -0.64478141 -0.44130129 0.0030862421
-0.0074887038 0.033716809 -0.038202569 0.50169748 0.21173826 -0.83872914 0.0054757129
-0.0052139256 0.033366267 -0.036803611 0.57791686 0.39032951 -0.71669728 0.015037362
-0.040354878 0.037135996 -0.037451707 -0.54549468 -0.64689249 -0.53288442 0.0013692097
-0.038427301 0.035817157 -0.038262911 -0.52862632 -0.65273345 -0.54267234 0.0084289107
-0.01006841 0.03711028 -0.038016766 0.56030411 0.48096991 -0.67433476 0.008145567
-0.0082532838 0.035934765 -0.037572552 0.57481307 0.49424288 -0.652161 0.010518781
-0.043452971 0.039995745 -0.038124777 -0.59899676 -0.66227907 -0.45009923 0.0060386765
-0.041826464 0.038693614 -0.038221791 -0.57441455 -0.61212927 -0.54345721 0.009897911
-0.015508504 0.040778242 -0.038936287 0.47090188 0.55397373 -0.68655992 0.00082392344
-0.013493453 0.0400858 -0.038013339 0.49979278 0.55022097 -0.66892767 0.00094435114
-0.011213678 0.039309774 -0.036839947 0.54982334 0.55539274 -0.62388557 0.00076312583
-0.045786351 0.042772155 -0.038511381 -0.6435076 -0.45997742 -0.61181605 0.025524668
-0.044869304 0.041383017 -0.038624771 -0.58969212 -0.58519721 -0.55660343 0.016493738
-0.018530672 0.043813623 -0.038710758 0.45637596 0.59961915 -0.6574024 0.0021074119
-0.016508533 0.042952016 -0.03809467 0.46411043 0.54994315 -0.69438034 0.00059173227
-0.014044994 0.042197019 -0.036889944 0.51231253 0.57303017 -0.63966584 0.001264632
-0.012010626 0.041197825 -0.036148705 0.53101897 0.5643754 -0.63205951 0.0017304345
-0.022149047 0.046647284 -0.038347933 0.37685785 0.73750162 -0.56041902 0.0024934418
-0.019656451 0.04559131 -0.037805483 0.42900571 0.63170761 -0.64567763 0.0018397827
-0.017055843 0.044856053 -0.03672421 0.47286662 0.66199231 -0.58151799 0.003572287
-0.034092389 0.04997522 -0.038776428 0.17521298 0.77125317 -0.61193871 0.0078315008
-0.031640328 0.049869478 -0.038230345 0.15408507 0.85817528 -0.4896867 0.003086675
-0.028611582 0.049300067 -0.038076192 0.20160733 0.85492665 -0.47796962 0.0016034603
-0.025691953 0.048655052 -0.037761934 0.28227586 0.80681771 -0.51900434 0.0050619538
-0.023086948 0.047962461 -0.037147257 0.35811672 0.77585632 -0.51942217 0.0029797482
-0.020765021 0.047332756 -0.03648293 0.41116056 0.75292045 -0.51386547 0.0027652923
-0.042492613 0.051275376 -0.038704164 0.055718977 0.73250979 -0.67847252 0.015588854
-0.040807359 0.051320009 -0.038346816 0.070931882 0.75329113 -0.65385109 0.013315651
-0.037746102 0.05073842 -0.038260221 0.16424136 0.82671297 -0.53811747 0.0029903371
-0.034845412 0.050555736 -0.037553571 0.17297609 0.84839737 -0.500301 0.0036083115
-0.032157384 0.050580423 -0.036648806 0.1546984 0.87243128 -0.4636077 0.0032464585
-0.029739507 0.050243229 -0.036574289 0.18431292 0.87059945 -0.45616376 0.0021433062
-0.01637519 0.016744655 -0.03365168 -0.31013203 -0.75166887 -0.5820756 0.0023944916
-0.013689032 0.016243804 -0.034126043 -0.1789571 -0.70493358 -0.68632573 0.0047697593
-0.010766111 0.015925379 -0.03418421 -0.05864631 -0.65870911 -0.75010866 0.002559891
-0.0077807219 0.015830705 -0.033993244 0.12012247 -0.55471033 -0.82332677 0.0035424535
-0.0048818802 0.016265634 -0.033633746 0.25366753 -0.46878076 -0.84610718 0.0019490757
-0.00279289 0.01690531 -0.033256039 0.36767045 -0.38360953 -0.84714943 0.0014025612
-0.022105241 0.019829951 -0.033814173 -0.44607034 -0.76306093 -0.46771714 0.0015301579
-0.019780103 0.018969845 -0.03455843 -0.36952811 -0.76591754 -0.52613622 0.0046147555
-0.01695388 0.018153284 -0.035050124 -0.25828201 -0.74998397 -0.60894543 0.0057732617
-0.01387832 0.017782789 -0.03557054 -0.098836638 -0.67112195 -0.73472899 0.0036012821
-0.010665273 0.01786389 -0.035667893 0.051535018 -0.55195647 -0.83227891 0.0029119316
-0.0075102965 0.018415967 -0.035438072 0.17426993 -0.47528118 -0.86240238 0.0024736647
-0.0046634735 0.018730346 -0.034763031 0.28147662 -0.39121905 -0.87619549 0.0016867582
-0.0018286472 0.018937614 -0.03366185 0.40643901 -0.28655744 -0.86757839 0.00094520638
0.00011567795 0.020112909 -0.033085145 0.44646877 -0.2244373 -0.86619484 0.0020811302
-0.025392422 0.022295164 -0.034404181 -0.51831555 -0.75340742 -0.40463102 0.0030538291
-0.023006104 0.021157214 -0.035085898 -0.42051309 -0.75961417 -0.49614033 0.0043162196
-0.020913934 0.020424336 -0.035724394 -0.38566861 -0.71311992 -0.58542264 0.0074000312
-0.0063814679 0.020410948 -0.036006905 0.27586475 -0.30751926 -0.91067582 0.0023147273
-0.0043307231 0.021458969 -0.035595231 0.39860591 -0.22991252 -0.88783646 0.00094181712
-0.0016223587 0.021793325 -0.03437297 0.46099529 -0.18938845 -0.86695755 0.00048714114
0.00029045157 0.021805067 -0.033283822 0.48445204 -0.17384814 -0.85736984 0.0010371661
-0.03037069 0.025950707 -0.033982329 -0.63692182 -0.72443289 -0.26368096 0.0058548641
-0.028560186 0.024780385 -0.034628768 -0.55655849 -0.73519921 -0.38694274 0.001981419
-0.026561124 0.0237568 -0.035581402 -0.55210066 -0.7243672 -0.41288856 0.0036992424
-0.0035661624 0.024428006 -0.03585612 0.4471499 -0.13559264 -0.88412195 0.00079282594
-0.0016466849 0.024781134 -0.034903958 0.48812801 -0.11215343 -0.86553603 0.0012805926
0.0005523744 0.024450805 -0.033556104 0.53345746 -0.082072109 -0.84183568 0.0010538914
-0.03334526 0.028939091 -0.034865148 -0.66483903 -0.70790082 -0.23846473 0.0039333119
-0.031638686 0.027422711 -0.03478884 -0.62172186 -0.72383827 -0.29919913 0.0047342209
-0.0033477081 0.026476003 -0.036036827 0.48730353 -0.064636633 -0.87083715 0.0026424082
-0.0016467469 0.027688075 -0.035072897 0.52595162 -0.002264282 -0.85051149 0.00086645159
0.00055240025 0.027498581 -0.033624209 0.58637112 0.072090954 -0.80682814 0.005506414
-0.036482386 0.031842463 -0.033826895 -0.65465009 -0.70937592 -0.2611877 0.005614188
-0.034855217 0.030451048 -0.034993939 -0.65252823 -0.65907681 -0.37393138 0.0012230785
-0.003348479 0.031248566 -0.035957292 0.58141214 0.30680418 -0.75354582 0.028896879
-0.0015907964 0.030522592 -0.03480893 0.65039301 0.34557399 -0.67643738 0.016466293
0.00043341354 0.02992576 -0.03348615 0.66068524 0.40428051 -0.63249689 0.022078572
-0.03746365 0.033276815 -0.034979805 -0.6177094 -0.6690554 -0.41327959 0.0038527683
-0.0040136175 0.033861443 -0.034667589 0.63496113 0.51558769 -0.57532048 0.01074315
-0.002317219 0.032523684 -0.034597296 0.64193547 0.52703899 -0.55691004 0.013311846
-0.0073663155 0.03709431 -0.034839433 0.62062424 0.55577213 -0.55312109 0.00102044
-0.0055201044 0.036118686 -0.033822738 0.63800949 0.5482052 -0.54075408 0.001633668
-0.0099966489 0.039980892 -0.035292339 0.58371079 0.54202425 -0.60455877 0.001480883
-0.0081556039 0.03922629 -0.034078367 0.61575365 0.52763736 -0.58518904 0.00064341049
-0.045384988 0.041213397 -0.035991497 -0.63477051 -0.62109405 -0.45968312 0.0091847274
-0.013249883 0.043355227 -0.03508018 0.53157037 0.64598554 -0.54784632 0.0035869644
-0.01112886 0.042213324 -0.034351878 0.5696609 0.61342371 -0.54698968 0.0017564979
-0.018858653 0.046780445 -0.03562358 0.43807772 0.75841779 -0.48258713 0.0053393329
-0.016669359 0.04603387 -0.034768686 0.45164919 0.7735095 -0.44463024 0.0012486689
-0.014369998 0.044837847 -0.034243681 0.50135148 0.71719635 -0.48402074 0.0016459263
-0.025707392 0.049812339 -0.035359681 0.28218776 0.8824783 -0.3763006 0.0021717458
-0.022776263 0.049015097 -0.034763038 0.33379465 0.86890173 -0.36550093 0.0022301385
-0.02004092 0.048012521 -0.034411334 0.37596828 0.85877061 -0.34808177 0.0011450258
-0.017767426 0.047360461 -0.033381559 0.45491382 0.80506259 -0.38069364 0.002341199
-0.031138286 0.050833456 -0.035291642 0.16411825 0.92993999 -0.32905447 0.00069511804
-0.028115122 0.050427053 -0.03506387 0.21535879 0.91279835 -0.34701559 0.00081166043
-0.026060162 0.050423231 -0.033303328 0.25280079 0.90930438 -0.33054093 0.0015222095
-0.015269322 0.014088503 -0.030312218 -0.37879765 -0.78671384 -0.48743594 0.0026231273
-0.013430299 0.01365797 -0.030972941 -0.31052452 -0.78336787 -0.5384323 0.0027807187
-0.01071744 0.013150179 -0.031453528 -0.17474039 -0.74766624 -0.64067233 0.005975822
-0.0077469568 0.01276331 -0.031468824 -0.010760788 -0.70049232 -0.71357882 0.0042898515
-0.0047090342 0.012741852 -0.03126891 0.10173108 -0.61424839 -0.78252774 0.0051074028
-0.0017459072 0.01307764 -0.030852882 0.27556396 -0.50467163 -0.81815106 0.0016207231
0.00060115033 0.01374491 -0.030367918 0.38205221 -0.42313802 -0.82157797 0.0016199762
-0.018897464 0.016607547 -0.031310804 -0.44983539 -0.78598529 -0.42411712 0.0027317007
-0.016809765 0.015638307 -0.031699963 -0.41445005 -0.78067899 -0.4677301 0.0044434895
-0.014099409 0.014852237 -0.032298606 -0.26234335 -0.78627038 -0.55942363 0.0055589955
-0.010803915 0.014446266 -0.032841846 -0.10277173 -0.7211287 -0.68513596 0.0031152552
-0.0070895315 0.014443616 -0.032923765 0.042871069 -0.65252656 -0.75655216 0.0035098311
-0.0043686749 0.01491062 -0.032698914 0.18452333 -0.52250046 -0.83243281 0.0027981601
-0.0015583772 0.015701907 -0.032218426 0.34511074 -0.38841757 -0.85441822 0.0010847691
0.0013008127 0.01584005 -0.031034017 0.43558833 -0.34175631 -0.83274573 0.0011029252
0.0033364114 0.016583186 -0.030197717 0.4830817 -0.31243223 -0.81793535 0.0010293059
-0.022535639 0.019122289 -0.031655379 -0.54237443 -0.78130388 -0.30885953 0.0030447382
-0.020269286 0.017665219 -0.031769462 -0.4825452 -0.79789919 -0.36125764 0.0026670757
-0.00059442967 0.017997192 -0.032784902 0.42572811 -0.27266252 -0.86279237 0.0015527915
0.0014579273 0.018599104 -0.031942591 0.48491558 -0.22420226 -0.84533441 0.00068296754
0.0037067849 0.018692052 -0.030567627 0.52961093 -0.22154053 -0.81879914 0.00064446818
-0.027489543 0.022812851 -0.031551071 -0.64622039 -0.73515648 -0.20480268 0.002324519
-0.025726108 0.021489672 -0.031717513 -0.56176484 -0.78251249 -0.26850423 0.0017106888
-0.023935901 0.020365067 -0.032354005 -0.56104183 -0.78210247 -0.27119696 0.0018024858
0.0017937841 0.021423493 -0.032341935 0.50072479 -0.16760388 -0.84922528 0.00070661504
0.0041677682 0.021599868 -0.030897861 0.55725884 -0.13026159 -0.82005763 0.00084514217
-0.028524671 0.023934312 -0.032389909 -0.64409643 -0.7412746 -0.18881673 0.0030805566
0.002082332 0.024508223 -0.032553203 0.56043464 -0.040008496 -0.82723171 0.0010890164
0.0042824456 0.024596494 -0.031007355 0.63055342 0.033149619 -0.77543759 0.0059337546
-0.033712566 0.028579522 -0.03049439 -0.68897688 -0.71453452 -0.12145506 9.2219459e-05
-0.032396059 0.027262654 -0.030473875 -0.68684733 -0.71713483 -0.11814535 0.00013240974
0.0020825742 0.027571227 -0.032501511 0.6196112 0.1327671 -0.77359867 0.0062947888
0.00398969 0.02741912 -0.031006837 0.66678447 0.30431613 -0.68028688 0.018154111
-0.034622535 0.029483177 -0.030128546 -0.68897539 -0.71453249 -0.12147518 9.3814786e-05
-0.00032499176 0.032044344 -0.031149156 0.67932111 0.54417473 -0.492338 0.0055059534
0.0013059163 0.030459173 -0.031863768 0.65246302 0.50529516 -0.56477326 0.013036763
0.0031877803 0.029456504 -0.030515619 0.70928556 0.50041455 -0.4964869 0.0054900302
-0.0034893795 0.034659363 -0.032686412 0.66718078 0.53044891 -0.52296627 0.0050750352
-0.0016526508 0.033866495 -0.031362031 0.68006188 0.51488733 -0.52192616 0.0045945109
0.00011264673 0.032769963 -0.030270495 0.66118324 0.51285976 -0.5475505 0.0041060252
-0.0043547032 0.036869757 -0.03203661 0.63747168 0.51455963 -0.57346165 0.0013724262
-0.0024409578 0.035948101 -0.030723246 0.65438378 0.51849669 -0.5504027 0.0018060434
-0.0071334383 0.040212855 -0.03201317 0.61872303 0.58855826 -0.52036613 0.0023459806
-0.0052478323 0.039048132 -0.031034654 0.63606763 0.58069605 -0.50814384 0.0022030741
-0.010142555 0.043186195 -0.031868055 0.57623613 0.71521324 -0.39550221 0.0013096927
-0.0082734935 0.041851737 -0.031320821 0.60445857 0.67052352 -0.4301489 0.0021481095
-0.015646813 0.046877488 -0.031852074 0.46710125 0.82367343 -0.3215251 0.0013109427
-0.013694306 0.045719616 -0.031766459 0.48760876 0.7962724 -0.35803342 0.0025055215
-0.01166254 0.044562306 -0.031496059 0.52770954 0.75836408 -0.38263112 0.0023444886
-0.022435253 0.049728643 -0.031806186 0.33923057 0.88526738 -0.31815767 0.00078588491
-0.019234983 0.048534941 -0.031907335 0.39020765 0.86409813 -0.31791869 0.0012060599
-0.017093536 0.047648102 -0.031679109 0.43687457 0.83682287 -0.32995161 0.00081488671
-0.012285749 0.011082537 -0.027340062 -0.3774972 -0.81932491 -0.43151188 0.0020263996
-0.010437107 0.010652703 -0.028054396 -0.33713019 -0.81003064 -0.479785 0.0021696205
-0.0077083898 0.010144845 -0.028538669 -0.21622069 -0.79358697 -0.56874281 0.0033899464
-0.0046966756 0.0097831013 -0.02860315 -0.02396699 -0.7252385 -0.68808049 0.0030992394
-0.0017026365 0.0097888503 -0.028341331 0.099359654 -0.63722748 -0.7642439 0.005464389
0.0011229417 0.010128004 -0.027869372 0.28846723 -0.55144471 -0.78274864 0.0017665919
0.0032568034 0.010735323 -0.027461667 0.34185764 -0.50493872 -0.79257196 0.0030088453
-0.015825421 0.013601352 -0.028620271 -0.48086026 -0.80223531 -0.35382473 0.0041322033
-0.013693334 0.012457516 -0.028684154 -0.44038293 -0.81831175 -0.36936268 0.0019958136
-0.011135276 0.011777062 -0.029473389 -0.25041467 -0.78114402 -0.5719322 0.0031735243
-0.0091265449 0.011462069 -0.029888995 -0.17754894 -0.7627728 -0.62181509 0.0060383459
-0.0012878859 0.011665421 -0.02975432 0.19812544 -0.56783557 -0.79894257 0.0024250238
0.0014948049 0.012626573 -0.029295968 0.37099648 -0.44160932 -0.81691051 0.0014786347
0.0040309257 0.012717249 -0.028130563 0.42849496 -0.40597871 -0.80720097 0.002603814
0.006041795 0.013384977 -0.027321311 0.48728257 -0.37100846 -0.79051149 0.0016793917
-0.019423343 0.015943574 -0.028695628 -0.53429747 -0.80138332 -0.26890674 0.0012492973
-0.017343489 0.014531548 -0.028672069 -0.52105337 -0.80586517 -0.28121996 0.0013841912
0.0026054638 0.014689576 -0.029850192 0.46118084 -0.32271326 -0.82654005 0.0016371545
0.0044249194 0.015425082 -0.029078966 0.47522908 -0.31850523 -0.82019007 0.0015695487
0.0065917335 0.015663141 -0.027739361 0.5420686 -0.26608267 -0.79709572 0.00083285786
-0.024621844 0.019892685 -0.028303511 -0.57437491 -0.78009838 -0.24807243 0.00095666916
-0.022442643 0.018216945 -0.028771739 -0.577474 -0.78394806 -0.2279239 0.0007164781
-0.021043202 0.017209403 -0.029164679 -0.55307287 -0.79102546 -0.26151305 0.0018368504
0.0049330555 0.018271457 -0.029587876 0.56809348 -0.19104362 -0.80048245 0.00082001282
0.0070945155 0.018632416 -0.028129246 0.59040207 -0.1807279 -0.78661472 0.00090106815
-0.025442932 0.020729499 -0.029276656 -0.59359002 -0.77262366 -0.22517458 0.00036166547
0.005391242 0.020919494 -0.029914089 0.58961278 -0.12236302 -0.79836345 0.0019650133
0.0071756765 0.021650277 -0.028482927 0.65876997 -0.052426934 -0.75051552 0.0020154994
-0.030718235 0.025566917 -0.029434131 -0.68292779 -0.71631247 -0.14320007 0.00060780201
-0.029888825 0.024725638 -0.028745063 -0.67240942 -0.72778934 -0.13486384 0.00054397015
0.0070288023 0.024585322 -0.028681645 0.71795142 0.16793647 -0.67553174 0.019345993
-0.031553812 0.02641248 -0.030013271 -0.68780643 -0.71573412 -0.12102502 0.00011911792
0.0051498953 0.027986027 -0.029019456 0.75135744 0.42146096 -0.50777239 0.013636039
0.0062852176 0.02672866 -0.028963683 0.74277759 0.41944721 -0.52186728 0.013334774
0.002021173 0.031119321 -0.029295394 0.6609931 0.55151772 -0.50883806 0.0049607656
0.0037072971 0.030459221 -0.027921861 0.70077664 0.51778841 -0.49072117 0.0035109359
-0.00043807435 0.034463223 -0.029715724 0.6750347 0.46833828 -0.57007664 0.00073862856
0.0011509224 0.033491939 -0.028574428 0.67334998 0.4682743 -0.57211798 0.00085132098
0.0029128026 0.032473143 -0.02741883 0.68003738 0.50795615 -0.52870572 0.0018833897
-0.003406124 0.03784775 -0.03001029 0.6522162 0.5339027 -0.53810954 0.0020654628
-0.0014707177 0.036766108 -0.028669329 0.66381997 0.57288128 -0.48078072 0.0031664076
0.00022039702 0.03574077 -0.027600855 0.66745359 0.55141824 -0.5004434 0.001608411
-0.0044465847 0.039843649 -0.028793536 0.63265491 0.66897953 -0.39014634 0.00089422968
-0.0026913967 0.038795065 -0.027662981 0.6424703 0.63328809 -0.43148366 0.0012664768
-0.0095882136 0.044109408 -0.029011913 0.58168614 0.75901955 -0.29245603 0.0013680464
-0.0077325357 0.042705629 -0.028882466 0.58940738 0.74095869 -0.3218371 0.0030778605
-0.0057485704 0.041580588 -0.027824461 0.61157584 0.70769936 -0.35374659 0.0010927367
-0.013356583 0.046603858 -0.028381348 0.49223584 0.83188814 -0.25625375 0.00022926526
-0.011135073 0.045225926 -0.028881621 0.53486675 0.79876328 -0.27549008 0.0010831009
-0.0091742389 0.044228066 -0.027876087 0.57314599 0.76502788 -0.29365969 0.0014315079
-0.016180128 0.04779746 -0.029535614 0.45978642 0.83488727 -0.30258816 0.00076724793
-0.014859937 0.047139395 -0.029513724 0.46182334 0.84086281 -0.28225681 0.00049043924
-0.0092641618 0.0080363667 -0.024080999 -0.42210677 -0.81596464 -0.39500305 0.0044794325
-0.0073875366 0.0077242707 -0.02501094 -0.33458716 -0.82359803 -0.45797136 0.0022334575
-0.0047015678 0.0072072558 -0.025437966 -0.20269063 -0.80936229 -0.55122524 0.0023815287
-0.0016383219 0.0069268644 -0.025540996 -0.038797487 -0.74339914 -0.66772181 0.0040096189
0.0011880337 0.0069356984 -0.025249301 0.15966627 -0.67022139 -0.72478276 0.0044032382
0.0038762698 0.0073565184 -0.02477764 0.3003118 -0.58973318 -0.74968505 0.0023054283
0.0060533332 0.0078852689 -0.024228193 0.40591845 -0.50476742 -0.76186615 0.0013226202
-0.012985175 0.010729937 -0.025522524 -0.48149222 -0.8211664 -0.30635101 0.0016196679
-0.010701983 0.0095084235 -0.025600966 -0.44246495 -0.82920396 -0.3415342 0.0019706772
-0.0081185382 0.0087505998 -0.026343279 -0.25181356 -0.81780088 -0.51748592 0.0031965151
-0.0058745258 0.0084349131 -0.026847072 -0.15081793 -0.81898916 -0.55363411 0.0078514572
-0.00055547105 0.0084325289 -0.026984818 0.10372164 -0.68175882 -0.72418696 0.0066810171
0.0014793542 0.0086789904 -0.026711203 0.21772772 -0.62699974 -0.74797457 0.0022425817
0.0042928536 0.0095554469 -0.026179088 0.33729932 -0.53208381 -0.77660537 0.0018007135
0.0069096172 0.0099379104 -0.024989871 0.45668754 -0.44149032 -0.77234888 0.0025152049
0.0090304697 0.010714165 -0.024054386 0.51526487 -0.3832317 -0.76657397 0.0013151638
-0.016427383 0.013033034 -0.025668193 -0.54388255 -0.8036328 -0.2415909 0.0009345141
-0.014422554 0.011749067 -0.025966397 -0.51885402 -0.815301 -0.25705001 0.001036125
0.0052785352 0.011682219 -0.026963092 0.42240497 -0.39996859 -0.81338751 0.0022161347
0.0074270051 0.01245847 -0.025950635 0.54445088 -0.31509939 -0.77735806 0.001173723
0.0094407517 0.012781616 -0.024583202 0.57151663 -0.30470288 -0.76192182 0.001302827
-0.019942082 0.015770648 -0.026193071 -0.57980508 -0.79718399 -0.16829692 0.0025049571
-0.018124279 0.014239079 -0.02549202 -0.59888685 -0.78464329 -0.16021711 0.0019479007
0.0080705406 0.015292654 -0.026542466 0.59007174 -0.23029888 -0.77380741 0.00088644115
0.010018057 0.015692731 -0.025069794 0.63144797 -0.21741015 -0.7443161 0.00092743128
0.0085287997 0.017739724 -0.026914347 0.63057292 -0.13401745 -0.76447183 0.00097347453
0.01024916 0.018742692 -0.025518246 0.67935365 -0.076109283 -0.72985339 0.0025266879
0.010209268 0.021663707 -0.025761895 0.74674761 0.14947093 -0.64809448 0.015522141
0.0084003704 0.025627676 -0.025916334 0.77904594 0.44150153 -0.44515604 0.0040562586
0.0095106838 0.024034638 -0.025939483 0.73613828 0.40048787 -0.54562795 0.011264183
0.0054262858 0.028815664 -0.026956059 0.74459302 0.51241678 -0.42779696 0.002586165
0.0070873974 0.027719229 -0.025441697 0.75589913 0.486047 -0.43860549 0.0020049447
0.0049042823 0.031028107 -0.026084879 0.73803657 0.48742178 -0.46660709 0.0017158244
0.0062190639 0.030081809 -0.024973687 0.73517281 0.47871614 -0.47994971 0.0011624881
0.0020311172 0.03454468 -0.026430614 0.68073034 0.58090031 -0.44627446 0.001474597
0.0035990584 0.0334308 -0.02544841 0.69770557 0.55222797 -0.45634562 0.0022978764
-0.00048404536 0.037615083 -0.025989581 0.66375828 0.66557395 -0.34122765 0.0012079376
0.0010716962 0.036367644 -0.025282944 0.66941148 0.65423054 -0.35195255 0.00074863801
0.0027828552 0.035249718 -0.024138279 0.68680358 0.62893718 -0.36433348 0.0027426416
-0.003887193 0.040634461 -0.02615267 0.62136191 0.7364468 -0.26749876 0.00097394781
-0.0019952299 0.039267477 -0.025442522 0.64338201 0.69556248 -0.31976929 0.0014425768
-0.0071746362 0.043266505 -0.026027758 0.58223182 0.78281087 -0.21957523 0.00032047095
-0.0051521021 0.041867718 -0.025650151 0.62061077 0.73689532 -0.26800656 0.00097030739
-0.010310426 0.045236919 -0.026707731 0.54266864 0.79545826 -0.26973492 0.0011787801
-0.0087859128 0.044476498 -0.025498159 0.57651216 0.7872135 -0.21892618 0.00030833643
-0.0042149061 0.0047640754 -0.021823835 -0.33639732 -0.8313933 -0.4422918 0.003172233
-0.0015813204 0.0043364614 -0.022252582 -0.16620255 -0.81082302 -0.56119764 0.0038487352
0.0012632771 0.0040625115 -0.022212829 0.01146034 -0.76542091 -0.64342797 0.0044774492
0.0040163272 0.0042035878 -0.021983728 0.18205605 -0.68591583 -0.70453894 0.0035322898
0.0066338591 0.004608484 -0.021509375 0.32240292 -0.60127807 -0.73110944 0.0018094033
-0.0098839672 0.0077455556 -0.02224949 -0.51245886 -0.81314582 -0.27600694 0.0026798244
-0.0076631741 0.0067142937 -0.02274294 -0.38435924 -0.83187544 -0.40031391 0.0024168841
-0.0049751461 0.0057116421 -0.022979997 -0.27352634 -0.8320201 -0.48262408 0.0056578922
-0.0018484197 0.0054185698 -0.023709729 -0.084731922 -0.771963 -0.62999493 0.0032424917
0.0013815747 0.005426445 -0.023720689 0.085958771 -0.71637654 -0.69239861 0.0028365683
0.0043995082 0.0059479424 -0.023439046 0.23202877 -0.64636987 -0.72688973 0.0019762209
0.0073463013 0.0066368305 -0.022684913 0.40542099 -0.50753659 -0.76028979 0.0011496636
0.0098267542 0.00732644 -0.021709096 0.47098765 -0.46445143 -0.74997032 0.0015172296
-0.013201789 0.010043223 -0.02260606 -0.56733149 -0.80107629 -0.19081844 0.0022997754
-0.01125414 0.0087847123 -0.022772491 -0.51776057 -0.82215393 -0.23661558 0.00072604523
0.0081446115 0.0089355754 -0.023701958 0.50519454 -0.3982147 -0.76563925 0.0017754142
0.010210407 0.0095930928 -0.022694774 0.51842159 -0.3892436 -0.76139897 0.0013283681
0.01204621 0.010053428 -0.021496357 0.58672613 -0.33792058 -0.73590899 0.00090875302
-0.016442817 0.012524189 -0.023105588 -0.60411566 -0.78164947 -0.15513957 0.0019681163
-0.014865881 0.011398605 -0.023423396 -0.56020838 -0.80559343 -0.19283657 0.0026605052
0.010894706 0.012385549 -0.023281222 0.61593401 -0.25165477 -0.74652207 0.00064794719
0.012803093 0.01271366 -0.021842472 0.64062327 -0.23744151 -0.73022145 0.00086769572
-0.019620046 0.015239841 -0.022154935 -0.60888785 -0.78274113 -0.12873228 0.0010515464
0.011514943 0.015269924 -0.023681145 0.65776694 -0.17311144 -0.73305881 0.0010407449
0.013175545 0.015746245 -0.022222344 0.67730427 -0.15379444 -0.71944851 0.00077579077
0.011710489 0.017857673 -0.023955453 0.71813262 -0.036334798 -0.69495714 0.0028661932
0.013206294 0.01862373 -0.022517622 0.7649734 0.021721661 -0.64369553 0.0035050281
0.011715296 0.022330053 -0.023776926 0.83555025 0.26158169 -0.48314679 0.01662793
0.012645449 0.021146735 -0.022514839 0.82508624 0.30878991 -0.47316116 0.011607747
0.010427994 0.024968348 -0.022440352 0.79772687 0.44597989 -0.40587407 0.0020026413
0.011782092 0.023354046 -0.021296151 0.81380093 0.42435774 -0.39704987 0.0024285305
0.0082709352 0.028155748 -0.023459814 0.76462358 0.44087979 -0.47008058 0.0012574383
0.0095441518 0.027253866 -0.022246704 0.77588415 0.44750464 -0.44468355 0.0011538768
0.0073368391 0.030537941 -0.022619719 0.74624628 0.51379311 -0.42324123 0.0023014194
0.0090918373 0.029209681 -0.021055408 0.78162366 0.50947529 -0.35986021 0.0016571282
0.0047167763 0.0338673 -0.022952229 0.71580648 0.60386723 -0.35066417 0.0023806999
0.0061123362 0.032641001 -0.022050995 0.7284019 0.57145751 -0.37797755 0.0012496349
0.0016165888 0.037192333 -0.022306465 0.63794535 0.72990835 -0.24547827 0.0011310695
0.003150872 0.035752326 -0.022379728 0.67771971 0.66448528 -0.31488946 0.00081803912
-0.0034694963 0.041113306 -0.023472436 0.6227743 0.74479955 -0.23963681 0.00092319527
-0.0012389007 0.039503675 -0.022762839 0.62518656 0.74916029 -0.21886235 0.00064766745
0.00010430277 0.03851705 -0.022523202 0.63889527 0.73275936 -0.23425721 0.00092886417
-0.0045927633 0.0420614 -0.022911884 0.59887856 0.77455157 -0.2035051 0.00028341892
-0.00069136173 0.0016824408 -0.018525921 -0.30275032 -0.82995218 -0.46853131 0.0025535016
0.0013588942 0.0014721961 -0.018852711 -0.1253226 -0.81677127 -0.56318653 0.0038143604
0.0041669542 0.0013430249 -0.018850885 0.052291173 -0.76084024 -0.64682895 0.0041665118
0.0070125535 0.0015047574 -0.018497586 0.22095162 -0.68302202 -0.69617623 0.0027811313
-0.0070169615 0.0048452979 -0.018813998 -0.52035606 -0.80948514 -0.27196196 0.0041258247
-0.004730545 0.0039195204 -0.019649187 -0.39583537 -0.83326036 -0.38599432 0.003788583
-0.0017610658 0.0028323103 -0.019812915 -0.22180849 -0.82630306 -0.51771057 0.0026331691
0.0011409428 0.0025208052 -0.020299491 -0.050780848 -0.79411983 -0.60563606 0.0023973582
0.0043338579 0.0026936363 -0.020367514 0.11082213 -0.73390561 -0.67014998 0.0024143904
0.007501415 0.0032989797 -0.019979026 0.28790352 -0.62957895 -0.72162461 0.0031877626
0.010124481 0.0038192295 -0.019154686 0.39960802 -0.54420167 -0.73767066 0.0023971705
0.012255069 0.004565754 -0.018433046 0.51462466 -0.4507035 -0.72940236 0.0017220787
-0.010377016 0.0073089497 -0.019437665 -0.54610842 -0.80847681 -0.21938738 0.001014906
-0.0079628555 0.0058482639 -0.02006837 -0.45651227 -0.83398563 -0.30994293 0.0020278206
0.01060444 0.0061439956 -0.020470139 0.44722435 -0.47450989 -0.75817603 0.0022323951
0.013010368 0.0069103399 -0.019229494 0.5692904 -0.36121362 -0.73853439 0.00065100467
0.015035925 0.0081326729 -0.018120177 0.61198872 -0.3341684 -0.71679938 0.0013548608
-0.012731062 0.0092232367 -0.020285673 -0.56980687 -0.79989076 -0.18840125 0.0016838956
-0.012082459 0.008563227 -0.019401558 -0.59164882 -0.78783965 -0.17105676 0.0007286098
0.013507592 0.0095523028 -0.020004909 0.62530529 -0.2808854 -0.72807741 0.00059374823
0.015375923 0.0099336803 -0.018567406 0.64776742 -0.25925481 -0.71636891 0.0010437641
-0.015452285 0.011486947 -0.019769318 -0.6153056 -0.7771067 -0.13230401 0.00082923495
0.014106084 0.012276128 -0.020527303 0.67370617 -0.20226851 -0.71077943 0.0008973006
0.015697716 0.012730084 -0.019061638 0.71421844 -0.15466057 -0.68262154 0.0026692161
0.014492175 0.015283236 -0.020849777 0.74273098 -0.030630302 -0.66888893 0.006616211
0.015820544 0.015620472 -0.019457642 0.75786853 0.009534331 -0.65233767 0.0042484864
0.014525615 0.019599564 -0.019848175 0.85371768 0.25882161 -0.45185995 0.005872556
0.015472129 0.018132187 -0.019502506 0.80553097 0.25670779 -0.53406084 0.0095635038
0.013599358 0.021847006 -0.019296831 0.81213802 0.40102839 -0.4238019 0.00084318582
0.011353013 0.025645591 -0.020517822 0.81814688 0.397917 -0.41508773 0.0011127952
0.012472525 0.024375238 -0.019495094 0.80990589 0.40153888 -0.42757341 0.0014147706
0.010623768 0.027798496 -0.019679315 0.80615014 0.44715798 -0.38751984 0.0015827434
0.011851534 0.026428141 -0.018717058 0.79788584 0.44060805 -0.41139117 0.0019853888
0.0081655663 0.031195577 -0.019824244 0.75190634 0.60169578 -0.26944217 0.0013297567
0.0094284313 0.029852703 -0.019316636 0.76676172 0.55747133 -0.31828004 0.0017857453
0.0050553838 0.034665816 -0.020267058 0.6939193 0.6876201 -0.21366945 0.0012835104
0.0066834539 0.03299123 -0.019786997 0.73164111 0.63189507 -0.25575399 0.0011068312
0.0034811152 0.036273967 -0.019892603 0.66861212 0.71283364 -0.21172139 0.0011213156
-0.0012493154 0.0400755 -0.020203568 0.6208753 0.76264459 -0.18134815 0.00026245692
0.00077751419 0.038566217 -0.019452281 0.64636475 0.73432529 -0.20731367 0.00095365552
0.0019189729 -0.00093482807 -0.015307583 -0.26882055 -0.83719242 -0.47628176 0.0040490041
0.0043837479 -0.0011226544 -0.015677564 -0.072831132 -0.81323093 -0.57736558 0.0035824485
0.0072778892 -0.0011437619 -0.015560889 0.093541525 -0.76433682 -0.63799626 0.0029535794
0.0094386758 -0.00093516801 -0.015243091 0.264671 -0.69605273 -0.66742778 0.0030651777
-0.0037725973 0.0017986288 -0.015704371 -0.49347815 -0.80852818 -0.3205643 0.0037952177
-0.0015679462 0.0010180338 -0.016531816 -0.34719265 -0.83665407 -0.42363575 0.00241443
0.0012007044 0.00017501693 -0.016777884 -0.17476404 -0.83028197 -0.52923471 0.0026088988
0.0041814805 -1.8028542e-05 -0.017141977 -0.009600196 -0.79232198 -0.61002755 0.002379261
0.007520874 0.00024071336 -0.017053217 0.17271033 -0.71054614 -0.68212575 0.003567918
0.010289115 0.00069307769 -0.016498623 0.29761535 -0.65202808 -0.69734097 0.0012285355
0.012757933 0.0013147579 -0.01571345 0.42338464 -0.57040679 -0.70383346 0.0022587564
-0.0071086749 0.0041996455 -0.01640968 -0.55704564 -0.79838413 -0.2286545 0.0014800944
-0.0048969937 0.0028448058 -0.016747681 -0.50799662 -0.8197298 -0.26454195 0.0015073521
-0.0030714369 0.0022493219 -0.017809398 -0.38511866 -0.84596694 -0.36881384 0.0049372758
0.010971824 0.0025082361 -0.017743293 0.35092148 -0.59753001 -0.72097987 0.0015110814
0.013453318 0.0034242757 -0.016835462 0.47695398 -0.52071649 -0.70807439 0.00099697441
0.015628552 0.0041278903 -0.015694624 0.57124507 -0.42741033 -0.70071352 0.0017336692
-0.010127427 0.0065691425 -0.016381308 -0.57390851 -0.79732168 -0.1868346 0.00025966702
-0.0087425988 0.0056506759 -0.017383419 -0.57241881 -0.79790139 -0.18891826 0.00028996391
0.014337635 0.0058736997 -0.0177272 0.58713865 -0.35650584 -0.72675431 0.0010312783
0.016161896 0.00662148 -0.016502898 0.63901186 -0.31832021 -0.70023996 0.00051474472
0.017984008 0.0073817996 -0.015227035 0.66632777 -0.29568899 -0.68452567 0.0010299199
0.016647311 0.0093232086 -0.017202405 0.66365057 -0.23526329 -0.71008384 0.0015720474
0.018228453 0.0096880067 -0.015744269 0.72462583 -0.1798189 -0.66526878 0.0023150786
0.017061863 0.012479052 -0.017576521 0.73989534 -0.098342679 -0.66549498 0.0026735691
0.018492734 0.012662854 -0.01608135 0.7999301 -0.0035092323 -0.60008293 0.0081241326
0.017262124 0.015786977 -0.017422806 0.82912022 0.12323978 -0.54531795 0.0089450246
0.01805586 0.015346956 -0.01624443 0.8182618 0.19521467 -0.54068375 0.0090736412
0.016504865 0.018788431 -0.016345764 0.83991164 0.35151315 -0.41350561 0.0003656437
0.014418792 0.022460442 -0.017621262 0.83242458 0.39430806 -0.38934618 0.0012932244
0.015518101 0.02127737 -0.016451973 0.82585621 0.38769066 -0.40946001 0.0010143677
0.013785265 0.024628621 -0.016648389 0.81469035 0.47036645 -0.3391681 0.0013130415
0.015128814 0.023208357 -0.015424974 0.80265611 0.46081007 -0.37867844 0.0022047681
0.011222553 0.028586704 -0.016787618 0.78942961 0.5614332 -0.24818055 0.00086120365
0.012307268 0.027068712 -0.016559184 0.79419309 0.53394186 -0.29010937 0.0024398079
0.008731287 0.03178791 -0.016469426 0.75982249 0.60381162 -0.24100071 0.001193782
0.0098634744 0.030413773 -0.016636737 0.76040155 0.60295844 -0.24131021 0.0012066056
0.0071381629 0.033369236 -0.016597979 0.73092514 0.64983588 -0.20847504 0.00045204791
0.0023642485 0.037584834 -0.017748244 0.65235108 0.74140638 -0.15733588 0.00042746615
-0.00070836395 -0.0010626474 -0.012862228 -0.44027647 -0.82399964 -0.35662484 0.0019116589
0.0013655997 -0.0016821837 -0.013549078 -0.30280784 -0.83494347 -0.45953971 0.0023201101
0.0042591011 -0.0024591405 -0.013650637 -0.15118004 -0.83741951 -0.52523631 0.0040822863
0.0071867993 -0.0027758721 -0.013535522 0.0060214438 -0.81516743 -0.57919419 0.0029740629
0.010160833 -0.0022858605 -0.0135427 0.2109805 -0.71959007 -0.66157192 0.00083843438
0.012998831 -0.0016732719 -0.01298897 0.36835757 -0.63583565 -0.67825192 0.0017798039
0.014927028 -0.0011034198 -0.012406376 0.45765391 -0.56949842 -0.68280637 0.0012381282
-0.0041530067 0.0013431176 -0.013659731 -0.53024751 -0.80197585 -0.27508619 0.0012311756
-0.0019961149 3.6383048e-05 -0.013760597 -0.47267225 -0.82570446 -0.30788475 0.0015450034
9.6109463e-05 -0.00048086885 -0.014915772 -0.31583509 -0.84647721 -0.42863098 0.0031070185
0.011499474 -0.00048113707 -0.014851637 0.30162957 -0.66067922 -0.68740273 0.0013579365
0.013675971 0.00025377702 -0.014268739 0.42319936 -0.57694769 -0.69859409 0.0033789505
0.016189596 0.00082355784 -0.013022837 0.51517993 -0.50091273 -0.69546825 0.0021705874
0.017992511 0.0018023765 -0.012234397 0.58475655 -0.45839223 -0.66928047 0.0013144318
-0.0072867312 0.0037597758 -0.013760953 -0.58765119 -0.79101557 -0.17017788 0.00066878257
-0.0057036756 0.0024111881 -0.013366389 -0.5880509 -0.78571695 -0.1919505 0.0015820392
0.016742017 0.0032797656 -0.014225745 0.60509527 -0.3925381 -0.69265687 0.00084829581
0.018616684 0.0039398083 -0.012858134 0.6385175 -0.38470456 -0.66655672 0.00074410997
-0.0090222359 0.0054467386 -0.015049346 -0.57780617 -0.79227036 -0.1960808 0.00039693221
0.017427344 0.0056761568 -0.014899693 0.64583194 -0.32361808 -0.69150025 0.00049747567
0.019271765 0.0065983809 -0.013534636 0.72076464 -0.2569499 -0.6437974 0.00088433153
0.01987575 0.0094851786 -0.013815349 0.77524084 -0.14928079 -0.61377263 0.0012175196
0.02120392 0.0098334197 -0.012260896 0.83992696 -0.078218214 -0.53703314 0.0079651317
0.020110874 0.012534758 -0.013735012 0.84851235 0.12332189 -0.51460516 0.0085067609
0.021207618 0.011441625 -0.012184627 0.8654263 0.18365273 -0.46616414 0.0040070992
0.019224873 0.01566733 -0.013453806 0.85955143 0.27723199 -0.42931783 0.0012580776
0.017357023 0.019518424 -0.014374502 0.84037948 0.38438934 -0.38210893 0.0017732226
0.018371454 0.018216571 -0.01342651 0.84122288 0.35774982 -0.40541223 0.00088490179
0.016659997 0.021664936 -0.013677277 0.83547616 0.40718809 -0.36902228 0.0014434765
0.017985471 0.020153023 -0.012406416 0.83184075 0.42651686 -0.35513976 0.0021134703
0.014351515 0.025286365 -0.014119925 0.81614196 0.50562 -0.27975109 0.001683622
0.015503932 0.023847058 -0.013404074 0.81526911 0.50467914 -0.28396359 0.0019722793
0.013173377 0.027041409 -0.013802929 0.79725385 0.55578405 -0.23556413 0.00075948407
0.011073755 0.029704031 -0.013644286 0.78364819 0.57487726 -0.23539662 0.00058025017
0.0023998097 -0.0041994834 -0.0094936565 -0.44028491 -0.80359483 -0.40048039 0.0021451076
0.0045484304 -0.0046264073 -0.010198228 -0.2927269 -0.83278316 -0.46987569 0.0019973211
0.0073043182 -0.0049667787 -0.010546623 -0.076539867 -0.81658435 -0.57212901 0.0035326523
0.010146544 -0.0050250683 -0.010349404 0.10519777 -0.77334511 -0.62519652 0.0027636311
0.013039052 -0.0047080265 -0.0098557398 0.28201279 -0.70207071 -0.65388495 0.0022647919
0.015106106 -0.0042009139 -0.0093828365 0.41067111 -0.63799047 -0.65139651 0.0011841694
-0.0013686026 -0.0015755314 -0.010472402 -0.54016125 -0.78741759 -0.29698381 0.0032390766
0.0011751731 -0.0029646279 -0.010771642 -0.42824826 -0.82821345 -0.36147746 0.0023670101
0.0037693712 -0.0035980195 -0.011579257 -0.26044008 -0.83966041 -0.47659349 0.0057412023
0.010889968 -0.0037105205 -0.011777624 0.16469617 -0.73736465 -0.65510958 0.00188082
0.013406487 -0.0032056402 -0.011282596 0.30575413 -0.6818952 -0.66447973 0.0016616263
0.016151808 -0.002275195 -0.010496991 0.42999491 -0.60798556 -0.66742629 0.0011352627
0.018405385 -0.0012731068 -0.0096702399 0.58107424 -0.49937454 -0.6426335 0.00098448398
-0.0043553198 0.00080597261 -0.011150253 -0.5894286 -0.78196853 -0.20272937 0.0020843851
-0.0029786562 -0.00034547225 -0.010773428 -0.59798622 -0.77151173 -0.21721472 0.0023038283
0.017257728 -0.00018930342 -0.011467241 0.56733143 -0.49353531 -0.65921003 0.0014652062
0.019124016 0.00071838219 -0.01040671 0.62738359 -0.41660187 -0.65790033 0.00068132184
0.020889388 0.0015744334 -0.0092138425 0.66984683 -0.39718306 -0.62733626 0.00082183542
-0.0066117849 0.0024988567 -0.0092275962 -0.62370926 -0.76513416 -0.15986417 0.00044257296
0.019846264 0.0032339483 -0.011279416 0.67582661 -0.34275538 -0.65251601 0.00099702342
0.021359909 0.0038696448 -0.0099585988 0.72880185 -0.30631432 -0.61238825 0.0019768223
0.020299532 0.0054765856 -0.01197011 0.69387144 -0.30277073 -0.65335464 0.0011640412
0.021780865 0.0066160047 -0.010589137 0.8024863 -0.170589 -0.57176495 0.0044714604
0.022114417 0.0094521763 -0.010600505 0.88438201 0.067547433 -0.46185032 0.0043854336
0.021538744 0.012712048 -0.01043727 0.88971704 0.22591203 -0.39669549 0.001097306
0.020216456 0.016063385 -0.01128336 0.87724888 0.3174946 -0.36004373 0.0015103432
0.021000544 0.015181214 -0.010115446 0.87612164 0.32282552 -0.35804257 0.0014519147
0.01943342 0.018611923 -0.010798708 0.86155105 0.38570979 -0.33008739 0.0015806712
0.017238049 0.022286613 -0.010993399 0.82111037 0.50122482 -0.27304104 0.0018828551
0.018374559 0.02077893 -0.010415234 0.82859731 0.47840613 -0.290782 0.0023386176
0.015760962 0.024572164 -0.010449709 0.8081218 0.54386842 -0.22615567 0.0003599507
0.014341773 0.026164688 -0.01158727 0.79352683 0.55912244 -0.2402025 0.00061701628
0.0054350719 -0.0070274482 -0.0065790042 -0.3342866 -0.81751806 -0.4689528 0.0010336404
0.0074219415 -0.007352245 -0.0069610425 -0.16851829 -0.83598512 -0.52223599 0.0033405845
0.010305523 -0.0074814195 -0.0071420944 0.018424433 -0.81387776 -0.58074391 0.0027812338
0.013202982 -0.0073561529 -0.0067627761 0.19627315 -0.75923038 -0.62052077 0.0022668061
0.015209431 -0.0070321197 -0.0063372031 0.34272087 -0.69610471 -0.63085711 0.0014098898
0.0016735257 -0.0047295941 -0.0074232467 -0.47868684 -0.80397183 -0.35282877 0.0031596073
0.0041738758 -0.0058569321 -0.0077558747 -0.361673 -0.83264554 -0.41939735 0.0031096626
0.0070808809 -0.0063432278 -0.0084412415 -0.11673289 -0.82132107 -0.55839521 0.0023776854
0.010550903 -0.0063872589 -0.0085656326 0.062328503 -0.79730928 -0.60034424 0.0023392446
0.013498714 -0.0060181748 -0.0082110474 0.22488555 -0.73701447 -0.63736653 0.0015415027
0.016235702 -0.005325824 -0.0075583113 0.36294201 -0.67009413 -0.64749289 0.0010563497
0.018637748 -0.0046507558 -0.0065743532 0.53460151 -0.56735551 -0.62634563 0.0013014046
-0.0014189389 -0.0024842173 -0.0076775798 -0.56568927 -0.78234929 -0.26062453 0.0023771543
0.00043606851 -0.0036371658 -0.0082000792 -0.52721816 -0.79802001 -0.29189914 0.0022904086
0.01736903 -0.0034394879 -0.0086217402 0.48955974 -0.58764738 -0.64420635 0.00041835514
0.019418243 -0.0024905736 -0.0077461922 0.56816447 -0.52195251 -0.63620329 0.0025833584
0.021302616 -0.0015049167 -0.006629318 0.6370011 -0.46935853 -0.61149997 0.00081637473
-0.0047710882 0.00064864336 -0.0085485997 -0.63851267 -0.7521221 -0.16313779 0.00059290376
0.020339416 -0.0001610266 -0.0086110532 0.64287156 -0.43834895 -0.62814522 0.00048103114
0.021953553 0.00068979757 -0.0074527152 0.70225269 -0.38039175 -0.60178334 0.0020543733
0.022758797 0.0034399014 -0.0079712067 0.79451251 -0.24569526 -0.55532306 0.0021482932
0.023957979 0.0041332324 -0.006610699 0.83219206 -0.19338782 -0.51967067 0.0043306262
0.02337891 0.0065656612 -0.0082324408 0.86315811 -0.085414007 -0.49765715 0.0040821214
0.024155712 0.0066920677 -0.006539356 0.88713986 -0.021944523 -0.46097872 0.0031206482
0.023140054 0.0099363374 -0.0084102657 0.89157385 0.086413436 -0.44455451 0.0025813186
0.023787117 0.0097086215 -0.0069024125 0.91731614 0.12748292 -0.37719914 0.0013425748
0.022814833 0.012706578 -0.0077417311 0.89604133 0.27729985 -0.34672013 0.0015971458
0.023832958 0.011586956 -0.0060511604 0.91215968 0.26918519 -0.30903742 0.0019593518
0.021809133 0.015527437 -0.0077571422 0.87501502 0.36956763 -0.31267944 0.0019662231
0.020117711 0.01896194 -0.0078881998 0.85682553 0.45604756 -0.24056304 0.0036644172
0.021231635 0.017375104 -0.0069032088 0.86699015 0.41330525 -0.27840057 0.00077694556
0.017467758 0.022892654 -0.0080792829 0.81695133 0.53690785 -0.21052407 0.00096465397
0.018851025 0.021031559 -0.0082419291 0.83006537 0.52054721 -0.20005523 0.0010239446
0.0082836887 -0.0099024931 -0.003299363 -0.24613784 -0.82611454 -0.50690335 0.0020212843
0.01034043 -0.010084127 -0.0035258131 -0.087218486 -0.81685096 -0.57021707 0.0041584903
0.012918359 -0.010039073 -0.0034555364 0.1163741 -0.79274601 -0.59833997 0.0022047942
0.015085692 -0.0099083269 -0.0030730739 0.27330357 -0.74098456 -0.61338979 0.0017007014
0.0024270853 -0.0070936913 -0.0031622723 -0.55160499 -0.77322584 -0.31281567 0.0024247912
0.0045706751 -0.0077465093 -0.0044741658 -0.40155768 -0.80562735 -0.43556395 0.002551015
0.0072910748 -0.0087327184 -0.0047027855 -0.19919471 -0.81914687 -0.53788465 0.0022674699
0.010279581 -0.0088978419 -0.0051832213 -0.015322523 -0.81394595 -0.58073848 0.0021302921
0.013399655 -0.0087849582 -0.0049449462 0.14319174 -0.77592462 -0.6143592 0.0015990201
0.016157914 -0.0081736846 -0.0045517916 0.28737205 -0.72329599 -0.62790149 0.0014109885
0.018555844 -0.0075505367 -0.0037566954 0.47890916 -0.62451494 -0.61694992 0.0016574454
-0.00053954241 -0.0044267252 -0.0039926246 -0.61704928 -0.74504209 -0.25330326 0.0021190359
0.0012194067 -0.0055627534 -0.0047264346 -0.56337082 -0.77131546 -0.29611784 0.0015602517
0.003038364 -0.0064262031 -0.005539862 -0.51164949 -0.77810836 -0.3643654 0.002379481
0.017091768 -0.006576919 -0.0057857707 0.37824094 -0.66154677 -0.64752585 0.0011970439
0.01948694 -0.0056929486 -0.0048509492 0.48789957 -0.60587579 -0.6283856 0.0016162607
0.021441786 -0.0048008747 -0.003733851 0.59090406 -0.53543496 -0.60344166 0.00096336682
-0.0036414645 -0.00098637585 -0.0057311729 -0.68144137 -0.71094429 -0.17376952 0.0012751779
-0.0021237703 -0.0027343743 -0.0045774519 -0.67580318 -0.70787686 -0.20542736 0.0021253007
0.02058558 -0.0035485784 -0.0057935193 0.59824193 -0.51355302 -0.61511773 0.00052485056
0.022402542 -0.002499776 -0.0046461695 0.69524324 -0.43261775 -0.57400239 0.00081524724
0.024092263 -0.0013503553 -0.003411971 0.7437501 -0.40350112 -0.53293771 0.0022846125
-0.0045797476 -5.5480748e-05 -0.0052428418 -0.67607927 -0.72099489 -0.15193124 0.00068537903
0.023260728 0.00021095295 -0.0055486294 0.74057508 -0.33741137 -0.58112144 0.0014402574
0.024473837 0.00080152182 -0.0042158207 0.80231506 -0.28753561 -0.523081 0.0026768532
0.024861963 0.0034573856 -0.0047562011 0.8780461 -0.12176964 -0.46282524 0.0041032014
0.02508733 0.0067179007 -0.0044591404 0.92236048 0.053798664 -0.38256615 0.0018290321
0.024658272 0.0094269514 -0.0047451127 0.93075943 0.1685183 -0.32448187 0.0016201631
0.023403751 0.013702123 -0.0053612515 0.90607804 0.30279559 -0.29552934 0.0019239298
0.024126802 0.012296427 -0.0043175807 0.91774487 0.2594544 -0.30071223 0.0018460634
0.022778966 0.015427627 -0.0045529935 0.88905334 0.38559529 -0.24678008 0.00095026847
0.021324554 0.017913915 -0.0049643591 0.85554081 0.44905698 -0.25767758 0.0031584341
0.018262275 0.022315882 -0.0056430474 0.82669926 0.53178489 -0.18377469 0.00067591516
0.0053584399 -0.010154543 -0.00084667373 -0.44806683 -0.78216839 -0.43295339 0.0025474522
0.0074607348 -0.010763769 -0.0014602626 -0.29633951 -0.81386304 -0.49980983 0.0024426728
0.010197722 -0.011439717 -0.0015107086 -0.11679902 -0.82359332 -0.55502439 0.0038037335
0.013343979 -0.01144956 -0.0015143473 0.07451342 -0.8017664 -0.59297413 0.002142099
0.0162814 -0.010820738 -0.0014229678 0.26820463 -0.74950832 -0.60523021 0.0025540565
0.018651962 -0.010298905 -0.00073546357 0.42210278 -0.67929071 -0.60032773 0.0012293337
0.0018295045 -0.0074673193 -0.0012387112 -0.59381944 -0.7375195 -0.32162622 0.0023659877
0.0040642591 -0.0088352701 -0.0018022209 -0.50248593 -0.77942252 -0.37417689 0.0025435719
0.0061811358 -0.0094454223 -0.0028346255 -0.33858877 -0.8193323 -0.46265778 0.0044412501
0.017088948 -0.0093292603 -0.0027918294 0.30360824 -0.71604347 -0.62857276 0.0016931196
0.019450583 -0.0086253257 -0.0019775396 0.43355927 -0.65577883 -0.61804575 0.00091441488
0.021478219 -0.0078076301 -0.001055303 0.57168984 -0.57759649 -0.58271188 0.0017515795
-0.0007417032 -0.0050103897 -0.0014177933 -0.7036888 -0.68024951 -0.20514056 0.0020786144
0.0006692498 -0.0062396321 -0.0017500222 -0.67230833 -0.69638962 -0.25108349 0.0012805945
0.020716799 -0.0066286409 -0.0029600933 0.58209085 -0.55365312 -0.59551531 0.00092236046
0.022634823 -0.0056231236 -0.0017964896 0.66123044 -0.48867959 -0.56918067 0.00097317889
0.024287216 -0.0048657022 -0.00053602736 0.70078117 -0.45429578 -0.55001915 0.0017284516
-0.0039158994 -0.0012429291 -0.0017072186 -0.7375111 -0.66291338 -0.12893106 0.00078714907
-0.0022725663 -0.003363587 -0.0012983158 -0.746768 -0.64744377 -0.15216494 0.0011256955
0.023391159 -0.0036623906 -0.0026373044 0.66929972 -0.46361336 -0.58060354 0.00071062514
0.024924751 -0.0024020635 -0.0014451779 0.76842803 -0.37893608 -0.5156799 0.0015705378
0.025921728 0.00052030524 -0.0016654097 0.87487453 -0.1761467 -0.4511838 0.0034912149
0.026155474 0.0036920197 -0.0021857098 0.91607928 -0.046586577 -0.39828187 0.0032060917
0.026985198 0.0041755205 -0.00010634214 0.95627439 -0.0017793915 -0.29246563 0.0047858767
