# .PCD v0.7 - Point Cloud Data file format
VERSION 0.7
FIELDS x y z normal_x normal_y normal_z curvature
SIZE 4 4 4 4 4 4 4
TYPE F F F F F F F
COUNT 1 1 1 1 1 1 1
WIDTH 550
HEIGHT 1
VIEWPOINT 0 0 0 1 0 0 0
POINTS 550
DATA ascii
-0.041673325 0.066504657 -0.013922245 -0.88876551 0.20191678 -0.41149175 0.0089901369
-0.022154873 0.066242442 -0.013717467 0.25387359 0.56263089 -0.78676212 0.01826521
-0.019431811 0.065766379 -0.013413582 0.19368644 0.62638432 -0.7550683 0.012033379
-0.016550351 0.065376304 -0.013040228 0.16813657 0.65692359 -0.73497045 0.0055922074
-0.013577777 0.065206587 -0.012520796 0.16587244 0.68059415 -0.71363717 0.0059105968
-0.01050209 0.064727299 -0.012263207 0.19356863 0.67233169 -0.71449363 0.0023913595
-0.0078437924 0.064377256 -0.011846332 0.23758502 0.6706484 -0.70269781 0.0029597136
-0.0059312987 0.064150751 -0.011316658 0.28493693 0.73531628 -0.61491543 0.0031018283
-0.041273165 0.068436719 -0.013327114 -0.84564042 0.36691195 -0.38764399 0.014493966
-0.030908622 0.06952177 -0.013709665 0.40697035 0.54147619 -0.73564845 0.0099555757
-0.028388582 0.068614297 -0.013647145 0.33874795 0.57837433 -0.74211383 0.0098331971
-0.025520911 0.067759529 -0.013415816 0.25751281 0.59342277 -0.76258546 0.0025889622
-0.022576276 0.067473784 -0.012464724 0.25731128 0.66267771 -0.70331293 0.00495402
-0.019751698 0.067295611 -0.011852104 0.17887118 0.71682149 -0.6739229 0.0046064081
-0.016543079 0.066905364 -0.011408568 0.17788792 0.74943471 -0.6377331 0.0031736437
-0.040276501 0.070596918 -0.014137329 -0.83090627 0.38460067 -0.40209079 0.013812033
0.0080178082 0.021320812 -0.0085093826 -0.22567537 -0.31867626 -0.92060637 0.0018335654
0.010548061 0.020703733 -0.008660852 -0.032005303 -0.27978718 -0.95952839 0.0026844726
0.013310907 0.020814864 -0.0085669095 0.14487715 -0.24407372 -0.95887357 0.0027018371
0.01540227 0.021849426 -0.0083373794 0.39988431 -0.18286513 -0.89813852 0.0037924324
0.0050193104 0.023998937 -0.0086627705 -0.3457365 -0.34723094 -0.87172067 0.0018243551
0.0074881446 0.023429392 -0.0091379527 -0.18947881 -0.31083316 -0.93138629 0.0020150729
0.010495888 0.023409694 -0.009481281 0.0081783189 -0.26671311 -0.9637413 0.0021013729
0.013518346 0.023427181 -0.0091791106 0.21324405 -0.20575224 -0.95508796 0.0046623652
0.015766954 0.023603449 -0.0085419184 0.40069655 -0.17091022 -0.9001289 0.0035761581
0.002155409 0.027055226 -0.0086761722 -0.42879957 -0.38972333 -0.81501329 0.0017924936
0.0044702636 0.026426423 -0.0094160046 -0.31169963 -0.34849426 -0.88396555 0.0020629545
0.0074715726 0.026377715 -0.010171579 -0.13017137 -0.31758311 -0.93925309 0.002077827
0.010475966 0.026366666 -0.010344412 0.058268029 -0.27233267 -0.96043724 0.003522587
0.013498714 0.02639989 -0.0098327799 0.29316252 -0.18234116 -0.93851334 0.0046014581
0.016139699 0.02656398 -0.0087838843 0.46507749 -0.11161005 -0.87820619 0.0034199625
-0.00075991079 0.030140925 -0.0086404588 -0.49600685 -0.44083214 -0.74809372 0.0017969244
0.0014903075 0.029461175 -0.0095135923 -0.41099668 -0.39231089 -0.82290572 0.0016442895
0.0044267601 0.029323557 -0.010580796 -0.25030997 -0.37845948 -0.89113033 0.001847793
0.0073481277 0.028784435 -0.010963907 -0.097520635 -0.33189699 -0.93826121 0.0025153232
0.010656162 0.029006904 -0.011003424 0.10072725 -0.24513097 -0.96424317 0.0032365939
0.013482977 0.029372511 -0.01036252 0.34469396 -0.14602837 -0.92728728 0.004637673
0.01634128 0.029423876 -0.0089147966 0.52856725 -0.058135729 -0.84689838 0.0034456546
-0.0034744896 0.033318676 -0.0087477984 -0.54939145 -0.47513562 -0.68732458 0.0012840796
-0.0014785958 0.032536928 -0.0095567927 -0.4159984 -0.45350876 -0.78821009 0.0009384455
0.0011975538 0.032023843 -0.010632693 -0.34284565 -0.40904936 -0.84565681 0.001031058
0.0036702745 0.031120621 -0.011102397 -0.21754536 -0.36473227 -0.9053421 0.0028803402
0.013695369 0.032293335 -0.010617035 0.42040527 -0.080004729 -0.90380228 0.0056552859
0.016233573 0.032365732 -0.0090595474 0.59021342 0.0016360286 -0.80724561 0.0035389017
-0.0065895193 0.036532264 -0.0087261507 -0.5779919 -0.52488154 -0.62483978 0.0016772854
-0.0044674184 0.035453148 -0.0095037175 -0.49438649 -0.49262729 -0.71617061 0.0021546839
-0.0019347806 0.034967989 -0.010744215 -0.3928898 -0.44883981 -0.80260861 0.0011171604
0.013939021 0.035368577 -0.010568023 0.52467746 0.01857133 -0.85109854 0.0026521995
0.01601078 0.035329524 -0.0090524191 0.64775646 0.079246305 -0.75771475 0.0031296792
-0.009381582 0.039343182 -0.0084619131 -0.62346607 -0.53265178 -0.57233912 0.0016428455
-0.0074379835 0.038641874 -0.0096091386 -0.53333229 -0.51313263 -0.67249656 0.0024571528
-0.0050805467 0.037716117 -0.010632482 -0.46562332 -0.46869305 -0.75068086 0.0024061298
0.013877916 0.038388271 -0.010412368 0.57879055 0.093341917 -0.81011647 0.0019335103
0.015716525 0.038168676 -0.0088463109 0.70060128 0.14679742 -0.69828963 0.0023037
-0.01247984 0.042753372 -0.0084328065 -0.65137327 -0.54352641 -0.52942598 0.0010450237
-0.010249986 0.041543473 -0.0095080035 -0.57525295 -0.50966847 -0.63978285 0.0020562983
-0.0080976691 0.040825687 -0.010707419 -0.50490034 -0.49793708 -0.70507759 0.0026376734
0.013673974 0.04144574 -0.0099599762 0.64583665 0.19623275 -0.73782635 0.0024093366
0.015487904 0.040511779 -0.0085498337 0.69626659 0.22164272 -0.68270582 0.0016052959
-0.013204136 0.044739563 -0.0094810035 -0.60334063 -0.54589188 -0.58136237 0.0028539922
-0.011184908 0.043774936 -0.010496807 -0.53138906 -0.50301218 -0.68161899 0.0010427075
0.011485281 0.045005716 -0.010931054 0.64254719 0.20714788 -0.73771465 0.0017584707
0.013053822 0.044251546 -0.009707951 0.6949985 0.23854782 -0.67828608 0.0018914086
-0.015960408 0.047758985 -0.0093509108 -0.65517545 -0.55165106 -0.51616496 0.0031942218
-0.014164311 0.046748213 -0.010339891 -0.58819842 -0.54571688 -0.59683818 0.0053290348
0.010946767 0.047535084 -0.010441246 0.62155324 0.28930101 -0.7279948 0.0016717942
0.012596135 0.04716466 -0.0089768162 0.69242287 0.32911623 -0.64205384 0.0015375717
-0.018694455 0.051015116 -0.0092630694 -0.67645305 -0.57564968 -0.45938939 0.0034089556
-0.017048774 0.050051734 -0.010340326 -0.61235225 -0.52758205 -0.58879691 0.0049155871
0.0086925449 0.051204488 -0.010879433 0.64835489 0.35000211 -0.67611718 0.0012990535
0.010290024 0.050231602 -0.0097477082 0.65416616 0.3452723 -0.67294401 0.0012813876
0.012150276 0.049275119 -0.008290709 0.71513736 0.36349514 -0.59703416 0.0015053106
-0.02157473 0.054414492 -0.0092802551 -0.65866345 -0.65327293 -0.37335905 0.0079214172
-0.019926395 0.053013667 -0.0099625597 -0.64444417 -0.59283245 -0.48295072 0.010299802
0.0078527527 0.053631395 -0.010182734 0.61905146 0.41755953 -0.66514599 0.0025968938
0.0097099543 0.052709386 -0.0089103356 0.66936988 0.43983918 -0.59873664 0.0015236494
-0.024925448 0.057622511 -0.010120646 -0.37645578 -0.80349892 -0.46116224 0.014650214
-0.022627762 0.056004606 -0.010296297 -0.56311578 -0.71374762 -0.41649127 0.013834262
0.0049806032 0.056867491 -0.010571656 0.54597855 0.4677887 -0.69504035 0.0010654975
0.0068523246 0.056010213 -0.0094377026 0.6216324 0.49762562 -0.60493124 0.002174333
-0.025955776 0.05835944 -0.010922463 -0.32090652 -0.81430358 -0.48366186 0.012448934
0.0021210059 0.060022786 -0.01033103 0.52807903 0.62600982 -0.57379806 0.0012733976
0.0042399927 0.059010483 -0.0093788197 0.56896877 0.5822494 -0.58074105 0.0020526496
0.0061067431 0.058094222 -0.008378447 0.64277363 0.59386629 -0.48390585 0.0019996243
-0.0037057602 0.063620023 -0.010758292 0.35271025 0.71237779 -0.60672349 0.0011885903
-0.0013446248 0.062739007 -0.010199725 0.41295797 0.67364889 -0.61291343 0.0037152113
0.00089134206 0.061776027 -0.0095060309 0.50510401 0.65016288 -0.5675897 0.0012183826
-0.013099774 0.066532373 -0.01084973 0.1836241 0.75961834 -0.62390882 0.0033009944
-0.010429223 0.066310264 -0.01024595 0.18881322 0.82838935 -0.52737147 0.0023452728
-0.0074204528 0.065650381 -0.010061333 0.25079635 0.82046151 -0.51375479 0.0020785115
-0.0047282944 0.064943433 -0.0096213827 0.33028752 0.76468188 -0.55332798 0.0026218838
-0.0021766892 0.064205945 -0.0089331819 0.42124301 0.75751996 -0.49871626 0.0029956291
-0.019723175 0.067880727 -0.010512025 0.17887118 0.71682149 -0.6739229 0.0046064081
-0.016306572 0.067395836 -0.010364086 0.17846604 0.79803622 -0.57557631 0.0012988464
-0.013765039 0.067243792 -0.0097016618 0.1939 0.82150888 -0.53621435 0.0027740323
-0.011770589 0.06731157 -0.0088599781 0.20452096 0.83424586 -0.51205969 0.0021087502
-0.0085298754 0.066912144 -0.0084510455 0.23603158 0.84987342 -0.47117323 0.0021102133
0.011411279 0.0097269434 -0.0053183446 -0.12255777 -0.25565109 -0.95896924 0.0039357967
0.013344061 0.0095539587 -0.0053954911 -0.0089969225 -0.27124962 -0.96246701 0.0031938059
0.015389219 0.009726854 -0.0053217122 0.16658613 -0.21029593 -0.9633404 0.0065555158
0.008587691 0.012127578 -0.005455846 -0.2617507 -0.29557633 -0.91876066 0.00050820684
0.010637824 0.011538491 -0.0057186792 -0.15974534 -0.27485979 -0.94812107 0.0023601747
0.013382479 0.01146367 -0.005922175 0.02460918 -0.27160153 -0.96209508 0.0048891194
0.016138239 0.011691181 -0.0056493785 0.23288098 -0.23180538 -0.94447482 0.0032497146
0.0055213384 0.015300857 -0.00539891 -0.42580691 -0.34500933 -0.83645499 0.0012870228
0.0077783372 0.014522417 -0.0060016811 -0.31074831 -0.31831908 -0.89560503 0.001470801
0.010561245 0.014474579 -0.0066490248 -0.12451953 -0.28622931 -0.95003557 0.0010537342
0.013357081 0.014469855 -0.006779857 0.066366151 -0.25944433 -0.96347499 0.0020698362
0.016358469 0.014429038 -0.0062684938 0.27806792 -0.22016259 -0.93499023 0.0033657891
0.018494057 0.014470346 -0.0055001415 0.46113425 -0.19218084 -0.86626881 0.0025368792
0.0028702696 0.018735873 -0.0053209076 -0.52942687 -0.36083764 -0.76779127 0.00096513826
0.0047655115 0.01754014 -0.0058999695 -0.42853296 -0.3287147 -0.8416093 0.0017906594
0.0074630971 0.017353952 -0.0069090631 -0.26934361 -0.33129615 -0.90426588 0.0010759081
0.010538825 0.01746509 -0.0076206336 -0.093299322 -0.30589107 -0.94748402 0.002908532
0.013375265 0.017495167 -0.0076535381 0.11047349 -0.27392614 -0.95538479 0.0030485273
0.016470434 0.017391918 -0.0069380105 0.33911186 -0.20866486 -0.91731244 0.004455823
0.018911924 0.017423123 -0.0058012865 0.5093509 -0.15260114 -0.84692061 0.0028972784
0.0022700459 0.020686971 -0.0058054933 -0.52905422 -0.35204682 -0.77211708 0.0015958365
0.0045416993 0.02037747 -0.0069486201 -0.38254187 -0.34918311 -0.85541391 0.0012355475
0.0072330032 0.020014601 -0.007842687 -0.25756288 -0.3444128 -0.90279633 0.0013348531
0.010360749 0.019136522 -0.00814337 -0.067693323 -0.32402214 -0.9436245 0.0029252868
0.01411592 0.01953822 -0.0080770748 0.12578604 -0.2784068 -0.95219088 0.0025473118
0.01657586 0.020386843 -0.0075566154 0.39886549 -0.17063341 -0.90099424 0.003621229
0.01918475 0.020374542 -0.0061085382 0.55966455 -0.1199794 -0.81998807 0.0028325215
-0.0005923204 0.024429921 -0.0055803899 -0.62558955 -0.36863974 -0.68756276 0.0012954172
0.0015435658 0.023423458 -0.0065965131 -0.50396341 -0.36421314 -0.78317922 0.0022831624
0.0040852036 0.022920877 -0.0077894898 -0.37323627 -0.36286274 -0.8538298 0.0013550102
0.017182974 0.023276696 -0.0077544823 0.47051299 -0.11901079 -0.87433058 0.003460513
0.019204406 0.02335386 -0.0064041242 0.61812162 -0.05399983 -0.78422552 0.0026623402
-0.0012076984 0.026597053 -0.0062032007 -0.57235515 -0.41222155 -0.7088604 0.0026629996
0.001029753 0.026014362 -0.0075285081 -0.47188869 -0.39215145 -0.78964436 0.0011468293
0.017487502 0.026013985 -0.0079585975 0.6071834 -0.062814645 -0.79207492 0.0020479346
0.01919673 0.026376843 -0.0065838937 0.6455062 -0.017811004 -0.7635473 0.002017352
-0.0037007038 0.02986169 -0.0060631558 -0.63653809 -0.44943932 -0.62675643 0.0022272386
-0.0017856912 0.029120201 -0.0072752312 -0.53593767 -0.43856767 -0.72140777 0.0011527111
0.0002202277 0.028062386 -0.0080978284 -0.46083811 -0.42143604 -0.78103763 0.00087760488
0.017744748 0.029318804 -0.0078673838 0.66343194 -0.0030577881 -0.74823046 0.001647716
0.019170919 0.029371416 -0.006548889 0.72571957 0.057476509 -0.68558556 0.0021096535
-0.0066692932 0.033300199 -0.0057842857 -0.63012058 -0.53095812 -0.56659645 0.0014598367
-0.0047201123 0.032278605 -0.0068914834 -0.57028586 -0.50486314 -0.64798707 0.0012667022
-0.0025702317 0.031321783 -0.0080404086 -0.53898549 -0.45553002 -0.70851046 0.00051004556
0.017678346 0.032509129 -0.0078671584 0.71386886 0.059102897 -0.69778085 0.0017254449
0.018937469 0.032401182 -0.0064736214 0.74910468 0.1070412 -0.65374637 0.00212075
-0.0092908256 0.03649332 -0.0056245336 -0.67723578 -0.53839362 -0.50148177 0.0013873192
-0.0075292718 0.035539199 -0.0068631861 -0.63012499 -0.54791403 -0.55021143 0.0032014272
-0.0056757932 0.034295827 -0.0076931873 -0.57984 -0.52562147 -0.62250113 0.00040049583
0.017397152 0.035548951 -0.0076639885 0.69356245 0.12998508 -0.70857257 0.0019951856
0.018683568 0.035151415 -0.0062889671 0.77623183 0.17016421 -0.60704887 0.0014661869
-0.012104277 0.039791215 -0.0053692767 -0.71085685 -0.58530629 -0.38999885 0.0032624912
-0.01020155 0.038485628 -0.0066411011 -0.69176328 -0.5593484 -0.45671973 0.0011289845
-0.008467176 0.037548427 -0.007754242 -0.60719478 -0.52499521 -0.59640133 0.00075796974
0.017138431 0.038542029 -0.0071540792 0.77743328 0.20795542 -0.59359252 0.0019971617
0.018431211 0.037686724 -0.0057287905 0.80691278 0.2295578 -0.54423791 0.0015735748
-0.012827351 0.041703448 -0.0066879857 -0.69414002 -0.56738281 -0.44299695 0.0026880133
-0.011292121 0.040687688 -0.0076923259 -0.6731475 -0.54910058 -0.4953393 0.0027149769
0.01657851 0.041346058 -0.0068225609 0.79547405 0.26217806 -0.54633653 0.0012709023
-0.015700925 0.045229726 -0.0065260138 -0.71100402 -0.57467049 -0.40524933 0.0028239184
-0.014354829 0.043887019 -0.0070636719 -0.71891868 -0.5595451 -0.4123897 0.0028037769
0.014553719 0.044603646 -0.0078894757 0.72948456 0.28668544 -0.62101823 0.00096228492
0.015711244 0.044226859 -0.006515461 0.77958834 0.3184481 -0.53928918 0.0014665916
-0.018153828 0.048358109 -0.0061527649 -0.787871 -0.52955323 -0.31437665 0.0041254559
-0.016870441 0.047115009 -0.0071011251 -0.74168301 -0.56321943 -0.36426654 0.0052669775
0.013873749 0.047494937 -0.0071606627 0.77033836 0.34078497 -0.53892893 0.0016078162
0.015141212 0.046652459 -0.0057405094 0.79171711 0.37812665 -0.47979608 0.0014493383
-0.019040659 0.05011924 -0.0072026309 -0.76378846 -0.57085508 -0.30125019 0.0044402541
0.011546771 0.051134218 -0.0076571312 0.73497981 0.43202263 -0.52264816 0.0025852106
0.012872081 0.050155219 -0.0065382132 0.76438069 0.43113714 -0.47941944 0.0014295699
-0.021728829 0.053851224 -0.0070329765 -0.71470505 -0.61787432 -0.32776207 0.0068973983
-0.020607192 0.052232545 -0.0069254246 -0.76947767 -0.58827686 -0.24866532 0.0019841585
0.0089006163 0.054879207 -0.008087487 0.70573854 0.50816613 -0.49366003 0.0016825016
0.010665623 0.053407259 -0.0069547165 0.75252724 0.49406931 -0.43542883 0.00075987226
0.01223112 0.052435819 -0.0052882442 0.79048556 0.47021854 -0.39246297 0.0023360106
-0.023203565 0.055851657 -0.0077711949 -0.60129398 -0.71995568 -0.34656805 0.0090670548
0.0081346966 0.056820054 -0.0070563881 0.69277227 0.57580417 -0.43418461 0.0011562415
0.0097135175 0.055421438 -0.0063165976 0.71733493 0.52906078 -0.45334888 0.0012310767
0.0051405933 0.060097139 -0.0070029404 0.60719848 0.65738636 -0.44626579 0.001695283
0.0067849988 0.05877357 -0.0064979857 0.65142012 0.6218335 -0.43471253 0.0018372645
-0.00039955301 0.063699991 -0.0081841359 0.4763712 0.7277317 -0.49343401 0.0029374454
0.0017957343 0.062762067 -0.0071207825 0.54215264 0.71554685 -0.44052598 0.0015203682
0.0037955293 0.06137323 -0.0068258271 0.57193059 0.68496549 -0.45135093 0.0012230669
-0.0064481138 0.066534907 -0.0078951726 0.2439488 0.84181577 -0.48149276 0.0024736593
-0.0045963153 0.066191249 -0.0071174679 0.34318137 0.84463125 -0.41088271 0.0018188695
-0.0015087315 0.064860113 -0.0070600109 0.42417467 0.81609952 -0.39250144 0.0021195451
0.00053043151 0.064209595 -0.005837928 0.47066936 0.78588474 -0.40106791 0.0034004925
-0.01041423 0.067543507 -0.0074050287 0.20300017 0.85050255 -0.48521787 0.0019792691
-0.0076259435 0.067127138 -0.0070930729 0.24264842 0.85131025 -0.46518019 0.0019711575
0.011462754 -0.0025190485 -0.0023219532 -0.085608348 -0.15197973 -0.98466921 0.0019053655
0.013375216 -0.0028759963 -0.0023979929 -0.00026865132 -0.17472759 -0.98461676 0.0023280275
0.01549161 -0.0024483486 -0.0023272566 0.095324501 -0.1841643 -0.97826213 0.0019561616
0.0085424054 0.00049711927 -0.0022539503 -0.27177274 -0.18446811 -0.9445163 0.00052755629
0.010629257 -0.00057722721 -0.0025836087 -0.17773068 -0.19225322 -0.96511686 0.0017888419
0.013473367 -0.00068240822 -0.0028526641 0.044631641 -0.21120101 -0.9764232 0.0031940525
0.016173208 -0.00057896588 -0.0026258768 0.19430813 -0.20512331 -0.95925426 0.0032321534
0.017964346 0.00049670204 -0.0023566491 0.33206734 -0.22068042 -0.91707766 0.00067981769
0.0079314206 0.0027833367 -0.0025428627 -0.35440472 -0.20061356 -0.91331893 0.0016821924
0.010406461 0.0023739401 -0.0031714221 -0.20734316 -0.20987891 -0.95548922 0.0021684635
0.013453074 0.0023707887 -0.0035370432 0.02432476 -0.23595904 -0.97145849 0.00316209
0.016519777 0.0023735508 -0.0032156829 0.2289971 -0.21553546 -0.94926536 0.0034549425
0.018923709 0.0027266163 -0.0025451237 0.40995446 -0.21691328 -0.88593793 0.0030775031
0.0057130363 0.0061503965 -0.0023855376 -0.48726067 -0.23003545 -0.8424136 0.0015796471
0.0073857307 0.0054676021 -0.002990152 -0.35836655 -0.22975525 -0.90486795 0.0017894504
0.010389464 0.0054193679 -0.0039227754 -0.20047641 -0.25400007 -0.94619936 0.001473819
0.013430703 0.0054135947 -0.004292557 -0.0039469078 -0.25761098 -0.96624058 0.0021990815
0.016492065 0.0054185865 -0.0039729248 0.21533754 -0.24137251 -0.94623947 0.0024097904
0.019412689 0.0055330424 -0.0029722161 0.42742375 -0.20182981 -0.88123423 0.0031670504
0.0051138923 0.0085228104 -0.0027412716 -0.49715346 -0.25218651 -0.83020496 0.0018017268
0.0073678177 0.0084389159 -0.0038157345 -0.38455248 -0.26768664 -0.88343829 0.0016885009
0.010278475 0.0083390772 -0.004691177 -0.19194636 -0.27801117 -0.94120479 0.0024240543
0.0134358 0.0079475529 -0.0049387561 -0.0022631306 -0.28961819 -0.95713955 0.002296055
0.016559931 0.008339474 -0.0046777707 0.23308401 -0.24937481 -0.93993831 0.0041145352
0.01950684 0.0083703082 -0.0035794438 0.45841902 -0.2033979 -0.86514819 0.0033937816
0.021433612 0.008680705 -0.002478481 0.6120463 -0.16883942 -0.77258825 0.0014702919
0.0027285723 0.012194357 -0.002467196 -0.60575658 -0.28820816 -0.74161643 0.0017743241
0.0045542051 0.011339255 -0.0033408359 -0.50652272 -0.28322026 -0.8143838 0.0021315191
0.0072433013 0.011280505 -0.0046618599 -0.34976557 -0.3037937 -0.886213 0.0016190483
0.0096592866 0.010315808 -0.0051750848 -0.1826687 -0.29821551 -0.93685627 0.0024631876
0.017388243 0.010786998 -0.0050651021 0.24997166 -0.24873577 -0.93575877 0.0033575131
0.019588124 0.011388211 -0.0042012441 0.45551434 -0.1920715 -0.86926126 0.0030671374
0.021632014 0.011476604 -0.0028448161 0.64612085 -0.14124896 -0.75005108 0.0021727635
0.0021374181 0.014531 -0.0029753987 -0.5961265 -0.32137945 -0.73576391 0.0014031027
0.0044237911 0.014231049 -0.0043792678 -0.45164886 -0.33550033 -0.82671207 0.0011845914
0.0064612143 0.013439353 -0.0050999727 -0.38355806 -0.32469353 -0.86455613 0.00035472366
0.019893978 0.014242937 -0.0046173674 0.51114672 -0.16329996 -0.84383774 0.0030678867
0.0218687 0.014454894 -0.0031151115 0.67958051 -0.11615709 -0.72434652 0.0021666849
-0.00052952929 0.018511755 -0.0025304712 -0.635212 -0.34704927 -0.68997276 0.001367789
0.001499037 0.017419454 -0.0037462264 -0.55319661 -0.35009921 -0.75591272 0.00082326325
0.0036688265 0.016600395 -0.0048972825 -0.45753217 -0.33870536 -0.8221575 0.0016510511
0.020318244 0.017186979 -0.0048430255 0.64274114 -0.11596134 -0.75725615 0.0016800356
0.021916619 0.01741235 -0.0034479611 0.68248689 -0.077435777 -0.72678429 0.0018572303
-0.001060709 0.020699091 -0.0030702003 -0.69396389 -0.34851071 -0.63004321 0.0015206909
0.00086181844 0.020157538 -0.0045644003 -0.55927712 -0.35209367 -0.75049257 0.0016122794
0.020604171 0.02022473 -0.0049575064 0.68935871 -0.072847225 -0.72074807 0.0017250084
0.021904754 0.020455306 -0.0036926153 0.7304613 -0.033765409 -0.68211883 0.0017032895
-0.0032361932 0.024270901 -0.0027116842 -0.74969596 -0.36377141 -0.55283481 0.0031327184
-0.0016046882 0.023322992 -0.0039468161 -0.69144911 -0.37491235 -0.61752635 0.0011506994
0.00021803856 0.022181852 -0.0050622034 -0.61451399 -0.36403936 -0.69989133 0.0016418692
0.020661514 0.023424745 -0.0051632533 0.67253935 -0.022586368 -0.73971665 0.0022322282
0.021872031 0.023334241 -0.0037873453 0.77191693 0.022587638 -0.63532197 0.0021973769
-0.0038429787 0.026625246 -0.0034949994 -0.70025009 -0.41666341 -0.57969075 0.0013041055
-0.0024267873 0.025872378 -0.0046012662 -0.68993878 -0.38909423 -0.61040169 0.0015453012
0.020664513 0.026472172 -0.0050984877 0.72093338 0.026066856 -0.692514 0.0016744982
0.021883182 0.026298054 -0.0035587866 0.80742574 0.073486127 -0.58537465 0.0021696182
-0.0063267136 0.03013947 -0.0029394845 -0.75035965 -0.47969705 -0.45480877 0.0020908138
-0.0048667663 0.029112386 -0.0041614762 -0.72639358 -0.45568845 -0.51449049 0.0014621103
0.02067459 0.029297043 -0.0048809405 0.76343173 0.083558835 -0.64046073 0.0014412683
0.021653492 0.029328423 -0.0034563548 0.83286285 0.12182515 -0.53990567 0.0017516381
-0.0074757612 0.032531742 -0.0036874893 -0.73654699 -0.52016926 -0.43234533 0.0039519859
-0.0059134378 0.031298675 -0.0047339955 -0.68975234 -0.51353526 -0.51041478 0.0015151551
0.020409795 0.032463357 -0.0045302715 0.82794911 0.13997869 -0.54305267 0.0016933103
0.021417918 0.032060325 -0.0030554929 0.84813833 0.17486316 -0.50008434 0.0013876789
-0.0098713981 0.035820987 -0.0037100897 -0.7468217 -0.54959869 -0.37443101 0.001949262
-0.0086158644 0.034608644 -0.0043716924 -0.7383523 -0.55363703 -0.38512588 0.0017738828
0.020124536 0.035501149 -0.0039708922 0.84234649 0.19410105 -0.50276947 0.0013314293
0.021256499 0.034176331 -0.0024871684 0.85643691 0.23976013 -0.45719889 0.0010053773
-0.012387945 0.03924473 -0.0036948926 -0.78361911 -0.5494135 -0.2899757 0.0028537507
-0.011162161 0.037832532 -0.0041628885 -0.7603935 -0.55964041 -0.32955164 0.0014365171
0.019336054 0.03837109 -0.003924055 0.8440662 0.26959443 -0.46354192 0.0017437775
-0.013785633 0.04135723 -0.0040530227 -0.80458564 -0.54918331 -0.22591966 0.002559426
0.017786492 0.04212765 -0.0044686208 0.84602755 0.33997536 -0.41067514 0.0014479727
0.018734874 0.040917609 -0.0034049919 0.85395157 0.30897573 -0.41868928 0.0015802879
-0.015904466 0.044359978 -0.0038736383 -0.78967589 -0.5744943 -0.21533304 0.0020467227
-0.014942811 0.043155659 -0.0045011053 -0.78295583 -0.58299679 -0.21701375 0.0019337782
0.017052304 0.044421043 -0.0040594903 0.84088302 0.3843517 -0.38103741 0.0008825353
0.018428585 0.042886693 -0.002526582 0.85251653 0.33352298 -0.40246493 0.0013761357
-0.018481802 0.048372153 -0.0039798478 -0.8051632 -0.5475688 -0.22777322 0.0012313661
-0.017274769 0.046560604 -0.00480342 -0.77150714 -0.55903792 -0.30373248 0.0022997016
0.014576236 0.048709173 -0.0051351199 0.79334438 0.45675215 -0.40247014 0.0021259165
0.015733683 0.047326937 -0.0039699655 0.83198172 0.41400045 -0.36933717 0.0012316036
-0.020094246 0.051110703 -0.0046332786 -0.79755008 -0.55190241 -0.24355209 0.0016494526
0.013988886 0.050645683 -0.003950634 0.80604893 0.48815885 -0.3346431 0.0011223865
0.015118826 0.049436558 -0.0029069788 0.83880389 0.45452061 -0.29969832 0.0020844282
0.011508455 0.054251473 -0.0042653447 0.78158563 0.5161972 -0.35023463 0.0019436281
0.012659527 0.052762847 -0.0039133634 0.77852833 0.51731241 -0.35536113 0.0019434839
0.010074113 0.056395084 -0.00405908 0.74322057 0.56812626 -0.35334909 0.001108296
0.0073318724 0.059357744 -0.0043174732 0.66295725 0.6331991 -0.39943272 0.001228026
0.0019355898 0.063724771 -0.0049130926 0.51520711 0.77695304 -0.36180881 0.0034370895
0.0047507742 0.061675165 -0.0045074681 0.59234935 0.69527382 -0.40708309 0.0013830942
-0.0027489492 0.066070274 -0.0048916647 0.38246614 0.86147958 -0.33402476 0.0012218306
0.0039705383 -0.035909414 0.00073419441 0.030930342 -0.074286699 -0.99675715 0.0035615428
0.0046853181 -0.033493061 0.00067600538 -0.0032290164 -0.036503304 -0.99932832 0.0018818201
0.0064949864 -0.032702759 0.00068252347 0.13774535 -0.11432707 -0.98384732 0.0037590705
0.0045626443 -0.030564403 0.00063334918 -0.067750745 -0.021706188 -0.99746615 0.002382294
0.0072475849 -0.030429734 0.00056294794 0.069228046 -0.067390271 -0.99532211 0.0029580956
0.0090713724 -0.02962116 0.00072060456 0.2002832 -0.13504532 -0.97038627 0.0014140925
0.0048319171 -0.027754739 0.00056502968 -0.14857544 -0.01415848 -0.98879969 0.0015185483
0.0074054492 -0.027703525 0.00039138668 0.010705261 -0.049259592 -0.99872863 0.0031721296
0.0098795025 -0.027458966 0.00059884461 0.19460639 -0.10611182 -0.9751249 0.0046876185
0.0050907386 -0.024720095 0.0005315626 -0.20450693 0.0031410477 -0.97886014 0.0020022618
0.0074032522 -0.024614472 0.00025746855 -0.061682668 -0.03720469 -0.99740219 0.0021739868
0.010457493 -0.024590651 0.00036507333 0.10686186 -0.091714606 -0.99003482 0.0031769853
0.01254772 -0.023762692 0.00059705414 0.33805621 -0.15247554 -0.92869222 0.0047863079
0.0052734567 -0.021546954 0.00055550621 -0.26474154 0.005412681 -0.96430421 0.0018943298
0.0074016955 -0.0215289 0.00015938049 -0.10945683 -0.037028596 -0.99330163 0.0024653487
0.010480226 -0.021524677 6.4858468e-05 0.075043425 -0.078667246 -0.99407232 0.00321099
0.013135891 -0.021383077 0.00042502023 0.25403827 -0.13703847 -0.95743668 0.0037193142
0.0052739126 -0.018702727 0.00059816334 -0.31859666 -0.0025300279 -0.947887 0.0020265868
0.007400068 -0.018681725 6.2764622e-05 -0.16356647 -0.041501366 -0.985659 0.0020381152
0.010474029 -0.018671408 -0.00020151539 0.041670468 -0.079729214 -0.99594516 0.0037233303
0.013562451 -0.018685145 0.00014558947 0.1976898 -0.12734003 -0.97195846 0.002731106
0.015394089 -0.018070381 0.00060073962 0.40345806 -0.18124007 -0.89686877 0.0029802863
0.0052734381 -0.015617894 0.00055434951 -0.36083096 -0.014796136 -0.93251383 0.0018894508
0.0073982687 -0.015598565 -4.4963788e-05 -0.21164124 -0.052103467 -0.97595757 0.0018351991
0.010467959 -0.015585151 -0.00046371273 -0.074943446 -0.094953872 -0.99265665 0.003719415
0.013549205 -0.015590612 -0.00029819214 0.16696468 -0.13235231 -0.97703928 0.0030344937
0.016064605 -0.015389424 0.00032523298 0.34556231 -0.17040181 -0.92279458 0.0028520268
0.0052724625 -0.012532613 0.00046712416 -0.40303487 -0.031548128 -0.91464067 0.0021884593
0.0073955995 -0.012515465 -0.0002114845 -0.25286043 -0.064723887 -0.96533537 0.0019961258
0.010460863 -0.012501261 -0.00077477167 -0.11947097 -0.10443183 -0.98733014 0.0033906728
0.013535699 -0.012501864 -0.00075364427 0.14298166 -0.13890627 -0.97992927 0.0038415242
0.016396809 -0.01251822 -0.0001104034 0.31100878 -0.16708328 -0.93560499 0.0027798857
0.018257713 -0.012119532 0.00054110517 0.48955497 -0.1960784 -0.84964061 0.0022910093
0.0052711256 -0.0096849212 0.00034609856 -0.4339315 -0.058189172 -0.89906484 0.0020019712
0.0073925066 -0.0096707474 -0.00040893746 -0.28984624 -0.084302336 -0.95335317 0.0019565523
0.01045391 -0.0096581317 -0.0010813936 -0.15754423 -0.12463554 -0.97961515 0.0032140117
0.013522928 -0.009656271 -0.0011837067 0.12275449 -0.15961085 -0.97951812 0.0051315194
0.016376482 -0.0096659875 -0.0006711341 0.29711446 -0.17297824 -0.93904287 0.00321497
0.018735543 -0.0095320176 0.00022901129 0.46872416 -0.18728362 -0.86326265 0.002706836
0.0050159534 -0.0065005459 0.00024791621 -0.45986989 -0.083402604 -0.88406086 0.001991661
0.0073873312 -0.0065905917 -0.00073936221 -0.32570228 -0.10752154 -0.93933868 0.0019328481
0.010444208 -0.0065815328 -0.001508065 -0.15255094 -0.15399051 -0.9762249 0.0017775749
0.013507308 -0.0065792017 -0.0017094661 0.034753736 -0.18075922 -0.9829132 0.0022092769
0.016353795 -0.0065841433 -0.0012977535 0.25836518 -0.19509831 -0.94614166 0.0020298283
0.019259084 -0.006484692 -0.00016176491 0.46323311 -0.19056618 -0.86550546 0.003045789
0.0047481996 -0.0034821776 8.3734281e-05 -0.48320815 -0.10811737 -0.8688041 0.0020161171
0.007381143 -0.0035145928 -0.0011333955 -0.34752631 -0.15236919 -0.92520761 0.0016320678
0.01029439 -0.0036445109 -0.0019333723 -0.18089351 -0.16864011 -0.96893656 0.0022149121
0.013620084 -0.0042168675 -0.0021124857 0.015939832 -0.21151921 -0.97724378 0.0022988322
0.016435664 -0.0036436182 -0.001884666 0.23529141 -0.20992622 -0.94898307 0.0033827084
0.01944823 -0.0035165863 -0.00075009535 0.40903077 -0.19820194 -0.89073557 0.0020028502
0.021555802 -0.0032853482 0.00049204566 0.60999858 -0.19381303 -0.76833475 0.0017825942
0.0029026568 0.00027256622 0.00069342484 -0.56812406 -0.11054132 -0.81548494 0.0012197825
0.0045540445 -0.00067809399 -0.00022949348 -0.50674325 -0.1423851 -0.85025752 0.0021377068
0.0073401593 -0.00071401265 -0.0015995833 -0.34871718 -0.19560233 -0.91658932 0.0014761797
0.0091732051 -0.0013095818 -0.002131572 -0.26718888 -0.18793176 -0.94514108 0.00052577216
0.017385162 -0.0015059917 -0.0021023459 0.22919811 -0.2428623 -0.94259542 0.0037260852
0.019453933 -0.00070887909 -0.0014175009 0.4185189 -0.23803841 -0.87645859 0.0017625986
0.021877661 -0.00054597412 6.106915e-05 0.61800301 -0.19610362 -0.76132494 0.0021220301
0.0027286583 0.0026637199 0.00041323015 -0.64556468 -0.15097225 -0.74863446 0.0019574144
0.0045488779 0.0023944986 -0.00078946073 -0.50015908 -0.18251094 -0.84648126 0.0015851083
0.0067964974 0.0019807862 -0.0019173061 -0.37741652 -0.20684491 -0.9026472 0.0016475223
0.020205727 0.0020995198 -0.0017216173 0.47179133 -0.20308906 -0.85800219 0.0032163891
0.022292506 0.0025100675 -0.00032863615 0.61817968 -0.19022879 -0.76267087 0.0029896905
0.0023303612 0.0055766888 7.2369818e-05 -0.60678834 -0.18971002 -0.77189249 0.001186523
0.0044358075 0.0053939968 -0.0014327446 -0.52544552 -0.21017486 -0.82445961 0.0014124929
0.0061866492 0.0042682756 -0.0021957166 -0.4423331 -0.22673425 -0.86771715 0.00040942282
0.020711165 0.0048358338 -0.0020554608 0.49087006 -0.18817382 -0.85066861 0.0037573443
0.022520352 0.0054682624 -0.00079346099 0.65622425 -0.16678378 -0.73590279 0.0024937107
0.024254795 0.0064409841 0.00070673157 0.77511275 -0.13916969 -0.61630517 0.0019020572
0.0018882419 0.0084143681 -0.00036092894 -0.61882627 -0.2357299 -0.74932337 0.0011630916
0.0038880077 0.0079917843 -0.0018117295 -0.53258467 -0.243469 -0.81060249 0.0018808611
0.022789227 0.0081799496 -0.0011439266 0.65637493 -0.14865346 -0.73964465 0.0020671678
0.024234561 0.0083303945 0.0003309194 0.75453085 -0.11031613 -0.64692628 0.0016379057
-0.00041829795 0.012366073 0.00051812269 -0.75357783 -0.24729018 -0.60907149 0.0052258759
0.0013281519 0.01128687 -0.00087363098 -0.68620241 -0.26866761 -0.67597634 0.0016747602
0.0033589869 0.009926768 -0.0021146543 -0.56659138 -0.28566235 -0.77289796 0.0034712432
0.023077356 0.011242625 -0.0014386743 0.74923551 -0.10557675 -0.65383458 0.0013111021
0.024463419 0.01140752 0.00017698901 0.78373319 -0.080202021 -0.6158976 0.0016769596
-0.00086117804 0.014682841 -0.00016065757 -0.71509105 -0.31433716 -0.6243692 0.0015471088
0.00058244338 0.014218317 -0.0014775767 -0.69060993 -0.31931674 -0.64891815 0.0018086198
0.023320926 0.014288738 -0.0016150333 0.77744013 -0.077263199 -0.62419325 0.0016712738
0.024445139 0.014475946 -0.00015904335 0.81197661 -0.044247799 -0.58201039 0.0017946502
-0.0014635741 0.017356491 -0.00082619023 -0.76400971 -0.3270835 -0.55615246 0.0010900547
5.8733796e-05 0.01629472 -0.0020301051 -0.65690255 -0.32262546 -0.68146294 0.003562327
0.023414256 0.017249193 -0.0017625398 0.7581563 -0.034691151 -0.65114945 0.0015913382
0.024432706 0.017307701 -0.00038791762 0.8358745 -0.002497572 -0.54891491 0.0016819979
-0.0034970662 0.020761002 5.719997e-05 -0.8071366 -0.31268948 -0.50075525 0.0018658941
-0.0022795333 0.019992305 -0.001264827 -0.77683073 -0.32535398 -0.53914642 0.0017761933
0.02341127 0.020313291 -0.0018197773 0.79239237 0.0089757973 -0.60994565 0.0014078168
0.024444191 0.020394903 -0.00017777784 0.85790169 0.043785933 -0.51194489 0.0018409289
-0.0040692836 0.023517961 -0.00089269131 -0.79702765 -0.35450545 -0.48895079 0.002475878
-0.0027701657 0.022422159 -0.002077461 -0.71835595 -0.35856333 -0.59615183 0.0012716713
0.023419216 0.023388542 -0.0016687694 0.85314637 0.051357716 -0.51913732 0.0017928368
0.024375569 0.023246408 1.3128854e-05 0.87381977 0.084032848 -0.47893375 0.0016392771
-0.0062236171 0.027167099 0.00020320644 -0.8315627 -0.39987528 -0.38549107 0.0021633981
-0.0050858664 0.026191439 -0.0012796347 -0.79316562 -0.40211201 -0.45737752 0.0031722782
0.023342824 0.026452096 -0.00119673 0.870884 0.1172826 -0.47729006 0.001789671
0.024230272 0.0256301 0.00025128247 0.89036465 0.14471333 -0.43163508 0.0013805164
-0.0069619901 0.029349498 -0.00078173133 -0.82307297 -0.4404228 -0.35857853 0.0021761321
0.023089167 0.029347569 -0.00080741919 0.89411223 0.16633791 -0.41580653 0.0018288064
-0.0094056968 0.033387583 -0.00054565142 -0.81871146 -0.5180288 -0.24770476 0.0040004333
-0.0084065702 0.031993307 -0.00083646551 -0.81238085 -0.496144 -0.30639598 0.0013453776
0.022451229 0.032387447 -0.00080953178 0.89313447 0.22000618 -0.39231136 0.0019512147
-0.010379127 0.035204813 -0.0011895198 -0.83235735 -0.51298028 -0.20983908 0.0034742993
0.02081085 0.036814872 -0.0019387014 0.87067914 0.3032487 -0.38724408 0.0017023713
0.021724051 0.035151992 -0.0007949993 0.90414369 0.2456196 -0.34956443 0.0012644053
-0.012571299 0.038625114 -0.0014726527 -0.81045443 -0.55018103 -0.20115764 0.0016674341
-0.01174441 0.037324402 -0.0015096671 -0.81609577 -0.54869545 -0.18144152 0.0020688996
0.020534856 0.038673386 -0.001101329 0.88558257 0.29552937 -0.35833764 0.00095450919
0.021366423 0.037206355 -0.00016754935 0.89664805 0.27535364 -0.34670261 0.0013131469
-0.015079558 0.042603273 -0.00065359543 -0.8116498 -0.55643213 -0.17778599 0.001218295
-0.01388728 0.040683214 -0.00093662809 -0.81602931 -0.55036724 -0.17661251 0.001586504
0.019603353 0.041327152 -0.00079846452 0.88549829 0.34386572 -0.31248862 0.0014400763
0.017522173 0.045575883 -0.0016082532 0.86499536 0.41165051 -0.28692675 0.0014907676
0.018442795 0.044190407 -0.00074327807 0.87883019 0.39253619 -0.27124301 0.0018701443
0.01672948 0.047342803 -0.001175979 0.86132324 0.44208205 -0.25037149 0.0011444468
0.014695301 0.051022518 -0.0014500625 0.83231431 0.48360106 -0.27089283 0.0010655283
0.015486765 0.049620479 -0.0013256278 0.84744549 0.46879029 -0.24914224 0.0012739262
0.013288612 0.053186599 -0.0011301942 0.80671334 0.53196067 -0.25735465 0.00062111922
0.011390038 0.05574061 -0.0014737751 0.76654875 0.56301886 -0.30888963 0.0010207914
-0.013240565 -0.059814438 0.0035931182 -0.1112862 -0.22175682 -0.96873075 0.0083637508
-0.010825368 -0.059868481 0.0034772835 0.016527446 -0.27548644 -0.96116287 0.0047828727
-0.0082569635 -0.05946089 0.0035679245 0.19098175 -0.39103869 -0.90034145 0.0050822315
-0.013554209 -0.057486024 0.0034351291 -0.19854552 -0.061623961 -0.97815239 0.0018038807
-0.010678117 -0.057429664 0.0029882353 -0.078551076 -0.15048386 -0.98548687 0.0030535297
-0.0075781085 -0.057433531 0.0030172023 0.088654153 -0.25107577 -0.96389908 0.0052188998
-0.00476623 -0.056991894 0.0033913434 0.23732719 -0.38096085 -0.89361328 0.0060179383
-0.0028135777 -0.056322809 0.0036807649 0.3997753 -0.44981647 -0.79865187 0.0042843134
-0.013296515 -0.054718755 0.0033548085 -0.27636936 0.026914535 -0.96067458 0.0019937577
-0.010671477 -0.054535512 0.0027195911 -0.169796 -0.056417238 -0.98386306 0.0037082536
-0.0075671407 -0.054497577 0.0024021722 -0.02532839 -0.15534015 -0.98753631 0.0040969066
-0.0044730646 -0.054522291 0.0026059675 0.14632037 -0.27504954 -0.95023054 0.0064539919
-0.0018922476 -0.054322846 0.0032391909 0.34175104 -0.33507895 -0.87802517 0.0065182145
5.2549029e-05 -0.053460386 0.003712415 0.47396791 -0.42175016 -0.77296913 0.0036491307
-0.012914183 -0.051923521 0.0034652425 -0.36138704 0.10886021 -0.92603934 0.002200814
-0.010672588 -0.051679775 0.0027579607 -0.2477992 0.031591851 -0.96829617 0.0024815998
-0.0075623021 -0.051607847 0.0021235112 -0.1617662 -0.031655069 -0.98632127 0.0064619277
-0.0044661607 -0.051591311 0.0019763906 0.091181576 -0.18256202 -0.97895712 0.0092738774
-0.0016127345 -0.051639896 0.0024018611 0.21043256 -0.26595947 -0.9407357 0.0043149157
0.00084172515 -0.051446214 0.0031633771 0.41894862 -0.33135557 -0.84539074 0.0049987803
-0.012460969 -0.049531985 0.0036116114 -0.42967799 0.16461203 -0.88785124 0.0016511336
-0.010651286 -0.048648417 0.003061909 -0.30965602 0.12383036 -0.94275087 0.0022781794
-0.0076168729 -0.048677552 0.0021396352 -0.23783009 0.039105818 -0.97051924 0.0041810055
-0.0044626775 -0.04870123 0.0016517243 -0.066526033 -0.085953109 -0.99407566 0.0045401631
-0.0016096497 -0.048707671 0.0017103746 0.13206372 -0.20500305 -0.96981078 0.0062287604
0.001517129 -0.048753146 0.0024942451 0.30954036 -0.26811552 -0.91230416 0.0055211419
0.0039390353 -0.047880821 0.0032190739 0.44979689 -0.37569639 -0.8102684 0.0047062631
-0.010152679 -0.045755256 0.0033266323 -0.40623426 0.15599166 -0.90035564 0.0023399675
-0.0075161872 -0.045619451 0.0023525038 -0.30021173 0.088487029 -0.94975942 0.002534264
-0.0044621001 -0.045604203 0.0015907947 -0.11930405 0.014640721 -0.99274981 0.005791978
-0.001607968 -0.045578718 0.0013345005 0.019216871 -0.078715079 -0.99671191 0.0050952714
0.0014518979 -0.045579109 0.0016328611 0.23384599 -0.19392897 -0.95273691 0.007614349
0.0045474996 -0.045434657 0.0026118781 0.42171824 -0.32334536 -0.84711361 0.002553938
0.0065776058 -0.044673253 0.0034172281 0.51934278 -0.34647915 -0.78117555 0.003754833
-0.0095949117 -0.043321479 0.0035963769 -0.46995226 0.20459019 -0.85865456 0.0018871764
-0.0075753517 -0.042626694 0.0028049031 -0.36283991 0.14178167 -0.92100221 0.0020118786
-0.0044640955 -0.042528644 0.0017510613 -0.27053311 0.070947893 -0.96009278 0.0029612114
-0.0016076267 -0.042480215 0.0012296606 -0.090603426 -0.0020144791 -0.99588495 0.003448975
0.0014804703 -0.042475477 0.0011772073 0.095667139 -0.10677718 -0.98966986 0.0048863534
0.0045738146 -0.042532071 0.0017823132 0.30553281 -0.21075231 -0.92856503 0.0065179518
0.0072231051 -0.042462818 0.0028930369 0.49026391 -0.33245304 -0.80567753 0.0019846193
0.0091296453 -0.041518446 0.0037264817 0.58326507 -0.35422677 -0.73097557 0.0026768052
-0.0071333647 -0.039761458 0.0031671489 -0.42934781 0.17998424 -0.88502324 0.0020754263
-0.0044677397 -0.039702319 0.002067283 -0.33015722 0.11745834 -0.93658948 0.0021914935
-0.0016080695 -0.039635614 0.0012965584 -0.21814501 0.050038133 -0.97463268 0.0044399365
0.0014797832 -0.039608352 0.00098064751 -0.018847911 -0.059457406 -0.9980529 0.0049246252
0.0045684357 -0.039629772 0.0012257879 0.18228485 -0.15428689 -0.97106528 0.0051548826
0.007433177 -0.039707746 0.0021229105 0.38594663 -0.22689432 -0.89418352 0.0044970918
0.0097098956 -0.039340727 0.0032350903 0.53363365 -0.29194778 -0.79372633 0.0038284736
-0.0064478815 -0.036902528 0.0034513238 -0.45577142 0.19853675 -0.8676725 0.0013590787
-0.004473438 -0.03664723 0.0025541668 -0.40797469 0.17460626 -0.89614135 0.00089205912
-0.0016094402 -0.036567528 0.0015521524 -0.28128719 0.088332593 -0.95554954 0.0033196246
0.0014795945 -0.036757361 0.00095307617 -0.0724089 -0.035806261 -0.99673206 0.00215713
0.0046396591 -0.036858093 0.00091266562 0.12617274 -0.1322521 -0.98315305 0.0028929294
0.0074543585 -0.036751449 0.0014357858 0.27169383 -0.16751832 -0.94769198 0.0050064004
0.010211181 -0.036510456 0.0025587732 0.46504238 -0.26203814 -0.84561902 0.0045111412
0.012108952 -0.03564658 0.0034727894 0.57494026 -0.30163029 -0.76056743 0.0017956599
-0.0061582807 -0.034830865 0.0037370615 -0.54166222 0.22120528 -0.8109687 0.0014998252
-0.0043450547 -0.033692513 0.0030745121 -0.46808767 0.19667983 -0.86151671 0.0012561051
-0.0016112457 -0.033502765 0.0019003095 -0.34133062 0.10884662 -0.93361968 0.0028607449
0.0014795474 -0.033676732 0.0010261883 -0.15381508 0.0055100136 -0.98808426 0.0018444376
0.0041159499 -0.034238741 0.00077852863 0.030582033 -0.072422557 -0.99690509 0.0037145484
0.007568317 -0.033826806 0.00097498577 0.20753397 -0.17881666 -0.96174544 0.0034041451
0.010369743 -0.033445597 0.0017961555 0.35451183 -0.21272105 -0.91053349 0.0025467311
0.012708494 -0.033452444 0.0031037543 0.56274217 -0.2677756 -0.78205979 0.0039139614
-0.0038188137 -0.030955056 0.0033300531 -0.50510782 0.1726443 -0.84561223 0.0020111187
-0.0016132961 -0.030673882 0.0022901937 -0.39455798 0.11789374 -0.91127664 0.0023277455
0.0014797717 -0.030602267 0.0012070891 -0.22496247 0.015229462 -0.97424841 0.0015125341
0.0084088501 -0.031383593 0.00081979553 0.13936657 -0.12629475 -0.98215407 0.0039949613
0.010579515 -0.030655021 0.0012809993 0.33076164 -0.20849699 -0.9203943 0.0030451394
0.013504284 -0.030596638 0.0026903611 0.51673222 -0.25911275 -0.81599534 0.003019751
0.015337991 -0.029570518 0.0036573105 0.64020902 -0.286237 -0.71288192 0.0020231393
-0.0033859808 -0.028515048 0.003583967 -0.55943072 0.17538974 -0.81010848 0.001429576
-0.0016157458 -0.027607596 0.002780698 -0.44322097 0.13019939 -0.88690656 0.0021550772
0.0014261118 -0.027690049 0.0014357301 -0.32223952 0.068880819 -0.94414884 0.0025000379
0.0034458167 -0.027560165 0.00083097327 -0.1707807 0.011375374 -0.98524344 0.0030701747
0.011318871 -0.028082293 0.00099088019 0.27779186 -0.18722628 -0.94221973 0.0047753989
0.01366669 -0.027709862 0.0019588417 0.43068007 -0.22579415 -0.87380296 0.0024497209
0.015826542 -0.027283596 0.0032369376 0.59331781 -0.26144582 -0.7613278 0.0028191681
-0.0012721871 -0.024601687 0.0030318096 -0.49872914 0.12933163 -0.85705459 0.0023417408
0.0015310425 -0.024627475 0.0016602138 -0.37983751 0.080487899 -0.92154503 0.0013227428
0.0037048438 -0.024500538 0.00091138971 -0.25974867 0.045395821 -0.96460867 0.0018761776
0.011920035 -0.026065899 0.00078368117 0.29228842 -0.15465446 -0.94374233 0.013498758
0.013722046 -0.024738599 0.0012837702 0.40592954 -0.2043914 -0.89075547 0.0033569532
0.01636284 -0.024398644 0.0026548768 0.54961789 -0.25534281 -0.7954371 0.0026297891
0.018204 -0.023360817 0.0036573403 0.63820738 -0.27420446 -0.71937698 0.0013504451
-0.000928191 -0.021802755 0.0032484543 -0.54524952 0.11264493 -0.83067089 0.0019969663
0.0014809113 -0.02161029 0.0019410166 -0.41581327 0.076383866 -0.90623659 0.0014489876
0.0038535031 -0.021565374 0.00095787412 -0.3146438 0.046002354 -0.94809449 0.0018798667
0.014457534 -0.021883357 0.00098558189 0.33330566 -0.19254103 -0.92294931 0.0040438613
0.016470812 -0.021610357 0.0019309118 0.47943321 -0.21659286 -0.85043007 0.0012564289
0.018520514 -0.021434449 0.0033047881 0.63769192 -0.24526912 -0.73019999 0.0023268177
-0.00059832737 -0.01883696 0.0034647521 -0.58776706 0.10151602 -0.80263591 0.001661709
0.0014273196 -0.01869102 0.0022343404 -0.49630719 0.066413507 -0.86560297 0.0016545159
0.0038541402 -0.018720306 0.0010465228 -0.36063322 0.03157327 -0.93217319 0.0019141384
0.016654564 -0.018858336 0.00132855 0.45803332 -0.21544841 -0.86243111 0.001964285
0.019109605 -0.018503565 0.0028489155 0.61304933 -0.24409518 -0.75139076 0.0013605284
-0.00042511729 -0.015957778 0.0036839836 -0.63044256 0.090661265 -0.77092326 0.0015449692
0.0015322811 -0.015615381 0.0023659423 -0.51626712 0.046102606 -0.85518581 0.0023802188
0.0038546629 -0.015636101 0.0011207312 -0.40570149 0.01602154 -0.91386521 0.0019432192
0.017306833 -0.016186364 0.0010002423 0.41598713 -0.20806283 -0.8852483 0.00312473
0.019278368 -0.015558565 0.0021070295 0.58285171 -0.23082559 -0.77910423 0.0029204767
0.021155598 -0.014851915 0.0034424893 0.69870633 -0.2356133 -0.67549664 0.0014518345
0.0014818073 -0.01258529 0.0025527372 -0.57095993 0.045558874 -0.81971288 0.0028837542
0.0038549309 -0.012550049 0.0011571739 -0.44435704 -0.0027727718 -0.89584553 0.001894188
0.019598383 -0.012679321 0.0015628352 0.54180789 -0.21122788 -0.81352752 0.0017895435
0.021517675 -0.012414888 0.0030164237 0.64096636 -0.22538619 -0.7337324 0.001349111
0.0014817559 -0.0097269565 0.0025799756 -0.60725147 0.0026495941 -0.7945053 0.002699303
0.0038543153 -0.0096986648 0.0010757241 -0.4744918 -0.03262458 -0.87965518 0.0019892305
0.020107649 -0.0099384412 0.0011894249 0.52912629 -0.19876535 -0.82493496 0.0028901976
0.02190456 -0.0096586337 0.0025510441 0.640369 -0.21480195 -0.73741961 0.0012258129
0.0014815471 -0.0066291392 0.0025269336 -0.63717437 -0.028769415 -0.77018255 0.0025869329
0.0036503694 -0.006814545 0.0010033094 -0.50086802 -0.059387822 -0.86348379 0.0020484608
0.020786811 -0.0071644289 0.00095891394 0.60914129 -0.20411895 -0.76634341 0.0013518576
0.022544306 -0.0065909196 0.0022999027 0.67094857 -0.20175743 -0.7135278 0.0027103052
0.0014810961 -0.0035313948 0.0023597691 -0.6630252 -0.061524473 -0.7460646 0.0027949072
0.0033782232 -0.0037614687 0.00086215674 -0.52226657 -0.090926819 -0.84792089 0.0022888421
0.022997286 -0.0036085017 0.0018792765 0.71303535 -0.194419 -0.67363328 0.0012335625
0.024476573 -0.0031384684 0.0033466064 0.75034642 -0.17742753 -0.63678861 0.0012447673
0.0014092246 -0.00072171493 0.0021208136 -0.6676144 -0.11984553 -0.73479789 0.0028054323
0.023319058 -0.0008073207 0.0014659341 0.73280793 -0.17458092 -0.65765804 0.0013771324
0.024667606 -0.00058130722 0.0029179698 0.77097178 -0.15621962 -0.61741221 0.0018187944
-0.00042486651 0.0029098438 0.0035675757 -0.78383487 -0.12027127 -0.60921067 0.0043927645
0.001117571 0.0023429859 0.0019216069 -0.69495094 -0.14426121 -0.70443732 0.003111054
0.023683915 0.0019363237 0.001129213 0.68385494 -0.16372553 -0.71101081 0.001510366
0.024947969 0.0025422208 0.0025060901 0.79048812 -0.14352354 -0.59542382 0.0015554676
-0.00064119842 0.0056396406 0.0032275852 -0.78054357 -0.13913701 -0.60942 0.0026898314
0.00070258946 0.0054197814 0.001627733 -0.74793857 -0.17658839 -0.63984722 0.0020996584
0.025109006 0.0054270364 0.0020898276 0.81232178 -0.1169224 -0.57136899 0.0019650531
-0.0009268616 0.0085167624 0.002774175 -0.79859883 -0.18404227 -0.57303435 0.0028619759
0.00031414247 0.0080709886 0.0012950266 -0.72528505 -0.22400132 -0.65098774 0.00089541927
0.025527118 0.0083718803 0.0022098788 0.86024755 -0.079322755 -0.50366855 0.00070807786
-0.0012833056 0.011355211 0.0021593978 -0.80236024 -0.25144657 -0.54128784 0.0032295345
5.5623557e-05 0.010003598 0.00085776974 -0.70161742 -0.21788828 -0.67842293 0.0016016888
0.025733186 0.011312885 0.0020954742 0.87375939 -0.044900317 -0.48428139 0.0010653374
-0.0032886115 0.01555814 0.0033721172 -0.87945664 -0.27606151 -0.38774487 0.0047037024
-0.0021666717 0.014291113 0.0019490684 -0.83309376 -0.29862207 -0.46559605 0.0016744349
0.02577978 0.014389237 0.0020556876 0.89587945 0.0020461241 -0.44429249 0.00137289
-0.0036110994 0.017666856 0.0024653689 -0.87227881 -0.28454491 -0.39769825 0.0023534733
-0.0026363179 0.016739972 0.0011568659 -0.79760683 -0.31529427 -0.51421094 0.001605481
0.025756445 0.017412053 0.0020620122 0.89447647 0.03233606 -0.44594425 0.0015361152
-0.004410923 0.020337909 0.002282494 -0.87621498 -0.30068794 -0.3766087 0.0018745782
0.025570899 0.020174256 0.0020234098 0.91282332 0.083164565 -0.39979649 0.0020871016
-0.0061437073 0.024592662 0.0027705126 -0.88250554 -0.35261592 -0.31120074 0.002305493
-0.0052831932 0.02308742 0.0020377247 -0.88971472 -0.33227828 -0.31304777 0.0023472186
0.025326604 0.023372937 0.0022808628 0.92702848 0.1200527 -0.35525438 0.0016220143
-0.0065554418 0.026424935 0.0020049603 -0.8810426 -0.37614164 -0.28684747 0.0018508575
-0.0056394674 0.025189253 0.00080451299 -0.85439903 -0.3913548 -0.34182423 0.0042428938
0.024757398 0.026472315 0.0019972126 0.93085533 0.16351217 -0.3267602 0.00093035505
-0.0077646831 0.02913915 0.0020406961 -0.88905221 -0.415521 -0.19216798 0.0022526938
0.023806565 0.029963849 0.0012042914 0.91068679 0.18863487 -0.36751395 0.0015960404
