# .PCD v0.7 - Point Cloud Data file format
VERSION 0.7
FIELDS x y z normal_x normal_y normal_z curvature
SIZE 4 4 4 4 4 4 4
TYPE F F F F F F F
COUNT 1 1 1 1 1 1 1
WIDTH 557
HEIGHT 1
VIEWPOINT 0 0 0 1 0 0 0
POINTS 557
DATA ascii
0.0035578099 -0.015357614 -0.0019590154 -0.49195895 0.37519327 -0.78562486 0.0024453166
0.022973642 -0.016474733 -0.0011639693 0.71632159 0.28612632 -0.63640803 0.0017885863
0.024408942 -0.016981602 0.00030640815 0.77139133 0.23424762 -0.5916785 0.0025719358
0.0021623462 -0.013728843 -7.4405922e-05 -0.60936922 0.31452307 -0.72783542 0.001602697
0.0041837934 -0.013289586 -0.0013997774 -0.46878114 0.38725564 -0.79390001 0.0016837972
0.0062275319 -0.012367766 -0.0021067455 -0.41647494 0.40562707 -0.81364322 0.0014254439
0.02055891 -0.012907499 -0.0017633408 0.5638237 0.35237557 -0.74694997 0.0027048611
0.02246362 -0.013658983 -0.00045539427 0.66402531 0.28630942 -0.69072229 0.0023126027
0.0026793513 -0.011280528 0.00056798314 -0.62223721 0.28478935 -0.72918856 0.0021615052
0.0045912899 -0.010753609 -0.00055485498 -0.5166024 0.32203442 -0.79335731 0.0026320172
0.007211694 -0.010422863 -0.0016457179 -0.3391608 0.36158264 -0.86846304 0.0018550976
0.0095268348 -0.0095402263 -0.0020953014 -0.18289602 0.34014425 -0.92241579 0.0028455181
0.017546428 -0.0098134559 -0.0019075127 0.26003185 0.35332558 -0.89863479 0.0038529341
0.019791901 -0.010645295 -0.0012189613 0.46505892 0.34551319 -0.81507099 0.0038409496
0.021943504 -0.010981152 0.00016814354 0.63805819 0.31457826 -0.70279604 0.0020336164
0.0049471501 -0.0079143811 0.0002977585 -0.45772749 0.2874485 -0.84134358 0.002378244
0.0076334449 -0.007705885 -0.0007236005 -0.27296653 0.35129902 -0.89558822 0.0013462277
0.010625393 -0.0075230361 -0.0014520123 -0.1296827 0.37867507 -0.91639924 0.0019312353
0.013548354 -0.0074268179 -0.0015768353 0.041021142 0.40218654 -0.91463828 0.0014536662
0.01662856 -0.0076681944 -0.0012300315 0.24409553 0.36949632 -0.89659899 0.0029028654
0.019596307 -0.0077595944 -9.0127112e-05 0.47530475 0.33313212 -0.81431466 0.0032218061
0.021438798 -0.0088846125 0.00063247536 0.63311654 0.33557755 -0.69753218 0.0033646419
0.005671578 -0.005447723 0.00075847958 -0.3653256 0.26441261 -0.89253747 0.00090362446
0.0075366078 -0.0047066398 0.00031924038 -0.27312106 0.28487128 -0.9188326 0.0019732842
0.010509246 -0.0046072113 -0.0003244098 -0.11933447 0.31816608 -0.94049436 0.0017624197
0.013581883 -0.0046060635 -0.0004457247 0.045676574 0.34039664 -0.93917185 0.0012876984
0.01643621 -0.0046099615 -1.6032252e-05 0.25176856 0.34355208 -0.90475661 0.0027341533
0.018588139 -0.00510742 0.00050309207 0.41962561 0.353302 -0.83611727 0.0026113298
0.0083191572 -0.0026407128 0.00070008193 -0.24163461 0.26562786 -0.93330312 0.0016305151
0.010617276 -0.0020963524 0.00051629846 -0.094519429 0.29386717 -0.95116144 0.0021579147
0.013541146 -0.0020749788 0.00046658493 0.058564108 0.31883401 -0.94599956 0.0020571959
0.015967958 -0.0024823917 0.00066505163 0.24089108 0.33645093 -0.91036934 0.0021569957
0.026692381 -0.036204096 0.0012550757 0.94946337 -0.0130805 -0.31360513 0.0010250979
0.026671527 -0.035701122 0.00090302085 0.94946337 -0.013080476 -0.31360507 0.0010251368
-0.0037038326 -0.030753423 0.0014172301 -0.94945097 0.25418338 -0.18421078 0.0016763352
0.027255002 -0.03179561 0.0027092502 0.96507722 0.012115045 -0.26168537 0.00060256053
-0.0033132124 -0.028494265 0.0020078921 -0.95738608 0.21460818 -0.19327524 0.0020572678
0.026686484 -0.028124014 0.0011555122 0.9305889 0.072632283 -0.35878813 0.000933306
0.027256122 -0.028698632 0.0027277998 0.95545882 0.061047908 -0.28874141 0.00085132173
-0.0032472007 -0.026603457 0.0035595999 -0.96196747 0.16926892 -0.21439849 0.00137761
-0.0026212651 -0.025110105 0.0018486187 -0.93907535 0.21689384 -0.26663548 0.0014481024
0.026738241 -0.025561718 0.0020292753 0.93788332 0.10503034 -0.33067146 0.00069746753
0.027305193 -0.02612488 0.0035414428 0.95470744 0.065008774 -0.29035771 0.00087031018
-0.0022045416 -0.022714466 0.0021592781 -0.93584794 0.20351236 -0.28770009 0.0018941315
0.026528547 -0.022604682 0.002133819 0.92927855 0.10202616 -0.35500991 0.0018812029
-0.0016430264 -0.019703925 0.0024334027 -0.89549321 0.20408309 -0.39552754 0.0021123053
0.026251689 -0.019807367 0.0023440805 0.9087649 0.13629399 -0.39442411 0.002539502
-0.00088214135 -0.016747914 0.0023704839 -0.83558786 0.24779767 -0.49029505 0.0021920919
9.7150696e-05 -0.015779944 0.0011794572 -0.81175941 0.27235594 -0.51659352 0.0040733027
0.025559744 -0.016680552 0.0022067355 0.83920354 0.20973493 -0.50174564 0.0015748844
-0.00059889717 -0.013809547 0.0031451283 -0.81287825 0.20045163 -0.54685283 0.0043634842
0.00057161372 -0.013475573 0.0016622702 -0.77275103 0.26362303 -0.57737231 0.0044821519
0.02384356 -0.012933409 0.0012679007 0.71624315 0.26177236 -0.64689332 0.0018990228
0.024955532 -0.013776446 0.0024713383 0.81764275 0.22309655 -0.53074312 0.002296949
-0.00038299194 -0.011328675 0.0036435977 -0.76582193 0.1685061 -0.62058228 0.0042946073
0.0012050874 -0.010677377 0.0020502179 -0.68935281 0.22868913 -0.68738198 0.0051746154
0.023339694 -0.010595291 0.001721482 0.74391383 0.27818599 -0.60762227 0.0018974923
0.024608919 -0.011029522 0.0031159266 0.78660309 0.24322796 -0.5675348 0.0025074251
0.0016857533 -0.0077842656 0.0025813954 -0.63655108 0.20520461 -0.74343377 0.0039501535
0.0037383351 -0.0071555614 0.0013026353 -0.4925496 0.25832203 -0.83106238 0.00274922
0.020870421 -0.0066392049 0.0011624352 0.60224456 0.33545405 -0.72441149 0.0021029967
0.022677517 -0.0077385679 0.0023118209 0.67991364 0.29305637 -0.67218703 0.0033155105
0.0244506 -0.0091816746 0.0037211583 0.79231125 0.25783029 -0.55296147 0.0049153408
0.0020700898 -0.0047065155 0.0030551327 -0.5822497 0.18668173 -0.79128706 0.0022269743
0.0044775573 -0.0045210342 0.0015914107 -0.42427602 0.2619414 -0.8668198 0.0016448474
0.0064258873 -0.0035914341 0.0010010407 -0.28562182 0.23232563 -0.92975539 0.002497945
0.020009313 -0.004403621 0.001578619 0.47357371 0.34042585 -0.8123042 0.0034403673
0.022104025 -0.0048009902 0.0030118802 0.66383404 0.31620964 -0.67774314 0.0023979461
0.0024543332 -0.001911015 0.0034439305 -0.54165918 0.16327073 -0.82458961 0.0014003624
0.004617075 -0.0017749843 0.0022380233 -0.40560839 0.2048029 -0.89080727 0.0024981836
0.0072846222 -0.0015983813 0.0013032889 -0.25717333 0.25651944 -0.93169719 0.0023547551
0.01025486 -0.00072776747 0.001013939 -0.072556645 0.31547704 -0.94615525 0.0018048906
0.013862097 -0.00070402771 0.0010025941 0.078167401 0.34556919 -0.93513197 0.0021442266
0.016763205 -0.0013699011 0.0013249454 0.265279 0.35761768 -0.89539748 0.001930237
0.019465456 -0.0018251402 0.002327353 0.4824729 0.34686595 -0.80430335 0.004302403
0.021441257 -0.0021539142 0.0035615626 0.64108342 0.30643654 -0.70363963 0.0017548166
0.0028401813 0.00084731169 0.0036732957 -0.49814865 0.13832326 -0.85598755 0.0010610663
0.0046230908 0.0013217323 0.002884004 -0.37541333 0.17248288 -0.91066706 0.0026080087
0.0074695395 0.0013179994 0.0019989677 -0.21102798 0.24395297 -0.94654852 0.0019055948
0.010551952 0.0013161685 0.0015582603 -0.054262359 0.27682197 -0.9593879 0.0017551867
0.013643214 0.001316507 0.0016215378 0.10313457 0.31025383 -0.94504279 0.0020139669
0.016517378 0.0013192064 0.0022307925 0.31055677 0.32980466 -0.89150631 0.0030526996
0.019039474 0.0010163627 0.0031984586 0.47922817 0.3130573 -0.81996065 0.0027498938
0.0047365888 0.0043607452 0.0034136616 -0.31992409 0.16210814 -0.93347174 0.0020616108
0.007481087 0.0044182669 0.0027339507 -0.18285307 0.21195377 -0.96002102 0.0018089894
0.010571553 0.0044148113 0.0024210538 -0.020499669 0.2633132 -0.96449262 0.0014256773
0.013672371 0.0044169514 0.0026036713 0.1728134 0.28643906 -0.94238436 0.0024807134
0.016419698 0.004319787 0.0032450466 0.33658409 0.30744427 -0.89005011 0.0024610953
0.018401135 0.0033943346 0.0037145421 0.4843654 0.32122546 -0.81375933 0.0028927024
0.0052910647 0.0069991043 0.0036851449 -0.26540491 0.16762331 -0.94945389 0.0017040414
0.0074901395 0.0072875391 0.0033089721 -0.13096838 0.17208943 -0.9763363 0.0018049034
0.010587285 0.0072841104 0.0031127997 0.0047887135 0.21305762 -0.97702789 0.0011594342
0.013639645 0.0072189248 0.0033941891 0.18260144 0.26559034 -0.94663537 0.0018480441
0.015648434 0.0065777227 0.003685042 0.28559694 0.28413066 -0.91526181 0.00056201185
0.0077129477 0.0096259164 0.0037325642 -0.10181782 0.15614177 -0.98247284 0.002136878
0.010429502 0.0097156726 0.0036777041 0.038733073 0.20099168 -0.978827 0.0016966678
0.012895114 0.0091584744 0.0037830516 0.20691042 0.274187 -0.93915367 0.0029782578
-0.0037314079 -0.029752817 0.0042620702 -0.96801656 0.17979065 -0.17498372 0.001260702
0.027943853 -0.028197668 0.0061686067 0.96522474 0.059492361 -0.25456229 0.00035965693
-0.0032581845 -0.025241647 0.0048344089 -0.9635731 0.15994841 -0.21434422 0.00094461429
0.027794465 -0.025529338 0.0056817448 0.9644677 0.067007855 -0.25556192 0.00027576875
-0.0032678966 -0.023624461 0.0059616175 -0.96235973 0.15550721 -0.22289276 0.0010238114
-0.0027762102 -0.022348233 0.0044095619 -0.96235943 0.15550835 -0.22289342 0.0010237801
0.027467268 -0.022808174 0.0052319085 0.96265125 0.085563578 -0.25686842 0.00050134369
-0.0026245466 -0.019602751 0.0054399837 -0.9522717 0.15353934 -0.26382625 0.0020314539
0.026862787 -0.01874977 0.0041318042 0.91461772 0.14113833 -0.37888592 0.0028194056
0.027461618 -0.019551642 0.006134972 0.96817559 0.073673382 -0.23918237 0.0011313456
-0.0020229227 -0.016431687 0.0050382642 -0.91846871 0.16819063 -0.3579486 0.0024579582
0.026790773 -0.0163882 0.0049336096 0.91697013 0.15135564 -0.36913046 0.0017425384
0.027499506 -0.017895933 0.0067632003 0.96993047 0.09042237 -0.22596145 0.0009461891
-0.0017130818 -0.013811842 0.0054341871 -0.90623385 0.12316674 -0.40443808 0.0036445064
0.02644863 -0.013763094 0.0052187247 0.90474653 0.17150901 -0.38989526 0.001823935
-0.0012263806 -0.010530984 0.005339046 -0.87027752 0.099648774 -0.48237661 0.0044690212
0.025767639 -0.010649482 0.0052794311 0.86250132 0.2149464 -0.45813695 0.0020268054
-0.0010762971 -0.0075917994 0.0056103766 -0.82189894 0.086262807 -0.56306386 0.0054305582
9.397987e-05 -0.0072772587 0.0041235257 -0.68359035 0.15934488 -0.71225947 0.0043274681
0.02399689 -0.0067999871 0.0041733095 0.73664254 0.26414573 -0.622563 0.0022365423
0.025047803 -0.0076692225 0.0054013021 0.83158726 0.23995739 -0.50088233 0.0022121593
-0.00086749764 -0.004662517 0.0056856414 -0.75892782 0.058339909 -0.64855605 0.0055277068
0.00043515078 -0.0045137117 0.004349581 -0.7091586 0.13242878 -0.69250035 0.004750913
0.023514727 -0.0045335167 0.0046654968 0.77177769 0.28196773 -0.56995904 0.0022728748
0.024679715 -0.0047630677 0.0061896639 0.81043148 0.25493911 -0.52745324 0.002474969
-0.00086823723 -0.0017851716 0.0059377654 -0.68195671 0.053288005 -0.72944874 0.0050630472
0.00083067879 -0.0016817 0.0045158686 -0.56727147 0.11909506 -0.81487393 0.0020984672
0.022679664 -0.0016141371 0.0050802669 0.7064122 0.29912227 -0.64148861 0.0037954359
0.024115654 -0.0025071362 0.0064237323 0.78178686 0.27216852 -0.56101114 0.00175981
-0.00086892647 0.0013355257 0.0061635431 -0.66267329 0.047014646 -0.7474314 0.0044013644
0.0012715533 0.001422672 0.004709824 -0.51948512 0.10235601 -0.8483268 0.0013483772
0.020212866 0.0019425483 0.0043117618 0.52252197 0.32137498 -0.78973979 0.0026280561
0.021988882 0.0011515449 0.0055930987 0.69475806 0.31161046 -0.64823622 0.0030483108
-0.00086931372 0.004458453 0.0063062012 -0.59220099 0.032769646 -0.80512369 0.0029435088
0.0015284478 0.004442445 0.0048861457 -0.46755522 0.09444432 -0.87890404 0.0014842603
0.0034391037 0.0051489165 0.0039818594 -0.36071932 0.12745632 -0.92392451 0.0023539916
0.017658276 0.005269438 0.0040607257 0.37754878 0.28600311 -0.88071519 0.003136297
0.019584289 0.0045379661 0.0049657496 0.53050566 0.31334597 -0.78764087 0.0023363873
0.021471841 0.0041234288 0.006397007 0.6607452 0.29645076 -0.6895889 0.001683521
-0.00086975261 0.00734316 0.0064536771 -0.53493792 0.024099071 -0.84454763 0.0017121378
0.0015291229 0.0073199174 0.0051425118 -0.40948626 0.07909552 -0.90888107 0.0018897501
0.0040437598 0.0075661442 0.0041348599 -0.28365675 0.13297653 -0.94966108 0.0030762344
0.014668349 0.0084936135 0.0039715273 0.23060647 0.26972425 -0.93491685 0.0029678743
0.01682023 0.0074811131 0.0044553252 0.39673781 0.30367741 -0.86624426 0.0023243439
0.019318705 0.0072044129 0.0058308579 0.58244723 0.30780536 -0.75233704 0.002345264
-0.00086999609 0.010228079 0.0065294951 -0.48866361 0.010176376 -0.87241298 0.0012557269
0.0015296668 0.010198615 0.0053108716 -0.38538277 0.057961199 -0.92093462 0.0024246392
0.0046363189 0.010174219 0.0043006269 -0.24739264 0.13408187 -0.95959312 0.0022660389
0.007198147 0.010914956 0.0039805537 -0.062139284 0.1715838 -0.98320788 0.0014447831
0.010948572 0.011054108 0.0039938921 0.074392416 0.23476307 -0.9692018 0.0020097557
0.013854334 0.010336779 0.0043201763 0.24043241 0.28094929 -0.92911774 0.0025120908
0.016628383 0.010198798 0.005300629 0.38466388 0.29054612 -0.87613738 0.0020788291
0.01866941 0.0099049732 0.0064024832 0.59206963 0.28997225 -0.75191063 0.0023133475
-0.00086979748 0.013350017 0.0064707613 -0.44482449 -0.0059122792 -0.89559823 0.0016075524
0.001530205 0.01331882 0.0054671094 -0.32981035 0.040203772 -0.94319075 0.0025655474
0.0046397867 0.013294188 0.0046735359 -0.18874295 0.10474379 -0.97642452 0.0016252303
0.0075064562 0.013284087 0.0043462524 -0.029464189 0.15833272 -0.98694605 0.0016558273
0.010617589 0.013287271 0.004444954 0.11622386 0.21428041 -0.9698329 0.0022688815
0.013746076 0.013307373 0.0050847726 0.27709392 0.24945864 -0.92789513 0.0012444158
0.016403701 0.013136337 0.006137481 0.46500948 0.26752618 -0.84391707 0.0030350834
-0.001044502 0.016559819 0.0064414535 -0.38132459 -0.021107517 -0.92420024 0.0018663834
0.0015306121 0.016440229 0.0055971732 -0.27201509 0.032423727 -0.96174657 0.0025457221
0.0046426561 0.016416568 0.0049761934 -0.1309638 0.082493499 -0.98794901 0.00146878
0.007513796 0.016410248 0.0048092781 0.015101131 0.15426207 -0.9879145 0.0014153195
0.010597113 0.016391603 0.0050841765 0.19880885 0.18811586 -0.9618147 0.0031773529
0.013726284 0.016486235 0.0059439968 0.33317935 0.23041633 -0.91427553 0.0027730635
0.015774662 0.015819076 0.0066385409 0.50111532 0.27226353 -0.82143527 0.0027858114
-0.0013172014 0.019396778 0.0064393505 -0.31436375 -0.035683338 -0.94863176 0.0020563763
0.0015309355 0.019321434 0.0056795962 -0.2141681 0.030613378 -0.97631693 0.0020314658
0.004645233 0.01930226 0.0052484628 -0.033617456 0.088010103 -0.99555218 0.0033927285
0.0075204386 0.0193015 0.0052292822 0.10626889 0.15981065 -0.98141098 0.0035235593
0.01040452 0.019319128 0.0056216642 0.23074467 0.18317921 -0.95561618 0.0025721055
0.013046595 0.019164219 0.0063813105 0.37895325 0.23766975 -0.89437556 0.0034930189
-0.0032756529 0.023221876 0.0068618162 -0.38313615 -0.078905106 -0.92031556 0.0014213823
-0.0015906394 0.022237707 0.0064278338 -0.30061474 -0.069805823 -0.95118761 0.0016581204
0.0015311976 0.022203682 0.0057604043 -0.15475141 0.033197928 -0.98739547 0.001775063
0.0046475078 0.022189951 0.0054903971 0.024462795 0.088948384 -0.99573576 0.0033745766
0.0075269486 0.022197796 0.0056421617 0.14418979 0.14675112 -0.97860789 0.0026832381
0.010383361 0.022192877 0.0062152613 0.26453969 0.19009283 -0.94545412 0.0029238316
0.012302675 0.021433681 0.0066850586 0.37966007 0.23920386 -0.89366645 0.0013394671
-0.0034351479 0.025380656 0.0067676874 -0.31324488 -0.075145461 -0.94669461 0.0020767658
-0.001589946 0.025354024 0.0063098641 -0.18819904 -0.016106224 -0.98199886 0.0015891357
0.001531563 0.02532763 0.0058539156 -0.10214785 0.03689168 -0.99408501 0.0023689852
0.004650407 0.025324242 0.0057932138 0.071627483 0.10775625 -0.99159378 0.0029407821
0.0074863699 0.025270812 0.0061115092 0.1760187 0.15428039 -0.97222173 0.001936605
0.009838013 0.024782434 0.0065800333 0.32163775 0.21140853 -0.92296022 0.0037785263
-0.0039581009 0.028424758 0.0066532586 -0.23202392 -0.05866136 -0.97093958 0.0014688435
-0.0015894839 0.028471405 0.0062333681 -0.13121258 -0.0081027094 -0.99132115 0.0016863155
0.0015319703 0.02845587 0.0059931474 0.016803807 0.068058342 -0.99753982 0.003530788
0.0046536359 0.0284654 0.0061377864 0.14247957 0.13897811 -0.97999215 0.0011394848
0.0073656808 0.028207002 0.006599132 0.23678547 0.15938197 -0.95839977 0.0020977079
0.0092280889 0.026825611 0.0068059368 0.3825666 0.2490076 -0.88974047 0.0027233451
-0.0062810606 0.032237042 0.0068246974 -0.21192358 -0.1137563 -0.97064298 0.00091602665
-0.0044405856 0.031411063 0.0065643042 -0.14395224 -0.05814093 -0.98787516 0.0012490595
-0.0015892393 0.031351276 0.0062076654 -0.077220224 0.0049152663 -0.99700195 0.0022809803
0.0015325296 0.031348865 0.0061727148 0.061496854 0.072705522 -0.99545574 0.002353071
0.0045624492 0.031278271 0.0065078652 0.15465555 0.13244852 -0.97905004 0.0019524476
0.0064628837 0.030552229 0.0068009151 0.27187487 0.19469677 -0.94243157 0.001491867
-0.0068235365 0.034491371 0.0067345276 -0.18460511 -0.074642703 -0.97997421 0.0014891016
-0.0044731447 0.034248859 0.0064146854 -0.097966522 -0.020894201 -0.99497032 0.0013246203
-0.0015893837 0.034236424 0.0062540183 -0.031959321 0.012445214 -0.9994117 0.0024408868
0.0015332245 0.034250926 0.006438137 0.10759856 0.089305952 -0.99017525 0.0016625524
0.0038942189 0.033685569 0.0067566326 0.23200966 0.1717145 -0.95743698 0.0028170361
-0.0091665331 0.03800796 0.0068240864 -0.18330105 -0.10149872 -0.97780299 0.0011044862
-0.00732511 0.037182275 0.0066070966 -0.16690244 -0.084476486 -0.98234791 0.0014681263
-0.0044723637 0.037294805 0.0063544726 -0.049085688 0.0010579829 -0.99879402 0.0016915149
-0.001589944 0.037130222 0.0063951649 0.062439587 0.072618686 -0.99540335 0.0017735938
0.00095671054 0.036892679 0.0066561373 0.17425369 0.12569776 -0.97664511 0.0020518892
-0.0099437693 0.040530972 0.0067212079 -0.13278542 -0.063184701 -0.98912877 0.0013137023
-0.0073570153 0.040260449 0.0064764293 -0.059021391 -0.0078657372 -0.99822575 0.0013062779
-0.004473241 0.040409259 0.0064429222 0.050229799 0.037288487 -0.99804139 0.001780672
-0.0017764901 0.040082719 0.0066332174 0.11893824 0.10958128 -0.98683614 0.0017619077
0.00025137755 0.03901162 0.0068435967 0.23352951 0.17927685 -0.95567977 0.0015951599
-0.012251261 0.043734834 0.0067840889 -0.16343202 -0.07713943 -0.98353416 0.0013741456
-0.01024344 0.043396845 0.0066071162 -0.073488563 -0.021787861 -0.99705803 0.0013846637
-0.0073574088 0.043386914 0.0065052612 0.029518681 0.03281343 -0.99902552 0.0014814612
-0.0046517011 0.043224037 0.0066409502 0.097337641 0.08189404 -0.99187642 0.0016651151
-0.002634038 0.042375498 0.0068158805 0.18219252 0.17105921 -0.96826893 0.0015403742
-0.013138826 0.046440326 0.0067510819 -0.089216545 -0.0286931 -0.99559885 0.0013901185
-0.010243447 0.046281546 0.0066121211 -0.00050982949 0.050020829 -0.998748 0.0011524418
-0.0075369086 0.046113271 0.0066879699 0.070775799 0.079646647 -0.9943074 0.0015679334
-0.0052950284 0.045293018 0.0068161767 0.16806325 0.16686112 -0.97155136 0.0024031145
-0.015479658 0.049613539 0.0068554422 -0.096574277 -0.0059081269 -0.99530828 0.0022580144
-0.013372865 0.049183212 0.0067695873 -0.010443235 0.013549308 -0.99985361 0.0013083259
-0.010450647 0.048850149 0.0067679482 0.043976564 0.096554123 -0.9943558 0.0013854627
-0.0084054871 0.048149519 0.0068447888 0.14599341 0.1873135 -0.97139055 0.0022611732
-0.015540327 0.051118296 0.0068707345 -0.083798841 0.036735434 -0.99580532 0.0019024935
-0.013725196 0.051094357 0.0068527507 0.015549821 0.07432247 -0.99711299 0.0018701782
-0.0032841184 -0.022275399 0.0078443391 -0.96102804 0.14689969 -0.2341914 0.00089476566
0.028037488 -0.022508632 0.0076938421 0.9708389 0.076534353 -0.22718766 0.00047190007
-0.0027959172 -0.018387165 0.0070235236 -0.94953591 0.12564899 -0.28739136 0.0018800113
0.028133729 -0.02041023 0.0092615886 0.97647619 0.084814973 -0.19824392 0.00060837471
-0.0028034428 -0.016738426 0.0080217775 -0.95172888 0.095088683 -0.29183945 0.0013895254
0.027533526 -0.016473025 0.0073272148 0.96997482 0.088873908 -0.22638515 0.0010138791
-0.0026853101 -0.013613703 0.0083058542 -0.96968824 0.082253709 -0.23008494 0.0042572427
0.027043633 -0.012858536 0.0071847988 0.94200552 0.15339081 -0.29849109 0.00093705987
0.027629852 -0.013871564 0.0089243408 0.97069699 0.095424421 -0.22054827 0.0013693938
-0.0025643185 -0.010716693 0.0082486756 -0.9339608 0.031465091 -0.35598752 0.0033862269
0.026697988 -0.010337498 0.0074465973 0.93048829 0.18112689 -0.31840944 0.0020269298
0.027131954 -0.010483905 0.008675864 0.92999887 0.17823845 -0.32145455 0.0019333321
-0.0025082913 -0.0074874689 0.0081942687 -0.91065466 -0.0029172264 -0.41315797 0.0029619369
0.026338877 -0.007378289 0.0081737889 0.89306849 0.2219526 -0.39136404 0.0015972317
-0.0033002379 -0.0046997922 0.0097151948 -0.90783203 -0.069838926 -0.41347748 0.0043728827
-0.0023208905 -0.004682757 0.0078656282 -0.8526091 0.0095318528 -0.52246231 0.0047296416
0.025734615 -0.0046180314 0.0083525749 0.8893398 0.2124407 -0.40489969 0.0021275028
-0.0032973413 -0.0017947318 0.0093789753 -0.85577524 -0.07614433 -0.51171356 0.002632593
-0.0023196798 -0.0017900849 0.0076999124 -0.83257502 -0.02113774 -0.55350876 0.0028153919
0.024937838 -0.001791454 0.0082748914 0.86176056 0.24587579 -0.44374985 0.0021254623
-0.0035188445 0.0014596495 0.0091669941 -0.81135297 -0.077427305 -0.57940608 0.0027875721
-0.0023188342 0.0013414726 0.0075888494 -0.78545302 -0.027954457 -0.61828959 0.0035140496
0.023400165 0.0017497854 0.0076082386 0.80705452 0.28398609 -0.51770151 0.0013858455
0.024424475 0.0010846674 0.0089436192 0.8406626 0.26505253 -0.47226435 0.001738738
-0.0037167191 0.0046089343 0.0089409025 -0.76128483 -0.093746513 -0.64160496 0.0040271822
-0.0023181255 0.0044717351 0.0074910494 -0.63290626 -0.028513215 -0.77370316 0.0040244469
0.022785734 0.0045326855 0.0082322527 0.79759669 0.29392472 -0.52673316 0.0010145147
-0.0039857975 0.0074367998 0.0087778531 -0.69865829 -0.10780634 -0.70728666 0.0053516878
-0.0023173685 0.007359528 0.007380615 -0.56961519 -0.025923755 -0.82150263 0.0027990174
0.020631319 0.0080001438 0.0072958525 0.62904513 0.29887083 -0.71762007 0.0032255631
0.021951035 0.0072768796 0.0085164094 0.75989133 0.29996157 -0.57670456 0.0022967015
-0.004258194 0.010280418 0.0086975731 -0.66022211 -0.070643865 -0.74774069 0.0052844626
-0.0023169639 0.010247424 0.0073297508 -0.51858956 -0.029184373 -0.85452509 0.00147359
0.020053603 0.010420682 0.0078334492 0.67467797 0.31159219 -0.66911882 0.0056509026
0.021500271 0.0098445453 0.0092157442 0.75653815 0.30005547 -0.58104801 0.0022074077
-0.0062050526 0.014178839 0.0097581549 -0.71575648 -0.17307523 -0.67656308 0.0053101252
-0.0044988361 0.013175069 0.0086015351 -0.59664071 -0.1054285 -0.79555309 0.0038581032
-0.0022909904 0.01322173 0.0072313324 -0.47015032 -0.049847491 -0.88117748 0.0013175367
0.017739542 0.013774509 0.0072122319 0.62279361 0.29732335 -0.72368985 0.0025811207
0.019428072 0.013041307 0.0084208883 0.68704033 0.31344402 -0.65553677 0.0035573626
-0.0065632979 0.016617298 0.0094452268 -0.6159603 -0.1703828 -0.76913112 0.0041395575
-0.0044940263 0.016298382 0.0082046064 -0.48714778 -0.10864687 -0.86653501 0.0012115863
-0.0024662763 0.016169453 0.0071738949 -0.41821525 -0.070192017 -0.9056319 0.0016801832
0.017020123 0.016530933 0.0077580586 0.5620985 0.30491439 -0.76881248 0.0021491488
0.018882832 0.015912635 0.0091756256 0.70439821 0.3159419 -0.63561302 0.0035167357
-0.0070144278 0.019550573 0.009146451 -0.54920161 -0.15350282 -0.82147098 0.0030415668
-0.0044898801 0.019418014 0.0078447862 -0.44490117 -0.11005893 -0.88879132 0.00054629712
-0.0027271234 0.019209083 0.0070130033 -0.3574236 -0.079086199 -0.93058783 0.0016180873
0.014566478 0.019770252 0.0072549172 0.43549466 0.28003448 -0.85552621 0.0031696125
0.016566811 0.019348934 0.008551633 0.60194623 0.31712002 -0.73286808 0.0039417502
-0.0091074873 0.023371268 0.0096648438 -0.57545668 -0.22666495 -0.78579432 0.0031745713
-0.0073662908 0.022398759 0.0089035649 -0.47644809 -0.17557457 -0.86149335 0.0026546877
-0.0045571402 0.022237597 0.0075348159 -0.40533948 -0.11495546 -0.90690964 0.00084613304
0.011636155 0.023467157 0.0069509847 0.34146449 0.20819004 -0.9165473 0.0036540281
0.013752962 0.022414802 0.007718171 0.47401902 0.28050828 -0.8346383 0.0021940442
0.016010897 0.022073239 0.0091921771 0.66071492 0.31778899 -0.68004847 0.0030601344
-0.0096386811 0.025504919 0.0093686786 -0.49914849 -0.22171353 -0.8376717 0.0029860644
-0.0073915515 0.025233211 0.0083858827 -0.42787582 -0.16986142 -0.88773268 0.00091561495
-0.0048304806 0.025088018 0.0072553512 -0.3517803 -0.13208847 -0.92671639 0.0016789555
0.011028452 0.025515305 0.0072403206 0.38980025 0.25233859 -0.8856529 0.002793923
0.013377009 0.025170425 0.008447038 0.52944291 0.30247426 -0.79259044 0.0046140528
0.015251215 0.024578959 0.0096237566 0.64854574 0.32744831 -0.68714333 0.0017392844
-0.012135034 0.029064205 0.0097596748 -0.53019834 -0.260277 -0.80693591 0.0030386546
-0.010198877 0.028272973 0.0090201143 -0.44984144 -0.22755203 -0.86363345 0.0012662709
-0.0073804655 0.028329927 0.007765579 -0.36797819 -0.15294655 -0.91716921 0.00080830837
-0.0053223548 0.028013833 0.0070581334 -0.27959016 -0.11985731 -0.95260882 0.0021206662
0.0084522422 0.029191012 0.0071202507 0.31707045 0.21183956 -0.92444056 0.00339775
0.010426344 0.028253328 0.0077454075 0.44099542 0.26650792 -0.85702771 0.001488263
0.012841397 0.027958222 0.0091272919 0.60057276 0.31101993 -0.73659956 0.0036520832
-0.01272955 0.031597894 0.0093955668 -0.47314256 -0.23148131 -0.8500309 0.0018410379
-0.010316615 0.031300962 0.0083888983 -0.38428998 -0.1858502 -0.90431243 0.0012531431
-0.0075071068 0.031323288 0.007289364 -0.28880408 -0.13838391 -0.94733423 0.00098896108
-0.0056813587 0.030200291 0.0069283647 -0.19881815 -0.096990682 -0.97522521 0.0017171516
0.0057032658 0.032447133 0.0069557633 0.22448695 0.18288605 -0.95716155 0.0029158869
0.0076908357 0.031545348 0.0074429018 0.38083822 0.24736913 -0.89093816 0.0022177079
0.010412265 0.031293377 0.0087664574 0.52342814 0.31149176 -0.79309261 0.0032514441
0.012308679 0.030268807 0.0096763177 0.62262332 0.34032169 -0.70464265 0.0030908694
-0.01567493 0.035226766 0.0096419305 -0.45875064 -0.35471651 -0.81469268 0.0029836299
-0.013428889 0.03443151 0.0089060422 -0.3849948 -0.24716432 -0.88920689 0.0013748228
-0.010269216 0.034345426 0.0076545291 -0.33204716 -0.17755161 -0.92640167 0.0011627538
-0.0081213806 0.033995226 0.0070697293 -0.2407251 -0.14732571 -0.95934695 0.002171136
0.0050003836 0.034570418 0.00720134 0.3083728 0.2276302 -0.92362911 0.0027119128
0.0075678094 0.03439036 0.008219298 0.39575976 0.24998429 -0.8836754 0.0012253949
0.0097279018 0.034102999 0.0094097294 0.57067776 0.32688177 -0.75330949 0.0032471239
-0.018309182 0.038629357 0.0098122759 -0.49018854 -0.3199442 -0.81077176 0.0020670271
-0.016369252 0.037547883 0.0092683975 -0.42920721 -0.29828265 -0.85253078 0.0013074097
-0.013415722 0.037275415 0.0081181964 -0.31726456 -0.20929419 -0.92495364 0.0010123909
-0.010393331 0.037092622 0.0071988553 -0.2836746 -0.15635978 -0.94608688 0.0017175507
-0.0085669337 0.035970304 0.0068998737 -0.1638694 -0.089883313 -0.9823786 0.0014938503
0.0023835499 0.037568975 0.0070652096 0.24216466 0.20274732 -0.94881493 0.0026560666
0.0046688868 0.037245382 0.0077535799 0.35637903 0.25052142 -0.90012938 0.0017916485
0.0073222322 0.037167832 0.0090837497 0.51387876 0.31890723 -0.7963835 0.0036548311
-0.019010514 0.040583268 0.0095014451 -0.4240464 -0.30290514 -0.8534829 0.0027246755
-0.016568022 0.040210679 0.0085740034 -0.36584222 -0.25930452 -0.89382362 0.00070820254
-0.013395224 0.040351082 0.0074695209 -0.27971226 -0.17821406 -0.94339848 0.0014504594
-0.011105847 0.039608926 0.0070038568 -0.20347317 -0.11016696 -0.97286272 0.001593848
-0.00066512183 0.041270755 0.007000776 0.20609835 0.15600558 -0.9660154 0.0026035209
0.0015585882 0.040301558 0.0074232984 0.31127188 0.24938874 -0.91701418 0.0021377902
0.0046431464 0.040187817 0.0086911153 0.44391683 0.32613346 -0.83461058 0.003746853
0.0065716854 0.039476827 0.0095425406 0.57018441 0.3577857 -0.73951274 0.0043093152
-0.021647317 0.043731906 0.0095991474 -0.44017982 -0.31640673 -0.84031451 0.0028795684
-0.019445393 0.043335311 0.0087987119 -0.34509513 -0.25371227 -0.90362573 0.0019722786
-0.01653837 0.043273587 0.0078052925 -0.27187201 -0.20185672 -0.94092482 0.001445825
-0.013834869 0.043324217 0.0071733277 -0.21989225 -0.14108305 -0.96526837 0.0015829569
-0.0035971163 0.044312969 0.0069535878 0.1656864 0.14742677 -0.97509652 0.0025342435
-0.0014991676 0.043557689 0.0072739394 0.28838292 0.22983399 -0.92952228 0.0023154051
0.0015376934 0.043283813 0.0082534561 0.36460915 0.30493578 -0.87981492 0.0029713267
0.0039882599 0.042856693 0.0094051166 0.50204051 0.37514341 -0.77924502 0.0043749348
-0.024315443 0.047184445 0.0096164998 -0.44607192 -0.34840411 -0.82439947 0.0038231411
-0.02232464 0.046354037 0.0090343729 -0.38478234 -0.29038921 -0.87613738 0.00093253318
-0.019471444 0.046381015 0.0079977587 -0.29602641 -0.20705433 -0.93246818 0.001937988
-0.016519239 0.046354197 0.0073066792 -0.16696431 -0.10027302 -0.98085082 0.0011087223
-0.014548481 0.045600649 0.0070012864 -0.13428475 -0.086389534 -0.98716986 0.0015473269
-0.0064837066 0.047201041 0.0069698198 0.12522043 0.15693073 -0.97963905 0.0024136677
-0.0043497854 0.046507712 0.0072118063 0.20809861 0.20394927 -0.95660841 0.00078141422
-0.0015973455 0.04643026 0.0080241784 0.32808083 0.26444054 -0.90688151 0.0017941053
0.0011848772 0.04608576 0.0091964565 0.4671925 0.3621068 -0.80660391 0.004092515
-0.027020389 0.050484676 0.0097605688 -0.47908896 -0.31499597 -0.81929928 0.0026415139
-0.025157381 0.049509387 0.0092395116 -0.36809552 -0.27367976 -0.88859731 0.0031490901
-0.02234317 0.04934429 0.0082177436 -0.29624906 -0.19188797 -0.9356364 0.0025189966
-0.019416969 0.049265526 0.0075105708 -0.16838659 -0.085667074 -0.98199141 0.0010724942
-0.016800523 0.049091648 0.0070281429 -0.12872081 -0.076776519 -0.98870432 0.0018376678
-0.009723614 0.050075036 0.0070015499 0.10075314 0.16587286 -0.98098671 0.0018049763
-0.0072752461 0.049329396 0.0072286818 0.17735267 0.20720041 -0.96208841 0.00068264687
-0.0044899164 0.049316056 0.0079571903 0.27857554 0.29113266 -0.91522533 0.0018836756
-0.0017795163 0.049258471 0.0090308804 0.43048826 0.3616429 -0.82697898 0.0049892031
8.7969653e-05 0.048542295 0.009704004 0.50350821 0.43328586 -0.74749112 0.0029920666
-0.027757794 0.052603167 0.009434415 -0.42457166 -0.23760188 -0.8736614 0.0042177686
-0.025256258 0.052276738 0.0085396562 -0.30958298 -0.16196153 -0.93697751 0.002286159
-0.022319796 0.052185167 0.007762311 -0.24479695 -0.1160257 -0.96260709 0.0039477684
-0.019349404 0.052253962 0.0072452752 -0.133238 -0.020273717 -0.99087667 0.0025983909
-0.016609194 0.052464727 0.007017157 -0.076275751 0.026739977 -0.99672812 0.0018315407
-0.013354106 0.052603621 0.0070527932 0.090997748 0.1461686 -0.98506552 0.00246528
-0.010260881 0.052136183 0.0073422762 0.14059545 0.24396619 -0.95953804 0.0039253146
-0.0073835934 0.052214257 0.0080027115 0.2597315 0.29347554 -0.92000633 0.0016549822
-0.0046789264 0.052154489 0.008999248 0.41665795 0.42843464 -0.80177301 0.0023803955
-0.0026539715 0.051353067 0.0095948577 0.46774799 0.47527027 -0.74520469 0.0048218016
-0.030090256 0.056059055 0.0098195672 -0.49695808 -0.20863764 -0.84232008 0.0039038511
-0.028200256 0.055306304 0.0090675801 -0.39110523 -0.16499655 -0.90543509 0.0014413561
-0.025181895 0.055286054 0.0080882581 -0.25987893 -0.06538593 -0.96342492 0.0029271543
-0.022311235 0.055297446 0.0075985603 -0.11484633 0.0080989841 -0.99335021 0.0029023772
-0.019464672 0.055376355 0.0073402971 -0.062570266 0.087059945 -0.99423611 0.0031585321
-0.016520035 0.055505928 0.0073385593 0.05402685 0.17569549 -0.98296094 0.0036658642
-0.013399282 0.055335198 0.0076223062 0.1426198 0.24753173 -0.95832545 0.0031241155
-0.010282031 0.055134907 0.0082237441 0.26196384 0.34304991 -0.90204865 0.003606966
-0.0076268851 0.054965593 0.0090946173 0.38830104 0.46633497 -0.79482949 0.0023298045
-0.0055575166 0.054257799 0.0096057262 0.44283408 0.50405371 -0.74150378 0.0049763341
-0.030725982 0.058541782 0.0096782055 -0.39440286 -0.12638524 -0.91020507 0.0053575062
-0.028352926 0.05826072 0.0088731116 -0.31649658 -0.082428649 -0.94500554 0.0015505858
-0.025282482 0.058408465 0.0081172977 -0.20889753 0.042244006 -0.97702467 0.0052360101
-0.022319926 0.058451708 0.0077708177 -0.051457774 0.18062337 -0.98220533 0.004469228
-0.019429652 0.058456168 0.007803374 0.043728217 0.25201494 -0.96673483 0.0046057715
-0.016548011 0.058492016 0.0080738254 0.13265833 0.32745397 -0.93550825 0.0042476393
-0.013355831 0.058216732 0.0086839935 0.23772255 0.40818778 -0.88140267 0.0045787906
-0.010573145 0.05760809 0.0092556924 0.31353298 0.49062631 -0.81300855 0.0046094083
-0.0086266799 0.057027299 0.0098195476 0.4179219 0.54812908 -0.72449684 0.0044062468
-0.031268079 0.061471015 0.0095412498 -0.21590634 -0.049282324 -0.97516954 0.0066536288
-0.028485594 0.061394818 0.0089585669 -0.16524969 0.078136384 -0.98315173 0.0055597639
-0.025256351 0.061450977 0.0085476702 -0.081733704 0.21380733 -0.9734506 0.0051948228
-0.022354919 0.061438572 0.0084567415 0.026088845 0.31230769 -0.94962269 0.0042835199
-0.019528963 0.061409183 0.0087570474 0.13851108 0.39460388 -0.90835148 0.0045296708
-0.01667821 0.0611067 0.009203718 0.22688405 0.46949241 -0.85328805 0.0051934398
-0.014160136 0.060235243 0.0094568394 0.30962083 0.54099679 -0.78195745 0.0035605342
-0.034037784 0.064660706 0.0097372299 -0.18246149 -0.061488517 -0.98128837 0.0042719138
-0.031610534 0.064437099 0.0095530534 -0.05097118 0.029518871 -0.99826378 0.0048439316
-0.02841459 0.064443044 0.0094099697 -0.028301319 0.20728798 -0.97787052 0.0070136795
-0.025372524 0.06415543 0.0093672657 0.038996905 0.35918811 -0.93245012 0.0070029702
-0.022571718 0.063830316 0.009459299 0.11860504 0.47785667 -0.87039405 0.0058950395
-0.019753678 0.063295707 0.0096406555 0.21086422 0.55542326 -0.80438876 0.0039138584
-0.034527201 0.066884167 0.0098059792 -0.12273462 0.085537605 -0.9887464 0.0078590494
-0.031649616 0.066580907 0.0097646164 0.053492628 0.2770417 -0.95936769 0.0074177063
-0.029205827 0.066233143 0.0098677231 0.09831769 0.42300773 -0.90077645 0.0082029356
0.028201383 -0.019004708 0.010363599 0.9768908 0.077116884 -0.19934224 0.00070099439
0.028287936 -0.017603418 0.011773537 0.98385769 0.068550222 -0.16530283 7.0604037e-05
-0.0033160714 -0.012492668 0.011552866 -0.98401266 -0.015651867 -0.17740956 0.0022639683
0.027708273 -0.012215223 0.010224591 0.95089245 0.14638971 -0.27271536 0.00031735294
-0.0033114858 -0.010537179 0.011020636 -0.98146564 -0.050168741 -0.18495491 0.0018346801
0.027742013 -0.011501823 0.01078401 0.94242853 0.1551787 -0.29622295 0.00082973472
-0.0035341831 -0.0075164782 0.011185618 -0.96499294 -0.071331032 -0.25238934 0.0042508529
0.027281631 -0.0076253605 0.011202644 0.95154232 0.17234996 -0.25468171 0.00044055132
-0.0039645685 -0.0044735949 0.01156555 -0.9503175 -0.12198427 -0.28638524 0.0037834754
0.026716745 -0.0045373123 0.011029986 0.92035651 0.22271489 -0.32146838 0.0026710338
-0.0041449177 -0.0016603825 0.011085817 -0.91635531 -0.11804171 -0.38256913 0.002209835
0.026125938 -0.0016776435 0.011157411 0.92557871 0.2102879 -0.31477466 0.0023298454
-0.004598347 0.001271108 0.011130445 -0.88740832 -0.13807748 -0.43981946 0.0033649132
0.025378134 0.0010920204 0.011102164 0.91441488 0.23114589 -0.33229062 0.0020653298
-0.0062494506 0.0055051483 0.012702654 -0.88312197 -0.25076056 -0.39650309 0.0044535869
-0.0051466315 0.0042712055 0.011255141 -0.86451536 -0.15221286 -0.47900346 0.0025256341
0.023839617 0.0052317916 0.01037848 0.86366373 0.28211629 -0.41772643 0.0013274577
0.024663325 0.0040713488 0.011424698 0.89966434 0.25416598 -0.35497004 0.0019889413
-0.0064039794 0.007688039 0.012183375 -0.8398912 -0.21237656 -0.49947876 0.0020821199
-0.0054359189 0.007324927 0.010697764 -0.82579529 -0.15977006 -0.54086572 0.0023461946
0.02346513 0.0074968818 0.011176558 0.86011267 0.29177117 -0.41842046 0.0014518233
0.024437521 0.0062333234 0.012522737 0.90414083 0.2851288 -0.3181681 0.00061270042
-0.0067967488 0.010517657 0.011626011 -0.80236757 -0.21463574 -0.55690026 0.0024417376
-0.0057271589 0.010316612 0.010199552 -0.71189493 -0.16476545 -0.68268436 0.0040563266
0.022508867 0.010342105 0.01123836 0.83660984 0.30246034 -0.45672944 0.0021042645
-0.0073039783 0.013325548 0.01123694 -0.74783301 -0.22956602 -0.62293273 0.0040109092
0.020775307 0.013880307 0.010503253 0.80990273 0.31986901 -0.49167198 0.0019111452
0.021800268 0.01294571 0.011671059 0.83702451 0.30728894 -0.4527289 0.0024018667
-0.0093458295 0.016633367 0.012250531 -0.74521542 -0.28487864 -0.60290807 0.0016693707
-0.0079310965 0.016018331 0.010849972 -0.72549903 -0.25069538 -0.64093918 0.0028175551
0.020227596 0.016309096 0.011192608 0.81953657 0.34499478 -0.45753518 0.0014652999
0.021517919 0.015002299 0.012581269 0.84898949 0.3467775 -0.39870048 0.0051079914
-0.0098420121 0.019418035 0.01161843 -0.71148628 -0.26731426 -0.64986944 0.0029898288
-0.0083755888 0.01898689 0.010296728 -0.63517481 -0.21918981 -0.7406137 0.0017455437
0.017921951 0.020157242 0.010278849 0.72516727 0.32228541 -0.6084938 0.0058543505
0.019153269 0.019064303 0.011330758 0.7945435 0.3298147 -0.50982636 0.0030740527
-0.012248999 0.023189899 0.012354603 -0.68218946 -0.34845638 -0.64280295 0.0035785164
-0.010447637 0.022327473 0.01109451 -0.63124418 -0.26485649 -0.72895932 0.003756165
-0.0086288992 0.021206204 0.0099279685 -0.63503665 -0.20656317 -0.74435216 0.0049882326
0.017260024 0.022599408 0.01085892 0.76993257 0.3527458 -0.53176516 0.0025651087
0.018505985 0.022055455 0.012377923 0.79233724 0.35810944 -0.49392238 0.0013941772
-0.012906523 0.025630856 0.01174242 -0.64065647 -0.34691983 -0.68498611 0.0032238776
-0.011008156 0.025132451 0.010375896 -0.53372598 -0.2838411 -0.79659951 0.0025650484
0.014618114 0.026538167 0.010013561 0.67054182 0.2953392 -0.6805501 0.0091571053
0.016175989 0.025342368 0.011190836 0.75082046 0.34720758 -0.5618856 0.0043050596
-0.015278052 0.028896313 0.01234307 -0.65809399 -0.37821761 -0.65104812 0.0027931731
-0.01340053 0.028191695 0.01102595 -0.5504306 -0.29044485 -0.78273118 0.0013085688
-0.01153574 0.027262341 0.0099761887 -0.50392252 -0.25679177 -0.82469398 0.0021406037
0.014187203 0.028585132 0.010701966 0.72938836 0.3579717 -0.58296555 0.0042641475
0.015431189 0.028072024 0.011970395 0.75476855 0.38667271 -0.52991384 0.0022343828
-0.017939521 0.032540474 0.012609283 -0.63445365 -0.40215415 -0.66010654 0.0040366147
-0.01603465 0.031386849 0.011637592 -0.60994637 -0.39041412 -0.6895957 0.004279369
-0.014002508 0.030857386 0.010370799 -0.502285 -0.28800735 -0.81532907 0.0029612358
0.011712857 0.032110732 0.010047342 0.60969865 0.33380646 -0.71891642 0.0022987511
0.013323793 0.031150119 0.011311546 0.71656513 0.38915712 -0.57887065 0.0045362711
-0.018799357 0.034489986 0.012208067 -0.60960561 -0.42083788 -0.67177123 0.0032895447
-0.016705038 0.034128454 0.010744517 -0.51105809 -0.34584755 -0.78689837 0.0016113374
0.011014618 0.034506764 0.010748348 0.66205353 0.37808156 -0.64710081 0.0062069395
0.012517714 0.033684157 0.011983528 0.73173386 0.4086771 -0.54548019 0.00197348
-0.021432441 0.038165357 0.01231005 -0.61239529 -0.45620281 -0.64564002 0.003421705
-0.01955444 0.037323486 0.011269826 -0.57550901 -0.38214508 -0.72301763 0.0039148703
-0.017561488 0.036719453 0.010134929 -0.47971222 -0.33315751 -0.8117156 0.0021957438
0.0085104462 0.03813675 0.010414894 0.64943522 0.40826106 -0.64152688 0.0012562011
0.010165583 0.037088815 0.011527066 0.69133693 0.42943442 -0.58106744 0.0034461219
-0.024272678 0.041552994 0.01261429 -0.63906175 -0.45225963 -0.62214255 0.0024734077
-0.02233224 0.040507566 0.011596785 -0.57530373 -0.43529379 -0.69249183 0.0039474675
-0.020239888 0.039971281 0.010380624 -0.45867008 -0.36107332 -0.81194079 0.002060116
0.0059000128 0.04155447 0.010029177 0.6216265 0.40954182 -0.66772455 0.0030121687
0.0076823849 0.040476166 0.011101544 0.65485889 0.41127512 -0.63404465 0.005305829
0.0094974441 0.039335802 0.012328724 0.70898336 0.4587287 -0.53564042 0.0031598578
-0.025062442 0.043690789 0.011855915 -0.57928824 -0.4739756 -0.66315329 0.0032095376
-0.02284655 0.04303778 0.010553095 -0.48026791 -0.37331134 -0.79371363 0.0023965549
0.0052549993 0.043596014 0.010837552 0.6430096 0.44849682 -0.62079716 0.0041933456
0.0068517122 0.04284003 0.011947404 0.66967398 0.47435859 -0.57141989 0.0032061641
-0.027615298 0.046751741 0.01208814 -0.62584847 -0.45107758 -0.63627249 0.0048023402
-0.025551654 0.046103489 0.010809688 -0.48988801 -0.36193463 -0.7931034 0.0014542629
-0.023645381 0.045185383 0.010011773 -0.48869798 -0.38231695 -0.78422451 0.0019155784
0.0025559899 0.046805721 0.010551531 0.60276127 0.43719256 -0.66748893 0.004697076
0.00420612 0.04602614 0.011557749 0.63106191 0.49599421 -0.5964483 0.003203029
-0.030292144 0.050140515 0.012302481 -0.64131069 -0.44313967 -0.62637675 0.0048404243
-0.028298061 0.049317855 0.011105521 -0.53886914 -0.38791668 -0.7477572 0.0027025042
-0.026283877 0.048350167 0.010164382 -0.44696173 -0.30702588 -0.84021443 0.0035838026
-0.00078484538 0.050395105 0.01025099 0.479316 0.44026986 -0.75922245 0.0041030091
0.0013935106 0.049104691 0.011245336 0.58555382 0.49441656 -0.64240092 0.0027144325
0.0034953989 0.04813819 0.012693475 0.64093941 0.4960058 -0.58581144 0.003428576
-0.030907787 0.052472837 0.01157875 -0.65591043 -0.33431831 -0.67676628 0.0050406959
-0.029092129 0.051923968 0.010344164 -0.48762706 -0.29534242 -0.8215794 0.0032086037
-0.0036284814 0.053376064 0.010323113 0.51966077 0.54378396 -0.65897769 0.0014983329
-0.0016123048 0.05233983 0.01112702 0.55211604 0.52264452 -0.64962345 0.0037666638
0.00041002643 0.051318917 0.012104765 0.61230296 0.54570073 -0.57209772 0.0019632594
-0.033275578 0.055870779 0.012191609 -0.62554312 -0.32922399 -0.70732409 0.0076022977
-0.03140223 0.055221681 0.010881371 -0.52304512 -0.24224888 -0.81715322 0.0013171587
-0.029450664 0.05413333 0.0099086864 -0.46551213 -0.20286043 -0.86147904 0.0025969127
-0.0067522996 0.056233376 0.010347134 0.4158867 0.52650636 -0.74150479 0.0030491934
-0.0045741373 0.055310734 0.011121193 0.50110394 0.57903147 -0.64313102 0.0044237101
-0.002445369 0.054312769 0.01218243 0.570041 0.57581538 -0.58608007 0.002047322
-0.035955772 0.059563529 0.012508879 -0.643574 -0.4626019 -0.60976386 0.025067626
-0.034195993 0.058471777 0.011676156 -0.57593614 -0.37867853 -0.72449994 0.0082690064
-0.032037325 0.05822093 0.010366047 -0.43685183 -0.23941739 -0.86708695 0.0048949947
-0.010003796 0.059023395 0.010495543 0.39009538 0.57490611 -0.71924156 0.001833796
-0.0076091164 0.058145218 0.011410157 0.47796586 0.61822039 -0.623981 0.0046873614
-0.0053683552 0.057260167 0.012395225 0.51281112 0.62475502 -0.58881742 0.0018048502
-0.037165593 0.06163371 0.011925541 -0.59019506 -0.45783836 -0.66487122 0.0091286115
-0.034596059 0.061260168 0.010680849 -0.39432085 -0.3038072 -0.86730164 0.0055780937
-0.032580782 0.060660969 0.010036608 -0.28604186 -0.18623807 -0.93994439 0.0072415974
-0.015721535 0.062227588 0.010222222 0.28682247 0.53746569 -0.79300916 0.003591723
-0.013108571 0.06152831 0.01098608 0.36824244 0.62963647 -0.68407267 0.0051114508
-0.01070037 0.060701635 0.011695373 0.42678529 0.68198448 -0.59392887 0.0040727481
-0.0084438249 0.060088333 0.012789275 0.50861108 0.65698439 -0.55649453 0.0021187002
-0.039656471 0.064703986 0.012132831 -0.67657721 -0.30544603 -0.67003441 0.023400316
-0.037457265 0.064312369 0.010759374 -0.46725002 -0.22275122 -0.85560465 0.015328956
-0.035193004 0.06381283 0.010061206 -0.22794327 -0.14253299 -0.96318549 0.010495452
-0.025341986 0.065612502 0.010037273 0.13945997 0.44335958 -0.88542819 0.0055130534
-0.022164583 0.065069109 0.010335989 0.19232118 0.55000836 -0.8127135 0.0042586992
-0.019403696 0.064640857 0.01084883 0.28800455 0.64953876 -0.70367092 0.0060739089
-0.016605401 0.063824654 0.011403095 0.32770681 0.69923985 -0.63535184 0.0034413522
-0.014127583 0.063373268 0.012239568 0.4082433 0.71253735 -0.57063812 0.0031271391
-0.039458741 0.06659168 0.011733572 -0.80100703 0.21028367 -0.56050736 0.015645696
-0.037488036 0.067318723 0.010384036 -0.34106606 0.06798327 -0.93757784 0.0093581174
-0.034542061 0.068328261 0.0099980533 -0.0064633898 0.31290254 -0.9497633 0.0097557046
-0.031293422 0.067991696 0.010221966 0.15419759 0.35276163 -0.92292058 0.0081773708
-0.02821314 0.067377828 0.010573761 0.19488981 0.50097281 -0.84323442 0.0062037604
-0.025409859 0.067244202 0.011217828 0.25044018 0.65602505 -0.71197677 0.0072076758
-0.022675814 0.06670662 0.011710413 0.24615681 0.71433115 -0.65508598 0.0048781182
-0.020079926 0.066239156 0.012246951 0.31630445 0.73061967 -0.60510033 0.0024484152
-0.037102066 0.070101276 0.011066074 -0.53140879 0.45202222 -0.71643603 0.020681813
-0.034484439 0.070327953 0.010726466 0.08962626 0.52509558 -0.84631073 0.010807357
-0.031476699 0.0700638 0.011421665 0.2698493 0.58518898 -0.76467979 0.014146995
-0.028682986 0.069439404 0.012016047 0.28636849 0.64722741 -0.70646286 0.007727643
-0.026470602 0.06909214 0.012711803 0.31767553 0.6991092 -0.64056897 0.0034144158
-0.036528736 0.072350569 0.012369678 -0.3863439 0.71625227 -0.58113778 0.045623783
-0.034623887 0.072199389 0.012086866 0.11834838 0.75806582 -0.64134997 0.02189371
-0.03257335 0.072041884 0.012875299 0.28864145 0.73494297 -0.61363262 0.0045961128
-0.0033353004 -0.013528626 0.013784598 -0.98401284 -0.015652489 -0.17740847 0.0022639609
-0.0038335794 -0.0093965046 0.014802645 -0.97895235 -0.10841975 -0.17290883 0.00087015808
-0.0040747202 -0.007673163 0.014381359 -0.97838575 -0.094817445 -0.1837687 0.0013077606
-0.0044321921 -0.0049786083 0.013584915 -0.96027058 -0.13024002 -0.24681559 0.0025356435
0.027417647 -0.0059545152 0.013498793 0.95349437 0.17579047 -0.24483927 0.00046138768
-0.0050116475 -0.0017716017 0.013910678 -0.95778632 -0.18092595 -0.22340789 0.0026761121
0.026801731 -0.0020525465 0.014097909 0.9481442 0.21486871 -0.23420936 0.001789939
-0.0062931213 0.0021115059 0.015598918 -0.95475453 -0.22952761 -0.18910562 0.0014715114
-0.0055970834 0.0010025408 0.013977173 -0.94618499 -0.1961116 -0.25743786 0.0032341455
0.026116231 0.0013686791 0.014217052 0.94341522 0.22976398 -0.23911543 0.0024153846
-0.0065878974 0.0044394168 0.014481452 -0.9197098 -0.22766428 -0.31984815 0.0016072276
-0.0057694637 0.0028292576 0.013221066 -0.93150806 -0.20883428 -0.29779342 0.001697636
0.025323108 0.0045443438 0.013873638 0.92181641 0.25775206 -0.28951412 0.00060281222
-0.0073551084 0.0075506251 0.014194884 -0.8915121 -0.26271486 -0.36903533 0.0030234146
0.023994282 0.0086859502 0.013370316 0.9095543 0.29456854 -0.29315585 0.0011054003
0.024696819 0.0071573788 0.014342139 0.92147464 0.27556837 -0.27376351 0.00068959896
-0.0092351614 0.011673544 0.015592049 -0.9064573 -0.31925997 -0.27642038 0.0027192743
-0.0081601813 0.010329017 0.014059256 -0.86729145 -0.26892206 -0.41891113 0.0029806942
0.023614421 0.010586838 0.014122688 0.90682685 0.31020758 -0.28537038 0.0011786382
0.024095543 0.010196242 0.015329014 0.91226798 0.30232468 -0.27634579 0.0010284579
-0.009549425 0.01359857 0.014446142 -0.84093356 -0.32930362 -0.42940637 0.0024930632
-0.0085363118 0.012670116 0.0133463 -0.82970685 -0.31251001 -0.46251929 0.0034420842
0.02262363 0.013536127 0.014165808 0.89604127 0.31232917 -0.31553215 0.0017711857
-0.010462404 0.016267451 0.014170936 -0.83656365 -0.33034337 -0.43707505 0.0024396183
0.021058474 0.016974483 0.013192932 0.86362499 0.3432914 -0.36919221 0.0018213007
0.021708533 0.016313383 0.014346707 0.89053404 0.32773191 -0.31550109 0.0015557858
-0.012434658 0.019767506 0.01505725 -0.80376583 -0.38055369 -0.45731759 0.0025283166
