# .PCD v0.7 - Point Cloud Data file format
VERSION 0.7
FIELDS x y z normal_x normal_y normal_z curvature
SIZE 4 4 4 4 4 4 4
TYPE F F F F F F F
COUNT 1 1 1 1 1 1 1
WIDTH 556
HEIGHT 1
VIEWPOINT 0 0 0 1 0 0 0
POINTS 556
DATA ascii
-0.018659137 0.028962197 -0.011203906 0.35591879 0.82834417 -0.43262881 0.0012217143
-0.065673016 0.032069538 -0.010828268 -0.42326152 0.46751332 -0.77606767 0.014472958
-0.063159183 0.032525972 -0.011411143 -0.33593968 0.56640428 -0.75254947 0.01308428
-0.060323767 0.032950021 -0.012263712 -0.37573853 0.62187523 -0.68708926 0.009153924
-0.057407405 0.033917297 -0.012506647 -0.25466031 0.79341388 -0.55284953 0.0024542243
-0.054756936 0.034198202 -0.013136504 -0.16654843 0.79994917 -0.57649195 0.0052939076
-0.038939696 0.034285463 -0.013171123 0.12403193 0.87269127 -0.47225636 0.0037200733
-0.036189076 0.034138687 -0.01247141 0.18706758 0.88649708 -0.42323595 0.0021196497
-0.033198122 0.033610284 -0.012188715 0.22387542 0.88167524 -0.41536546 0.0013439605
-0.030217359 0.032799333 -0.012056079 0.26642135 0.86214036 -0.43096834 0.001617579
-0.027535127 0.032015391 -0.011945507 0.28418243 0.86402935 -0.41556418 0.0019351433
-0.025315708 0.031766232 -0.010832664 0.3402698 0.84829557 -0.40572307 0.001608139
-0.056848891 0.034920432 -0.011121755 -0.23370555 0.82078296 -0.52124572 0.0046750926
-0.054269567 0.035092816 -0.011732388 -0.13185413 0.86657548 -0.48131213 0.0054808343
-0.05119101 0.035252504 -0.012227822 -0.085103318 0.88678426 -0.45428082 0.0036732177
-0.04834884 0.035439812 -0.012074422 0.014397835 0.91610759 -0.4006739 0.0040741614
-0.045041874 0.035394244 -0.012088076 0.050796784 0.91802794 -0.39324844 0.0030929872
-0.04225456 0.035086416 -0.012308898 0.098200001 0.89328307 -0.43863663 0.0024147471
-0.039281886 0.035064846 -0.011623396 0.1217787 0.90490746 -0.40781403 0.0028144701
-0.036895048 0.03494148 -0.010886372 0.1765656 0.90803671 -0.37986043 0.0017820132
-0.0030693426 -0.010637977 -0.0079218689 -0.10892171 -0.82796443 -0.55010098 0.0017343105
-0.00012027705 -0.010761444 -0.0081167202 -0.035421148 -0.78907454 -0.61327547 0.0020705385
0.0028518992 -0.010762521 -0.0080585117 0.041079916 -0.74508291 -0.66570556 0.0017678696
0.0055512176 -0.010674734 -0.0078577325 0.10163249 -0.70384496 -0.70304555 0.0014946945
0.007887587 -0.010542143 -0.0076001692 0.18742092 -0.64585125 -0.74010098 0.0012720561
-0.014289327 -0.0077878973 -0.0082412073 -0.2716217 -0.90143597 -0.33709762 0.0033801827
-0.012065219 -0.0081430674 -0.0091125099 -0.25079498 -0.8973071 -0.36323801 0.0034376609
-0.0091677634 -0.0088728908 -0.0091219731 -0.20695154 -0.86955011 -0.44838995 0.0036847931
-0.0062191375 -0.0093429582 -0.009262518 -0.13918498 -0.85461855 -0.50025451 0.0030996052
-0.0033032913 -0.0095983976 -0.0093723843 -0.067837507 -0.82171923 -0.56584054 0.0033844789
-1.0444783e-06 -0.0094482051 -0.0096538141 0.013042177 -0.72233546 -0.6914199 0.0016246869
0.0028966633 -0.009322213 -0.0095584169 0.079863347 -0.67760259 -0.73107904 0.0013221253
0.0058716466 -0.0089726318 -0.0093476819 0.14661829 -0.63349915 -0.75972497 0.0014103326
0.0087879319 -0.0089253737 -0.008673789 0.2349631 -0.59181285 -0.7710706 0.0015538557
0.01146285 -0.008437342 -0.0081239473 0.2885401 -0.53879458 -0.79148281 0.0013661179
0.013837362 -0.0077948906 -0.0076502222 0.36509472 -0.47306117 -0.80182225 0.0013184613
-0.020943979 -0.0050372593 -0.0097947754 -0.31103426 -0.92242879 -0.22887275 0.0028680614
-0.018256091 -0.0060883574 -0.0093554929 -0.31398159 -0.91096818 -0.26749298 0.0034201576
-0.015331449 -0.0070437053 -0.0095334072 -0.2633774 -0.90628445 -0.3305766 0.0032756175
-0.01329443 -0.0073078461 -0.010371994 -0.25702929 -0.90358126 -0.34274903 0.0036849889
0.0069436072 -0.0073077641 -0.010380488 0.23688295 -0.54572201 -0.80378723 0.0011102783
0.0089701992 -0.0068059387 -0.010038964 0.26117882 -0.50172669 -0.82465506 0.0011371054
0.011818685 -0.0060305409 -0.0094506778 0.36574891 -0.40931022 -0.83587849 0.0013011837
0.014594639 -0.0057819393 -0.008313057 0.43240538 -0.36317807 -0.82530439 0.0014897661
0.016467968 -0.0049340017 -0.0076884287 0.46407011 -0.34316623 -0.81662464 0.0025228909
-0.026650472 -0.0027599675 -0.0079466514 -0.3596248 -0.90770996 -0.21617723 0.0024174487
-0.023461916 -0.003973254 -0.010202071 -0.37304875 -0.90108687 -0.22108179 0.00286767
0.012674179 -0.003546007 -0.010193456 0.42447504 -0.26034951 -0.86720181 0.0037283681
0.014706532 -0.0029882942 -0.0092988545 0.48333794 -0.20295201 -0.85158384 0.0038606103
0.016773809 -0.0029215543 -0.0080089364 0.54086989 -0.17260504 -0.82320553 0.0046437932
0.014698323 -2.6179943e-05 -0.0095883626 0.52032363 -0.018752651 -0.85376328 0.0024694551
0.016837496 -3.7668739e-05 -0.0081550386 0.59807092 0.03890001 -0.8004986 0.0021541622
0.012969619 0.0038344297 -0.010372516 0.56877142 0.13275982 -0.81171054 0.0015328163
0.014707083 0.00293978 -0.0092871692 0.60671437 0.20711616 -0.76746374 0.0021809796
0.016651144 0.0026530633 -0.0079196179 0.62020999 0.22322904 -0.75200289 0.0025596919
0.012615243 0.0062258281 -0.0099316537 0.61029226 0.28581527 -0.73881871 0.0019691673
0.014485786 0.0057251099 -0.008544161 0.62438947 0.3418023 -0.70235962 0.0017174911
-0.048304804 0.0090625845 -0.010441046 -0.55589765 -0.77541113 -0.29952517 0.0014068068
0.0097902473 0.010095436 -0.010126729 0.5564056 0.47145638 -0.68420881 0.00091010926
0.011746723 0.0090999193 -0.009130097 0.59772295 0.45467421 -0.66030192 0.0028637145
0.013716297 0.0081045702 -0.0079029463 0.62332141 0.4636957 -0.62964809 0.0017152125
-0.053327076 0.012705948 -0.010286938 -0.62719101 -0.70229191 -0.33677503 0.0014684063
0.0070212944 0.01301249 -0.010200333 0.55157655 0.55491042 -0.6227662 0.00060785207
0.0089150351 0.012197914 -0.0091491686 0.56604236 0.55641234 -0.60827732 0.003434431
0.010853434 0.011414237 -0.0081108054 0.57852995 0.57656682 -0.57695216 0.001311657
-0.056406632 0.015297513 -0.0099453535 -0.66887212 -0.67983502 -0.30072308 0.00063287816
0.0036245962 0.016172986 -0.010066508 0.51571774 0.64600033 -0.56277776 0.0008808038
0.00589011 0.015043944 -0.0091396207 0.55783641 0.65498239 -0.50972217 0.00084771053
0.0079558678 0.013999744 -0.0082458416 0.56250858 0.61780286 -0.54945779 0.0015188135
-0.059514359 0.018407803 -0.0099719502 -0.68289304 -0.62560421 -0.37719554 0.00078340195
-0.058140527 0.017039459 -0.010028418 -0.67276657 -0.61389971 -0.41293132 0.0013233591
0.00067674136 0.018696394 -0.0095912376 0.49206114 0.71538168 -0.49608952 0.0029758685
0.0027103513 0.017735174 -0.0088780941 0.51610923 0.70005828 -0.49350756 0.002227389
0.0046055107 0.017063193 -0.0078958878 0.51740652 0.70609128 -0.48345172 0.0016906512
-0.062931359 0.021620294 -0.0091519514 -0.67512244 -0.56641537 -0.4726344 0.0035229328
-0.061125573 0.020007461 -0.0098526981 -0.64714199 -0.56653965 -0.51013726 0.0019477727
-0.0051101856 0.022259664 -0.010265689 0.49381331 0.72031718 -0.48712575 0.0018270842
-0.0030962443 0.0214672 -0.0093112467 0.49832532 0.74510807 -0.44326741 0.0023619314
-0.000602182 0.020126179 -0.0087847402 0.50693637 0.73289812 -0.45373553 0.00092814362
-0.065811217 0.024512779 -0.0089032091 -0.64512414 -0.56432247 -0.51512611 0.005879418
-0.064153269 0.023369355 -0.0097827315 -0.67835617 -0.53712589 -0.50132686 0.0051983898
-0.0089203157 0.02496173 -0.0095268572 0.45640689 0.80530441 -0.37838805 0.00089570484
-0.0063588941 0.023674145 -0.0090215988 0.47422665 0.78021771 -0.40788415 0.0014476561
-0.0045398227 0.022996571 -0.0081199519 0.50433922 0.78039461 -0.36962986 0.002017024
-0.068519913 0.027260721 -0.00840618 -0.73288602 -0.37055078 -0.57058752 0.013498972
-0.066870742 0.026737349 -0.009727696 -0.63621873 -0.40549734 -0.6563518 0.013592507
-0.014525095 0.027948247 -0.0094539672 0.40273839 0.84792089 -0.34471995 0.00054757885
-0.01214654 0.026814649 -0.0091884974 0.42854449 0.82867295 -0.36007071 0.0010756134
-0.0098635228 0.025945002 -0.0084650423 0.44732636 0.81544393 -0.36735579 0.0010465728
-0.068693012 0.029985879 -0.0092224404 -0.69574326 -0.030505888 -0.71764243 0.023377337
-0.0673263 0.029990895 -0.010293044 -0.62710994 0.027493246 -0.77844536 0.014970877
-0.023118047 0.031410027 -0.0096184276 0.33184263 0.8626101 -0.38181716 0.00094954431
-0.021091687 0.030781899 -0.0091856606 0.35024172 0.87647974 -0.33032399 0.00049788866
-0.018164968 0.029581847 -0.0092039313 0.35547495 0.87094545 -0.33925164 0.00069018087
-0.016001981 0.028830918 -0.0087698027 0.37383276 0.86217797 -0.34190395 0.00093804649
-0.068381436 0.03268069 -0.0087943235 -0.50980532 0.55201083 -0.65983528 0.022546049
-0.066398509 0.033296037 -0.0094751129 -0.3916862 0.60747665 -0.69105285 0.022551578
-0.063534535 0.033893391 -0.0098798238 -0.22605933 0.80141395 -0.55374449 0.0050830063
-0.061507165 0.034080844 -0.01033799 -0.14355762 0.81705755 -0.55839789 0.012910036
-0.031947631 0.034085196 -0.010288041 0.22459458 0.89509243 -0.38518405 0.001382555
-0.030051183 0.033849433 -0.0090711042 0.27265993 0.89164454 -0.36142287 0.00059326197
-0.027128162 0.032919146 -0.0092847683 0.294689 0.88574308 -0.35863289 0.00031322805
-0.024558213 0.03211388 -0.0089752693 0.32483795 0.87470752 -0.35967651 0.00040962585
-0.022082157 0.031552967 -0.0078487806 0.34502989 0.87963724 -0.32740286 0.00050525158
-0.065541223 0.034753188 -0.0078751752 -0.25604811 0.79904968 -0.54402107 0.0058212634
-0.063364007 0.034685772 -0.0086384276 -0.23344576 0.80689818 -0.54260337 0.0055958959
-0.060361791 0.034865055 -0.0094260247 -0.21233064 0.86078495 -0.46256363 0.0058477572
-0.057277121 0.035540029 -0.0092947744 -0.2161088 0.88359326 -0.41540343 0.0027393601
-0.054108921 0.035972074 -0.0095523652 -0.12763862 0.93235648 -0.33825999 0.0019259673
-0.050315138 0.036487296 -0.0089094052 -0.019879214 0.95031464 -0.31065568 0.0012974485
-0.0482485 0.03647738 -0.0090164747 -0.0011458984 0.94983524 -0.31274861 0.0011156587
-0.046285395 0.036549922 -0.0082332604 0.030459827 0.94882882 -0.3143183 0.00069497817
-0.041776076 0.035947815 -0.0098173227 0.091657728 0.9568913 -0.2756047 0.00084721204
-0.03912273 0.035791025 -0.0090439357 0.11831124 0.95443469 -0.27396521 0.0013974077
-0.036157072 0.035303246 -0.0090299565 0.16680786 0.93197912 -0.32185429 0.0004099191
-0.033402976 0.034725681 -0.0092222439 0.20006503 0.90871596 -0.36634597 0.0016746039
-0.0081934948 -0.010584679 -0.0052760202 -0.2926304 -0.91174161 -0.28826135 0.0044176891
-0.0059191962 -0.010935212 -0.0062253601 -0.21512453 -0.91179156 -0.34979644 0.007013842
-0.0031085201 -0.011685042 -0.0059884125 -0.16876295 -0.88401771 -0.43592629 0.0023935724
-2.2723339e-05 -0.012094943 -0.0061323713 -0.11013491 -0.86514515 -0.48927924 0.0037153112
0.0029186844 -0.012343798 -0.0060567409 -0.025481986 -0.8401916 -0.54169059 0.0030868836
0.0059097377 -0.012268059 -0.0060671284 0.038336731 -0.76218712 -0.64622062 0.0016432392
0.0088193882 -0.011913272 -0.0060485397 0.16418493 -0.68406171 -0.710706 0.0016367967
0.011749547 -0.011608556 -0.0055999956 0.2228722 -0.6286729 -0.74504918 0.0011538956
0.014651796 -0.011050011 -0.0050267875 0.29095393 -0.57385635 -0.76552904 0.0010692917
0.016681496 -0.010595743 -0.00467224 0.37552392 -0.50882006 -0.77465087 0.0012065598
-0.014603423 -0.0080418624 -0.0061488259 -0.33124262 -0.92155975 -0.20249897 0.0016661767
-0.011790919 -0.0090951268 -0.0064114141 -0.30585077 -0.91758806 -0.25394377 0.0015190722
-0.0093595451 -0.0098478571 -0.0065491507 -0.27577445 -0.92182803 -0.27236286 0.0041618305
-0.00745046 -0.010086242 -0.0074903178 -0.18570732 -0.88699597 -0.42278954 0.0026057602
0.012199635 -0.0096112192 -0.0069881203 0.27589798 -0.56229091 -0.77955711 0.0017661975
0.01484319 -0.0090258261 -0.0063904799 0.3168602 -0.51675534 -0.79533863 0.0013484815
0.017524891 -0.0087582935 -0.0052841338 0.40532005 -0.46664324 -0.78610414 0.0012575132
0.019681446 -0.0078313537 -0.0045723426 0.47357908 -0.40109593 -0.78412044 0.00072785048
-0.022561088 -0.0045915581 -0.0074870992 -0.35400462 -0.91631132 -0.18722786 0.0020792915
-0.018525293 -0.006437961 -0.0057660746 -0.35486838 -0.91403192 -0.19650511 0.001352008
-0.016172795 -0.0073443539 -0.0069833803 -0.33124521 -0.92156047 -0.20249195 0.001667482
0.015605852 -0.0070366869 -0.007194669 0.37545344 -0.39133242 -0.84017473 0.0034367121
0.017886311 -0.0060660038 -0.0063790297 0.51397365 -0.27462909 -0.81265616 0.0021838283
0.020209746 -0.0056767026 -0.0050783535 0.53831154 -0.25152239 -0.80433643 0.0027811788
0.018399321 -0.0030351891 -0.0068383133 0.58296776 -0.089378588 -0.8075642 0.0023378846
0.020508252 -0.0029901862 -0.0052916724 0.60599077 -0.054558456 -0.79359847 0.0035342381
0.018471517 8.9230016e-06 -0.0068150149 0.63716531 0.079831757 -0.76658154 0.0021111886
0.020260891 -0.00010869792 -0.0052892137 0.65736729 0.13896282 -0.74064678 0.0029115339
0.018203832 0.0031017538 -0.0063466993 0.66316634 0.27798975 -0.69493318 0.0028115774
0.019841693 0.0025958454 -0.0048882547 0.67731887 0.31102994 -0.66670793 0.0025327746
0.015664304 0.0066646216 -0.0069491672 0.65156293 0.41778725 -0.63318205 0.0027128565
0.017375179 0.0057451464 -0.0058112131 0.66887444 0.41069177 -0.61962831 0.0021461172
0.013008002 0.0099155903 -0.0072497833 0.62762904 0.52229166 -0.57731557 0.00064534188
0.014760725 0.0088826548 -0.0061581517 0.64904273 0.48865554 -0.58306032 0.0017260176
0.016594945 0.0079875393 -0.0049708197 0.65118229 0.5406372 -0.53260958 0.0015051863
0.0099572781 0.013283398 -0.0070352065 0.57523233 0.65651041 -0.48795682 0.0014647635
0.011957351 0.012030796 -0.0061545051 0.61793196 0.61093897 -0.49488753 0.0025277988
0.013984902 0.010904763 -0.0049727019 0.63529748 0.58861649 -0.49992776 0.0014462717
0.0065974402 0.016116299 -0.0068944152 0.55358464 0.723508 -0.41240782 0.0014671638
0.0087923277 0.014828674 -0.0061032055 0.56888002 0.69476217 -0.44009206 0.002225029
0.010603029 0.013967053 -0.0051861117 0.56502819 0.70219225 -0.43320796 0.0016261605
0.0032913475 0.01881988 -0.0063350527 0.51363921 0.77577478 -0.36653545 0.00092113082
0.0056578298 0.017436504 -0.0058084056 0.54532462 0.74393469 -0.38624117 0.0012367978
-0.06481804 0.022473123 -0.0066623497 -0.66686279 -0.61117387 -0.42633367 0.0017127966
-0.0024218326 0.022312598 -0.0067922082 0.50354838 0.80633128 -0.31027234 0.0007047769
-4.0436629e-05 0.020999309 -0.0062251417 0.5008378 0.81215322 -0.29928017 0.00059303595
0.0020488207 0.019881405 -0.005791198 0.50600338 0.78613973 -0.35488695 0.0013182858
-0.068027377 0.02522498 -0.0066753435 -0.65278661 -0.51898819 -0.55183405 0.010967994
-0.066655979 0.024003755 -0.0066497731 -0.63554072 -0.56589627 -0.52521366 0.0062149693
-0.0060015135 0.024543911 -0.006168949 0.47866499 0.81962532 -0.31479239 0.00039637537
-0.0034677605 0.023215083 -0.005782451 0.49491248 0.81472665 -0.3021293 0.00055421062
-0.068921417 0.026285695 -0.0068143415 -0.73298603 -0.37049499 -0.57049537 0.013448719
-0.013879055 0.028410878 -0.0070233154 0.41655067 0.88527089 -0.20683591 0.0010067712
-0.012046642 0.027496537 -0.0069887647 0.44071558 0.86908674 -0.22462869 0.0011874964
-0.0093122786 0.026291942 -0.00640751 0.46022549 0.85815883 -0.22749931 0.0010935676
-0.069732204 0.031127986 -0.0074407565 -0.81517011 0.24028128 -0.52703184 0.061168786
-0.018241096 0.030255336 -0.0068860459 0.36436999 0.88462639 -0.2909824 0.00017405392
-0.015476232 0.029086325 -0.0071840244 0.40013853 0.8850705 -0.23778002 0.0021406182
-0.066227026 0.03503209 -0.0064529087 -0.38960195 0.76661694 -0.51040065 0.020713916
-0.063170344 0.035294466 -0.0069375942 -0.15802374 0.8644653 -0.47720897 0.0056816386
-0.059255764 0.035742473 -0.007053535 -0.18774959 0.88356262 -0.42903039 0.002979812
-0.045455374 0.036618646 -0.0074913907 0.049960885 0.95419496 -0.29498434 0.00056105328
0.00050506881 -0.014011314 -0.0024837023 -0.27105039 -0.90491986 -0.32810315 0.0035067894
0.0029701111 -0.01427244 -0.0029432881 -0.12313052 -0.87084514 -0.47588608 0.0048982305
0.0059135328 -0.014534403 -0.0030151005 -0.052469406 -0.84748232 -0.52822405 0.0025019422
0.0088699721 -0.014560187 -0.0030075144 0.0076627871 -0.79987675 -0.60011536 0.0022300808
0.011833247 -0.014543112 -0.0026870985 0.11998776 -0.75566655 -0.64387196 0.002017962
0.014703602 -0.014349738 -0.0022117863 0.21397078 -0.69300884 -0.68844414 0.0019754898
0.016895855 -0.014015663 -0.0016795653 0.29835424 -0.62599254 -0.72049856 0.0015324027
-0.0084918309 -0.010865662 -0.0025998163 -0.32332739 -0.92281336 -0.2094633 0.00075839192
-0.0059985793 -0.011690225 -0.0037717479 -0.29061636 -0.92446685 -0.2467857 0.0011504448
-0.0030447412 -0.012823701 -0.0030378024 -0.26210463 -0.91759032 -0.2988798 0.0033870493
-0.00042571267 -0.013244828 -0.0037868069 -0.19620156 -0.90298176 -0.38226804 0.0043841326
0.0019313623 -0.013367321 -0.0044286805 -0.10336875 -0.86679572 -0.48783198 0.0061266185
0.0095413625 -0.013367796 -0.0044098999 0.079709776 -0.75883526 -0.64638644 0.0014810336
0.012106944 -0.013208738 -0.0040580709 0.17505243 -0.70260197 -0.68971527 0.0018304695
0.014986321 -0.012628624 -0.0036865722 0.2502389 -0.64806712 -0.71929795 0.0007248359
0.017757425 -0.01199278 -0.0030215383 0.3338519 -0.57059366 -0.75031042 0.0015416055
0.020289581 -0.011460872 -0.0020631715 0.41111842 -0.50254941 -0.76054305 0.0019182335
-0.012144377 -0.0092207827 -0.00415362 -0.30325177 -0.92465329 -0.23033616 0.0013943495
0.018778844 -0.0096839555 -0.0040597245 0.46826959 -0.42014477 -0.77730429 0.0015094015
0.020929955 -0.0090388777 -0.0031151189 0.50086921 -0.37012535 -0.78239197 0.0014714003
0.023030931 -0.0086241057 -0.0019968152 0.52908731 -0.34397489 -0.77572411 0.0022674394
0.021464517 -0.0062998077 -0.0039703939 0.58838171 -0.19968499 -0.78353864 0.0027090723
0.023469428 -0.0060030119 -0.0025322153 0.60933995 -0.16391604 -0.7757811 0.0041329339
0.02188796 -0.0029906631 -0.0042047198 0.65258878 -0.0031405103 -0.75770581 0.0026913753
0.023459742 -0.0029913681 -0.0027365671 0.68956256 0.045058072 -0.7228232 0.0041743438
0.021663049 0.00017375825 -0.0039243824 0.68452251 0.17779239 -0.70697862 0.0017225791
0.023156032 -9.1038644e-05 -0.0024931491 0.71881986 0.22643304 -0.65728694 0.0023310306
0.021141401 0.0030988283 -0.0032079117 0.68905437 0.33929986 -0.6403746 0.0015362672
0.022756251 0.0022501934 -0.0019178973 0.71653205 0.36960006 -0.59158909 0.0015957881
0.018757807 0.0064450083 -0.0036743826 0.69285005 0.43541247 -0.57478243 0.0011793855
0.020229507 0.0056290599 -0.0024552075 0.68911213 0.48226199 -0.54087698 0.0022695079
0.015703168 0.0098583251 -0.0040108073 0.6369487 0.58196378 -0.50558329 0.0018823604
0.017390756 0.0089000287 -0.002888185 0.66805202 0.57528877 -0.47196329 0.0019253995
0.012670793 0.013003979 -0.0037293057 0.60703593 0.70614755 -0.3645038 0.0011658987
0.014601761 0.011736733 -0.0027981694 0.61949891 0.68213123 -0.38848174 0.00074178679
0.016552508 0.010705065 -0.0015298533 0.62509137 0.68916988 -0.36647734 0.00109303
0.0094437487 0.015793968 -0.0033100056 0.56689972 0.76621008 -0.30256703 0.00087968993
0.011288265 0.014528126 -0.0030389614 0.58840817 0.73458284 -0.33788136 0.0014072241
0.0040093237 0.019418579 -0.0036265957 0.52438569 0.79774535 -0.29769447 0.00097363105
0.0058598579 0.018279206 -0.0033127684 0.54315072 0.7886765 -0.28805646 0.00083210802
0.0080833826 0.016858643 -0.0030289874 0.54724813 0.78187084 -0.29865968 0.0011486415
0.00031228969 0.021647664 -0.00342754 0.5022288 0.82234919 -0.26741001 0.00012248497
0.0026235846 0.020256855 -0.0035029696 0.51528615 0.81601411 -0.26191804 0.00033955081
-0.0024520638 0.023077544 -0.0042477059 0.50355631 0.80632597 -0.31027308 0.00071114994
-0.0015330096 0.022638869 -0.0038645375 0.49375337 0.82813871 -0.26531848 9.5578143e-05
-0.011686839 0.02770647 -0.0040353942 0.44071186 0.86908782 -0.22463165 0.0011822908
0.0065920972 -0.016769167 0.00094145956 -0.21614861 -0.8955664 -0.3888967 0.0031609358
0.0089238808 -0.016995806 0.00072574755 -0.10041465 -0.86605757 -0.48975617 0.0022543017
0.011719696 -0.016988022 0.00049002143 0.00081900985 -0.83228534 -0.55434686 0.0023098113
0.014760328 -0.016997589 0.00078201899 0.10166274 -0.78166366 -0.61535895 0.0022865741
0.017419001 -0.016854843 0.0011816765 0.2088756 -0.72019416 -0.66158241 0.0017982832
-0.0025124326 -0.013732981 0.00089598121 -0.31614408 -0.92196053 -0.22370031 0.00087266351
3.7105754e-05 -0.014557341 -0.00027946057 -0.28827921 -0.92419976 -0.25049949 0.0021201735
0.0029458082 -0.015480252 -0.00015774975 -0.24702176 -0.91581625 -0.31663966 0.0047332845
0.0057883156 -0.015981507 -0.00039481185 -0.15555672 -0.89379394 -0.42063582 0.0052806917
0.0088997632 -0.016011003 -0.00094528077 -0.028898016 -0.82909828 -0.55835563 0.0018024968
0.011690704 -0.016012531 -0.00089463918 0.061514165 -0.78702146 -0.61385101 0.0016632185
0.014887819 -0.015722761 -0.00070001045 0.15399645 -0.72669798 -0.66947377 0.0016686642
0.017860997 -0.015233429 -0.00022879662 0.2476856 -0.66888529 -0.70088834 0.0010022116
0.020650111 -0.014738111 0.00046505546 0.33912334 -0.60987484 -0.71627378 0.0012264238
0.023020616 -0.01381517 0.0010736878 0.43184945 -0.53946877 -0.72282749 0.00041879382
-0.0048067369 -0.012511719 -0.0014766562 -0.30478331 -0.92004842 -0.2462071 0.0011302418
-0.0031886552 -0.01321974 -0.00099369464 -0.28948563 -0.92722881 -0.23758145 0.0013072252
0.018876906 -0.013441 -0.0014545131 0.31932679 -0.61221367 -0.72334278 0.0011171865
0.021169188 -0.012581993 -0.00085515482 0.38943416 -0.53518051 -0.74961513 0.0014205902
0.023738233 -0.011757292 0.00010199985 0.47662556 -0.43505844 -0.76390588 0.00067606597
0.025804533 -0.011226887 0.0010861983 0.51651424 -0.41965821 -0.74639142 0.0015235296
0.024223229 -0.0092908619 -0.00092429714 0.5691126 -0.27490532 -0.77494389 0.0021090084
0.026310561 -0.008980047 0.00048130983 0.61324263 -0.24246579 -0.75176054 0.0038063854
0.0249207 -0.0060119238 -0.0013251072 0.65390819 -0.097244419 -0.75029832 0.0035580357
0.0263902 -0.0060220147 3.8257334e-05 0.69637483 -0.044501178 -0.71629727 0.004328486
0.024924679 -0.002992095 -0.0012480873 0.72079152 0.099698566 -0.68594438 0.0024930462
0.026296077 -0.0030706301 0.00021187821 0.73266971 0.1285993 -0.66832429 0.0012756807
0.024600158 0.00019646762 -0.00064843893 0.74201423 0.24617647 -0.62354779 0.0013904496
0.025832487 -0.00030166842 0.00066078035 0.750126 0.30824891 -0.58505863 0.0018056944
0.022135478 0.0042087096 -0.0012815702 0.71324807 0.43225852 -0.55175149 0.0030720776
0.023767674 0.0030258587 1.1666678e-05 0.74923992 0.41076231 -0.51953232 0.0023430607
0.021272013 0.0062826928 -0.00033543445 0.69888252 0.55111921 -0.45588472 0.00063736358
0.023007344 0.0050202142 0.00078643253 0.7148931 0.51980329 -0.46768844 0.0015698546
0.01845981 0.0095628593 -0.00016665179 0.66420442 0.65940315 -0.35216483 0.00092237815
0.020012803 0.0083521754 0.00053130789 0.67095006 0.62232739 -0.40315586 0.0014678381
0.015405769 0.012266297 -0.00034664432 0.60103112 0.73427463 -0.3155984 0.0024963273
0.016975405 0.011126469 1.9032974e-05 0.63119096 0.70357531 -0.32646567 0.0012759429
0.010074837 0.016334947 -0.00021312712 0.56689388 0.78643757 -0.24524949 0.00089595543
0.011937801 0.014996627 -0.00020855619 0.57996672 0.77784342 -0.24207073 0.00076389179
0.013806257 0.013703487 -9.2792325e-06 0.58565861 0.76793468 -0.25938445 0.0011724934
0.006186659 0.018620871 -0.0010763118 0.53692651 0.80258596 -0.25993407 0.00028583768
0.0087954942 0.017152391 -0.00015622703 0.55513293 0.8024053 -0.21902779 0.00022364983
0.0037979078 -0.016859677 0.0037424606 -0.31012073 -0.92023695 -0.23872384 0.0025631574
0.0057786121 -0.017300732 0.0028602672 -0.24705866 -0.91361368 -0.32291204 0.0014706803
0.0088003557 -0.018086731 0.0029789018 -0.18346006 -0.90116453 -0.39274019 0.0043860064
0.011820657 -0.018443827 0.0028735693 -0.061581004 -0.87503362 -0.48012915 0.0026427691
0.014817681 -0.01847293 0.0028362102 0.020861374 -0.84397882 -0.53597069 0.0024533435
0.017950855 -0.018229757 0.0030206363 0.15140128 -0.77922249 -0.60818583 0.0029257098
0.020619586 -0.017679328 0.003252042 0.29309589 -0.68055958 -0.67151582 0.0013097018
0.023095906 -0.017206224 0.0038810535 0.37335351 -0.62709445 -0.68363708 0.0010708815
-0.00019082194 -0.014956374 0.0028999639 -0.30878282 -0.91286218 -0.2670877 0.0016061814
0.0026226002 -0.016172443 0.0027927109 -0.30408561 -0.92379445 -0.2326712 0.0025993888
0.021247946 -0.016003214 0.0018533333 0.31239939 -0.63737261 -0.70438826 0.0018506717
0.024009036 -0.015187459 0.0027503618 0.3981286 -0.58721501 -0.7047497 0.00082828739
0.026570225 -0.014414346 0.0036697243 0.47338349 -0.48526508 -0.73513663 0.00083463266
0.0285025 -0.013582248 0.0042471481 0.5280531 -0.44952133 -0.72047937 0.0011492718
0.024919292 -0.012894614 0.0016630287 0.4673788 -0.45755169 -0.7564413 0.0013091562
0.027006896 -0.012081923 0.002437863 0.56298381 -0.35592103 -0.74590182 0.003396268
0.028998015 -0.011717191 0.0037901043 0.61830169 -0.31273055 -0.72104269 0.0037520246
0.027736081 -0.0093113631 0.0018405379 0.66959023 -0.17379622 -0.72211069 0.0031106393
0.029322283 -0.0090320846 0.0033478192 0.70449853 -0.11818241 -0.69979614 0.0043854197
0.027876249 -0.006033456 0.0015696823 0.73778057 0.013296677 -0.67490971 0.0022276081
0.029221354 -0.0061238166 0.0031594862 0.75590098 0.036624782 -0.65366071 0.0012790412
0.027743047 -0.0027596788 0.0019606971 0.76152515 0.17975244 -0.62271065 0.0018029808
0.028923454 -0.0031742123 0.0034163785 0.78720564 0.22513492 -0.57412678 0.0022308463
0.027175987 0.00016661594 0.0027402989 0.76527041 0.33251408 -0.55117655 0.0013195014
0.028607408 -0.00099624367 0.0040316475 0.77767324 0.3677496 -0.50988686 0.0012567658
0.024846835 0.0038002878 0.0024210955 0.74693799 0.4859319 -0.45382121 0.0023358117
0.026063884 0.0027403804 0.0032667811 0.73732185 0.50175911 -0.45232093 0.0029394426
0.022028806 0.0068259346 0.0015286696 0.70146155 0.59590244 -0.39096287 0.0018970054
0.023678312 0.0058023529 0.0029884507 0.72331274 0.57223284 -0.38648191 0.0017756028
0.019038998 0.010372695 0.002845515 0.63323337 0.72624797 -0.26754341 0.00076694001
0.020688964 0.0089720087 0.0030563516 0.63856548 0.71475464 -0.28523687 0.0010541031
0.02234556 0.007570799 0.0033627343 0.67677706 0.64864933 -0.34817636 0.0015519327
0.015746137 0.012939271 0.0024956954 0.58907014 0.78192395 -0.20393936 0.0003771435
0.017690476 0.011436628 0.0025933622 0.61440796 0.74977857 -0.24563178 0.0011034755
0.011995126 0.015515354 0.0024502468 0.57575727 0.7904619 -0.20898226 0.00033999278
0.014114292 0.014124308 0.002831806 0.58649522 0.78337365 -0.20578924 0.00033664398
0.0097218528 -0.019797711 0.0067882533 -0.31356043 -0.90956771 -0.27270198 0.0012949127
0.011973599 -0.020111693 0.0061668516 -0.16350959 -0.89380515 -0.41758478 0.0037000843
0.014833257 -0.020300321 0.005808407 -0.048146084 -0.87169987 -0.48766917 0.0030414115
0.017799765 -0.020510638 0.0061891028 0.041243572 -0.84355277 -0.53546023 0.0016916181
0.020824872 -0.020252604 0.0063150567 0.15423734 -0.78571701 -0.59904891 0.0021830581
0.023362501 -0.020042667 0.0069964328 0.29763427 -0.71971196 -0.62723881 0.001598138
0.0058631259 -0.018148586 0.0060184742 -0.34472153 -0.91122156 -0.22548249 0.0020400672
0.0087057613 -0.019069327 0.0055824579 -0.25184348 -0.91567737 -0.31322491 0.0033029509
0.010630218 -0.019245092 0.004683305 -0.13735519 -0.90992481 -0.39136988 0.0031709166
0.021004196 -0.019098449 0.0049591851 0.21130131 -0.74576521 -0.63181168 0.0016736941
0.02397492 -0.018348873 0.0054756436 0.34388879 -0.66098267 -0.66696507 0.001269795
0.026599785 -0.01782316 0.0065166284 0.39992064 -0.62117106 -0.67395109 0.0010108703
0.029227464 -0.016812067 0.0071546524 0.47024959 -0.5564912 -0.68496913 0.0023770395
0.027281212 -0.015851911 0.0051627387 0.42306951 -0.58095425 -0.69534487 0.00038654674
0.029722808 -0.014837079 0.0060647973 0.56709808 -0.41495192 -0.71148765 0.003100516
0.031640712 -0.014011741 0.0072383252 0.64203888 -0.35541159 -0.67931485 0.0030265818
0.030393874 -0.012165459 0.0052110446 0.67085421 -0.23641707 -0.70289516 0.002686349
0.031901412 -0.011868931 0.0067028948 0.72785258 -0.1894152 -0.65905422 0.0039232844
0.030782012 -0.0093577206 0.0049369079 0.74752498 -0.055513926 -0.66190982 0.0022720003
0.031958897 -0.0089767817 0.0063220975 0.78825313 -0.0078182239 -0.61530149 0.0025291294
0.030710677 -0.0058631068 0.0050482298 0.78582001 0.1027915 -0.60985321 0.0016858636
0.031827547 -0.0060701696 0.0064808656 0.80808902 0.14619508 -0.57063055 0.002072715
0.030406268 -0.0028340844 0.0057496685 0.8007434 0.28098497 -0.52901554 0.00336875
0.031624727 -0.0038252659 0.0069954959 0.80570483 0.31299058 -0.50286847 0.0015876414
0.028071212 0.0012458968 0.0049219024 0.76694 0.48302287 -0.42248318 0.0014238625
0.029390441 -9.0141315e-05 0.0060652238 0.79650521 0.40554249 -0.44845811 0.0024014383
0.027267767 0.0031430374 0.0058146627 0.74079841 0.55769247 -0.37442857 0.0010814365
0.028661093 0.001974206 0.0069244695 0.7564978 0.50945407 -0.41008255 0.001601305
0.024321062 0.0063790902 0.0053204638 0.68972844 0.65353173 -0.31172264 0.002166454
0.02580609 0.0054187519 0.0066488232 0.69891167 0.63709974 -0.32500234 0.0022855294
0.021187831 0.0094336998 0.0056016636 0.63092721 0.74856263 -0.20392358 0.00068943482
0.022826497 0.0080027599 0.0056432378 0.65704811 0.71245497 -0.24636498 0.0015581689
0.015807437 0.013249513 0.0045568538 0.58907187 0.78192395 -0.20393419 0.00037130853
0.018344855 0.011547254 0.0052917493 0.61117148 0.76779675 -0.19224325 0.00040008008
0.017642243 -0.022785807 0.010070736 -0.084327817 -0.88098985 -0.46555945 0.0021992128
0.020739473 -0.022783089 0.010010704 0.049586732 -0.84804744 -0.52759522 0.0019098868
0.022899987 -0.022798207 0.010344792 0.19398713 -0.79389185 -0.5762853 0.0020655079
0.0094384067 -0.020273967 0.0088459793 -0.31766629 -0.90879577 -0.27051502 0.0011887727
0.012006059 -0.021223554 0.0089796726 -0.26676878 -0.90355116 -0.33530542 0.003634976
0.014700748 -0.021812161 0.0088545047 -0.14855935 -0.90258634 -0.40406448 0.0034983766
0.01783018 -0.02200672 0.0086007193 -0.022944776 -0.87592268 -0.48190564 0.0028194594
0.020913921 -0.021763619 0.0084666535 0.096001811 -0.82498819 -0.55693632 0.0018428435
0.023913329 -0.021435507 0.0089040212 0.25582892 -0.7525813 -0.60677254 0.0022812248
0.026500275 -0.020648319 0.0092721209 0.3508279 -0.68469977 -0.63883162 0.0003456127
0.028925313 -0.020082766 0.010039726 0.36928806 -0.66816163 -0.64589965 0.0005324565
0.0040462068 -0.017464761 0.0077887368 -0.34471771 -0.91122371 -0.22547959 0.0020350374
0.0076148403 -0.019400779 0.0088139661 -0.35077971 -0.90061444 -0.25660709 0.0021329778
0.027382398 -0.018936563 0.0080354828 0.36669227 -0.65385669 -0.6618219 0.00059914961
0.030026583 -0.01820845 0.0088686924 0.43024334 -0.60808355 -0.66717696 0.0012606175
0.032320552 -0.017211663 0.0097141024 0.59509134 -0.4372437 -0.67430288 0.0026918156
0.031080822 -0.015803162 0.0077390862 0.61041808 -0.38024414 -0.69484109 0.0046964842
0.032887127 -0.014935123 0.0089350697 0.69993627 -0.30002436 -0.64813167 0.0019755487
0.034589205 -0.013971988 0.01034889 0.73480606 -0.24992555 -0.63055313 0.0025309853
0.033413298 -0.012120493 0.0085308906 0.7687903 -0.11211231 -0.62959683 0.0023100779
0.034559175 -0.012054961 0.0099327061 0.79108924 -0.093460374 -0.60451883 0.0031784358
0.03350199 -0.0089355204 0.0084412936 0.80881613 0.027202016 -0.58743215 0.0014488844
0.034562603 -0.0089568337 0.0099802371 0.82817376 0.090114899 -0.55317956 0.0026601579
0.033331681 -0.0058383122 0.0088648554 0.84145564 0.21916696 -0.49388087 0.001766593
0.034600392 -0.0070554353 0.010503907 0.8404246 0.22935168 -0.49100339 0.0018754527
0.032464709 -0.0029852241 0.0089965407 0.81623048 0.3496412 -0.45991179 0.0019269638
0.030597055 0.00026182644 0.0086518526 0.78716481 0.47481909 -0.39359674 0.0026863706
0.031874515 -0.00094939303 0.0096971467 0.7921465 0.44236666 -0.42049456 0.0014911056
0.027797153 0.0040085237 0.0083739646 0.72295856 0.61504591 -0.31472102 0.001830524
0.029221015 0.0026169515 0.0091426671 0.75599098 0.5533185 -0.3497375 0.0010606908
0.02478209 0.007053406 0.0082366653 0.65065825 0.73260027 -0.19985165 0.0011503315
0.026474783 0.0056403088 0.0088166036 0.70903724 0.64941859 -0.27481195 0.0013845091
0.021390641 0.0098315813 0.0085215755 0.62647372 0.75629169 -0.18855654 0.00073688646
0.02378005 0.0080558397 0.0087886043 0.64387566 0.74012005 -0.19402702 0.00086205837
0.019709731 0.011004206 0.0080478974 0.60935938 0.77342868 -0.17461161 0.00029355547
0.013186878 -0.02292705 0.013193566 -0.36767051 -0.89454126 -0.25419345 0.0029365588
0.0151137 -0.023128795 0.011870803 -0.22827917 -0.9147253 -0.33341584 0.0041451333
0.017851345 -0.023735348 0.011993088 -0.13845272 -0.90168869 -0.40961981 0.0020875393
0.020813083 -0.023822578 0.011811674 -0.018136324 -0.88224661 -0.47043809 0.0017648175
0.024018874 -0.023655768 0.011961209 0.13927124 -0.83113676 -0.53834474 0.0026365414
0.026655594 -0.023379473 0.012583971 0.25932923 -0.76633263 -0.58777773 0.0012727788
0.02879429 -0.022928488 0.013224978 0.31551346 -0.73109275 -0.6049419 0.00031868712
0.0093161408 -0.020688239 0.011264447 -0.39238492 -0.8972882 -0.20225702 0.00076619268
0.011991465 -0.022044273 0.01181454 -0.34521833 -0.90830785 -0.23622273 0.0029432552
0.013608573 -0.022342671 0.010833073 -0.27383456 -0.9172765 -0.28916883 0.002973251
0.027080702 -0.022039 0.011168903 0.30041274 -0.72479427 -0.62002051 0.00087108422
0.02976639 -0.021368232 0.011921357 0.35125405 -0.70032603 -0.62142092 0.00023200767
0.032367337 -0.020439152 0.012494823 0.49030462 -0.58486551 -0.64616859 0.003344526
0.034321547 -0.019569729 0.01329546 0.54145324 -0.54779798 -0.63776624 0.0036684074
0.031276517 -0.019474436 0.010767449 0.44635111 -0.61315429 -0.65177643 0.0011873314
0.033394065 -0.01822515 0.011452567 0.62323231 -0.44175094 -0.6453197 0.0030461506
0.035077352 -0.017548639 0.012680303 0.67733496 -0.39384335 -0.6213733 0.004218223
0.03413469 -0.01588985 0.010666717 0.71494186 -0.27015573 -0.64488292 0.0035542233
0.035636321 -0.014964761 0.01210043 0.77190495 -0.22986582 -0.59272635 0.0042073852
0.035893023 -0.012094487 0.011817725 0.83347309 -0.023711039 -0.55205101 0.0011820241
0.035773113 -0.00910242 0.01181736 0.84817994 0.090966679 -0.5218389 0.00099919795
0.0341409 -0.0049088039 0.010754053 0.8494637 0.24560505 -0.4670006 0.0010541041
0.035223931 -0.0059927953 0.012084115 0.85026342 0.24378133 -0.46650064 0.0011145469
0.033821054 -0.0028899405 0.011760825 0.82893211 0.39584005 -0.39519897 0.0024440049
0.03490223 -0.0038397647 0.013022292 0.82395262 0.40005931 -0.40131596 0.0027712164
0.032390356 -0.00012643915 0.011942325 0.78922206 0.51194346 -0.33917904 0.0015953816
0.029914668 0.003096604 0.011918791 0.73459667 0.62166715 -0.2718412 0.0012934876
0.031373546 0.0015525776 0.012268979 0.74612045 0.60003144 -0.28855971 0.0015564247
0.027187007 0.005773806 0.011658916 0.67414939 0.71460557 -0.18671229 0.0016166725
0.028549662 0.0049219686 0.013148505 0.69269556 0.69172603 -0.20417646 0.001225865
0.023427984 0.0087172054 0.011408675 0.63315362 0.75300026 -0.17918482 0.00072867202
0.017618615 -0.025495011 0.01649477 -0.27325484 -0.92011261 -0.28057918 0.004163926
0.020980436 -0.025948465 0.015909124 -0.12376414 -0.89997232 -0.41800991 0.0017521859
0.02373278 -0.026008047 0.015724946 0.02697596 -0.87381953 -0.4855015 0.002316362
0.026305156 -0.025958383 0.01610107 0.17660385 -0.82111365 -0.54275542 0.002354526
0.028741548 -0.025492642 0.016447891 0.26590231 -0.77679926 -0.57085812 0.00043530419
0.012510056 -0.023015704 0.01514383 -0.40562716 -0.89265096 -0.1965729 0.0016803088
0.015059207 -0.024113242 0.014893681 -0.30245942 -0.90805745 -0.28974098 0.0015577296
0.017806582 -0.02493291 0.014902061 -0.24080832 -0.91723323 -0.31732401 0.0018808594
0.020673377 -0.025142862 0.014286788 -0.0667639 -0.89092571 -0.44921491 0.0028136882
0.023801887 -0.025141932 0.014269227 0.079168692 -0.85163617 -0.51811975 0.0020098898
0.027122864 -0.024850633 0.014775043 0.21643722 -0.79488581 -0.56684345 0.0014913961
0.029851737 -0.023934197 0.014974579 0.31077307 -0.74442697 -0.5909726 0.00023875559
0.03261875 -0.023104189 0.015414249 0.40320906 -0.68206447 -0.61009061 0.0021300744
0.034525566 -0.022578139 0.016165573 0.4893766 -0.6237132 -0.60950172 0.0013042778
0.010574849 -0.021794934 0.014783937 -0.40562972 -0.89265013 -0.19657114 0.0016792647
0.030990584 -0.022472952 0.013783146 0.35471749 -0.7022357 -0.61728483 0.00041069573
0.033292767 -0.021573102 0.014206029 0.42231897 -0.63547504 -0.64638853 0.0024122901
0.035421211 -0.020605978 0.015183486 0.60110098 -0.50627697 -0.61835372 0.0039286092
0.036269646 -0.018139213 0.014356961 0.72438478 -0.34382066 -0.59754002 0.0018140511
0.037663274 -0.017689632 0.015828045 0.7680735 -0.30687308 -0.56204277 0.0027924036
0.037055377 -0.015061984 0.014046585 0.79809403 -0.1618474 -0.58038896 0.0023706942
0.037989367 -0.015203534 0.015427582 0.83509916 -0.11894017 -0.5370872 0.0023237562
0.037254509 -0.012139376 0.013956834 0.84990925 0.00037214131 -0.52692902 0.0016725753
0.038109936 -0.012039609 0.015410997 0.87192059 0.045238018 -0.48755315 0.0017249591
0.036981124 -0.0090133436 0.013974315 0.86702466 0.14945301 -0.4753232 0.0014079068
0.037719503 -0.00898958 0.015423562 0.87923747 0.18588266 -0.43862176 0.0014358666
0.036473427 -0.0057310462 0.014752915 0.8679145 0.3221879 -0.3780469 0.0015750355
0.037413556 -0.0068670623 0.016007844 0.86335409 0.32698068 -0.38432205 0.0014675122
0.035337381 -0.0029456755 0.015053444 0.82000518 0.4721995 -0.32344878 0.00079166674
0.033359569 2.5220215e-05 0.01482873 0.77497947 0.55874306 -0.29531828 0.0023043137
0.034497622 -0.0010693115 0.015772466 0.78981858 0.53635854 -0.29749972 0.0022346447
0.030625137 0.0035162028 0.01562799 0.71008408 0.67179698 -0.21087775 0.0020879083
0.031946991 0.0019666632 0.01516567 0.75063962 0.62027287 -0.22759983 0.00056193426
0.027736286 0.0059330123 0.015770931 0.66826773 0.72463495 -0.16829233 0.00083873101
0.016226584 -0.025594298 0.018455882 -0.41780189 -0.8766852 -0.23846306 0.0024653247
0.018057294 -0.02610567 0.018002994 -0.30796024 -0.91231889 -0.26987931 0.0034698173
0.020960622 -0.026817571 0.017955517 -0.17979783 -0.91293973 -0.36635211 0.0020833218
0.023680044 -0.027041826 0.017727662 -0.013402585 -0.88523126 -0.46495813 0.00087663234
0.026782343 -0.026919927 0.017794073 0.12266214 -0.85069185 -0.51115304 0.0020733254
0.029721053 -0.026327973 0.01811349 0.25006005 -0.79616028 -0.55099797 0.0007010579
0.032553114 -0.025925871 0.018888885 0.33942509 -0.74825472 -0.57000476 0.001391721
0.01283762 -0.023675296 0.018981684 -0.42599609 -0.88206238 -0.20122947 0.0012099278
0.014750255 -0.024686024 0.017759848 -0.39712718 -0.89048004 -0.22211565 0.0025821929
0.030698145 -0.025026206 0.016795663 0.27878481 -0.76521569 -0.58027935 0.00068720424
0.033107433 -0.024575202 0.017469458 0.35896567 -0.73175579 -0.57937634 0.00085358031
0.03566359 -0.023580018 0.018219752 0.51333487 -0.62568319 -0.58737373 0.0041268021
0.037671335 -0.022717956 0.0193321 0.66334128 -0.49395305 -0.56212872 0.0018413219
0.036538895 -0.021655895 0.017220015 0.65755641 -0.45378736 -0.60141218 0.0026838111
0.038138229 -0.020760838 0.018386461 0.70531267 -0.41641563 -0.57370031 0.0020576329
0.039026938 -0.018049002 0.018024255 0.78145838 -0.28657353 -0.55425489 0.0022553869
0.039503708 -0.015134361 0.017921017 0.87211478 -0.056402631 -0.4860397 0.0018515427
0.039445981 -0.01210581 0.017840011 0.88955206 0.081892297 -0.44943383 0.0019224589
0.03889234 -0.0088099865 0.017962959 0.88741761 0.23001683 -0.39947742 0.0019432278
0.037015744 -0.0046976097 0.017124493 0.84404564 0.43840396 -0.30885085 0.00091682898
0.037952278 -0.0061081368 0.017944999 0.87109977 0.35822406 -0.33594748 0.0015879003
0.036477111 -0.003063282 0.018011194 0.83376735 0.48087186 -0.27128264 0.0022629146
0.033856213 0.00038737385 0.016965527 0.78539521 0.57788676 -0.22181349 0.0012383473
0.035146877 -0.00093974592 0.018071335 0.78432184 0.57871306 -0.2234512 0.001327446
0.033037294 0.0018629166 0.019188482 0.75640798 0.62259245 -0.20056339 0.0004305318
0.021967474 -0.028715778 0.022073034 -0.28332072 -0.90447783 -0.31882477 0.0021979164
0.024094256 -0.028877929 0.021481374 -0.13804747 -0.90935802 -0.39244229 0.0021690836
0.026821608 -0.028913952 0.021257849 0.031695984 -0.8901177 -0.45462707 0.0025479528
0.029545425 -0.028866131 0.021846429 0.18238811 -0.84260941 -0.50669914 0.00096547022
0.015565721 -0.025715727 0.020855043 -0.44136724 -0.87289214 -0.20797637 0.0014149725
0.018013977 -0.026994549 0.021011991 -0.37134969 -0.89512312 -0.24668616 0.0034252459
0.020739453 -0.027859591 0.020753721 -0.22216053 -0.90932846 -0.35180464 0.0014397104
0.023821546 -0.028101034 0.019840915 -0.07950858 -0.89872319 -0.43124825 0.001928967
0.026741067 -0.028095726 0.019746089 0.088583916 -0.86737287 -0.48971125 0.0024769465
0.029944031 -0.02779166 0.020341547 0.21598104 -0.81577045 -0.53653586 0.00059187738
0.032753576 -0.027318269 0.020912098 0.28299254 -0.78686845 -0.54840964 0.00041165462
0.035404276 -0.026432712 0.021281963 0.43239865 -0.69963104 -0.56881273 0.0020409022
0.037399843 -0.025781143 0.022147555 0.4963977 -0.67334932 -0.54789603 0.0029527198
0.014816349 -0.025195438 0.020211685 -0.43598521 -0.87832141 -0.1961336 0.0014691402
0.036483202 -0.024701305 0.020076392 0.4982236 -0.64516509 -0.57925415 0.0024663936
0.038410269 -0.023856036 0.021289617 0.65032101 -0.5262562 -0.54784763 0.0037345053
0.039600089 -0.02118757 0.020594072 0.75860298 -0.36267936 -0.54128116 0.0017185857
0.04068755 -0.020752158 0.021926809 0.79602796 -0.32544726 -0.51031703 0.0035147646
0.040055133 -0.018746663 0.019902391 0.81798691 -0.24152456 -0.52207595 0.0048789582
0.041059136 -0.018029081 0.021306606 0.87456352 -0.14495809 -0.46273735 0.0018525445
0.04114322 -0.015029887 0.021038057 0.90130413 0.0036568844 -0.43317142 0.0016999635
0.040129382 -0.010796983 0.019623298 0.91198599 0.13458309 -0.38751641 0.0023437063
0.040942185 -0.011997329 0.021169741 0.90814781 0.14156201 -0.3939895 0.0023582221
0.039960328 -0.0088606663 0.020526621 0.89604247 0.28103316 -0.34369779 0.0021846869
0.040571611 -0.0091255642 0.022002902 0.89915204 0.30799749 -0.31090701 0.0010541299
0.038912736 -0.0060148016 0.020645378 0.86951154 0.40841973 -0.27774611 0.0014237501
0.036771938 -0.0024346504 0.020315934 0.82895404 0.50223589 -0.24615914 0.0013146306
0.037820615 -0.0036392072 0.021257289 0.82353711 0.50849164 -0.25144139 0.0012288939
0.033794388 0.001136418 0.019583065 0.77496964 0.59738588 -0.20628199 0.00056686811
0.03537681 -0.00031696074 0.021247042 0.78191322 0.59224415 -0.19457257 0.00046225142
0.021070497 -0.029079136 0.024126925 -0.33740652 -0.89948851 -0.27762797 0.0030665565
0.023884123 -0.02988546 0.023999307 -0.20252013 -0.90808797 -0.36655411 0.0030154418
0.026968068 -0.030302618 0.024009798 -0.037142761 -0.90418237 -0.42552871 0.0030490025
0.0299209 -0.030058626 0.024042614 0.11824143 -0.87184274 -0.47529894 0.0012138085
0.032780647 -0.02942498 0.024140637 0.24340591 -0.82519943 -0.50970525 0.00077814155
0.035217166 -0.029032171 0.024737258 0.37363154 -0.77593017 -0.50826359 0.0017680067
0.01589855 -0.02636065 0.023882497 -0.49405673 -0.85857147 -0.13697788 0.00067549164
0.017872529 -0.027650211 0.024072029 -0.43731108 -0.87485528 -0.20829643 0.001825606
0.019562913 -0.028292652 0.023262594 -0.42869425 -0.8742891 -0.22768359 0.0025158764
0.033771336 -0.028267074 0.02280562 0.29436812 -0.78569698 -0.54408419 0.0025152531
0.036134247 -0.027793605 0.023665765 0.40630886 -0.74627304 -0.52724731 0.0017436717
0.03848061 -0.026673591 0.024413362 0.57317144 -0.63002312 -0.52397078 0.0036287208
0.039514989 -0.024734532 0.023520561 0.67637551 -0.51500547 -0.52657902 0.0048764213
0.040992294 -0.023606602 0.024580091 0.75306845 -0.43327829 -0.4951342 0.0019708066
0.041675199 -0.021107761 0.023897618 0.83082694 -0.29326209 -0.47299463 0.0028907706
0.04234625 -0.017802874 0.02381986 0.89792407 -0.091223076 -0.43059352 0.0020808976
0.042454634 -0.014808442 0.023936905 0.92327434 0.049223024 -0.38097453 0.0017221103
0.042001653 -0.011878174 0.023869179 0.92062318 0.20081799 -0.33485082 0.0018627719
0.041227363 -0.0090920124 0.0239617 0.90278471 0.32739168 -0.2789166 0.0016289765
0.039552633 -0.0057064509 0.023325605 0.86316019 0.45223618 -0.22458172 0.0019023083
0.040553816 -0.0069468357 0.024741251 0.87153232 0.41928902 -0.2542206 0.00097382185
0.036968313 -0.0017786962 0.022920568 0.82127857 0.53159338 -0.20714697 0.00064996094
0.038371798 -0.0034169545 0.024125218 0.83514494 0.52080506 -0.17690396 0.00086119049
0.024452252 -0.031535089 0.028006632 -0.30799288 -0.9053964 -0.29222894 0.0018604626
0.026670264 -0.031930696 0.02772373 -0.12908697 -0.92132366 -0.36674157 0.003136884
0.02963932 -0.032006469 0.027617238 0.056731265 -0.90198255 -0.42802924 0.0019431517
0.032527175 -0.031671997 0.02792738 0.19492416 -0.86898589 -0.45482758 0.0010687934
0.03440816 -0.031565133 0.028487463 0.29928586 -0.82458377 -0.48009339 0.0019978543
0.018465674 -0.028504062 0.027037073 -0.49542528 -0.85366297 -0.16066542 0.001706254
0.020859592 -0.02976137 0.026763994 -0.39164791 -0.88938969 -0.23579213 0.0020920362
0.023523346 -0.030772027 0.02667734 -0.3020747 -0.90986538 -0.28442198 0.0018368817
0.026597979 -0.03134843 0.026335403 -0.075143926 -0.90485018 -0.41904584 0.0027211714
0.029969068 -0.031259228 0.026225183 0.09308777 -0.88103741 -0.463797 0.0019706627
0.032932684 -0.030795407 0.026451152 0.20864967 -0.84914201 -0.48520425 0.00052728667
0.035907619 -0.030106369 0.026907831 0.35814866 -0.78881764 -0.49949595 0.0031649752
0.038502827 -0.029173892 0.027726002 0.50956404 -0.70087057 -0.4991242 0.0013417109
0.016444499 -0.026947308 0.02568211 -0.47642756 -0.86656165 -0.14861946 0.0012772403
0.039261982 -0.027630564 0.026448783 0.56240606 -0.66014796 -0.49789956 0.0020599291
0.041008011 -0.026593629 0.027502477 0.69894671 -0.52615958 -0.48438567 0.0022985667
0.042179696 -0.024037791 0.026810281 0.79931045 -0.36699733 -0.47583166 0.0017522251
0.043316595 -0.023106698 0.028135378 0.83248091 -0.33095202 -0.44434935 0.0028039932
0.043036666 -0.0210515 0.026363932 0.86559868 -0.2247512 -0.44746608 0.0020488193
0.043768235 -0.020606399 0.027636208 0.89837366 -0.18068171 -0.40034834 0.0024802487
0.043097209 -0.018554831 0.025651254 0.91233802 -0.054478288 -0.40579739 0.0022606791
0.043912411 -0.01795462 0.027397621 0.93251938 -0.015740149 -0.36077681 0.0011848202
0.043109011 -0.014362425 0.025784854 0.93491709 0.088993765 -0.3435261 0.001973961
0.043757606 -0.014901359 0.027517352 0.94204086 0.11469509 -0.31528392 0.0020840405
0.042948723 -0.011913667 0.026769266 0.92905992 0.24312751 -0.278813 0.0015367793
0.043330014 -0.011695612 0.02828731 0.93173248 0.26261464 -0.25081503 0.0010012388
0.041937564 -0.0087706437 0.026925065 0.89874882 0.37009421 -0.2351186 0.0012936733
0.039926764 -0.0052299239 0.026119996 0.85249692 0.49103186 -0.17926736 0.0019939234
0.040760044 -0.0062259473 0.027234443 0.85264951 0.49124503 -0.17795265 0.0017492743
0.038178116 -0.0027599973 0.025867481 0.82643521 0.53853643 -0.16426599 0.00047211419
0.023939138 -0.032054789 0.030337956 -0.35735092 -0.900509 -0.2477577 0.0030496409
0.026849387 -0.032782901 0.029852666 -0.17930964 -0.92869991 -0.32459894 0.0026570254
0.029723397 -0.033049263 0.029904187 0.01663244 -0.91951722 -0.39269748 0.0020699843
0.032818373 -0.032690059 0.030000925 0.17500319 -0.88598007 -0.42943358 0.0010055626
0.035702068 -0.032100227 0.030206606 0.29930377 -0.83613807 -0.45966351 0.001593007
0.037832893 -0.031726729 0.031074274 0.43684813 -0.77388114 -0.45855403 0.0024611985
0.019022578 -0.029098425 0.028776634 -0.49807081 -0.85079855 -0.16753326 0.0013823803
0.020948408 -0.030447461 0.029728301 -0.42709386 -0.87691003 -0.22049871 0.00094587624
0.022515083 -0.031105969 0.029097933 -0.37801343 -0.89549887 -0.23492046 0.0032931797
0.036685336 -0.0311036 0.029059235 0.31324017 -0.81726438 -0.4836936 0.0024778172
0.038878985 -0.030399065 0.029987376 0.48038974 -0.74239326 -0.46698809 0.0020589395
0.040854726 -0.029023498 0.030371316 0.63195384 -0.62626743 -0.45653418 0.0030277611
