# .PCD v0.7 - Point Cloud Data file format
VERSION 0.7
FIELDS x y z normal_x normal_y normal_z curvature
SIZE 4 4 4 4 4 4 4
TYPE F F F F F F F
COUNT 1 1 1 1 1 1 1
WIDTH 553
HEIGHT 1
VIEWPOINT 0 0 0 1 0 0 0
POINTS 553
DATA ascii
0.012667855 0.0037906386 -0.013208038 -0.91167963 0.27401742 -0.30619395 0.0025390983
0.013329193 0.0047838236 -0.014049488 -0.90038723 0.31934372 -0.29550362 0.002128273
0.014447596 0.0074284058 -0.013720044 -0.84622574 0.46500123 -0.26014587 0.0019165645
0.015418185 0.0095003014 -0.012727466 -0.76027948 0.60091454 -0.24673218 0.0013150894
0.016746992 0.010716314 -0.013893099 -0.76043171 0.60618579 -0.23298579 0.001316988
0.01842363 0.012589585 -0.013692009 -0.68295342 0.70399266 -0.19485609 0.0013062839
0.02011518 0.013920059 -0.013633129 -0.5275268 0.83826274 -0.13795276 0.0010447992
0.023127427 0.015624366 -0.013705281 -0.38075048 0.91843039 -0.10730602 0.0022163575
0.026268795 0.016502371 -0.014533338 -0.32983246 0.93833864 -0.10359194 0.00059115945
0.020712137 -0.015540414 -0.010621622 -0.5219807 -0.83976918 -0.14941171 0.0016934464
0.022935994 -0.016709255 -0.010642898 -0.39900213 -0.90940815 -0.11736339 0.0023655631
0.026049707 -0.017754028 -0.010330674 -0.37430084 -0.92009282 -0.11544704 0.0010397129
0.017554462 -0.013161192 -0.010439962 -0.66630399 -0.70575124 -0.24073671 0.0019935584
0.01946112 -0.014501934 -0.011512329 -0.55665994 -0.81035042 -0.18292624 0.0017378135
0.014777334 -0.009944682 -0.01063958 -0.77604967 -0.57158023 -0.26653874 0.0018375262
0.016105881 -0.011397053 -0.011233292 -0.7077803 -0.66158485 -0.24769431 0.0009495659
0.013350632 -0.0074527934 -0.010743526 -0.85023099 -0.43554032 -0.29565492 0.0010774304
0.011964193 -0.0042257826 -0.010736874 -0.90573186 -0.28904667 -0.31000301 0.0017826182
0.01271347 -0.0055782506 -0.011366618 -0.89425635 -0.3266151 -0.30598715 0.0019549651
0.011407578 -0.001344029 -0.010845616 -0.93805158 -0.10855729 -0.32905087 0.0037684813
0.011494426 0.0013782277 -0.010815599 -0.93547225 0.12731199 -0.32967168 0.0019207681
0.012022758 0.0042378181 -0.010745071 -0.90734649 0.28017971 -0.31340334 0.002515855
0.012711175 0.0054096719 -0.011459288 -0.89432174 0.3165974 -0.31615603 0.0025354775
0.01230349 0.0061280346 -0.0093454691 -0.83441603 0.43871713 -0.33358228 0.00067616254
0.013472727 0.0074823359 -0.010777081 -0.83891964 0.44831079 -0.30859569 0.00098781404
0.014912233 0.009837253 -0.010549692 -0.75869501 0.59377038 -0.26798993 0.0014885518
0.01629178 0.011231694 -0.011152128 -0.67987597 0.6958195 -0.2315249 0.0015243373
0.017765449 0.012749959 -0.010941745 -0.6573115 0.72540069 -0.20429257 0.0014723551
0.019780628 0.014261148 -0.010978214 -0.50812626 0.84554517 -0.16389355 0.0016139855
0.021439554 0.015276483 -0.010779438 -0.43769652 0.88326275 -0.16813272 0.0045440691
0.023044683 0.015964778 -0.010769126 -0.35324728 0.92762363 -0.12137008 0.0041177445
0.025965072 0.01660963 -0.01184189 -0.2809571 0.95613444 -0.082885407 0.0005249579
0.020198733 -0.015788402 -0.0075729983 -0.48781323 -0.85937035 -0.15336503 0.0016459629
0.023092473 -0.017071536 -0.0082251402 -0.38920206 -0.91295213 -0.12263864 0.0021586835
0.025751105 -0.017873535 -0.0074107619 -0.35975447 -0.92653906 -0.11000953 0.00082619837
0.01558774 -0.012331122 -0.0072988244 -0.68801761 -0.67966622 -0.25433344 0.00075084326
0.017089425 -0.013582302 -0.0076305922 -0.63775682 -0.73503184 -0.23020513 0.002408742
0.018750889 -0.014579841 -0.0091714235 -0.62190282 -0.75588697 -0.20462584 0.0012271341
0.014130374 -0.010442771 -0.0077379616 -0.77794641 -0.56021327 -0.28453553 0.0016722546
0.01203795 -0.0071661649 -0.0075387033 -0.83448625 -0.43905854 -0.33295685 0.0011204169
0.012901006 -0.0082652988 -0.0084434571 -0.8284663 -0.46415076 -0.31338105 0.0014635911
0.010890843 -0.0044692256 -0.0076708551 -0.88127321 -0.31572121 -0.35167846 0.0025390722
0.0095929187 -0.0012390815 -0.0064609321 -0.92164493 -0.11608646 -0.37026265 0.0045701959
0.01035635 -0.0015980315 -0.0080372682 -0.91225678 -0.093807265 -0.39873275 0.0027742682
0.0095931478 0.00061383506 -0.00644763 -0.91718 0.13202755 -0.37596491 0.0024077923
0.010440711 0.0016551998 -0.0079737809 -0.91563267 0.13232367 -0.37961456 0.002227237
0.010957547 0.0045371167 -0.0076328851 -0.89438522 0.28539759 -0.3444173 0.0029891178
0.011975907 0.006940621 -0.0075590191 -0.82029092 0.46833169 -0.32831126 0.0018783323
0.013060255 0.0084562143 -0.0080012865 -0.77903658 0.54398626 -0.31173876 0.0011468279
0.014499499 0.010588598 -0.007616356 -0.71324921 0.64990145 -0.2624951 0.001103559
0.015995186 0.011658422 -0.0089950236 -0.72328115 0.64413792 -0.24889915 0.00081825175
0.015612889 0.012191585 -0.0064935656 -0.66387284 0.69604778 -0.27347818 0.0030131463
0.017084254 0.013036569 -0.0077687148 -0.62965822 0.74229187 -0.22920126 0.00092535047
0.019334501 0.01460956 -0.0079956669 -0.53240383 0.82823116 -0.17486975 0.0026237806
0.02111667 0.01554304 -0.0077135637 -0.39749882 0.91181141 -0.10293053 0.0057230857
0.022482669 0.016065856 -0.0081258984 -0.32911283 0.93750644 -0.1129887 0.002287898
0.025738575 0.016777104 -0.0076388987 -0.30384767 0.94848853 -0.089700393 0.0012353822
0.018224606 -0.015192606 -0.004745719 -0.54070789 -0.82250392 -0.17641494 0.0015189959
0.019665701 -0.01602917 -0.0047655916 -0.48254216 -0.85779053 -0.17705525 0.0016413666
0.02247688 -0.017199183 -0.0049598189 -0.35988998 -0.92788774 -0.09748657 0.0011527829
0.015088201 -0.012812218 -0.0046611847 -0.64645916 -0.71763641 -0.25901458 0.0013666471
0.016728031 -0.014127956 -0.0048192628 -0.59999561 -0.76631218 -0.22971945 0.0019541022
0.012155116 -0.0096211322 -0.0043724831 -0.75557703 -0.56826836 -0.3258442 0.0014867515
0.013551565 -0.011074772 -0.0049413275 -0.72227842 -0.62729895 -0.29122135 0.0028986849
0.01101752 -0.0075208857 -0.0047070673 -0.82999945 -0.43515661 -0.34891206 0.0012234275
0.0092870966 -0.0041605672 -0.0043808296 -0.87168783 -0.29616922 -0.39044103 0.0016575274
0.01023047 -0.0053430479 -0.0053824559 -0.86548209 -0.32039806 -0.385079 0.0020325442
0.0087715574 -0.0014754098 -0.0045898743 -0.91172576 -0.12289633 -0.39198557 0.0036514397
0.0089571495 0.0015470618 -0.0047587035 -0.89911836 0.14875567 -0.41165268 0.0017455895
0.009320017 0.0042654406 -0.0042676954 -0.86891699 0.30863366 -0.38694772 0.0033630743
0.010229867 0.0051817037 -0.0054146769 -0.85992765 0.32939371 -0.38990289 0.0025630991
0.011215396 0.0075920443 -0.0047763763 -0.79968643 0.49302277 -0.34268075 0.0018907759
0.012274235 0.0096241301 -0.0040205596 -0.73955309 0.59310484 -0.31825772 0.001321289
0.013590079 0.010715295 -0.0049765278 -0.72318411 0.62618864 -0.29136327 0.0015143651
0.015205342 0.012478045 -0.0046401443 -0.65316361 0.71740675 -0.24229088 0.0015183316
0.017007491 0.013789802 -0.0048279138 -0.56892997 0.79474121 -0.21143581 0.0027734125
0.020227611 0.015593324 -0.0046720244 -0.43080708 0.889736 -0.15091436 0.0032125267
0.017815961 -0.015572329 -0.001878259 -0.49571362 -0.8544457 -0.15553303 0.0024213847
0.020198569 -0.016691247 -0.0019930874 -0.4106324 -0.89998692 -0.14630301 0.0032110922
0.023294132 -0.017671058 -0.00089463335 -0.35774329 -0.92673409 -0.11482008 0.0010187844
0.012516256 -0.01205554 -0.00036582095 -0.63495177 -0.70828497 -0.30849418 0.0015390288
0.014128653 -0.013040015 -0.0015199331 -0.6360451 -0.72365755 -0.26789245 0.0014952979
0.016124751 -0.014442398 -0.0020920371 -0.59150863 -0.77642041 -0.21745999 0.0013656615
0.011490552 -0.010294762 -0.0016345766 -0.74051654 -0.59563845 -0.31120741 0.0018098649
0.012934102 -0.011531689 -0.0024599407 -0.69431025 -0.65294999 -0.30263761 0.0025572532
0.0093677733 -0.0072646178 -0.0013797756 -0.8026244 -0.46025753 -0.37941676 0.0015745285
0.01028719 -0.0081840456 -0.002344447 -0.78735673 -0.49346405 -0.36954388 0.002022909
0.0082031284 -0.0045276615 -0.0016529139 -0.8352204 -0.33386573 -0.43696743 0.0020193732
0.0074116993 -0.0014833985 -0.0016273449 -0.89654636 -0.079538703 -0.43575007 0.0051653683
0.0075666322 0.0015602218 -0.0017134005 -0.89891487 0.10148451 -0.42620772 0.0031747075
0.0082701445 0.0046049161 -0.0016384397 -0.84528178 0.34345111 -0.4093166 0.003005296
0.0093361307 0.0069697937 -0.0015728988 -0.79683942 0.46620417 -0.38431835 0.0012644511
0.010399353 0.0081053488 -0.0022936778 -0.78413224 0.50285655 -0.36369219 0.0019327478
0.011615092 0.010090742 -0.0016744433 -0.72266978 0.61121237 -0.32275048 0.0019159699
0.013251359 0.011536461 -0.0022277308 -0.63593197 0.71866691 -0.28126195 0.0014047784
0.014463779 0.012854009 -0.0016190747 -0.61601055 0.74492747 -0.25615248 0.0014772943
0.016625371 0.014264557 -0.0018986396 -0.51722139 0.82963163 -0.21022245 0.0027904741
0.018310167 0.015114306 -0.0024416123 -0.44029188 0.87251842 -0.21178894 0.0039105196
0.019754296 0.015853697 -0.0014190723 -0.41573295 0.89504802 -0.16141626 0.0033425705
0.022727475 0.016496962 -0.0029523049 -0.30525503 0.94502389 -0.11725686 0.00074830692
0.017133068 -0.015802983 0.0012449691 -0.44041088 -0.88465661 -0.15303905 0.0016407217
0.019956691 -0.016985625 0.0016354745 -0.381623 -0.91111398 -0.15567712 0.0015336046
0.012012841 -0.012424241 0.0016421701 -0.64787424 -0.7021991 -0.29525486 0.0013506874
0.0140137 -0.013841161 0.001161396 -0.56049681 -0.79184085 -0.2425518 0.00097126304
0.015830072 -0.014901423 0.0004599716 -0.54771578 -0.80927771 -0.21231329 0.0020051163
0.0091492068 -0.0096413279 0.0020541127 -0.70870954 -0.60444921 -0.36382952 0.0024124661
0.010461636 -0.010655317 0.0012256491 -0.70865732 -0.61443603 -0.34680411 0.0017803857
0.0081186015 -0.0075142076 0.0013213102 -0.77348465 -0.46760455 -0.42786378 0.0017382383
0.0061164298 -0.0040111681 0.0018556293 -0.82837296 -0.3135547 -0.46419993 0.0016394809
0.0072036055 -0.0048636524 0.00058761239 -0.82363874 -0.33295697 -0.45908484 0.0021645301
0.0057491432 -0.0014403785 0.001368752 -0.86864638 -0.0746186 -0.48978102 0.005444645
0.0068813427 -0.0026620263 -0.00020819646 -0.8749854 -0.11506751 -0.47027656 0.0055247149
0.0058728983 0.0014717146 0.0014300942 -0.85914254 0.14856587 -0.48969617 0.0024091527
0.0068830098 0.0025078172 -5.3433003e-05 -0.86169064 0.14343028 -0.48674119 0.0018396474
0.0061698626 0.0041475263 0.0019573728 -0.83344626 0.33149192 -0.44213158 0.0027455438
0.007205293 0.004946446 0.00074664271 -0.83090562 0.32529089 -0.4514218 0.0029769966
0.0081929192 0.0073961047 0.0012532424 -0.7804926 0.46798849 -0.41450936 0.0017494828
0.0097044241 0.0086197322 9.7777229e-06 -0.76943976 0.49659961 -0.40168568 0.0025115295
0.0091103241 0.0092921723 0.0020898904 -0.69985837 0.61141461 -0.36928365 0.0016379872
0.010888673 0.010651586 0.0010915141 -0.69421184 0.63982671 -0.32968417 0.0017414403
0.012335828 0.01243846 0.0019959237 -0.59337223 0.75361085 -0.28280723 0.0015940404
0.014110632 0.013454647 0.0012560155 -0.55170542 0.79367644 -0.25631776 0.0026262854
0.016002236 0.014606854 0.00094639522 -0.45962879 0.87179911 -0.16943325 0.0028470838
0.017962385 0.015467535 0.00086470949 -0.43937331 0.88147688 -0.17305936 0.0023634157
0.019675523 0.01623488 0.0024824168 -0.35410169 0.92705464 -0.12321368 0.0016102132
0.01480937 -0.015218698 0.004273775 -0.45749289 -0.8718425 -0.17490244 0.0025986882
0.016902145 -0.016220259 0.004410903 -0.41976142 -0.88907802 -0.18259443 0.0015688983
0.018830443 -0.016960585 0.0051482944 -0.39107013 -0.91028541 -0.13581058 0.0013262854
0.011420686 -0.012984145 0.0042816997 -0.59544104 -0.74198711 -0.3080667 0.0017814829
0.013472738 -0.014355128 0.003980794 -0.53519917 -0.81250376 -0.23108372 0.0021475453
0.0083567239 -0.010231777 0.0045217723 -0.69259518 -0.61368853 -0.37907556 0.0026457573
0.0099298172 -0.011538619 0.0039206073 -0.6648075 -0.66555697 -0.33921236 0.0021723458
0.0059266076 -0.0069082971 0.0046088002 -0.76350242 -0.43928459 -0.47338468 0.0017388554
0.0071866284 -0.0081620738 0.0036977225 -0.7435149 -0.50999796 -0.43253636 0.00273116
0.0036107912 -0.0034073526 0.0055666594 -0.81050479 -0.30866319 -0.49780422 0.0016806723
0.0049000564 -0.0044336286 0.0042102984 -0.79734814 -0.32782838 -0.50671935 0.0022952408
0.0034189257 -0.0013114627 0.0051182355 -0.83036417 -0.11528122 -0.54516566 0.0061372491
0.0043701087 -0.001588979 0.00365625 -0.83360201 -0.074221618 -0.54735625 0.004090813
0.0035039806 0.0013264003 0.0052559637 -0.82656974 0.15032732 -0.54238743 0.0030156693
0.0045032022 0.0017093357 0.0038150998 -0.83099872 0.12419799 -0.54223239 0.0016900457
0.0036110743 0.0034970259 0.0056545762 -0.81413776 0.29211375 -0.5018459 0.0022918715
0.005091324 0.004722889 0.0042216815 -0.80203545 0.33157441 -0.49678725 0.003864974
0.0059834714 0.0070349155 0.0047088014 -0.74181926 0.48283958 -0.46537092 0.0017934925
0.0072555621 0.008032985 0.0037432131 -0.75033313 0.49894193 -0.43365565 0.0028961315
0.0084188096 0.0099771991 0.0044476832 -0.67503762 0.62178469 -0.39712465 0.0020007968
0.010241244 0.011336081 0.0036717423 -0.65014315 0.67849886 -0.341984 0.0019828083
0.011582661 0.012744192 0.0043473002 -0.5699532 0.76765209 -0.29302484 0.0024136014
0.014046334 0.014241084 0.0041394192 -0.45873538 0.86396343 -0.20767537 0.0016859262
0.016892074 0.01553653 0.0040968922 -0.35361838 0.92183983 -0.15863559 0.0035876797
0.01413344 -0.015542298 0.0073820204 -0.38971505 -0.90558702 -0.16743466 0.0027574303
0.016748272 -0.016550312 0.0069341687 -0.3773126 -0.91541004 -0.14021295 0.0014591279
0.0089739356 -0.012461551 0.0076006139 -0.5954811 -0.73398757 -0.32659516 0.0016132253
0.01103765 -0.013687952 0.0070276307 -0.53945482 -0.79315418 -0.28265688 0.0017059371
0.0061164689 -0.0099361232 0.0077809021 -0.68194497 -0.5876807 -0.4354108 0.0021684894
0.0076576923 -0.011043772 0.0070831552 -0.63859707 -0.671305 -0.37622264 0.0028988554
0.0034595826 -0.0066190171 0.0082015963 -0.72461593 -0.45311591 -0.51924735 0.00099812192
0.0049172225 -0.0077159237 0.0069669764 -0.74738246 -0.45335582 -0.48568293 0.0014065191
0.0027428479 -0.0042832261 0.0074283583 -0.78606874 -0.32408002 -0.52637261 0.0024749534
0.004089437 -0.0053184936 0.0061562834 -0.7946952 -0.32707083 -0.51135528 0.0020365578
0.002066677 -0.0015360314 0.007272291 -0.81650722 -0.093643747 -0.56969011 0.0043859351
0.0021813018 0.0013599679 0.0072377743 -0.81808805 0.095410012 -0.56712335 0.0020251379
0.0028391327 0.0042892694 0.0074033821 -0.7886039 0.31269431 -0.52945846 0.0033523149
0.0042087599 0.0055282218 0.006202857 -0.79426938 0.34895408 -0.49736026 0.0042663715
0.0034996471 0.0067527471 0.0082471622 -0.71958935 0.46696371 -0.51394171 0.0013480478
0.0049766009 0.0077377162 0.0070871795 -0.73990381 0.46692196 -0.48427898 0.0015982596
0.0060700723 0.0096768904 0.0078097312 -0.6648404 0.61555576 -0.4231765 0.0017095122
0.0078496672 0.010832017 0.0069578849 -0.62212139 0.68839455 -0.37293145 0.0024517116
0.0089789852 0.012323974 0.0079302341 -0.57082003 0.74154097 -0.3525359 0.0018265537
0.011055415 0.013338799 0.0071191108 -0.5185504 0.80679595 -0.2831707 0.0019381309
0.013646968 0.014783246 0.0070626102 -0.40262973 0.88636178 -0.22858721 0.0017581229
0.015320461 0.015453375 0.0070985882 -0.32570434 0.93503213 -0.14011301 0.0054578129
0.016737685 0.015913246 0.0066100238 -0.28737107 0.94971919 -0.12430351 0.0029175747
0.019375572 0.016402921 0.0069400994 -0.29692179 0.94877183 -0.10802564 0.0024767839
0.011812435 -0.015240221 0.010607831 -0.42594308 -0.87701476 -0.22230074 0.0018065175
0.013728518 -0.015900472 0.010208156 -0.32443196 -0.93660629 -0.13233489 0.0015538777
0.017333947 -0.016909109 0.010176468 -0.31895307 -0.93968248 -0.12355425 0.00078591122
0.0065243994 -0.01237353 0.011443737 -0.54441607 -0.75182843 -0.37197462 0.0030554456
0.0082747787 -0.013019526 0.010120991 -0.5497579 -0.77490866 -0.31190202 0.0012429488
0.010656377 -0.014436966 0.0099438829 -0.47124118 -0.83751827 -0.27657717 0.0019150974
0.0032431944 -0.0093780803 0.011227146 -0.64346272 -0.60596025 -0.46772644 0.0028496855
0.0051898356 -0.010635653 0.010324332 -0.61309648 -0.68365836 -0.39588377 0.0010456212
0.0072221863 -0.011832454 0.0091755716 -0.58166587 -0.71503651 -0.38779849 0.0029695525
0.002359672 -0.0072987485 0.010277136 -0.73461813 -0.45826679 -0.50032771 0.0011240089
0.004262066 -0.0087913852 0.0091144666 -0.67285556 -0.54621392 -0.49891445 0.0020403203
-9.6581876e-05 -0.0039501777 0.011088028 -0.72065872 -0.33837193 -0.60510772 0.002240184
0.0012490656 -0.0046385876 0.0097486749 -0.75044847 -0.33229947 -0.57131797 0.0023890061
-0.00040105218 -0.0014289548 0.010607332 -0.8019523 -0.10361744 -0.58833319 0.0041465065
0.00081139663 -0.0016837543 0.0090504354 -0.77991152 -0.099315226 -0.61795998 0.0038670942
-0.00036381697 0.0012699146 0.010669705 -0.77508438 0.11206311 -0.62184089 0.003053637
0.0008625742 0.0016072328 0.0091172075 -0.78051293 0.12231203 -0.61305737 0.0024236832
-6.7564659e-05 0.003946404 0.01113839 -0.71757025 0.33765307 -0.6091662 0.0031995927
0.0013668789 0.0047867442 0.0097576845 -0.75320953 0.33057132 -0.56868088 0.0034360636
0.0024823803 0.0074681472 0.010357062 -0.7006281 0.50449681 -0.50458229 0.0025506348
0.0042627114 0.0086488938 0.0092525603 -0.65293342 0.58676249 -0.47894442 0.0022465
0.0034683873 0.0094932634 0.011273377 -0.62874711 0.62210631 -0.46654129 0.0019861562
0.0052617691 0.010466966 0.010300599 -0.61493659 0.66749144 -0.41989061 0.0018800604
0.0071441713 0.011531781 0.0093411831 -0.56802893 0.72093189 -0.39698917 0.0031677731
0.0065250141 0.012232549 0.011507127 -0.56681615 0.7314477 -0.37908271 0.0017457055
0.0083072539 0.012856426 0.010340447 -0.50695032 0.78778422 -0.3498534 0.0020644816
0.01073144 0.014168227 0.010021123 -0.42899886 0.86348557 -0.26524067 0.0014798578
0.012304911 0.015112079 0.011057797 -0.37796384 0.89902908 -0.22111098 0.0026603611
0.013936505 0.015497209 0.010257042 -0.32758361 0.92956144 -0.16912889 0.00068896631
0.016100449 0.01600503 0.0091165928 -0.24583197 0.96212304 -0.11783812 0.0011637658
0.018995572 0.016500508 0.0095288781 -0.24582969 0.96212387 -0.1178367 0.001164
0.011389555 -0.015626317 0.013461706 -0.34983581 -0.92081362 -0.17238663 0.0014918478
0.013561057 -0.016291859 0.013099956 -0.31061757 -0.93644202 -0.16307403 0.0013268151
0.015749959 -0.016787404 0.013408902 -0.29307649 -0.94592607 -0.13903236 0.00055476482
0.0057199276 -0.012817223 0.013515025 -0.52455717 -0.77096754 -0.36117697 0.0021537084
0.0081403907 -0.014016512 0.012974974 -0.47383371 -0.83600479 -0.27672654 0.0013424826
0.009920422 -0.01482127 0.012544337 -0.42367002 -0.87289155 -0.24200001 0.0034169301
0.00023881579 -0.0090590352 0.014672044 -0.61183816 -0.62752682 -0.4815228 0.0019632431
0.002308147 -0.010068006 0.013447115 -0.63240105 -0.61641502 -0.4691498 0.0017935531
0.00460133 -0.011649118 0.01277347 -0.55681241 -0.73437822 -0.38813469 0.0018635979
-0.00041167205 -0.0070759053 0.013623546 -0.69015449 -0.46588299 -0.55375069 0.0018640624
0.0010701264 -0.0078562871 0.012470481 -0.68071324 -0.46695226 -0.56443346 0.0017787728
-0.0028339752 -0.0037918796 0.014246536 -0.70412469 -0.31614062 -0.63581711 0.0025560819
-0.0013429276 -0.0046314453 0.013017542 -0.70010608 -0.34136659 -0.6271525 0.0023757981
-0.0031249465 -0.0014540482 0.013871605 -0.7634666 -0.10306262 -0.63757098 0.0040566511
-0.0018235147 -0.0016594135 0.012383581 -0.74334353 -0.09676259 -0.66187423 0.0038651782
-0.003093505 0.0012641576 0.013930782 -0.75639462 0.1186144 -0.64327115 0.0025156615
-0.0017826948 0.001524872 0.012449144 -0.74330086 0.11469525 -0.65905154 0.0023792505
-0.0028338926 0.003652045 0.014238857 -0.71716249 0.27758041 -0.63923955 0.0025413565
-0.0012910226 0.0047131879 0.013052616 -0.73197699 0.28160238 -0.62041092 0.0026640175
-0.00036351755 0.0072335992 0.013697199 -0.6790098 0.47585335 -0.55902529 0.0024935631
0.001283607 0.0081884963 0.012685461 -0.67247534 0.52563137 -0.52104563 0.0026833231
0.0025049546 0.010236748 0.013584448 -0.58346289 0.64615333 -0.49199289 0.0017699937
0.0046615913 0.011480916 0.012736208 -0.53091919 0.745857 -0.40227118 0.0014966294
0.0057200626 0.012676752 0.013514265 -0.50375682 0.77468216 -0.38222584 0.0022871604
0.0081316624 0.013834482 0.013107069 -0.4216927 0.86223799 -0.28057241 0.0015491744
0.010164069 0.014683596 0.0126614 -0.34668127 0.89866614 -0.26872149 0.002250239
0.011471175 0.015358075 0.01350335 -0.2933901 0.93618113 -0.19361594 0.0028555363
0.014287794 0.015988732 0.013074271 -0.28504455 0.94545186 -0.15770353 0.0017065578
0.0085281506 -0.015325648 0.016828993 -0.34916338 -0.90602219 -0.23918335 0.0010694138
0.010958159 -0.015911287 0.016084755 -0.32719418 -0.92275685 -0.20362674 0.0014147704
0.01290952 -0.016403178 0.016231539 -0.29093942 -0.93975937 -0.1794617 0.00061811635
0.0028911992 -0.012373297 0.016364353 -0.53948182 -0.74496126 -0.39241835 0.001857674
0.005257241 -0.013624815 0.016117875 -0.43150789 -0.84002364 -0.32887873 0.0014310057
0.0077339248 -0.014727711 0.015673723 -0.37087446 -0.89452213 -0.24956429 0.0022104131
-0.00068870233 -0.0097567448 0.016590243 -0.60011524 -0.60924387 -0.51834691 0.0018825587
0.0014323383 -0.011030828 0.015843511 -0.57277471 -0.67808783 -0.46057141 0.0023710961
-0.0033690203 -0.007046205 0.01687276 -0.61818892 -0.46583107 -0.63312244 0.0018231919
-0.0016827495 -0.0077082124 0.015601373 -0.66028768 -0.4518337 -0.59988862 0.0018219188
-0.0058007571 -0.0038155974 0.017319949 -0.68094176 -0.3113268 -0.6628679 0.002072403
-0.0040869783 -0.0045479923 0.016017502 -0.68699789 -0.32519469 -0.64983261 0.0029036659
-0.0060914466 -0.0014618502 0.016954204 -0.71858555 -0.10161465 -0.68797475 0.0038448446
-0.0045815003 -0.0015937168 0.015468146 -0.73798734 -0.090740331 -0.66868585 0.0037172865
-0.0060600294 0.0012749097 0.017005445 -0.71116364 0.11140191 -0.69414395 0.0022003867
-0.004536238 0.0014887896 0.015521621 -0.73232466 0.1033638 -0.67306507 0.0022231753
-0.0058005601 0.0036790285 0.017308481 -0.66257 0.2877408 -0.69152462 0.0030669221
-0.0040475288 0.0045460053 0.016005659 -0.68833542 0.27121484 -0.6727829 0.0025305918
-0.002192717 0.0060071116 0.0148747 -0.65433455 0.45516571 -0.60387945 0.0023074821
-0.0034880193 0.006985419 0.016913768 -0.61770862 0.46254775 -0.63599187 0.0020948329
-0.0014714347 0.0080906115 0.015780719 -0.64039612 0.5139665 -0.57072872 0.002905475
-0.00046756631 0.010006987 0.016671363 -0.58279157 0.6299271 -0.51336724 0.0014511009
0.0016372269 0.01121217 0.016002141 -0.53567618 0.70479774 -0.46509269 0.0027617835
0.0029413658 0.012652464 0.016808588 -0.47919032 0.76246119 -0.43477544 0.0025255044
0.0052374252 0.013565821 0.016154582 -0.43059269 0.8224237 -0.37176484 0.0020350516
0.0076233582 0.014630975 0.015942378 -0.37305611 0.87917954 -0.29643285 0.0013385457
0.0090137701 0.015302937 0.016595347 -0.28874397 0.92859 -0.23312564 0.0037687819
0.010564279 0.015672445 0.016000029 -0.23646906 0.95011163 -0.20339717 0.0031684551
0.013887117 0.016270027 0.016353302 -0.22849034 0.9619264 -0.14996573 0.00079303951
0.0060139983 -0.015149473 0.019656083 -0.34025681 -0.91293228 -0.22534417 0.0019706609
0.008271059 -0.015730057 0.019390775 -0.32217407 -0.91977686 -0.22408538 0.0017454078
0.010011403 -0.015970448 0.017824056 -0.28033468 -0.94311208 -0.1787515 0.00043588673
-0.00035738293 -0.012272619 0.019863056 -0.45921993 -0.7619471 -0.45667669 0.0019579607
0.0021308409 -0.013251872 0.019099575 -0.43169534 -0.8127045 -0.39134452 0.0018076001
0.0047146115 -0.014364704 0.018637197 -0.37734491 -0.87686974 -0.29784265 0.0020235465
-0.0034976848 -0.0097686043 0.019580459 -0.54207784 -0.62787235 -0.55850524 0.0021963185
-0.0013603675 -0.010966856 0.018886104 -0.52547508 -0.68440688 -0.50543362 0.0029845287
-0.0064187767 -0.0070708143 0.019834502 -0.60638118 -0.47359335 -0.63875753 0.001894529
-0.0045654578 -0.007810445 0.018658791 -0.61812377 -0.45377094 -0.64188397 0.0022798546
-0.0089976005 -0.0040245936 0.020245904 -0.62139642 -0.33397707 -0.70874947 0.0027610962
-0.0071061086 -0.0046135401 0.018973161 -0.632303 -0.33977947 -0.69623476 0.0026648135
-0.0051561021 -0.0056942338 0.017758878 -0.66078997 -0.36136076 -0.6578564 0.0022746087
-0.0093356688 -0.0014880028 0.019836213 -0.66109169 -0.10544527 -0.74285871 0.0040842155
-0.0075646378 -0.0016019884 0.018388249 -0.68602896 -0.093733534 -0.72151119 0.003852027
-0.009337727 0.0013546209 0.019917725 -0.6547302 0.10982067 -0.74784207 0.002267956
-0.0075193206 0.0015004013 0.018437212 -0.67976046 0.10085759 -0.72646636 0.0022233089
-0.0089970045 0.0038910385 0.020221129 -0.62709296 0.30956322 -0.71479028 0.0029258032
-0.0071050278 0.0044782376 0.018919136 -0.64051324 0.30163863 -0.70622718 0.0036236022
-0.0065293377 0.0069247819 0.019765981 -0.58549899 0.45125988 -0.67346519 0.0023962965
-0.0043365825 0.0079953717 0.018580584 -0.58360106 0.52053303 -0.62326181 0.0033672142
-0.003622236 0.0099447612 0.019726729 -0.54908687 0.60193837 -0.57980502 0.0017857689
-0.0012982786 0.011110376 0.018952709 -0.4803437 0.7273553 -0.49012679 0.00078268145
0.00071383687 0.011926017 0.018043162 -0.45785052 0.75899953 -0.4629176 0.0019816183
-0.00017789798 0.012668712 0.020053359 -0.47377184 0.7474978 -0.46560431 0.002170257
0.002182371 0.013430317 0.019210422 -0.43756065 0.80347532 -0.40369305 0.0016144202
0.005124426 0.014617129 0.018822344 -0.35328919 0.88393849 -0.30633232 0.0018183003
0.006361769 0.015421777 0.020043941 -0.33745447 0.89560431 -0.28985745 0.0010378914
0.0082794242 0.015666548 0.019006876 -0.23021807 0.94892752 -0.21572258 0.0015792184
0.012005623 0.016387681 0.01956623 -0.20066026 0.96239775 -0.18310089 0.0011949904
0.01295297 0.016332736 0.018065335 -0.22595195 0.95951664 -0.16814715 0.0013573868
0.0031721112 -0.015163098 0.023123644 -0.31881586 -0.89948988 -0.29878834 0.0013117982
0.0051451703 -0.015422534 0.021978315 -0.3019383 -0.91601753 -0.26409289 0.0018435027
0.0083521269 -0.016107546 0.021801414 -0.27778342 -0.93935764 -0.20110589 0.00060759112
-0.003342503 -0.012351377 0.022868238 -0.42059687 -0.76338923 -0.49023995 0.002773924
-0.00093764346 -0.013209601 0.022188611 -0.39272779 -0.81927234 -0.41780117 0.0023638366
0.0017872979 -0.014285136 0.021913799 -0.33840102 -0.88869727 -0.30935755 0.0025653045
-0.0087183053 -0.0092314268 0.023563506 -0.46140638 -0.61950815 -0.63506991 0.0026589234
-0.0067196409 -0.009956331 0.022665549 -0.47142386 -0.63077402 -0.61634713 0.0015116672
-0.0043578441 -0.010925031 0.021780744 -0.4831109 -0.68606025 -0.54399008 0.0028063932
-0.011690789 -0.0065060938 0.023548396 -0.49443313 -0.49257803 -0.71617228 0.0020504289
-0.0097385207 -0.0072180475 0.022614872 -0.51998812 -0.48811647 -0.70096701 0.0021026288
-0.0075581465 -0.007926642 0.021421837 -0.56814492 -0.46872276 -0.676395 0.002323387
-0.012519714 -0.00425123 0.022985779 -0.53545874 -0.30117017 -0.7890377 0.002649874
-0.010291791 -0.0047142934 0.02164208 -0.57611477 -0.32705837 -0.74908251 0.0029238272
-0.014668018 -0.00080823241 0.023668241 -0.52932811 -0.12420487 -0.83927637 0.0033298945
-0.012897447 -0.0015487786 0.022540219 -0.53820342 -0.12742145 -0.83312714 0.0032934188
-0.010820566 -0.0016395604 0.02108543 -0.62421989 -0.098847561 -0.77497017 0.0037840325
-0.014668504 0.00043085878 0.023681493 -0.53506517 0.11985149 -0.83626604 0.0017419307
-0.012899718 0.0014182526 0.022609679 -0.54456842 0.12341689 -0.82958645 0.0016971389
-0.010822733 0.0015075145 0.021161666 -0.61803812 0.10302812 -0.7793678 0.0021711497
-0.012569315 0.0041796872 0.022997163 -0.53638989 0.26591432 -0.80098403 0.0025604735
-0.010290037 0.0045817369 0.021576742 -0.57757199 0.29990557 -0.75925452 0.0032539368
-0.011852806 0.0062922258 0.023443731 -0.49072418 0.44103494 -0.7514506 0.0012554366
-0.0097488295 0.0071693645 0.02251339 -0.50430286 0.4356156 -0.74559885 0.0012931367
-0.0075382497 0.0079289079 0.021309938 -0.53678554 0.48986667 -0.68694389 0.0029288835
-0.0088803964 0.0092642177 0.023433678 -0.48544914 0.57058507 -0.66239858 0.0018328052
-0.006753244 0.009972957 0.022438256 -0.5074659 0.60635483 -0.61221915 0.0017829839
-0.0043479302 0.01097747 0.02160099 -0.48275727 0.6545797 -0.58178252 0.0024585626
-0.0022519259 0.012005157 0.020983042 -0.46881491 0.73190975 -0.49449047 0.0012186078
-0.0037553115 0.01241674 0.022899795 -0.42321306 0.73005348 -0.53657484 0.0014152966
-0.00095525989 0.013523932 0.022303041 -0.3608346 0.81231159 -0.45820108 0.0015564975
0.0019770856 0.014446964 0.021569204 -0.3604008 0.85579401 -0.37111723 0.0021070852
0.0041525657 0.014955631 0.020809712 -0.30141237 0.90799725 -0.29101843 0.0016866362
0.0024296953 0.015286426 0.023302967 -0.27792954 0.89903063 -0.33837715 0.0019231109
0.0053938054 0.015744828 0.022240477 -0.26549152 0.92420238 -0.27452555 0.0006727734
0.0073576993 0.015952898 0.021152975 -0.22030267 0.94736093 -0.23232301 0.00090442633
0.00043755071 -0.0152675 0.026355358 -0.20245399 -0.95996529 -0.19359508 0.0010987013
0.0024316697 -0.015483975 0.025348322 -0.29046068 -0.91591954 -0.27699077 0.0018759773
0.0044157035 -0.015698271 0.024326982 -0.25256738 -0.94169062 -0.22232522 0.00049941399
-0.0066813147 -0.012512007 0.025827667 -0.37703201 -0.77889436 -0.50116903 0.0028845263
-0.0040710378 -0.013265226 0.025094073 -0.34664175 -0.83668721 -0.42402133 0.0033360589
-0.0011322908 -0.014398601 0.025096137 -0.29101846 -0.90036798 -0.32349002 0.0034086804
-0.012103526 -0.0096152304 0.026215555 -0.41603932 -0.62765187 -0.65800029 0.0025743605
-0.0098698195 -0.010222642 0.025315972 -0.43569171 -0.63711268 -0.63581455 0.0015124258
-0.0073965993 -0.011275002 0.024653964 -0.43340182 -0.71953893 -0.54261088 0.0026176004
-0.015383177 -0.0068322672 0.026179779 -0.48608726 -0.46252331 -0.74147922 0.0020284809
-0.013020066 -0.0075452575 0.025135819 -0.45493218 -0.49403161 -0.74092478 0.0014602272
-0.010656409 -0.0084376317 0.024203336 -0.47214887 -0.59847093 -0.64723104 0.0011760283
-0.018091308 -0.0036361625 0.026388215 -0.49935558 -0.30093962 -0.81245267 0.0021940987
-0.015939608 -0.0045060073 0.025376001 -0.53071463 -0.32576969 -0.78244239 0.0026270247
-0.013736041 -0.0050676977 0.02418264 -0.54863191 -0.2952837 -0.78218317 0.0025097767
-0.018429428 -0.0014678142 0.026173135 -0.51109177 -0.097762175 -0.85394835 0.0036039867
-0.016060038 -0.0016220525 0.02466654 -0.54833466 -0.11976422 -0.82763857 0.0035238625
-0.018348681 0.0013319749 0.026192592 -0.5172891 0.10050822 -0.84988827 0.0018497581
-0.016021721 0.0014844354 0.024703555 -0.54812509 0.11727616 -0.82813358 0.0017869128
-0.017923634 0.0037586207 0.026356267 -0.49779755 0.28565174 -0.81890208 0.0025184064
-0.01597379 0.0044133835 0.025339732 -0.52940977 0.3000088 -0.79354894 0.0024011845
-0.013842613 0.0049466006 0.024157383 -0.52765536 0.31046909 -0.79068881 0.0032867265
-0.015419994 0.0068281121 0.026055794 -0.49134248 0.43855089 -0.75249964 0.0018034498
-0.013074324 0.0074893925 0.02495357 -0.47154254 0.46700183 -0.74803537 0.0020853151
-0.010880571 0.0082859294 0.024094351 -0.51622224 0.52043849 -0.68018991 0.001582496
-0.012475424 0.0096115656 0.026148964 -0.44032192 0.58831108 -0.67823786 0.0011700862
-0.010001916 0.010380454 0.025248282 -0.42057118 0.64537925 -0.63765615 0.0012883905
-0.0075474735 0.01125381 0.024412995 -0.42444074 0.68437731 -0.59285563 0.0012581708
-0.0090356935 0.012151918 0.026433708 -0.39038298 0.6897102 -0.60983688 0.0016255508
-0.0068038823 0.012682705 0.025589215 -0.39755723 0.72745633 -0.55924547 0.0014730534
-0.0040567182 0.013682812 0.025098853 -0.33443373 0.82693142 -0.45203817 0.0011183252
-0.0017076288 0.014419034 0.024564486 -0.29425639 0.85462785 -0.42781356 0.0018596023
-0.0023067412 0.015150241 0.026638122 -0.27110931 0.88624442 -0.37559345 0.0010628363
-0.00030616438 0.015278312 0.025500895 -0.25341022 0.90344089 -0.34580028 0.003495397
0.0023479303 0.01587484 0.025165282 -0.216736 0.93740559 -0.27257323 0.0017995273
0.0048348312 0.016257176 0.025037449 -0.2259977 0.94121516 -0.25107574 0.0010877476
-0.002584273 -0.015365035 0.029374273 -0.20374137 -0.94636446 -0.25076646 0.0022289671
-0.0010692817 -0.015317724 0.02790981 -0.23161365 -0.93646115 -0.26343045 0.0040816781
0.0016812887 -0.015826171 0.028157514 -0.20245397 -0.95996529 -0.19359508 0.0010987291
-0.011865005 -0.012353081 0.02931758 -0.34239045 -0.75241572 -0.56270719 0.0019455836
-0.0094243903 -0.012921263 0.028484032 -0.33792257 -0.79371899 -0.50578505 0.0025862074
-0.0066173952 -0.013763821 0.028067814 -0.27942413 -0.86947793 -0.40734544 0.0036193274
-0.0038209299 -0.014652428 0.027955875 -0.28636608 -0.89108038 -0.35209405 0.0015109966
-0.017641012 -0.0093460465 0.029476391 -0.42756042 -0.56662422 -0.7043643 0.0020143643
-0.015376637 -0.010022789 0.028672544 -0.4272199 -0.6134153 -0.66423255 0.0013650762
-0.012824138 -0.010818222 0.027952231 -0.39211142 -0.70943707 -0.58561736 0.0011989552
-0.010372186 -0.011512004 0.027128076 -0.4102807 -0.68544668 -0.60152519 0.001187505
-0.020728016 -0.0066673812 0.029317962 -0.45652464 -0.45272291 -0.76591587 0.0015628467
-0.018532347 -0.0074711815 0.028577156 -0.4378719 -0.49240664 -0.75219941 0.0015241206
-0.016120594 -0.0079393042 0.02742283 -0.48053375 -0.48031184 -0.73374921 0.001533265
-0.014289062 -0.0087979371 0.026950272 -0.44707757 -0.58305967 -0.67835319 0.0027724733
-0.023415452 -0.0035751322 0.029533984 -0.45378488 -0.30849284 -0.8360092 0.0024178904
-0.021479798 -0.0044628461 0.02877762 -0.46252331 -0.30087546 -0.83399403 0.0027923095
-0.018971354 -0.0047893152 0.027459931 -0.4861258 -0.32469937 -0.81132728 0.0031571737
-0.017280823 -0.0058022374 0.026877316 -0.46138695 -0.44513282 -0.7674495 0.001668404
-0.023845095 -0.001441599 0.029360475 -0.46274891 -0.11871088 -0.87850505 0.0044622403
-0.021747002 -0.0016264311 0.028187731 -0.49409407 -0.068787806 -0.86668295 0.003409191
-0.019869514 -0.0015608071 0.027090028 -0.5444414 -0.096255623 -0.83325773 0.0034458409
-0.023809612 0.0012931887 0.029399356 -0.43446699 0.093939468 -0.89577556 0.002208112
-0.021664979 0.0014980937 0.028200908 -0.49324891 0.077762246 -0.86640549 0.0019578307
-0.019701457 0.0014347896 0.027055554 -0.53853095 0.10066194 -0.83657134 0.0017130349
-0.023414493 0.0034516966 0.02951649 -0.45684677 0.28160217 -0.84379572 0.0023641295
-0.021521106 0.0043494245 0.028758015 -0.46694139 0.27408552 -0.84073949 0.0027771301
-0.01900964 0.0046005943 0.027387165 -0.50248712 0.28491822 -0.81628931 0.0025513729
-0.020898188 0.0067120339 0.029375859 -0.46609578 0.416731 -0.78044218 0.0012940195
-0.018574825 0.0074092201 0.028443394 -0.45290378 0.48037079 -0.75108057 0.0020516382
-0.016267631 0.0078256987 0.027231708 -0.47677124 0.44773945 -0.75645131 0.0014984284
-0.017783767 0.0094196601 0.029292919 -0.42591551 0.56160122 -0.70936602 0.0013077494
-0.015440933 0.010224931 0.028554419 -0.43267912 0.59271318 -0.67932314 0.0016111195
-0.012991305 0.010912004 0.027707079 -0.40360841 0.62579656 -0.66744214 0.0014420687
-0.011044618 0.011417179 0.026950302 -0.41891557 0.64310682 -0.64103311 0.0012340993
-0.012272818 0.012554912 0.02897995 -0.38047245 0.69954568 -0.60487735 0.0012574677
-0.0095250979 0.013267536 0.028226785 -0.37621841 0.75008315 -0.54390717 0.0020311256
-0.0067897355 0.014223793 0.027900333 -0.31844625 0.81878716 -0.47768155 0.0015652939
-0.0045576273 0.014665171 0.027063044 -0.30116454 0.86562568 -0.39999005 0.0027588462
-0.0058434601 0.015237179 0.02924213 -0.26943871 0.87128621 -0.41019884 0.0017934253
-0.0034611542 0.015525748 0.028331352 -0.21606632 0.9050597 -0.36630902 0.0027441203
-0.00081922533 0.016027948 0.027949063 -0.20961075 0.93585074 -0.28327847 0.0014803646
0.0024329806 0.016631303 0.028491573 -0.18316664 0.94958794 -0.25442645 0.00057144661
0.0046796934 0.016670337 0.02728527 -0.17570835 0.95437479 -0.24144444 0.00049487274
-0.0056390287 -0.015450762 0.032026935 -0.22243008 -0.92488533 -0.30840212 0.00055085932
-0.0041092564 -0.015411363 0.030808138 -0.18453684 -0.94428927 -0.27251408 0.0018073511
0.0004211599 -0.015910523 0.030684175 -0.17658815 -0.95969892 -0.21861988 0.0013727692
-0.015428867 -0.012695397 0.031908084 -0.32971272 -0.76997548 -0.54628485 0.001509593
-0.012624105 -0.013256477 0.031112917 -0.2847304 -0.82877809 -0.48172134 0.0026187638
-0.0097967423 -0.014199396 0.031131646 -0.23347385 -0.88984144 -0.39201048 0.0026043104
-0.0070900484 -0.014760138 0.030667678 -0.24944288 -0.90699583 -0.33931822 0.0015206652
-0.021468595 -0.0098673096 0.032056652 -0.36576802 -0.61584347 -0.69781846 0.0019950918
-0.018672844 -0.010573324 0.031226544 -0.34893265 -0.66653526 -0.65876907 0.0019835136
-0.015995525 -0.011414045 0.030601162 -0.36829847 -0.73771906 -0.56579751 0.0010972043
-0.013890399 -0.011864983 0.029865565 -0.36908269 -0.74042022 -0.56174362 0.0036301576
-0.026941869 -0.0067099514 0.032435931 -0.34004071 -0.45193005 -0.82470083 0.0022669896
-0.02461974 -0.0073920004 0.031819887 -0.36665672 -0.47894904 -0.79760307 0.002208807
-0.021905206 -0.0077944654 0.0307345 -0.41814399 -0.48929647 -0.76533949 0.0027062814
-0.01955088 -0.008729537 0.030074464 -0.40044972 -0.60425001 -0.68885559 0.00122122
-0.030144133 -0.0038484223 0.032488298 -0.30817607 -0.29987493 -0.9028303 0.0021738489
-0.027773313 -0.0045267139 0.031879362 -0.331498 -0.32355803 -0.88623881 0.0025054708
-0.024807172 -0.0046485453 0.030615645 -0.40563419 -0.31248975 -0.85895926 0.0029841289
-0.022811083 -0.0054621221 0.029963525 -0.45380199 -0.30849579 -0.83599883 0.0024195905
-0.077621877 -0.0013229215 0.032478027 -0.34504157 -0.27107009 -0.89859182 0.060917646
-0.076009139 -0.0012847595 0.032008033 0.054052431 -0.41931462 -0.90623045 0.047417518
-0.074114181 -0.00031260488 0.032649819 0.32809842 -0.070097312 -0.94203919 0.038859311
-0.030771125 -0.0015059938 0.032257322 -0.31433737 -0.088588044 -0.94516879 0.0036317664
-0.027786698 -0.0015719648 0.031160364 -0.37991714 -0.099124871 -0.91969413 0.0030919223
-0.025356062 -0.0016695264 0.030094799 -0.45243356 -0.091054432 -0.88713753 0.0033629062
-0.077620842 0.0014553682 0.032471914 -0.51442826 0.19254749 -0.83563691 0.057082091
-0.075956814 0.0012686488 0.031986069 -0.1060812 0.24737525 -0.96309513 0.062504955
-0.074119091 0.00019270838 0.032679979 0.32809842 -0.070096709 -0.94203925 0.03885933
-0.030743778 0.0013440374 0.032256383 -0.31533167 0.089106016 -0.94478893 0.002910862
-0.027790029 0.001450652 0.031212507 -0.37818611 0.099985443 -0.92031413 0.0020570464
-0.025315231 0.001554184 0.030132456 -0.44763142 0.094654083 -0.88919443 0.0020650811
-0.07715138 0.0032245582 0.032682572 0.14613731 0.64653158 -0.74875951 0.079517111
-0.030142546 0.0037281206 0.032465234 -0.30734974 0.27896118 -0.90978944 0.0020923077
-0.027795512 0.0044439421 0.031861417 -0.3347351 0.29886082 -0.89366364 0.0024770161
-0.024804315 0.004525871 0.030566085 -0.41005981 0.28487861 -0.86642659 0.002967282
-0.022767689 0.0055481759 0.029934319 -0.42329669 0.30280367 -0.85389102 0.0028521479
-0.027172243 0.0065684239 0.032416172 -0.3458547 0.42434543 -0.8368485 0.0019301857
-0.024688074 0.0073629827 0.031748638 -0.36688367 0.46026412 -0.80842638 0.0018777946
-0.022006407 0.0077765365 0.030647526 -0.44123179 0.42634583 -0.78964782 0.0013912568
-0.01975017 0.0085609574 0.029862158 -0.44095764 0.52042329 -0.73124266 0.0014329616
-0.023831554 0.0092847785 0.03251015 -0.36096784 0.55517495 -0.7493217 0.0014681126
-0.021500194 0.0099526448 0.031849571 -0.38064173 0.56978136 -0.72832769 0.0019547583
-0.018851727 0.010684445 0.031008471 -0.38727754 0.59734005 -0.70228267 0.0014161941
-0.016354676 0.011438092 0.030255085 -0.39127555 0.65483063 -0.64660674 0.0014178293
-0.018097708 0.012478175 0.032296736 -0.35082859 0.67914414 -0.64473444 0.001118136
-0.015481265 0.012983705 0.031448279 -0.35930645 0.73291457 -0.57769811 0.0018335924
-0.012766717 0.01392766 0.031134119 -0.32240468 0.78379893 -0.5307678 0.0015239957
-0.010165835 0.014494169 0.030409342 -0.28594738 0.8329016 -0.47382388 0.0013632736
-0.0094204731 0.015493753 0.031885758 -0.23819241 0.87061656 -0.4304547 0.0019816845
-0.0066494541 0.01584103 0.03106991 -0.20952493 0.90805328 -0.3626824 0.0014553854
-0.0036358631 0.016417883 0.031070013 -0.18772379 0.92951125 -0.31744066 0.00071452279
-0.00058735441 0.016804051 0.030936789 -0.17491473 0.9411369 -0.28925118 0.00046443386
0.0011778958 0.016765168 0.029874684 -0.1698374 0.94788092 -0.26958647 0.00068702665
-0.012285938 -0.015034338 0.034850586 -0.20268066 -0.92756605 -0.31391385 0.0017938068
-0.0097344741 -0.015273775 0.034385115 -0.18587542 -0.94670069 -0.26307437 0.00052397966
-0.0071834507 -0.015499459 0.033534382 -0.20014197 -0.93312806 -0.29868931 0.00090430881
-0.023997426 -0.012004563 0.035500694 -0.26507926 -0.75285536 -0.6024465 0.0013874685
-0.021825122 -0.012408885 0.035040922 -0.27485567 -0.77075619 -0.57479489 0.0025418908
-0.018664662 -0.012988302 0.034252748 -0.29010865 -0.79984897 -0.52543181 0.0018083553
-0.015872546 -0.013807079 0.034072846 -0.26083291 -0.85052371 -0.45670086 0.0027465869
-0.013222031 -0.014342848 0.033545364 -0.2366531 -0.9164896 -0.32255566 0.0028854753
-0.009445996 -0.014974573 0.032937292 -0.21553251 -0.92725879 -0.30616483 0.0018487829
-0.02994227 -0.0095637012 0.035457995 -0.26016125 -0.63186246 -0.73011369 0.001724746
-0.027595161 -0.0099607334 0.034972232 -0.28503549 -0.6438393 -0.71008855 0.0021151304
-0.024867592 -0.010380175 0.034205895 -0.28579438 -0.65797758 -0.69669724 0.0030866817
-0.022032015 -0.011094802 0.033626217 -0.29119843 -0.75026226 -0.59355718 0.0013647017
-0.019695966 -0.011820936 0.033190053 -0.31577414 -0.74825609 -0.5834378 0.0037458881
-0.036026642 -0.0065819556 0.035479475 -0.26439381 -0.47677147 -0.83832264 0.0015212654
-0.0335031 -0.0072468999 0.035084724 -0.26282623 -0.49313548 -0.82930076 0.0021467945
-0.030834479 -0.0076270062 0.034429539 -0.28091514 -0.50692314 -0.81493288 0.0022319951
-0.028130036 -0.0078407815 0.033627711 -0.31391814 -0.49644035 -0.80932224 0.0025792599
-0.025633566 -0.0086213341 0.033084366 -0.35029799 -0.57664502 -0.7380867 0.0013539763
-0.077941239 -0.0041165506 0.03435443 -0.59607667 -0.5240249 -0.60835057 0.11085515
-0.076246768 -0.003693518 0.034335755 0.15715171 -0.82940072 -0.53609508 0.041948918
-0.039377678 -0.0040113507 0.035370231 -0.25891566 -0.33239794 -0.90690374 0.0025185898
-0.036648795 -0.0046277251 0.034800146 -0.25325212 -0.31923929 -0.91320843 0.0020183434
-0.033791672 -0.0046199085 0.033947378 -0.28832 -0.32046872 -0.90231442 0.0018841804
-0.031246793 -0.0049050278 0.033239208 -0.3040655 -0.33680061 -0.89112824 0.0026381002
-0.02890373 -0.0058727125 0.032826323 -0.34249744 -0.43858048 -0.83086866 0.0012852679
-0.078329839 -0.0017602124 0.034084406 -0.69694924 -0.29460537 -0.6538114 0.050158489
-0.075142123 -0.0024761984 0.033596899 0.23895283 -0.68143362 -0.69177288 0.042125288
-0.0727688 -0.0013717716 0.03409956 0.52810162 -0.5690757 -0.63028687 0.03553316
-0.070117287 -0.00091600808 0.035214137 0.37260622 -0.41493011 -0.83005875 0.051031362
-0.042044427 -0.0012976127 0.035507914 -0.2405929 -0.13159475 -0.9616642 0.0039588693
-0.039703466 -0.0015820537 0.034903247 -0.24484497 -0.1298545 -0.96082705 0.0031542871
-0.03679524 -0.0016207326 0.034098998 -0.28228879 -0.10744358 -0.95329374 0.0022087793
-0.033957291 -0.0015415006 0.033276085 -0.28998947 -0.1007861 -0.95170808 0.0033929145
-0.032189295 -0.0023345088 0.0328274 -0.34435773 -0.092396028 -0.93428081 0.0035913433
-0.078436002 0.0014620167 0.034282614 -0.79949903 0.19072463 -0.56958348 0.034792703
-0.075014994 0.0023843634 0.033007231 0.33365458 0.52880114 -0.78041273 0.021280341
-0.072777689 0.0014925656 0.034015067 0.50509197 0.36056024 -0.78414184 0.018449824
-0.070176274 0.0009978665 0.035238795 0.41428202 0.31532705 -0.85377938 0.04417894
-0.042044383 0.0011807735 0.0355074 -0.24106146 0.12914445 -0.96187896 0.0038120174
-0.039703343 0.0014645566 0.034901921 -0.24591996 0.12678879 -0.960962 0.0029960906
-0.03679511 0.0015023681 0.034097433 -0.28290752 0.10348475 -0.95354825 0.0020602953
-0.033957109 0.0014222411 0.033273764 -0.29140109 0.097923428 -0.95157576 0.0029610666
-0.032061193 0.0023409715 0.032803338 -0.31813163 0.13999939 -0.93765265 0.0034590778
-0.078012973 0.0040981732 0.034179222 -0.53076452 0.6777277 -0.50889516 0.086393416
-0.075915307 0.0037956175 0.034051798 0.1574586 0.68340921 -0.71285248 0.076290183
-0.073434047 0.0034132737 0.035238177 0.38307625 0.65030581 -0.65601444 0.0088983877
-0.039383877 0.0039404663 0.035373054 -0.26887214 0.31833583 -0.90904897 0.0022557022
-0.036646463 0.0045098085 0.034771848 -0.25669426 0.31422713 -0.91398543 0.0021025799
-0.033789273 0.004501048 0.033916004 -0.29248539 0.30810219 -0.90527642 0.0016302109
-0.031243905 0.0047852751 0.033198386 -0.32982856 0.29590514 -0.89646709 0.0019958797
-0.029157778 0.0057532554 0.032846663 -0.32121444 0.32614657 -0.88907242 0.0022667162
-0.035938866 0.0065856306 0.035442512 -0.27229682 0.46524349 -0.84226066 0.0015430821
-0.033484995 0.0072666835 0.035047509 -0.2705242 0.47042325 -0.83995157 0.0019417733
-0.030824546 0.0075065591 0.034287717 -0.29522225 0.45578596 -0.83970416 0.0010393824
-0.028135546 0.0078052254 0.033506788 -0.32429418 0.46608698 -0.82316226 0.0021231538
-0.025754718 0.0086626811 0.032995779 -0.35981461 0.52274996 -0.77282977 0.00072646776
-0.030156214 0.0096622687 0.035429068 -0.27459922 0.59437484 -0.75585306 0.0014137358
-0.027717069 0.010043564 0.034834754 -0.30371314 0.60262257 -0.73797321 0.0017080853
-0.024957601 0.010624239 0.034112666 -0.32721081 0.59159225 -0.73685259 0.0015310112
-0.022204679 0.011295971 0.033398148 -0.35547847 0.64341074 -0.67798066 0.000908722
-0.024246421 0.012393505 0.035406046 -0.29317793 0.71959966 -0.62946248 0.0017626192
-0.021733817 0.01288485 0.034786765 -0.2971628 0.7235862 -0.62299061 0.0024793246
-0.018888557 0.013661505 0.034253251 -0.30418256 0.75231779 -0.58437222 0.0019993216
-0.0161182 0.014409265 0.033757504 -0.28852704 0.81055254 -0.50966334 0.0010917676
-0.013748329 0.014859512 0.033077914 -0.27226514 0.83739346 -0.47396615 0.0010686156
-0.015340943 0.015432714 0.035098556 -0.23742037 0.86580598 -0.44046745 0.0036378512
-0.012630329 0.015767779 0.03427181 -0.21857703 0.88779807 -0.40501687 0.0016827511
-0.0098277573 0.016309742 0.034033626 -0.22601971 0.89409381 -0.38666701 0.0015175125
-0.0069409441 0.01679402 0.034114253 -0.19273514 0.91611594 -0.35154623 0.00082618877
-0.0043947878 0.016888937 0.033255015 -0.18301341 0.91760933 -0.3528443 0.0011449335
-0.015687494 -0.015118404 0.037542056 -0.21421362 -0.9194116 -0.3298406 0.0016179688
-0.012861935 -0.01535963 0.037082832 -0.17842549 -0.94399893 -0.27754346 0.00085402915
-0.010554517 -0.015596468 0.036536947 -0.1880409 -0.9406389 -0.28255805 0.00073272764
-0.030137753 -0.012177007 0.038330361 -0.21835952 -0.76849443 -0.60144442 0.001414097
-0.027541811 -0.012468168 0.037705321 -0.23306015 -0.80290067 -0.54866523 0.0033240954
-0.024656482 -0.0129677 0.037266817 -0.23871124 -0.82441264 -0.51318675 0.0033322938
-0.021893276 -0.013643734 0.037117202 -0.18374716 -0.87277067 -0.45222601 0.0044259848
-0.019144047 -0.01420493 0.036845256 -0.2183667 -0.90063453 -0.37573037 0.00219408
-0.016651336 -0.014565039 0.036122158 -0.21420853 -0.9194169 -0.32982916 0.001612975
-0.039334238 -0.009178631 0.038427029 -0.24586403 -0.68622178 -0.68458062 0.0018126126
-0.036727078 -0.0095899105 0.037874017 -0.25522032 -0.63582867 -0.72841227 0.0013278906
-0.033729091 -0.010287742 0.037496302 -0.24253182 -0.67129219 -0.70038933 0.002284118
-0.030833289 -0.010693161 0.036861721 -0.26083541 -0.69708395 -0.66786134 0.0030424255
-0.027944263 -0.01117532 0.036275674 -0.25904948 -0.7235235 -0.63984931 0.00074287405
-0.025792314 -0.011502498 0.035766367 -0.29196051 -0.69444072 -0.65765578 0.0018104777
-0.045192271 -0.0066420385 0.038397066 -0.26246682 -0.55454999 -0.78967428 0.0018366332
-0.042625256 -0.0071982611 0.037974756 -0.25987017 -0.55451661 -0.79055607 0.0019160882
-0.039866392 -0.0074210805 0.037231881 -0.2612859 -0.54380167 -0.79750198 0.0034938122
-0.036952708 -0.0076561412 0.036430493 -0.26148942 -0.53114301 -0.80592203 0.0016242942
-0.033954225 -0.0085949404 0.036075477 -0.26504359 -0.61288464 -0.74439526 0.0011984225
-0.079348899 -0.0039808806 0.036634799 -0.74540752 -0.3797757 -0.54784852 0.12084429
