# .PCD v0.7 - Point Cloud Data file format
VERSION 0.7
FIELDS x y z normal_x normal_y normal_z curvature
SIZE 4 4 4 4 4 4 4
TYPE F F F F F F F
COUNT 1 1 1 1 1 1 1
WIDTH 551
HEIGHT 1
VIEWPOINT 0 0 0 1 0 0 0
POINTS 551
DATA ascii
-0.010404474 -0.0080433767 -0.010849649 -0.31451377 -0.78603131 -0.53219914 0.0030906196
-0.0075953244 -0.0090091825 -0.01102467 -0.29316667 -0.77191097 -0.56409818 0.0030107363
-0.0047258297 -0.0094749648 -0.011731979 -0.21891394 -0.69593072 -0.68392777 0.0013968158
-0.002373111 -0.0097132195 -0.012163658 -0.18764786 -0.68603146 -0.70295745 0.0019166291
0.014827099 -0.0097120348 -0.012220953 0.22393721 -0.32018092 -0.92050868 0.0029120564
0.016808588 -0.0088204648 -0.011872377 0.29699832 -0.28556907 -0.91117638 0.0028613422
0.019469015 -0.0083582457 -0.010957055 0.38747808 -0.19445442 -0.90113717 0.0026776961
0.022047983 -0.0082416907 -0.0097742965 0.43920135 -0.15293486 -0.88527566 0.0011708045
-0.018942311 -0.0044776234 -0.010446512 -0.39141813 -0.79269338 -0.46736386 0.0019159876
-0.016356308 -0.0053589041 -0.011004826 -0.35596097 -0.78489798 -0.50717545 0.0028415862
-0.013711008 -0.0062044985 -0.011515398 -0.31761074 -0.76170826 -0.56473356 0.0040403805
-0.01177565 -0.0065016537 -0.012203667 -0.29063892 -0.712749 -0.63837129 0.0012670098
0.017927846 -0.0055854772 -0.012100246 0.42490962 -0.085798293 -0.90116066 0.0020847374
0.019687682 -0.0053651431 -0.011214847 0.46301368 -0.022168111 -0.88607383 0.0010448581
0.022281313 -0.0053785928 -0.0098964563 0.49529088 0.016076727 -0.86857837 0.0041762888
-0.025110494 -0.0013048309 -0.010425206 -0.4352085 -0.7789613 -0.45145628 0.0020676055
-0.022389121 -0.0023781885 -0.011041255 -0.40303212 -0.78498805 -0.47048786 0.0017513219
-0.019683463 -0.0034479531 -0.011518268 -0.37628582 -0.78082681 -0.49871683 0.0029168616
0.017984746 -0.002201756 -0.012111466 0.4865045 0.094068967 -0.86859906 0.0028977087
0.019691899 -0.0023767748 -0.011120705 0.50781572 0.13103785 -0.85144126 0.0027991009
0.021847153 -0.0027208473 -0.0098344199 0.555237 0.2137966 -0.803743 0.0042608832
-0.030618038 0.0016524184 -0.010163594 -0.475613 -0.735385 -0.48270208 0.0017273481
-0.028347509 0.00072745362 -0.010786006 -0.42880663 -0.77905142 -0.45738792 0.0023350173
-0.02587934 -0.00011748821 -0.011613052 -0.40630305 -0.73299789 -0.54555649 0.003828286
0.017167235 0.00097006536 -0.011853045 0.52876264 0.27115983 -0.80429 0.0023208107
0.019329291 0.00050904683 -0.010452366 0.55919749 0.33795866 -0.75702184 0.0027123964
0.021384006 -0.00053577987 -0.0093578137 0.59486783 0.3553839 -0.72099555 0.0020322686
-0.036319792 0.0050028628 -0.0095188059 -0.52615762 -0.70924193 -0.46918452 0.0036835484
-0.034242559 0.0042763371 -0.010544475 -0.4852671 -0.70214432 -0.52106541 0.0022888617
-0.031657431 0.0030598079 -0.011178255 -0.46206114 -0.72036046 -0.51728159 0.0029550723
-0.029454727 0.0022152949 -0.011926118 -0.46422261 -0.72356343 -0.51083589 0.0031791553
0.014575964 0.0045110029 -0.011877553 0.54986155 0.46508524 -0.69379246 0.00090413616
0.016528871 0.0036645469 -0.010913027 0.54592061 0.41389057 -0.72846782 0.0013607212
0.01859534 0.0029057406 -0.0098075736 0.56430215 0.45588124 -0.6882844 0.0010818713
-0.039436631 0.0075828969 -0.0097521162 -0.54475105 -0.64717031 -0.53330749 0.0014125826
-0.037251674 0.0067403163 -0.010762089 -0.52735305 -0.63952249 -0.55938339 0.0041692383
-0.035215985 0.0058913408 -0.011644531 -0.48256922 -0.60635453 -0.63202935 0.0033059714
0.011622701 0.0077221305 -0.011970047 0.52922386 0.50681663 -0.68048435 0.00058181689
0.013706837 0.0067088418 -0.011125677 0.53277975 0.48043972 -0.69665158 0.0011054984
0.015824176 0.0059198383 -0.0099145621 0.56357443 0.53029686 -0.63337904 0.00080338516
-0.042585712 0.010684121 -0.009933982 -0.55601788 -0.53876221 -0.63291353 0.0016743632
-0.040466454 0.0096250996 -0.010858409 -0.53427881 -0.56544638 -0.6283443 0.003735312
-0.038367268 0.0086951321 -0.011779987 -0.52595985 -0.56850493 -0.63258874 0.00057914795
0.0087188901 0.010785853 -0.01182018 0.52016306 0.58732849 -0.62006098 0.0013645556
0.010666432 0.009797994 -0.010978747 0.53438663 0.56695551 -0.62689114 0.0029634645
0.012744365 0.0088359592 -0.010118275 0.53500611 0.55777776 -0.63454896 0.00060214492
-0.045249004 0.013395399 -0.0097529087 -0.58903611 -0.49531084 -0.63851678 0.0021642363
-0.043277152 0.012632674 -0.010868708 -0.54184735 -0.45492318 -0.70671517 0.00078964274
-0.041361351 0.011855446 -0.011865436 -0.54442507 -0.45857039 -0.70236355 0.00096491462
0.0053141909 0.013578942 -0.011810955 0.46939954 0.61842936 -0.63024539 0.00055899756
0.0075841928 0.012643805 -0.010854085 0.50033748 0.65339249 -0.56810272 0.0016738398
0.0096768839 0.01176307 -0.009843179 0.54403579 0.61146569 -0.5745737 0.0012731543
-0.046315741 0.015818365 -0.010306317 -0.59494543 -0.40515041 -0.69418508 0.0013116496
-0.044238415 0.015190851 -0.011667548 -0.56668764 -0.35324141 -0.74436927 0.0014866292
0.0020127445 0.016391257 -0.011344052 0.46770349 0.70406032 -0.53437114 0.0017333757
0.0044373083 0.015188444 -0.010671481 0.49488112 0.67132711 -0.55173588 0.0019975349
0.0065110866 0.014410632 -0.0097512575 0.50431985 0.67793381 -0.5348525 0.0011607695
-0.048712779 0.018895691 -0.0098527046 -0.60948032 -0.32360008 -0.7237519 0.0018339976
-0.046618145 0.018477118 -0.011244422 -0.5531854 -0.25183335 -0.79408175 0.00092060858
-0.044802658 0.017350471 -0.012183134 -0.54227114 -0.26655912 -0.79679865 0.0013550038
-0.003408948 0.019548045 -0.011795025 0.43133089 0.72274745 -0.53999054 0.00182029
-0.0013716295 0.018776963 -0.011112364 0.44745386 0.7357626 -0.50836849 0.0014798973
0.00093628583 0.017858928 -0.010318926 0.48872626 0.71915513 -0.49392557 0.0015533923
-0.049239218 0.021689545 -0.010307724 -0.59133774 -0.18087557 -0.78587765 0.0017222388
-0.0470309 0.021386731 -0.011747723 -0.5353303 -0.13972235 -0.83300614 0.0012088014
-0.0092628431 0.022876857 -0.01179022 0.42179102 0.75562054 -0.50112867 0.00094106869
-0.0072780857 0.02224724 -0.011138259 0.43252119 0.75842363 -0.48756436 0.0010255806
-0.0046852273 0.021023925 -0.010755659 0.4431214 0.74652386 -0.49633205 0.0014612073
-0.0024698046 0.020379325 -0.0097059542 0.48287269 0.77143925 -0.41438553 0.0043554809
-0.051109958 0.024629246 -0.0093548829 -0.62138385 -0.077280879 -0.77968574 0.0017940104
-0.04934524 0.024553386 -0.010624239 -0.54885179 -0.046368692 -0.83463269 0.00260697
-0.047244761 0.024764635 -0.011952294 -0.50199747 -0.0044478332 -0.86485761 0.0014606741
-0.015444277 0.02606315 -0.012224201 0.38100469 0.74104601 -0.55288899 0.0014771707
-0.013105598 0.025358025 -0.011267213 0.4152081 0.78072053 -0.46698791 0.00072180602
-0.010528709 0.024320556 -0.010684449 0.42475522 0.78712559 -0.44723189 0.00046546996
-0.0082669025 0.023548471 -0.010087896 0.44720072 0.76766598 -0.45902127 0.0015171111
-0.051107273 0.02693676 -0.0093769692 -0.58463728 0.11313436 -0.80336779 0.0022958284
-0.049365669 0.027557874 -0.010450047 -0.51750559 0.14975686 -0.84247303 0.0020709119
-0.046930715 0.027793592 -0.011788107 -0.43802431 0.1773826 -0.88128883 0.0030449324
-0.020953119 0.028821832 -0.012127999 0.29782626 0.74742717 -0.59384525 0.0023126004
-0.019098978 0.02845636 -0.011226099 0.36558735 0.79965121 -0.47634426 0.0022403419
-0.016458772 0.027353406 -0.010823475 0.39962587 0.79892099 -0.44947127 0.00085956941
-0.013936564 0.026450876 -0.010155665 0.41581443 0.79035097 -0.44993758 0.00046656161
-0.049071465 0.03039919 -0.0098900115 -0.46832207 0.31079084 -0.82709348 0.0034012026
-0.04652983 0.030504199 -0.01109734 -0.36272585 0.36913714 -0.85566795 0.0038917407
-0.043686699 0.031180786 -0.011796236 -0.24814831 0.45540327 -0.85500312 0.0050653769
-0.040623423 0.031974807 -0.01203522 -0.13530575 0.59409356 -0.7929346 0.0018211998
-0.038606901 0.03202609 -0.012218792 -0.068912841 0.60850567 -0.79055148 0.0033958098
-0.0335619 0.032026373 -0.012215022 0.030684151 0.67528814 -0.73691553 0.0030927367
-0.031345677 0.031989347 -0.011953324 0.11392213 0.74747545 -0.65444803 0.0027591188
-0.028318314 0.031556703 -0.011760015 0.18153806 0.73416829 -0.65424836 0.0016690401
-0.025351074 0.031065535 -0.011138115 0.28166386 0.80548698 -0.52139825 0.0031330178
-0.022494907 0.030158056 -0.010853576 0.31363407 0.80001593 -0.5114764 0.0017803252
-0.020061297 0.02958197 -0.010051691 0.37191358 0.81470627 -0.44489777 0.0012448089
-0.048331197 0.032242604 -0.0094268359 -0.36274803 0.53152436 -0.76543832 0.0027817714
-0.046210967 0.032867257 -0.0099075362 -0.30117378 0.55063927 -0.77851838 0.0028288902
-0.04343034 0.033279255 -0.010440284 -0.18400301 0.61413521 -0.76745093 0.0022312256
-0.040426023 0.033764288 -0.010524761 -0.1089463 0.65520132 -0.74755734 0.0030273926
-0.037487186 0.033699874 -0.010744315 0.0096722413 0.72087872 -0.69299376 0.0018248332
-0.034483518 0.033490337 -0.010783553 0.069429129 0.76101953 -0.64500302 0.0034386716
-0.031562857 0.033182632 -0.010539925 0.17412362 0.8124128 -0.55647689 0.0014313473
-0.028571874 0.032635104 -0.010312321 0.23225836 0.80745643 -0.54228234 0.0021720775
-0.026143182 0.032208849 -0.0098620187 0.3142156 0.82512945 -0.46949974 0.0018917479
0.0049833553 -0.016463334 -0.0066718236 -0.25145379 -0.7787323 -0.57475823 0.0015183944
0.0077501554 -0.016777223 -0.0071722735 -0.17110762 -0.76317364 -0.62312776 0.0016887218
0.010648943 -0.01709266 -0.007340461 -0.09473145 -0.72587085 -0.68127638 0.0016899878
0.013590256 -0.017231926 -0.0074350145 -0.003240353 -0.68072402 -0.73253286 0.0012977913
0.016611561 -0.017238446 -0.0072612595 0.10364293 -0.62895578 -0.77050161 0.0016612625
0.019418947 -0.01697192 -0.0069284388 0.19923045 -0.57133216 -0.79617012 0.0018355887
0.021918498 -0.016602719 -0.0064880457 0.30159509 -0.49344501 -0.81581402 0.0015483593
-0.0034610236 -0.013189061 -0.0068577337 -0.41488138 -0.82817787 -0.37682205 0.0028309484
-0.001323925 -0.013586292 -0.0077128084 -0.31366494 -0.81081682 -0.49415612 0.002536871
0.0016079093 -0.0145614 -0.0078001888 -0.2650308 -0.80248255 -0.53458434 0.0023807564
0.0044892509 -0.015150577 -0.0081720445 -0.20672156 -0.76681054 -0.607674 0.0022316989
0.0073885694 -0.015413564 -0.0086197704 -0.11944099 -0.72777683 -0.67533314 0.0014162007
0.010544463 -0.01556015 -0.0088386992 -0.040723145 -0.68025452 -0.73184377 0.0012509174
0.013549207 -0.015559781 -0.0088491049 0.037826195 -0.63020724 -0.77550501 0.0011581369
0.016617963 -0.015282847 -0.0087682344 0.13048519 -0.58542424 -0.80015755 0.0010407643
0.019742161 -0.01467444 -0.0083648693 0.2357025 -0.50520128 -0.83019036 0.0014998817
0.022636386 -0.01444982 -0.0074130562 0.35482645 -0.41659525 -0.8369866 0.0031970376
0.024792779 -0.013920462 -0.0066741141 0.42962432 -0.33756077 -0.8375414 0.0023884117
-0.0094919112 -0.010396386 -0.0071378308 -0.39311132 -0.8405031 -0.3728514 0.002426489
-0.0074375737 -0.011029884 -0.0078055784 -0.36305761 -0.84565747 -0.3912195 0.0029600554
-0.004646562 -0.012115497 -0.0079770386 -0.37046587 -0.83949149 -0.3975035 0.0019589188
-0.0021685362 -0.01255364 -0.0088920034 -0.26622033 -0.76928294 -0.58080155 0.0013010439
0.020936124 -0.012549171 -0.009058509 0.34036437 -0.31391439 -0.88634634 0.0043202653
0.022779442 -0.011529796 -0.0085571716 0.45068738 -0.2626811 -0.85315853 0.0009747335
0.025367925 -0.011386648 -0.0071194214 0.48085868 -0.23558052 -0.84455717 0.00010326628
0.027102018 -0.010295639 -0.0064214799 0.52082825 -0.17136802 -0.83628404 0.0040695132
-0.015693493 -0.0071765701 -0.0078053656 -0.3887898 -0.86001992 -0.33046687 0.0019991787
-0.013525591 -0.0081785228 -0.007946793 -0.3912718 -0.85768414 -0.33359301 0.0027642713
-0.010723605 -0.0094041098 -0.0081331534 -0.38497055 -0.84994578 -0.3597081 0.003272251
0.023406669 -0.0086392947 -0.0089412816 0.49561495 -0.13022624 -0.858724 0.0017413434
0.025393249 -0.0084113218 -0.0078791138 0.51599407 -0.11052327 -0.84943205 0.0031048092
0.027475769 -0.0084838644 -0.0066480106 0.57895744 -0.056164417 -0.81342113 0.0080671245
-0.02138469 -0.0042380108 -0.0082612969 -0.4389959 -0.84837687 -0.29587042 0.0028644388
-0.019542145 -0.0051665418 -0.008060799 -0.43770573 -0.8386035 -0.32428056 0.0020883195
-0.017154124 -0.0062617068 -0.0084142573 -0.39163131 -0.85531586 -0.33920443 0.0017712428
0.023704965 -0.005386332 -0.0091257822 0.55098289 0.074207842 -0.83121055 0.005001748
0.025396381 -0.0053993189 -0.0078309234 0.58195901 0.11374698 -0.80522376 0.0043469328
0.027187437 -0.0060169254 -0.0065470668 0.63192368 0.15145944 -0.76008719 0.0067307446
-0.027570194 -0.0011136581 -0.0074866819 -0.45208359 -0.84488183 -0.2859987 0.0025788075
-0.025477851 -0.0020780736 -0.0081957048 -0.44480628 -0.84227961 -0.30448717 0.0026421419
-0.022812217 -0.0033682077 -0.0086058974 -0.43875673 -0.84866393 -0.29540154 0.0028413087
0.023131032 -0.002103305 -0.0085748471 0.59795791 0.27343079 -0.7534467 0.0018493861
0.025035037 -0.0026214761 -0.0071759811 0.63835424 0.31866536 -0.7006827 0.0013753396
-0.031483792 0.0012340865 -0.0080013825 -0.47756845 -0.831195 -0.28468099 0.0032592346
-0.029007616 -7.2253868e-05 -0.0084790923 -0.47482443 -0.82139212 -0.31600112 0.003803354
0.020758349 0.0014061662 -0.0089064809 0.61720467 0.39314106 -0.68154126 0.0011305058
0.022521576 0.00055782555 -0.0077722939 0.61457211 0.3851915 -0.68842465 0.0010755251
0.024462217 -0.00037777773 -0.0065212878 0.63478017 0.42422953 -0.64581996 0.00083675107
-0.036998313 0.0045244023 -0.0075450679 -0.52526873 -0.75879002 -0.38513699 0.0020119366
-0.034356281 0.0030152213 -0.0081421491 -0.49807212 -0.80550456 -0.32107106 0.0024828613
-0.032687251 0.0022392038 -0.0087555088 -0.50109506 -0.79186648 -0.34907189 0.0033963546
0.017706731 0.0050111329 -0.008927945 0.57340348 0.53653383 -0.6191445 0.00069247524
0.019813683 0.0037944173 -0.0079917554 0.6019851 0.4766736 -0.64062184 0.00099907501
0.021784641 0.0029046687 -0.0067875031 0.62384766 0.51265049 -0.58991826 0.0010044872
-0.04215318 0.0078324582 -0.0065780315 -0.59167302 -0.6946891 -0.40905991 0.0017462831
-0.040202748 0.0069408086 -0.0078565516 -0.56925929 -0.71092272 -0.41295624 0.0028813435
-0.038275924 0.0057466943 -0.0083238222 -0.53984892 -0.75488222 -0.37244588 0.0021642367
0.014928853 0.0077814371 -0.0090716816 0.57074267 0.5888716 -0.57226139 0.00070918031
0.016812734 0.0068754209 -0.0081140921 0.5812062 0.60229427 -0.547212 0.0013142908
0.018701404 0.005963454 -0.0072168265 0.58214957 0.55911767 -0.59032971 0.00077543821
-0.045528058 0.010922115 -0.0068860287 -0.63209248 -0.64412862 -0.43076375 0.0033065849
-0.043480676 0.0097644869 -0.0079163183 -0.59565324 -0.65116686 -0.47029665 0.0045184926
-0.041471172 0.0085965749 -0.0087704249 -0.59073591 -0.68215328 -0.43092686 0.0029063332
0.011464181 0.011016486 -0.0090468861 0.54189193 0.6182223 -0.56934553 0.00096287299
0.013753267 0.0098364279 -0.0080988333 0.55200589 0.66071248 -0.50867349 0.001827433
0.015922427 0.0087513467 -0.0070634875 0.57740432 0.65756071 -0.48396087 0.0013142091
-0.048338413 0.013715692 -0.0066769356 -0.65118736 -0.5597651 -0.51246285 0.00074979651
-0.046415858 0.012716649 -0.0078803962 -0.63647944 -0.56267452 -0.52753317 0.004061216
-0.04452794 0.011633536 -0.0090134377 -0.58608866 -0.55624998 -0.58914012 0.0010081362
0.0085838996 0.01368819 -0.008616861 0.54206789 0.71405017 -0.44305176 0.0035331794
0.01056606 0.012587467 -0.0078772744 0.54946715 0.70032275 -0.45566863 0.0032785188
0.012560241 0.011655977 -0.0069395336 0.55254149 0.69564784 -0.45909908 0.0019475213
-0.049114823 0.015787348 -0.0076264534 -0.66352028 -0.4694581 -0.58253747 0.0021035764
-0.047366042 0.014896225 -0.0087750107 -0.61919868 -0.42341417 -0.66129678 0.0013486199
0.0048139254 0.016511247 -0.0082187438 0.50911611 0.76526421 -0.39391801 0.0009713787
0.0073536942 0.01502165 -0.0077492832 0.52751195 0.74428779 -0.4095934 0.0014364255
-0.051657487 0.018898668 -0.0069114715 -0.68920803 -0.39269421 -0.60892004 0.0010628429
-0.05014405 0.018400583 -0.0083063245 -0.65117466 -0.35121158 -0.67277187 0.0016602826
-0.00047383155 0.019654697 -0.0087851221 0.47561786 0.80381501 -0.35730812 0.0022640394
0.0015853671 0.01876493 -0.0078359153 0.50498956 0.78356612 -0.36195269 0.0016059759
0.0039458238 0.017570883 -0.0070670042 0.4986693 0.78039777 -0.3772375 0.0013285307
-0.052223139 0.021741897 -0.007719676 -0.68444771 -0.23481604 -0.69021213 0.00087822072
-0.05060333 0.02081679 -0.0089610014 -0.65962911 -0.21549217 -0.72003657 0.0017953062
-0.0063275686 0.023035875 -0.0089509822 0.4369553 0.83132851 -0.34345752 0.0036919517
-0.0042359144 0.022152672 -0.0081911851 0.46706998 0.82102305 -0.32827848 0.002630912
-0.0016665469 0.020783395 -0.0078039831 0.47117484 0.81571388 -0.33556679 0.0019043972
-0.05423389 0.025026396 -0.0065970514 -0.7108075 -0.13689095 -0.68993729 0.0020569384
-0.052715387 0.024566244 -0.0079376586 -0.67296308 -0.12665866 -0.72875118 0.0022216295
-0.010093611 0.025494099 -0.0080619752 0.45509857 0.82342714 -0.33889979 0.0023188537
-0.0076564648 0.024170877 -0.0079926886 0.43791702 0.83452106 -0.33437005 0.0021643541
-0.0054332335 0.023302695 -0.0069511863 0.47118199 0.83063465 -0.29670462 0.001905557
-0.054218061 0.027574394 -0.0067205559 -0.68667901 0.034036655 -0.72616351 0.0022501131
-0.052480012 0.027667046 -0.0082143806 -0.61665392 0.090438746 -0.78202224 0.0026591371
-0.016143035 0.028501371 -0.0082917111 0.41480345 0.83593756 -0.35936952 0.00081963447
-0.013557432 0.027358929 -0.0079856822 0.4270457 0.82356751 -0.37332112 0.00093926396
-0.011565773 0.026471542 -0.0076235044 0.43486583 0.82749367 -0.3551704 0.0016092919
-0.054258246 0.029687321 -0.006407016 -0.64768362 0.21980777 -0.72951382 0.002857747
-0.052477844 0.030580474 -0.007596489 -0.58806664 0.26216993 -0.76514357 0.0024500927
-0.050373685 0.031111224 -0.008844398 -0.52341479 0.2805931 -0.80455232 0.0023819613
-0.022342905 0.031500105 -0.0079768971 0.376618 0.85660911 -0.35267508 0.0006554526
-0.019422295 0.030340506 -0.0076583894 0.38999966 0.8509376 -0.35186005 0.00089155714
-0.017027985 0.029394034 -0.0072682733 0.40462101 0.84672934 -0.34544373 0.0009645762
-0.051914822 0.033107623 -0.0068324199 -0.50965399 0.45432252 -0.73064619 0.0043417406
-0.049493153 0.033554908 -0.0079474514 -0.38084975 0.54296291 -0.74842811 0.0025171645
-0.046713024 0.034144338 -0.0087574041 -0.24911195 0.60992229 -0.75228864 0.0031625689
-0.043645978 0.034877066 -0.0089779161 -0.15383896 0.72349453 -0.67297041 0.0023224403
-0.041656498 0.035029054 -0.0092312284 -0.029909017 0.760423 -0.64873892 0.0033203089
-0.034601517 0.034902319 -0.0089065712 0.12784143 0.83131784 -0.54089481 0.0028246362
-0.031187288 0.03449741 -0.0084002828 0.20049475 0.84288138 -0.49935234 0.0021799067
-0.028554309 0.0339236 -0.0079209898 0.28191999 0.87646055 -0.39030492 0.0019996651
-0.02552836 0.032888878 -0.0078707132 0.32706633 0.86828661 -0.37296915 0.0010817781
-0.023328058 0.032459214 -0.006633285 0.37182444 0.86084282 -0.3474136 0.00076876557
-0.048906907 0.035371318 -0.0067373803 -0.33937889 0.65173519 -0.67827964 0.0022406026
-0.046396617 0.035793982 -0.0072344844 -0.22212096 0.71579814 -0.6620388 0.0023068769
-0.043396145 0.03617689 -0.0075009032 -0.10983892 0.79860121 -0.59175289 0.0029272109
-0.040506266 0.036257096 -0.0076663485 0.018868931 0.82550991 -0.56407219 0.0024498056
-0.03747806 0.036065426 -0.0076620998 0.077731617 0.83263648 -0.5483377 0.0033328875
-0.034391228 0.03567408 -0.00750296 0.17914824 0.86548191 -0.46781087 0.0015830103
-0.031884089 0.035319421 -0.0071572582 0.25196335 0.87665242 -0.40987214 0.0019152993
0.0082817506 -0.019368382 -0.0039008847 -0.28067589 -0.8094818 -0.51571339 0.0014669716
0.01070597 -0.019735094 -0.0042946013 -0.18660329 -0.78717232 -0.58782566 0.0020054819
0.013569059 -0.019967405 -0.0045943204 -0.09071783 -0.7603662 -0.64312792 0.0020213323
0.016518123 -0.020171428 -0.004513117 0.0037079239 -0.71954536 -0.69443554 0.0018393161
0.019519299 -0.020150982 -0.0043517305 0.083393611 -0.67222303 -0.73563701 0.00084604265
0.022458283 -0.019845558 -0.0040577729 0.21026443 -0.60207683 -0.77025473 0.0013661785
0.025012996 -0.019405166 -0.0035572781 0.31196865 -0.54672122 -0.77702731 0.0016500179
-0.00033686962 -0.015975634 -0.0034874114 -0.39139414 -0.84579241 -0.36255461 0.0023584017
0.0017830767 -0.016563864 -0.0044958806 -0.36532408 -0.84071803 -0.39966422 0.0024346339
0.0045785541 -0.017532226 -0.0047769793 -0.29982185 -0.8287459 -0.47253257 0.0028149728
0.0074243993 -0.018184531 -0.0052046864 -0.22977223 -0.81041861 -0.53891218 0.0029476632
0.01042543 -0.018503662 -0.005790073 -0.13325404 -0.74491662 -0.65371448 0.0011280555
0.013630245 -0.018678892 -0.0060559204 -0.042033471 -0.71042627 -0.70251524 0.0011981284
0.01665833 -0.018682696 -0.0059628421 0.05445946 -0.68369734 -0.72773075 0.0011705024
0.01968943 -0.018366283 -0.0058226413 0.14137946 -0.62817943 -0.76511598 0.0012060822
0.022697212 -0.017785085 -0.0054868194 0.23461705 -0.55661196 -0.79695553 0.0013774113
0.025598735 -0.0174533 -0.0045750351 0.34342837 -0.47793666 -0.80847597 0.0011939632
0.027845176 -0.01669606 -0.0037972457 0.46124718 -0.3865656 -0.79863518 0.0024903892
-0.004115839 -0.013645332 -0.0049429238 -0.39939386 -0.86090606 -0.3151592 0.0012559957
-0.0014805768 -0.01488425 -0.0049742972 -0.40698019 -0.85466367 -0.32236183 0.0011290653
0.0010671052 -0.015618065 -0.0057556783 -0.33412912 -0.84428883 -0.4189679 0.0037399917
0.025879124 -0.014751846 -0.005793781 0.42639014 -0.35153145 -0.83343691 0.0026440774
0.028355196 -0.01427445 -0.0044651879 0.51021248 -0.30676737 -0.80347812 0.00027033576
0.03009161 -0.013637234 -0.0034239523 0.52701008 -0.30167559 -0.79451382 0.00040959596
-0.0098164901 -0.010793982 -0.004963431 -0.42481261 -0.86986572 -0.25073472 0.00018802389
-0.0075666117 -0.011965672 -0.0047402363 -0.40917906 -0.86666316 -0.28542525 0.00060208602
-0.005923267 -0.012648502 -0.0053682658 -0.40300399 -0.86866432 -0.28811476 0.00065611314
0.026655581 -0.01239598 -0.0061097178 0.50581211 -0.24327536 -0.82762986 0.00044313181
0.028571948 -0.01148665 -0.0052536689 0.54982585 -0.18882723 -0.81365579 0.0029747984
0.030920051 -0.011520216 -0.0038603661 0.60011047 -0.15487927 -0.78478009 0.0085071018
-0.015722752 -0.0077601462 -0.0050432566 -0.41286051 -0.86067259 -0.29797468 0.0012635799
-0.013385241 -0.0089230817 -0.0052097272 -0.42272931 -0.86536705 -0.26914641 0.00092083996
-0.011517007 -0.0098531786 -0.0053247246 -0.42585069 -0.87244403 -0.23977652 0.00024742907
0.029154435 -0.0084247533 -0.005310805 0.6390242 0.051150344 -0.76748401 0.0049696285
0.030833982 -0.008814808 -0.0038164163 0.66305465 0.12147411 -0.73864919 0.0058098938
-0.021732558 -0.0044872253 -0.0060535255 -0.45056176 -0.84980017 -0.27355754 0.0017471727
0.028527826 -0.0053305691 -0.0050029201 0.67462069 0.27262968 -0.68597376 0.0019515933
0.030233897 -0.0060664886 -0.0036300502 0.69958562 0.28394198 -0.655711 0.00089338544
-0.024564475 -0.0030945777 -0.0053776833 -0.46342739 -0.85585946 -0.22965111 0.00074336521
-0.023145249 -0.0037912815 -0.0057518515 -0.45156723 -0.85060763 -0.26935795 0.0018137626
0.026322167 -0.0019285986 -0.0055625513 0.64926755 0.35076091 -0.67484707 0.0011903956
0.027919322 -0.002697295 -0.0043439385 0.68139243 0.37227029 -0.63017404 0.0011686913
-0.033438377 0.0018002454 -0.0051326486 -0.48409802 -0.84380901 -0.23159319 0.00041736086
-0.030174002 -6.4947875e-05 -0.0051371488 -0.4889878 -0.8340627 -0.25540257 0.0015018763
-0.029193636 -0.00053198007 -0.0058198008 -0.48010728 -0.84226722 -0.24511807 0.001520147
0.023759661 0.001446421 -0.0058847847 0.64646846 0.49206471 -0.58305293 0.00098541123
0.025492785 0.00055841601 -0.0047450308 0.66351014 0.43863431 -0.6060974 0.00069660682
0.027281698 -0.00029528257 -0.0034423205 0.67441368 0.47500697 -0.56527394 0.0011633837
-0.038030181 0.0045878505 -0.0059188935 -0.54296762 -0.7690838 -0.33718878 0.00095706183
-0.035712611 0.0031925801 -0.0058053168 -0.50605148 -0.80809611 -0.30148399 0.0016921177
0.020605158 0.0050499057 -0.0061603221 0.59377402 0.59351403 -0.54329872 0.0012845794
0.022718906 0.0037964259 -0.0049636159 0.63006377 0.57426554 -0.52272248 0.0016366546
0.024762971 0.0025880996 -0.0038515858 0.64334977 0.55176806 -0.53070998 0.0023709151
-0.042786527 0.0077110389 -0.0049155485 -0.60071468 -0.7231949 -0.34077984 0.00071599596
-0.040956777 0.0065369345 -0.0053368541 -0.57148284 -0.73626983 -0.36237296 0.00071376213
0.017818697 0.0078434702 -0.0060401889 0.57737643 0.62387669 -0.52670145 0.0012949286
0.019664736 0.0068718838 -0.004994656 0.60263318 0.66945851 -0.43434852 0.0009180631
0.021481421 0.0058592744 -0.0040178681 0.61493713 0.62653917 -0.47885391 0.0013727357
-0.045711856 0.010063807 -0.0049784812 -0.62246495 -0.67967367 -0.38804778 0.0015486665
-0.044010296 0.0087173358 -0.0051130634 -0.60039181 -0.72294426 -0.34187931 0.0006890549
0.01479217 0.010401158 -0.0061008069 0.57941413 0.69807285 -0.42068234 0.0033881953
0.016673414 0.0095538711 -0.0048268884 0.58206344 0.72474533 -0.36870906 0.00095952622
0.018519176 0.0085075907 -0.0040507349 0.58962756 0.69293767 -0.41494185 0.0013557649
-0.049059425 0.013077648 -0.0046664602 -0.66802484 -0.6311484 -0.39420113 0.0025012186
-0.047302008 0.011648003 -0.0052111703 -0.64758784 -0.66644335 -0.36943638 0.0010977988
0.011197916 0.013598192 -0.0049201706 0.54430753 0.79422665 -0.27006182 0.0015674712
0.013434635 0.012069855 -0.0047752997 0.55838889 0.75307816 -0.34795845 0.0016158015
0.015087057 0.011152899 -0.004175249 0.56371552 0.75351608 -0.3382872 0.0014724298
-0.051656641 0.016083477 -0.0045461562 -0.70869094 -0.53888977 -0.45536256 0.002442871
-0.050393805 0.014912272 -0.0051850746 -0.70221817 -0.58442318 -0.40661919 0.0018805722
0.0076801777 0.015873224 -0.0051532341 0.52715605 0.80624115 -0.26848051 0.0012589438
0.009843016 0.014592817 -0.0046918066 0.53744507 0.79685235 -0.2760056 0.0016258998
-0.054360934 0.019570723 -0.0040444555 -0.74305874 -0.46155807 -0.48459047 0.0019264343
-0.052869905 0.018358657 -0.0050019533 -0.73184264 -0.46770421 -0.49564016 0.0018466942
0.0020006718 0.019430131 -0.0050452384 0.51498336 0.81769985 -0.25721416 0.0003793028
0.0046646157 0.01778692 -0.0051459661 0.52511841 0.81184143 -0.25527254 0.0004107478
-0.055035219 0.021806462 -0.0045677833 -0.75563365 -0.31341699 -0.57514125 0.0022442848
-0.053723607 0.020965157 -0.0057348991 -0.73117 -0.28099322 -0.62163758 0.0016464252
-0.0035951645 0.022626605 -0.0051619243 0.4780511 0.84564275 -0.23739314 0.0001896333
-0.0012627334 0.021284612 -0.0052584922 0.4808192 0.83332628 -0.27272737 0.00040146112
0.00013562408 0.020431614 -0.005543414 0.48737079 0.82679653 -0.28085086 0.00024131268
-0.056980509 0.025451643 -0.0034294161 -0.78715044 -0.20227653 -0.58264768 0.0019686625
-0.055497058 0.024525493 -0.0050311992 -0.74352813 -0.16391724 -0.64830315 0.0015864618
-0.0096540991 0.026039099 -0.0052666697 0.47196144 0.85071087 -0.23139469 0.00017841063
-0.00756237 0.024890093 -0.0050007585 0.48070469 0.84365332 -0.2391067 0.00020194091
-0.0049990905 0.023502192 -0.0047892961 0.4790639 0.84515423 -0.23709078 0.00017413934
-0.056952324 0.026140695 -0.0036404463 -0.79050869 -0.10318505 -0.60369605 0.004226218
-0.055849161 0.027633011 -0.0050383587 -0.74843907 0.0082163755 -0.66315264 0.00093268405
-0.013684019 0.028193505 -0.0055849883 0.440896 0.84398812 -0.30544189 0.00075583451
-0.011033845 0.026695749 -0.00592998 0.4579733 0.82789183 -0.32381415 0.001689876
-0.056973167 0.030363163 -0.0034843914 -0.75213832 0.16626924 -0.63768524 0.0038758372
-0.05548453 0.030575061 -0.0050045787 -0.69635975 0.22056685 -0.6829592 0.0020434768
-0.053833164 0.031803243 -0.0060935351 -0.62113303 0.2764115 -0.73334187 0.0026184781
-0.021741258 0.032051645 -0.0058866176 0.37625408 0.86095607 -0.34232658 0.00072752131
-0.019464912 0.03126885 -0.0047883722 0.39996961 0.86079031 -0.3147448 0.00029669932
-0.016770471 0.029897863 -0.0050887722 0.40985456 0.84856814 -0.33459133 0.0006947323
-0.055080224 0.033311348 -0.0041408818 -0.61479461 0.43458265 -0.65815312 0.0035649489
-0.052867193 0.034034532 -0.0054924251 -0.47738647 0.54034305 -0.6929152 0.0036877617
-0.027925482 0.034758545 -0.0050523859 0.31534755 0.90035117 -0.29987279 0.0008649255
-0.02543148 0.033852417 -0.0049158428 0.33863801 0.89909446 -0.2774049 0.00032697868
-0.022624742 0.032675225 -0.0050513777 0.37182084 0.88681263 -0.27443159 0.00039835452
-0.052100584 0.035936903 -0.0043379306 -0.44207034 0.66099668 -0.6063475 0.0025267594
-0.04954059 0.03675212 -0.0047820476 -0.30691755 0.74434733 -0.59308404 0.0030403966
-0.046571877 0.037318144 -0.0052252612 -0.17299898 0.82039356 -0.54500067 0.0015010461
-0.043648165 0.037507709 -0.0056027109 -0.055447191 0.8580718 -0.51052761 0.0022104445
-0.040250625 0.037576366 -0.0054131942 0.057117403 0.89914179 -0.43391439 0.0028059925
-0.037441641 0.037412781 -0.0050509837 0.15348294 0.90865475 -0.38831633 0.0022029714
-0.034388293 0.036791358 -0.0049179825 0.21314453 0.91022384 -0.35505214 0.0022670208
-0.031319153 0.035949461 -0.0050640041 0.27315062 0.91195303 -0.30615422 0.0012170234
-0.029282922 0.035423424 -0.0045365626 0.30772176 0.9060722 -0.29041433 0.00099297671
-0.046170089 0.038288694 -0.0038328085 -0.13688749 0.85639226 -0.49784955 0.0022805498
-0.043559223 0.03825511 -0.0042040828 -0.013696858 0.89610338 -0.44363394 0.002373917
-0.040543325 0.038275946 -0.0039738277 0.091584474 0.91230899 -0.39912993 0.0015840457
0.011426774 -0.022187812 -0.00085967127 -0.29304758 -0.83672178 -0.4626227 0.0025856178
0.013654327 -0.022584444 -0.0011800337 -0.18808317 -0.80998558 -0.555471 0.0016942987
0.01663469 -0.022834657 -0.0015421123 -0.093984932 -0.78657562 -0.61029959 0.0017308919
0.019634623 -0.022855934 -0.0016385252 0.017288974 -0.74563462 -0.66613066 0.0017335936
0.022472857 -0.022873899 -0.0012777084 0.1309986 -0.6962145 -0.70577955 0.0017226461
0.02539641 -0.022579577 -0.00087692682 0.21899995 -0.63608301 -0.73989022 0.001504317
0.027697269 -0.022207187 -0.00046010641 0.31043935 -0.57701749 -0.75543243 0.001181146
0.0054151807 -0.019447574 -0.0016337591 -0.37562081 -0.84292465 -0.38521022 0.0021954484
0.0076001082 -0.020261804 -0.0018382915 -0.33548498 -0.83881122 -0.42877215 0.0028497609
0.010538161 -0.021219766 -0.0020014495 -0.22610795 -0.82166064 -0.52321023 0.0016691581
0.013306316 -0.021443233 -0.0026800456 -0.13260339 -0.78310269 -0.60759079 0.0012310394
0.01653186 -0.021617083 -0.0029666841 -0.045162816 -0.74563843 -0.66481847 0.001325135
0.019576956 -0.021615656 -0.0029965672 0.060667995 -0.71487242 -0.69661808 0.0011818416
0.022632575 -0.021250118 -0.0027997764 0.16861963 -0.66418767 -0.72830087 0.00096040691
0.025725191 -0.020727286 -0.0022585136 0.25549123 -0.59271884 -0.76381183 0.001394785
0.028493628 -0.020427343 -0.0013189241 0.34882683 -0.52760577 -0.7745657 0.0012652671
0.030575652 -0.019904228 -0.00058620749 0.44213417 -0.44479448 -0.77889359 0.001224949
-0.00081232027 -0.016191194 -0.0017799968 -0.41334796 -0.86095154 -0.29648927 0.0004291723
0.0016783634 -0.017491626 -0.0017791125 -0.41013473 -0.85251719 -0.32404304 0.00078412623
0.0042852201 -0.018631741 -0.002296187 -0.36370116 -0.8532297 -0.37379211 0.0025803964
0.026829598 -0.01879693 -0.0031719836 0.37490937 -0.46757039 -0.80051297 0.0030634007
0.028864805 -0.01782776 -0.0026219531 0.43708527 -0.40517643 -0.80298728 0.0011855746
0.031298816 -0.017351361 -0.0013015098 0.51343358 -0.35034826 -0.78335309 0.00066839939
0.033124287 -0.016318919 -0.00036704866 0.50465548 -0.35487196 -0.78701258 0.0007223193
-0.0059595136 -0.013177389 -0.0031245979 -0.41600233 -0.8604998 -0.29407844 0.00049433962
-0.0045532598 -0.013877967 -0.0031950804 -0.42657349 -0.86326349 -0.26983568 0.00030906653
-0.0022181752 -0.015312711 -0.0022936496 -0.41964313 -0.85828519 -0.29537466 0.0005086952
0.029642548 -0.01551936 -0.0031336579 0.50690365 -0.33920768 -0.79245627 0.00099762762
0.031577017 -0.014375053 -0.0022777882 0.54899615 -0.27376202 -0.78972 0.0031209702
0.034062568 -0.0142643 -0.00099920481 0.56308579 -0.22961107 -0.79385966 0.0078569502
0.032468002 -0.011449063 -0.0026245774 0.62778926 -0.033171345 -0.77767617 0.009897965
0.03413327 -0.011469938 -0.0010572332 0.66032624 0.052203603 -0.7491622 0.008312379
0.032103878 -0.0083024781 -0.0023281933 0.70421833 0.17994146 -0.68680245 0.0017602097
0.033560693 -0.0084037893 -0.00084061036 0.72039264 0.2349994 -0.65254092 0.0012947572
0.031509995 -0.0053940159 -0.0018026913 0.7101534 0.31290713 -0.63069105 0.00086296193
0.033111244 -0.0066523491 -0.00054514734 0.71992207 0.31675562 -0.61755824 0.0013642332
0.02922412 -0.0019631162 -0.0023648245 0.69343752 0.40610695 -0.59516507 0.00081463985
0.030739751 -0.0028269156 -0.0011620009 0.70619756 0.42024288 -0.56980771 0.00099190546
0.026545178 0.0015034664 -0.0027002576 0.6636613 0.52830064 -0.5295772 0.00073678547
0.028239267 0.0003897089 -0.0016055796 0.68396717 0.50125796 -0.53002763 0.000988352
0.023798808 0.0043924144 -0.0029068473 0.64511955 0.61199468 -0.45747486 0.0025860963
0.025575163 0.0034341738 -0.0016897963 0.65647316 0.62707269 -0.41931248 0.0008771781
0.027462905 0.0023019228 -0.00043785898 0.66139662 0.59523612 -0.45634252 0.001035547
0.02063497 0.0077689104 -0.0020428333 0.6015296 0.73516309 -0.31256598 0.001487885
0.022443341 0.0062850337 -0.0018742303 0.61576736 0.68234694 -0.39399645 0.0011520658
0.024304157 0.0052828207 -0.00074842898 0.62764627 0.67259264 -0.39201954 0.001121684
-0.046960358 0.010482205 -0.0030247453 -0.63232505 -0.68278921 -0.36601079 0.0012938411
0.01726347 0.010269724 -0.002197532 0.5654639 0.78011888 -0.26770344 0.0005572603
0.019288855 0.0089226104 -0.0017946861 0.58444458 0.749856 -0.31006554 0.0018966583
-0.051355753 0.014047464 -0.0015458944 -0.69251394 -0.65425265 -0.30393752 0.00082884758
-0.049382679 0.012377094 -0.0023329388 -0.67780721 -0.66847187 -0.30614191 0.00096157228
0.011890834 0.014061233 -0.0011456641 0.53767258 0.81646049 -0.21047677 0.00015307903
0.013657359 0.012812937 -0.0019211625 0.54044545 0.80359685 -0.24930054 0.00091198541
0.015623122 0.011445349 -0.0021225023 0.56300211 0.77713621 -0.28122589 0.00081704033
-0.05431816 0.016678749 -0.00042352406 -0.73256576 -0.59287739 -0.33443046 0.0023729007
-0.052787993 0.015700648 -0.0018049008 -0.69881403 -0.6255675 -0.34687784 0.0031601405
0.0085724872 0.015889084 -0.0025521549 0.52814931 0.81794226 -0.22809802 0.00053735514
0.010229382 0.014979398 -0.0017904225 0.53159922 0.82243794 -0.20247996 0.00016987872
-0.055105228 0.01869938 -0.0018968955 -0.75568956 -0.48874098 -0.43596509 0.0020569814
-0.053815585 0.017296782 -0.0025408301 -0.73966807 -0.5423466 -0.39843616 0.0019399592
0.006225504 0.017290553 -0.002688888 0.52684325 0.81313521 -0.24748218 0.00057918101
-0.057415146 0.022442138 -0.0013499986 -0.82255065 -0.33051229 -0.46278727 0.0041378504
-0.05634154 0.02127911 -0.0022672103 -0.79858702 -0.36939952 -0.47518712 0.0038729615
-0.057863209 0.024621831 -0.0018252763 -0.83034515 -0.24586138 -0.50007904 0.0016524222
-0.058247805 0.027632011 -0.0020068544 -0.83778787 -0.053747352 -0.54334402 0.0022885711
-0.058232367 0.030577932 -0.0018044598 -0.79797828 0.16843443 -0.57867128 0.0039790836
-0.057695244 0.033275723 -0.0013678307 -0.72521967 0.37638929 -0.57653064 0.0030713859
-0.056109194 0.034135442 -0.0026140679 -0.67820805 0.3988519 -0.6172123 0.0029276435
-0.026122365 0.034630351 -0.0028165611 0.33726111 0.89959711 -0.27745265 0.00029981145
-0.055233832 0.036005836 -0.0016509807 -0.52970928 0.64914942 -0.54590583 0.0033760588
-0.052699294 0.037249882 -0.0021955245 -0.38037533 0.78150243 -0.49453869 0.0012344233
-0.050257109 0.037905857 -0.002883676 -0.24493583 0.84406549 -0.4770323 0.0025462394
-0.035959415 0.037903987 -0.0029045972 0.19529933 0.9430896 -0.26914701 0.0017780158
-0.034629386 0.037705418 -0.0019755038 0.21888472 0.93603957 -0.27553478 0.0015167007
-0.031799328 0.03679942 -0.0021303999 0.27205941 0.9165014 -0.29327244 0.00095842947
-0.028735569 0.035728738 -0.0022971886 0.30486006 0.91436315 -0.26645905 0.00060109555
-0.052044179 0.038453259 -0.00071236072 -0.34954467 0.81924367 -0.45459688 0.0033904719
-0.049330782 0.038680002 -0.0018709037 -0.19958098 0.88909978 -0.41190895 0.0028298013
-0.046595812 0.039147511 -0.0017664358 -0.090928175 0.92485917 -0.36927971 0.001951448
-0.043431994 0.039132204 -0.0021000677 0.035311725 0.94693506 -0.31947929 0.0017090992
-0.040694043 0.039018851 -0.0017016688 0.12019217 0.95429116 -0.27364609 0.0015987084
-0.037893791 0.038434185 -0.0022245739 0.16641864 0.94935298 -0.26652166 0.001307193
0.014833711 -0.02520738 0.0026756194 -0.31555265 -0.85192299 -0.41791603 0.0025879785
0.016662769 -0.025363011 0.0020541339 -0.20081584 -0.83313245 -0.51532853 0.0025759297
0.019613238 -0.025607703 0.001762046 -0.084466159 -0.80440247 -0.58804941 0.001857106
0.022617377 -0.025626536 0.0016763131 0.022764681 -0.76271212 -0.64633745 0.0018141445
0.025406778 -0.02561591 0.0019857292 0.1327215 -0.70849979 -0.69311845 0.0015229769
0.02792656 -0.025366414 0.0023312648 0.22986954 -0.65784812 -0.71721399 0.0012242192
0.0086541018 -0.022335345 0.0021840599 -0.43454418 -0.85285103 -0.28951097 0.0073282495
0.0107603 -0.022866761 0.00094390893 -0.35190529 -0.84996855 -0.39206648 0.002702099
0.013604157 -0.024022363 0.0011865697 -0.29050067 -0.85173988 -0.43606025 0.001798688
0.016452754 -0.024312684 0.00051031262 -0.12733777 -0.81885141 -0.55970299 0.0015533066
0.019584708 -0.024380567 0.00017952593 -0.02908604 -0.77746969 -0.62824738 0.0013696279
0.022547785 -0.024366338 0.00025343057 0.075807787 -0.72695541 -0.68248737 0.0013918105
0.025627015 -0.02399035 0.00044406205 0.16901727 -0.6684835 -0.72426724 0.0010074322
0.028697159 -0.023583019 0.0010681599 0.26854947 -0.61987323 -0.73731834 0.0010217709
0.031378794 -0.02317702 0.0019375361 0.37338546 -0.52938432 -0.76179761 0.0027881064
0.033500973 -0.022514487 0.0026154784 0.4541758 -0.45485672 -0.76604813 0.00046908876
0.0047116592 -0.019757841 0.00051170262 -0.42463824 -0.85529065 -0.29691795 0.00018555058
0.0073958896 -0.021404164 0.0012758565 -0.37437949 -0.858706 -0.34994847 0.0013277151
0.0090861898 -0.021752248 -0.00011453358 -0.35791656 -0.8561331 -0.37273562 0.0014938586
0.029690832 -0.021600205 -5.0994568e-06 0.37509236 -0.48352492 -0.79089147 0.0029866323
0.031841118 -0.020668622 0.00060023321 0.48073238 -0.39814484 -0.78126627 0.0014139184
0.034156207 -0.020156048 0.0018537617 0.49920171 -0.39560336 -0.77090573 0.0012971498
0.0024831551 -0.018459419 0.00011312636 -0.40855071 -0.85470331 -0.32026324 0.00069760333
0.032675415 -0.01821691 -5.4511707e-05 0.49817538 -0.37394658 -0.78229487 0.0010455156
0.034474179 -0.017367292 0.00096116913 0.51190931 -0.34532398 -0.78657502 0.0018274263
0.036992848 -0.016898887 0.0019734376 0.5390299 -0.32236809 -0.77815521 0.0055683865
0.03538163 -0.014767472 0.0001251176 0.6096518 -0.13200149 -0.78160113 0.012562715
0.037270449 -0.014547633 0.0016872478 0.65966874 -0.059353456 -0.74920905 0.012244881
0.035505563 -0.01138626 0.00036679534 0.71229196 0.12795863 -0.69012082 0.0025818122
0.036840566 -0.011421366 0.0018474464 0.73395675 0.17603801 -0.65598637 0.0027916066
0.034909762 -0.0081736743 0.00082510803 0.73742491 0.27884227 -0.61518407 0.0013841275
0.036291886 -0.0087871887 0.0021863715 0.74566811 0.30208933 -0.5939033 0.00071139511
0.032693665 -0.0045377179 0.0001984355 0.73061156 0.35791233 -0.58146846 0.0003526689
0.034161594 -0.0056208768 0.0013548802 0.73620278 0.37537888 -0.56311291 0.0010913608
0.032009378 -0.0022355579 0.0010072514 0.70924932 0.46013743 -0.53407758 0.0010626154
0.033484552 -0.003461787 0.0019618417 0.7217285 0.43947464 -0.53476167 0.0013028447
0.02931986 0.00111187 0.00080385711 0.68252784 0.61154711 -0.40020722 0.001299512
0.030795969 2.6470516e-06 0.0016035601 0.69506449 0.56207168 -0.44828662 0.0014159335
0.026398368 0.0042043198 0.00095009059 0.649894 0.6698603 -0.35906121 0.0021855242
0.027928049 0.0030492647 0.0015628603 0.64630967 0.66905707 -0.36694211 0.0022167671
0.022813721 0.0071445596 0.00085784681 0.59331429 0.76135129 -0.26138529 0.00030089007
0.024963455 0.0056272829 0.0012688506 0.62964708 0.70109928 -0.33467057 0.0010586302
0.019586805 0.0093956292 0.00056085875 0.57747084 0.77404213 -0.25958869 0.00048745758
0.021462191 0.0084884372 0.0023007956 0.57939881 0.774903 -0.25263074 0.00038202622
-0.051277608 0.013621321 -0.000227693 -0.69251055 -0.65425414 -0.30394173 0.00083651673
-0.050818898 0.013153261 -0.00011912314 -0.68205804 -0.6659835 -0.30209759 0.00082123635
0.016642382 0.011273732 0.000139412 0.55170834 0.79238266 -0.26028383 0.00078664417
-0.057198841 0.019608406 0.0017524925 -0.80927318 -0.4824734 -0.33510634 0.001121255
-0.056028251 0.018454343 0.00064197835 -0.79831833 -0.48985198 -0.3503325 0.0010286162
-0.058159381 0.021699479 0.0009699557 -0.83023411 -0.44215131 -0.33943135 0.00098589552
-0.056942727 0.02022565 -0.00018084375 -0.79415715 -0.4869034 -0.36364743 0.0012580609
-0.060071684 0.025305899 0.0019726348 -0.87656766 -0.29259264 -0.38212383 0.0018925905
-0.059253484 0.02438741 0.00084606092 -0.87062818 -0.30124426 -0.38891956 0.0016806009
-0.060524777 0.02766593 0.0018237154 -0.89029896 -0.10565034 -0.44295114 0.0023567062
-0.05974327 0.027341314 0.00045753689 -0.86380959 -0.079027541 -0.49758184 0.002042739
-0.060515422 0.030504819 0.0017569284 -0.87672007 0.10119215 -0.47023618 0.0037717242
-0.059691962 0.030798616 0.00037151575 -0.83840483 0.11853241 -0.5320031 0.0029589531
-0.060163852 0.032746132 0.0019529429 -0.81093311 0.36899436 -0.4541263 0.0044925879
-0.058972854 0.033986703 0.00086590974 -0.77690351 0.38027197 -0.50181097 0.0040788306
-0.057684589 0.035994489 0.0011308072 -0.65498638 0.59795284 -0.46200144 0.0039552753
-0.055874038 0.037293002 0.00083221868 -0.48091298 0.76863146 -0.42181548 0.0013393795
-0.054687396 0.038421489 0.0015580696 -0.44141746 0.80175656 -0.40291056 0.0023455292
-0.052560806 0.0390843 0.0011533983 -0.30719995 0.87848765 -0.36590672 0.0018975289
-0.049393605 0.039816801 0.0010282723 -0.1387817 0.93573236 -0.32426003 0.001792104
-0.046487823 0.040169612 0.0012667445 -0.039630175 0.94821572 -0.31514487 0.0040621487
-0.04439535 0.040203102 0.0016240743 -0.0013749023 0.95275313 -0.30374247 0.0022456401
-0.040547244 0.039553005 0.00099207135 0.1107397 0.96103114 -0.25329009 0.0010907081
-0.037703287 0.038954146 0.00090612145 0.15355775 0.9596796 -0.23544683 0.00064458029
0.020174649 -0.02822564 0.0054453476 -0.19386634 -0.83955246 -0.50751102 0.0018352934
0.022811545 -0.028384136 0.0051968931 -0.072905101 -0.81171334 -0.57948786 0.0017499009
0.025656912 -0.028451988 0.0052410136 0.033007678 -0.77522147 -0.63082665 0.0016835165
0.028293686 -0.028343234 0.0054147807 0.13998708 -0.73270965 -0.66598815 0.001752925
0.030225512 -0.0282437 0.0057398048 0.20220624 -0.68759692 -0.69736874 0.002252504
0.013931666 -0.025644647 0.0043220348 -0.37740648 -0.85601556 -0.35327291 0.0031606907
0.016550396 -0.026565563 0.0042602257 -0.26928934 -0.8532626 -0.44657159 0.0037873916
0.019497881 -0.027114497 0.0039527365 -0.14916372 -0.83393681 -0.53131872 0.0031744202
0.022623004 -0.027185513 0.0035835975 -0.020782074 -0.79460597 -0.60676974 0.0010745673
0.025631659 -0.02711479 0.0036578397 0.079714745 -0.74251992 -0.66506368 0.0010666196
0.028607126 -0.026700255 0.0038396218 0.20143493 -0.67573911 -0.70908433 0.0022965341
0.031453326 -0.026406042 0.0044724424 0.26238301 -0.63286501 -0.72844839 0.00085136935
0.034118634 -0.025859522 0.0051844432 0.4092333 -0.54979086 -0.72818822 0.0011258605
0.0084389821 -0.02263649 0.0034868685 -0.45819914 -0.84937853 -0.26193425 0.00540588
0.010803106 -0.023973621 0.0038340441 -0.44118837 -0.85997707 -0.25650001 0.0048628589
0.012713779 -0.024766186 0.0032980111 -0.36298826 -0.86982495 -0.33413184 0.0029941655
0.032305431 -0.02432896 0.0031983848 0.36366418 -0.54286408 -0.75699854 0.0037228575
0.034781456 -0.02361005 0.00404649 0.4641113 -0.46737719 -0.75243562 0.00077038602
0.036915291 -0.022893999 0.0050137225 0.53240061 -0.4170942 -0.73660177 0.0011753298
0.035321582 -0.020999005 0.0030369726 0.4974795 -0.3902688 -0.7747286 0.0014497798
0.03744854 -0.02023915 0.0043198592 0.50864071 -0.40825096 -0.75803411 0.0013233633
0.04006708 -0.019423328 0.0051319445 0.58626473 -0.36143371 -0.72502363 0.0092749717
0.03783996 -0.017958386 0.003184861 0.55790275 -0.25147077 -0.79088992 0.010944687
0.040118027 -0.017482104 0.0044518108 0.67322725 -0.16104683 -0.72168481 0.013888502
0.038534917 -0.014368886 0.0030740849 0.71160829 0.042455625 -0.70129263 0.0066028656
0.039924279 -0.014456507 0.0045888885 0.75948018 0.16000073 -0.63054717 0.00076763285
0.038284849 -0.011294667 0.0036097872 0.75262898 0.21261312 -0.62317359 0.00075968535
0.039477155 -0.011653015 0.0049368036 0.76070464 0.26100111 -0.59431207 0.00085908535
0.03763276 -0.0083903894 0.0042016855 0.7560569 0.330327 -0.56503278 0.0010772932
0.035522651 -0.0050133001 0.0035161213 0.74645501 0.38877165 -0.54005682 0.00074950623
0.036795992 -0.0059015644 0.0046512051 0.74535978 0.42736655 -0.51166064 0.001390774
0.032762226 -0.0011559462 0.003342804 0.7060557 0.57856685 -0.4083451 0.00094014726
0.034435123 -0.0026984368 0.0042043212 0.73009408 0.50868106 -0.45629615 0.0013852312
0.031640787 0.00071224396 0.0042413217 0.66397756 0.67336464 -0.32513678 0.0012223535
0.033092089 -4.1567953e-05 0.0057198373 0.6941449 0.65097815 -0.30722994 0.0018595223
0.028644841 0.0035279694 0.0041590449 0.65146577 0.69126135 -0.31265002 0.0012550016
0.030130409 0.0023375812 0.0042921868 0.66135991 0.67858839 -0.31956357 0.0010105233
0.025718041 0.0057594092 0.0037564426 0.60671133 0.7544167 -0.25051335 0.00030551711
-0.057875272 0.019917583 0.003270444 -0.83023256 -0.44215959 -0.33942419 0.00097823539
-0.059397399 0.02209322 0.0039718715 -0.85800463 -0.42144248 -0.29362279 0.00082629087
-0.060765106 0.025054615 0.00402406 -0.90172499 -0.28108317 -0.32845744 0.0017335191
-0.059764966 0.023240333 0.0031856862 -0.86625367 -0.37723795 -0.32756072 0.0029877557
-0.061495211 0.027836883 0.0041142288 -0.92749667 -0.15346628 -0.34087828 0.0026585106
-0.06152229 0.030654436 0.0038461476 -0.92693001 0.059500467 -0.37048674 0.0025844744
-0.061008692 0.033533029 0.0041423435 -0.85346389 0.34680757 -0.3890039 0.0049539325
-0.060266208 0.035755776 0.0050930199 -0.72656614 0.58017296 -0.36810449 0.0047874125
-0.058719903 0.036639709 0.003835849 -0.64887369 0.65564525 -0.38612473 0.0056810342
-0.057607226 0.038118847 0.0048352745 -0.53641891 0.776209 -0.33129197 0.0029538795
-0.055336822 0.038985029 0.0038634804 -0.44624054 0.83737093 -0.31572023 0.0020057682
-0.052709647 0.039929621 0.0037844847 -0.3083705 0.90343958 -0.2978332 0.0025426794
-0.050556812 0.040396683 0.0036901799 -0.22844812 0.93312383 -0.2776536 0.0019855658
0.017503886 -0.028472209 0.0075053168 -0.34997025 -0.85464871 -0.38353136 0.0032283219
0.019590102 -0.028992048 0.0071777874 -0.25817549 -0.86164564 -0.43693495 0.0032223896
0.022493137 -0.029638752 0.0071455394 -0.134497 -0.84837908 -0.51201904 0.0029946198
0.02558366 -0.030045316 0.0072899475 -0.02608636 -0.81168085 -0.58351833 0.0012393664
0.028712787 -0.029843219 0.0072212317 0.12085849 -0.7578395 -0.64114934 0.0010970882
0.031488832 -0.029352333 0.0073414058 0.23783946 -0.69128555 -0.68231714 0.0010317244
0.034242105 -0.028914597 0.0079669729 0.30528188 -0.66373247 -0.68283397 0.00052814418
0.03666098 -0.028173747 0.0085173734 0.41881841 -0.58083725 -0.69801086 0.0016413315
0.013744447 -0.026458193 0.0070153638 -0.41255188 -0.8600325 -0.30024153 0.0013446389
0.016531598 -0.027685203 0.0066742138 -0.33113477 -0.87092018 -0.36310849 0.0033992089
0.032397356 -0.027783455 0.0060341326 0.24803428 -0.68009096 -0.68989503 0.001440282
0.034793854 -0.027000576 0.0065076058 0.35594949 -0.60489553 -0.71232104 0.0015274459
0.037447419 -0.026185261 0.0075023877 0.49766892 -0.47598886 -0.72509319 0.001514915
0.039544079 -0.025406232 0.0084843822 0.54650664 -0.44215602 -0.71121633 0.0016623311
0.0072837668 -0.022037784 0.0059112576 -0.47319874 -0.8553381 -0.21090209 0.00201063
