# .PCD v0.7 - Point Cloud Data file format
VERSION 0.7
FIELDS x y z normal_x normal_y normal_z curvature
SIZE 4 4 4 4 4 4 4
TYPE F F F F F F F
COUNT 1 1 1 1 1 1 1
WIDTH 559
HEIGHT 1
VIEWPOINT 0 0 0 1 0 0 0
POINTS 559
DATA ascii
-0.029679555 -0.045989066 -0.0048073563 -0.8519178 0.45225513 -0.2640101 0.0004396087
0.0076389564 -0.046780244 -0.0039725634 0.77760661 -0.5989176 -0.19137822 0.00024147368
-0.028519591 -0.043896679 -0.0046164799 -0.85006505 0.47806838 -0.22099778 0.00014583577
0.0087928409 -0.0450183 -0.0051261815 0.79141867 -0.5764221 -0.20345497 0.0012795859
0.0099885836 -0.043485828 -0.0040114778 0.82229477 -0.54064697 -0.17757313 0.00044779319
-0.026832836 -0.041251063 -0.0052989754 -0.83452684 0.48870248 -0.25443041 0.00077847223
-0.026393838 -0.040356681 -0.0048231813 -0.84146613 0.49343693 -0.22012427 0.00012665724
0.011621192 -0.040695738 -0.0045334827 0.83763301 -0.51158839 -0.19143741 0.0001133917
0.012607039 -0.039597988 -0.0027874443 0.85337418 -0.49442896 -0.1652045 0.00020278814
-0.025424777 -0.038904741 -0.0053305957 -0.83491939 0.51427138 -0.19604732 0.00062567624
0.01350333 -0.037578877 -0.0043809745 0.86242849 -0.47185791 -0.18321359 0.00031870007
-0.02312988 -0.035224721 -0.0044472548 -0.83675689 0.50857192 -0.20295908 0.00076265645
0.014665074 -0.035198629 -0.0047801766 0.87359357 -0.45383218 -0.17570044 0.00013960782
0.015637651 -0.033628747 -0.0037997249 0.87861955 -0.44446114 -0.17459057 0.00017898135
0.016351696 -0.032312471 -0.0035653347 0.88596708 -0.4341279 -0.16308089 0.00012024692
-0.019828323 -0.030038849 -0.0047450992 -0.82634878 0.52792472 -0.19606945 0.00080782146
0.017731551 -0.029123101 -0.0043763053 0.89667493 -0.40518522 -0.17832243 0.00017218843
0.018724643 -0.027324989 -0.0030533406 0.89459026 -0.40993446 -0.17793848 0.00017752495
-0.017469641 -0.026267558 -0.0050335261 -0.83797526 0.51297128 -0.18616636 0.0010137196
-0.016079256 -0.023945168 -0.0046047303 -0.84418273 0.50796688 -0.1712458 0.001292832
0.020541202 -0.022852086 -0.0045582484 0.89958203 -0.38611141 -0.20413291 0.00061151048
-0.014002232 -0.020235561 -0.003548387 -0.85997599 0.47953412 -0.17460917 0.00098956213
0.021705225 -0.019713894 -0.0047584805 0.89409924 -0.29423887 -0.33765358 0.0026026857
-0.011837986 -0.016414091 -0.0051578018 -0.86727178 0.44716832 -0.21881551 0.0014842086
-0.011379406 -0.015488609 -0.0047903392 -0.85063124 0.47056445 -0.2345113 0.00066690426
0.02264546 -0.016898803 -0.004727866 0.91895676 -0.22986344 -0.32043931 0.0016690562
-0.010437265 -0.013607476 -0.0049298937 -0.87947828 0.45239466 -0.14784108 0.0005454293
0.023609659 -0.013862582 -0.0042410623 0.92400014 -0.21910037 -0.31339863 0.0021131393
-0.009202756 -0.01096479 -0.0042023193 -0.88378954 0.43711558 -0.16687128 0.0010144621
-0.008574971 -0.0096326312 -0.0042724791 -0.89203054 0.41786414 -0.17225306 0.0013402693
0.024490844 -0.010581467 -0.0038782987 0.93877226 -0.19774105 -0.28214374 0.0017969334
-0.0076248054 -0.0077452427 -0.0048213135 -0.87392324 0.4143154 -0.25416705 0.0021995152
0.024975311 -0.0077173212 -0.0044320771 0.94091618 -0.17512538 -0.289841 0.0019866098
-0.0065817782 -0.0050538098 -0.0040761563 -0.9040159 0.36685383 -0.21948463 0.0017774374
-0.0057472237 -0.0035217842 -0.0048568728 -0.88639438 0.38629037 -0.25511715 0.0017461358
0.025465364 -0.0046143997 -0.0042880508 0.9463113 -0.12793684 -0.29686198 0.0032798706
-0.0057725268 -0.0023543974 -0.0031787786 -0.90948993 0.34553865 -0.23115171 0.0023507997
-0.0050979895 -0.0015517734 -0.0043166759 -0.89644104 0.36531374 -0.25087696 0.0021517552
0.025926571 -0.0014585126 -0.0039921822 0.93709117 -0.091015548 -0.3370108 0.0040897648
-0.0041332594 0.0013003876 -0.0040141195 -0.88774556 0.33655834 -0.31406415 0.0018215444
0.025948083 0.0014066766 -0.0044335434 0.91130805 -0.042334635 -0.40954289 0.0033517107
-0.0032559757 0.0040767277 -0.0037177783 -0.89587414 0.28952155 -0.33702654 0.0021866991
-0.0023446246 0.0052733989 -0.0050022188 -0.88300413 0.28123811 -0.37577775 0.0017722883
0.026177846 0.0045335693 -0.0040521179 0.91244364 -0.0094723869 -0.40909284 0.0027214789
-0.0029503861 0.00613089 -0.002730343 -0.93634164 0.22875485 -0.2663371 0.0014300749
-0.0019688492 0.0073987348 -0.0042463741 -0.87112767 0.28669381 -0.39867678 0.0012180418
0.026067864 0.0073841363 -0.0041126302 0.87985528 0.04632977 -0.47297809 0.0031294546
-0.0011005637 0.010442994 -0.0040289392 -0.84531903 0.26474723 -0.46405247 0.0023851974
0.025630837 0.010338147 -0.0041245893 0.78696531 0.14945203 -0.59862316 0.0022731277
-0.00049639249 0.013268596 -0.003629962 -0.83381933 0.24401435 -0.49517909 0.0030863811
0.00052825228 0.013774802 -0.0050055939 -0.7946288 0.27592397 -0.54076892 0.0028339592
0.023791926 0.014059822 -0.0052364701 0.71032149 0.20562461 -0.67317295 0.0014422444
0.025166128 0.013320123 -0.0039649033 0.76318192 0.1883025 -0.61813879 0.0024313503
-0.00012109855 0.016025566 -0.002909139 -0.80907959 0.22619994 -0.54242396 0.0025939425
0.0010946529 0.016394708 -0.0044835638 -0.76944512 0.25317737 -0.58639187 0.0019513632
0.023314867 0.016473714 -0.0048683947 0.61208802 0.25510773 -0.74851078 0.0018339158
0.024852045 0.0161075 -0.0034898403 0.71747386 0.23631124 -0.65527719 0.0016506062
0.0017601909 0.019334774 -0.0040132971 -0.71531349 0.27160227 -0.64386249 0.0044012438
0.0036335355 0.020383388 -0.0053378823 -0.62639636 0.30352047 -0.71798533 0.0022893597
0.020792285 0.020248309 -0.0052250596 0.50494814 0.32715741 -0.79874617 0.0007707912
0.02276228 0.019403439 -0.0041457582 0.58974206 0.29736134 -0.75085318 0.0011347231
0.024523076 0.018653043 -0.0028660458 0.68465364 0.26809406 -0.67777205 0.001415252
0.0024019722 0.022231214 -0.003551397 -0.63998222 0.28093362 -0.7151916 0.0020642933
0.0042287339 0.022541348 -0.0048919902 -0.48168704 0.31993222 -0.81585604 0.0046343799
0.018164741 0.02343291 -0.005280945 0.40411502 0.37981769 -0.83212352 0.00094091246
0.019999787 0.022460151 -0.0047809654 0.46016225 0.34463078 -0.81821775 0.0015654785
0.022280645 0.022204507 -0.0034053619 0.56988657 0.33507812 -0.75030112 0.0020811216
0.002863501 0.024899706 -0.0029373351 -0.66141391 0.28800908 -0.69251889 0.002757286
0.0048693246 0.025266934 -0.0041723154 -0.44152573 0.33560133 -0.83212191 0.0022922382
0.007425529 0.02592637 -0.0049852058 -0.23977934 0.39316714 -0.88765168 0.0019788928
0.010570953 0.026432358 -0.0052895998 -0.045539215 0.42052671 -0.90613657 0.0017285439
0.013918478 0.026315309 -0.0051637641 0.12814386 0.42505267 -0.89605206 0.0014430259
0.016944228 0.02560116 -0.0047086733 0.28545323 0.41710183 -0.86286879 0.001135319
0.019808264 0.025116622 -0.0036441917 0.47217506 0.38308972 -0.79390997 0.0014291544
0.02175425 0.024423134 -0.0027546796 0.55841106 0.37556964 -0.73967874 0.0013573649
0.0050441823 0.028098635 -0.003089658 -0.44157267 0.35070348 -0.82584542 0.0031258317
0.0076384074 0.02844429 -0.0039591473 -0.23519979 0.39555117 -0.88781774 0.0031933179
0.010684599 0.028414 -0.0044093286 -0.036975496 0.42422697 -0.90480071 0.0017914997
0.013743692 0.028427392 -0.0042109014 0.13419369 0.42706993 -0.89420545 0.001390827
0.016555734 0.028442465 -0.0034870291 0.29738605 0.41990283 -0.85746324 0.0016100913
0.018931961 0.027537089 -0.0029263913 0.43528211 0.41426304 -0.79932195 0.0013175434
0.0060091312 0.030184478 -0.0026183459 -0.43209317 0.39114982 -0.81258678 0.0035279614
0.0078480551 0.030850507 -0.0028970626 -0.20640653 0.40499887 -0.89071447 0.0025007077
0.010713745 0.03109128 -0.0031229495 -0.021104662 0.43340847 -0.90095043 0.0020251255
0.013622029 0.030903026 -0.0030106301 0.14420852 0.44374901 -0.88447201 0.0014343022
0.016044514 0.030380115 -0.002709873 0.31439713 0.44308192 -0.83954322 0.0019869287
-0.039077252 -0.072664104 0.00052055391 -0.42305091 -0.35263589 -0.83467114 0.014961836
-0.03707416 -0.07299915 -0.00033611385 -0.26886702 -0.61881483 -0.73809123 0.016822718
-0.034378711 -0.073141962 -0.00073927967 -0.052009784 -0.7361474 -0.67481989 0.016749
-0.031520311 -0.072645955 -0.0010490203 0.018072575 -0.79143661 -0.61098403 0.011160983
-0.029058138 -0.072558567 -0.00012841169 0.094786584 -0.85249978 -0.51406181 0.0022016848
-0.03942417 -0.070467331 -0.00023295311 -0.62780565 -0.19590393 -0.75331378 0.011513281
-0.037313037 -0.070742652 -0.0014634123 -0.43709403 -0.35601681 -0.82595444 0.0022350994
-0.034592722 -0.071442589 -0.0020776973 -0.19722161 -0.57282436 -0.79559785 0.0070378063
-0.03220934 -0.071721569 -0.0023736192 0.020043312 -0.77149916 -0.6359145 0.012111159
-0.028231179 -0.071803898 -0.0018640093 0.054986853 -0.86146718 -0.5048275 0.0019151861
-0.025391757 -0.071315959 -0.001960713 0.18124972 -0.88678461 -0.42516068 0.004411181
-0.022599354 -0.070729591 -0.0011929902 0.24962261 -0.88811994 -0.3859165 0.001987678
-0.020469673 -0.070019342 -0.0011954638 0.28308919 -0.89320743 -0.34934369 0.00069549185
-0.039375905 -0.067731977 -0.00049581239 -0.74571842 0.047830373 -0.66454232 0.014453263
-0.037915766 -0.067823432 -0.0018781847 -0.69494069 -0.072655983 -0.71538699 0.009062672
-0.018055944 -0.068900116 -0.0023107263 0.30374095 -0.86277032 -0.40418914 0.0025991271
-0.039165311 -0.065190844 -5.7080761e-06 -0.83839601 0.28427976 -0.46505612 0.011346499
-0.03807475 -0.064517133 -0.0015060795 -0.83712828 0.16170374 -0.52255929 0.014690378
-0.010032468 -0.064649373 -0.0023336145 0.48087952 -0.79795104 -0.36335802 0.0053810659
-0.037524588 -0.061840959 -0.00094935857 -0.88404763 0.25227687 -0.39346686 0.0059488933
-0.036341678 -0.0590971 -0.0014957101 -0.89026916 0.26457608 -0.37070242 0.0021499915
-0.035097826 -0.056001678 -0.0016728821 -0.89241832 0.31373131 -0.32428735 0.0041091498
0.0017673362 -0.054382026 -0.0013909373 0.73267633 -0.65436155 -0.18707313 0.00045549084
-0.033476263 -0.052033216 -0.0012552771 -0.88236594 0.38141853 -0.27559057 0.0016497894
0.0050683939 -0.050488696 -0.0023633572 0.74850798 -0.63494313 -0.19126709 0.00059660134
0.011201981 -0.041991532 -0.002398822 0.83062667 -0.52966493 -0.17179732 0.00032836254
0.014509656 -0.036341816 -0.0022454592 0.87071508 -0.46017161 -0.17348592 0.00017241581
0.014979146 -0.035391703 -0.0023233029 0.87025106 -0.46138832 -0.17257974 0.00019679595
0.015448471 -0.034441903 -0.0024011168 0.87866414 -0.44576168 -0.17101426 0.00017984316
0.01733621 -0.030667901 -0.002390835 0.89322937 -0.41697493 -0.16814619 0.00018220011
0.017833915 -0.02976802 -0.0017239782 0.89322984 -0.41697332 -0.1681478 0.00018508307
0.019473992 -0.025968216 -0.002055082 0.89547795 -0.40713575 -0.17988795 0.00021165422
0.024410132 -0.012263938 -0.0024617645 0.93986982 -0.22044514 -0.26086134 0.00077028113
-0.0095724473 -0.011335327 -0.001831803 -0.88569701 0.43615186 -0.15909846 0.00087097898
0.024904918 -0.01038587 -0.0020427438 0.95374107 -0.18485002 -0.237083 0.001375022
-0.007916905 -0.0075544408 -0.0019393298 -0.90065867 0.39518732 -0.18066809 0.0008598587
0.025393745 -0.0082660904 -0.0017462852 0.96388417 -0.17528076 -0.20050947 0.00019386756
-0.0067472635 -0.0044107628 -0.0012926492 -0.91541445 0.36158559 -0.17683958 0.00079531019
0.026171651 -0.0047312295 -0.00055116741 0.97153783 -0.12450776 -0.20152447 0.0011697785
-0.0059720348 -0.0020473292 -0.00043323962 -0.92477262 0.33894262 -0.17295544 0.00043281546
-0.005325126 -0.00046858098 -0.001493189 -0.93258363 0.3160201 -0.1744107 0.00060206908
0.026315998 -0.0025939113 -0.002138901 0.96765846 -0.10485876 -0.22943793 0.0022629506
-0.0048574451 0.0011869045 -0.0011360305 -0.93095565 0.31389168 -0.18653037 0.00065390393
0.02683682 0.0014228891 -0.0013167593 0.9743076 -0.089924775 -0.20649047 0.0018187973
-0.0039123311 0.004383211 -0.001009285 -0.93361938 0.27862516 -0.22521722 0.0013948119
0.026779164 0.0030702362 -0.0022901031 0.94515771 -0.078889258 -0.31694382 0.0049932785
0.027344566 0.0049784528 -0.00074074743 0.96268952 -0.065250084 -0.26262388 0.0022286247
-0.0031420132 0.0072222454 -0.0011078077 -0.94295532 0.23518664 -0.23563217 0.0016537342
-0.0024836801 0.0085019479 -0.0020965966 -0.92546767 0.25503409 -0.28012002 0.0020395175
0.027305873 0.0073348675 -0.0013823095 0.93953103 -0.0076165954 -0.34237903 0.0037394124
-0.0029746096 0.009260715 8.108886e-05 -0.93744338 0.21706316 -0.27218285 0.0022527967
-0.002301163 0.010365804 -0.0012461101 -0.91723311 0.23863055 -0.31896523 0.0014062735
0.026781961 0.010859071 -0.0022428962 0.87238556 0.083708495 -0.48159769 0.0036110841
0.027317064 0.010177528 -0.0011967802 0.88846022 0.086317025 -0.45076343 0.002665973
-0.0016716061 0.013287066 -0.0010972135 -0.89451778 0.21916537 -0.38962093 0.0011738699
0.026648294 0.013704252 -0.0018436974 0.84723622 0.14449744 -0.51118624 0.0015561443
0.027350584 0.013271152 -0.00064101303 0.8885988 0.10434868 -0.44665816 0.0030663682
-0.00096054969 0.016287405 -0.0011707488 -0.89013839 0.19326897 -0.41267526 0.0019633311
0.026336199 0.016453706 -0.0013504042 0.84033251 0.18316342 -0.51018876 0.0021426913
0.027403196 0.015672341 0.00023137219 0.8550092 0.1755293 -0.48800468 0.0014979688
-0.00054057856 0.019067246 -0.0007940582 -0.86942911 0.18110844 -0.45966598 0.0027942064
0.00044370611 0.020211514 -0.0021026584 -0.76630127 0.23500094 -0.59796071 0.0026437908
0.02569392 0.019337483 -0.0011019763 0.7729097 0.25450274 -0.58123916 0.0027064385
-0.00026950083 0.022014298 -0.00012933044 -0.83641917 0.18266359 -0.51675618 0.0034070716
0.00082106551 0.022638753 -0.0015912158 -0.79190987 0.23266017 -0.56457782 0.0021944975
0.023649944 0.022753198 -0.0019631269 0.65332127 0.31918249 -0.68650842 0.0010219021
0.02511804 0.022204459 -0.00063688867 0.73095614 0.29382032 -0.61593235 0.0013781323
-0.00012817916 0.024224684 0.0003780094 -0.7976402 0.19303271 -0.57140929 0.0021130366
0.0013586957 0.025409609 -0.001160149 -0.77184671 0.2217004 -0.59590411 0.0012622159
0.021115802 0.026196435 -0.0022872123 0.56414205 0.38191164 -0.73204315 0.0012705118
0.0229843 0.025448661 -0.0011830949 0.6070891 0.35501483 -0.7109201 0.0012004721
0.024641477 0.024776779 7.1158633e-05 0.7022236 0.32651132 -0.63267076 0.0013346541
0.0021431139 0.02816176 -0.00091137132 -0.67670214 0.27695698 -0.68217963 0.0032278844
0.0040835128 0.0291484 -0.0020993303 -0.4379757 0.37869176 -0.81533408 0.0032410054
0.017808903 0.029730335 -0.0023690793 0.31440598 0.44307092 -0.83954579 0.0019862421
0.02001901 0.028636944 -0.0017497339 0.47557735 0.40328476 -0.78178483 0.0015046484
0.022387931 0.027971476 -0.00041655032 0.59369248 0.38162178 -0.70844489 0.00211416
0.0026054252 0.031129308 -0.0001349668 -0.63846374 0.30917442 -0.70482284 0.0033248088
0.0048062024 0.031482905 -0.0014660917 -0.39148065 0.39839268 -0.82947344 0.0018197615
0.0073634824 0.032174062 -0.0021461814 -0.19203688 0.44807637 -0.87312627 0.0021751367
0.010730807 0.032561481 -0.0023703778 -0.0068953694 0.46970275 -0.88279766 0.0019387234
0.014118776 0.032262236 -0.0021690486 0.1584481 0.479274 -0.8632443 0.0013324043
0.016792925 0.031669393 -0.0016825798 0.30764395 0.47247651 -0.82590622 0.0010862241
0.019523993 0.031264793 -0.00056371046 0.46437702 0.43720636 -0.77019775 0.002136705
0.021711119 0.030274332 0.00031491043 0.57702386 0.43099466 -0.69374865 0.0014784497
0.0031957342 0.033485316 0.00039538415 -0.53680408 0.35173488 -0.76689243 0.0023389959
0.0050246222 0.034204796 -0.00031232368 -0.37335762 0.38518456 -0.84394133 0.0025670121
0.0076820371 0.03430992 -0.0011724583 -0.1773386 0.44516647 -0.87771165 0.0026768313
0.010750951 0.034285147 -0.0014814627 0.005790696 0.4758473 -0.87950879 0.0020357131
0.01383561 0.034314886 -0.0011114725 0.16375403 0.47679567 -0.86362636 0.0012128815
0.016528655 0.034202021 -0.00034902338 0.32998449 0.4768748 -0.81467831 0.0016217303
0.018702747 0.033555157 0.00027615996 0.44274181 0.47140813 -0.7627281 0.0012169282
0.0058854977 0.036247689 0.00030580815 -0.35507101 0.42531046 -0.83248758 0.0021336011
0.0078032119 0.036679838 6.8905298e-05 -0.17941085 0.46774188 -0.86546481 0.003604386
0.010782233 0.036767237 -9.933766e-05 0.024777448 0.48907116 -0.87189192 0.0017539331
0.013728879 0.036451481 9.5427968e-05 0.19791843 0.50361574 -0.84095156 0.0022550905
0.015539207 0.036090299 0.00031658681 0.32947889 0.50603765 -0.79710072 0.0013587
-0.039582614 -0.072242714 0.00085237296 -0.62655449 -0.28201282 -0.72656608 0.021972893
-0.037166722 -0.074224226 0.0010147924 -0.35078597 -0.61385721 -0.70719767 0.026626231
-0.034227364 -0.07456293 0.0016540554 -0.084572583 -0.75806731 -0.64666939 0.016225882
-0.031367548 -0.073564656 0.0011822549 0.062832579 -0.82576817 -0.56049895 0.0042409878
-0.040413883 -0.070221454 0.00084539177 -0.62653029 -0.28198892 -0.72659618 0.021981826
-0.040573373 -0.067466281 0.001277159 -0.90059787 0.099048942 -0.42321703 0.014828158
-0.039724723 -0.064826429 0.0017544334 -0.87351274 0.27538881 -0.40141812 0.01273414
-0.038802877 -0.062526256 0.0027646986 -0.89184934 0.32205477 -0.31762487 0.0028385927
-0.038207415 -0.061864443 0.0014307168 -0.89182633 0.32561192 -0.31404248 0.0016671343
0.027034611 -0.00046476629 0.0020222929 0.97630441 -0.11204566 -0.18513654 0.00085920142
-0.00488402 0.001911358 0.00096037658 -0.93818009 0.28467327 -0.19692442 0.00065023702
0.026967028 9.3588606e-06 0.00088137062 0.97630441 -0.11204543 -0.18513657 0.00085921807
-0.0041757887 0.0047697509 0.001398128 -0.9457323 0.25120929 -0.20611736 0.00089635287
0.027448673 0.0035756314 0.00098539563 0.96609724 -0.088089712 -0.24268565 0.0034079384
-0.0035874706 0.007638053 0.0020511043 -0.94976306 0.23124807 -0.21088938 0.00049293536
-0.0030876275 0.010403479 0.0021005599 -0.95547265 0.20698768 -0.21030483 0.00058980234
0.027915889 0.010228886 0.00085063931 0.91357446 0.035904024 -0.40508357 0.0014170994
-0.0023921106 0.013816866 0.001517192 -0.93777978 0.20295562 -0.28174141 0.0028026889
0.0279196 0.013321332 0.00091107097 0.88859665 0.10434097 -0.44666442 0.0030726749
-0.0020372414 0.016445439 0.001803088 -0.94215888 0.13987949 -0.30458236 0.0024966495
0.027810156 0.016680464 0.0017094114 0.88202566 0.17584522 -0.43716043 0.00090679736
-0.0016722998 0.019370161 0.0020465176 -0.92495894 0.14659226 -0.35065895 0.0017081033
0.026970766 0.019740608 0.00094450684 0.8580386 0.21014149 -0.4686259 0.0012252687
0.02772305 0.019139305 0.002365517 0.87798262 0.19806467 -0.43579456 0.0010515017
-0.001143911 0.022398047 0.0017560446 -0.91491163 0.1256554 -0.38359803 0.0022946952
0.026531529 0.022471994 0.00155805 0.85050833 0.24958569 -0.46297142 0.0018996298
0.027573364 0.02151132 0.0030527576 0.89186883 0.23291525 -0.38771179 0.0011770787
-0.00079096074 0.025319833 0.0020716712 -0.86548883 0.17509547 -0.46933004 0.0016671057
0.00034646003 0.026609972 0.0005564657 -0.79198474 0.19703133 -0.57787442 0.0023047719
0.025763284 0.025409136 0.0019974476 0.78877628 0.30791754 -0.53199512 0.0026030825
-0.00047380733 0.028261635 0.0024465802 -0.84207964 0.16159981 -0.51457489 0.0032671813
0.00050433568 0.028545912 0.00108852 -0.79865706 0.22299734 -0.55894458 0.0030832393
0.023691213 0.028690718 0.0012206575 0.70624715 0.36570531 -0.6061967 0.0011891284
0.025054971 0.028166208 0.002544425 0.75993383 0.33321533 -0.55809331 0.0024614376
-0.00025353872 0.031068597 0.0030936864 -0.79385501 0.20582484 -0.57221538 0.0029261503
0.0010691081 0.031409744 0.0015134211 -0.75040823 0.25013486 -0.61181694 0.0021915806
0.020543311 0.032324389 0.00074299844 0.54374927 0.45427036 -0.70567358 0.0012305685
0.02274278 0.031293459 0.0019503077 0.63372219 0.41331619 -0.65388519 0.0027477494
0.024486432 0.030611843 0.0033939001 0.74476379 0.36010677 -0.56182742 0.0032020514
0.0018109595 0.034324426 0.0019865613 -0.63680649 0.29075918 -0.71409851 0.0028678682
0.0039894604 0.035332788 0.00072628912 -0.40596488 0.41280389 -0.8153438 0.0041852156
0.017614661 0.035338208 0.00079187425 0.36333603 0.47227105 -0.80308586 0.0021739891
0.019806547 0.03461539 0.001648223 0.46370706 0.48388195 -0.7421819 0.00077553041
0.021854538 0.033815317 0.0027061556 0.59267884 0.45888191 -0.66193599 0.0015361519
0.0024189525 0.037141979 0.0027048462 -0.59100533 0.35951436 -0.72212338 0.0041132439
0.0047730817 0.037470113 0.0014527938 -0.33168438 0.45612675 -0.82579285 0.0021115728
0.00757229 0.038138404 0.00092615373 -0.13689531 0.50151831 -0.85424763 0.0018001319
0.010802741 0.038270373 0.00080671348 0.041328512 0.52292949 -0.85137349 0.0016180422
0.014003115 0.037923574 0.0011067726 0.19697532 0.53794169 -0.819646 0.0013235093
0.01681524 0.037443087 0.0018254002 0.37518635 0.52214116 -0.76590067 0.0018395494
0.019232431 0.03686465 0.0027826843 0.49316344 0.50629884 -0.70742589 0.00098049664
0.0030519427 0.039366759 0.0032845507 -0.52396578 0.41032526 -0.74638671 0.0025807493
0.0050542182 0.040180828 0.0027794275 -0.33893088 0.46210596 -0.81950229 0.0036440354
0.0077337357 0.040296379 0.00213745 -0.13119048 0.5052833 -0.85292315 0.0020071671
0.010591769 0.040285137 0.0020163506 0.031442016 0.53509432 -0.84420699 0.0011944249
0.013590535 0.040215645 0.0024847132 0.21792422 0.54116273 -0.81218958 0.0017199671
0.01630854 0.039627187 0.003081949 0.38635993 0.52305752 -0.75969523 0.0013996275
0.0079916697 0.042239565 0.003336092 -0.10072009 0.54519302 -0.83223802 0.0041864859
0.010429241 0.0422698 0.0033190311 0.069337338 0.56117392 -0.82478851 0.0017136155
0.012296654 0.042090505 0.0034426716 0.15528615 0.55711508 -0.81578732 0.0025692456
-0.040368065 -0.065120459 0.0042004255 -0.90034163 0.28537446 -0.32855204 0.0051995129
-0.0030147117 0.012965859 0.0047354191 -0.96094722 0.15481354 -0.22937596 0.00095841335
-0.0025307282 0.017017383 0.0041439724 -0.94755197 0.1162084 -0.29772612 0.0012700041
-0.0024692686 0.019624162 0.0050553135 -0.95253056 0.12222134 -0.27883226 0.0029567399
0.028112061 0.020364515 0.0040461686 0.91406792 0.19157 -0.35746422 0.00059736433
-0.0022983444 0.022334252 0.0050845905 -0.9530347 0.11449647 -0.28038454 0.0033780988
0.027986655 0.022445492 0.0049281088 0.89523971 0.23610003 -0.37789237 0.0013090344
-0.0019610224 0.025295068 0.0048565683 -0.94060546 0.10088225 -0.32416672 0.0024597079
0.027031299 0.02561073 0.0042741611 0.88155323 0.24733575 -0.40210566 0.0022671991
0.027725464 0.025002591 0.0055745807 0.89603645 0.24242334 -0.37195373 0.001598777
-0.0016339984 0.028404053 0.0048858472 -0.90550041 0.11893317 -0.40733749 0.0014968872
0.026231606 0.028527912 0.0046471343 0.84380078 0.31304547 -0.43589306 0.0013157633
0.027258348 0.027177952 0.0057993499 0.88760376 0.26237679 -0.3785736 0.0027062686
-0.0013011779 0.031364221 0.0051010544 -0.87753624 0.14625967 -0.45665985 0.0026079246
0.023790846 0.032555595 0.0038106111 0.65865415 0.41901642 -0.62498003 0.0014413381
0.025167927 0.031460881 0.0050319447 0.77735466 0.36421433 -0.51290113 0.0017664703
-0.00075617223 0.034228642 0.0050840811 -0.82890737 0.18612997 -0.52751136 0.0032138259
0.00034299574 0.034945346 0.0037730499 -0.74098432 0.23942798 -0.6273886 0.0023896382
0.023184005 0.034555562 0.0045791487 0.67185712 0.44609812 -0.59127361 0.00305962
0.024529828 0.03374026 0.005708681 0.74688327 0.41622511 -0.51857686 0.0018190758
-0.00048342324 0.037133068 0.0057776603 -0.77375478 0.22874494 -0.59074473 0.0044806595
0.0009974658 0.037573647 0.0041708988 -0.68959838 0.28545919 -0.6655578 0.0014411362
0.020117337 0.037818734 0.0041231322 0.49983096 0.51842362 -0.69383425 0.0010586008
0.022179702 0.036949553 0.0053655603 0.62477285 0.4753193 -0.61945987 0.00090131274
-0.00014072312 0.039471436 0.0062015126 -0.7067225 0.29954955 -0.64094722 0.0040298752
0.0017166068 0.040390685 0.0049191541 -0.54742604 0.38571942 -0.74266094 0.0017442793
0.0040124161 0.041339472 0.0039237109 -0.36066502 0.51267421 -0.77915716 0.0065674679
0.014815631 0.041519251 0.0037186262 0.23859358 0.5668022 -0.78854829 0.0018336771
0.017089428 0.040842593 0.0043164766 0.37982178 0.5574612 -0.73822248 0.0011616658
0.019622391 0.040021546 0.0053959941 0.52487355 0.51684576 -0.67629743 0.0017750579
0.021513609 0.038999215 0.0063025621 0.60654604 0.49322823 -0.62356061 0.00090234476
0.0023725296 0.043045282 0.0058508296 -0.51133984 0.42785388 -0.74530035 0.0036440322
0.0048976121 0.043423384 0.004813449 -0.30359638 0.50273174 -0.80937636 0.0039372658
0.0076891766 0.04372596 0.0043808375 -0.11192507 0.55713063 -0.82284766 0.003149719
0.010718798 0.043772046 0.004431834 0.083351687 0.59117901 -0.80222183 0.0012957087
0.013695821 0.04339914 0.0048220824 0.22519077 0.58926463 -0.77592289 0.0010764461
0.016528886 0.04301288 0.0057420661 0.39496279 0.5869109 -0.70678145 0.0011866386
0.018866882 0.041886106 0.0062984792 0.53443992 0.55054748 -0.64130449 0.0014267118
0.0051504448 0.045569867 0.0061259815 -0.30185297 0.52838308 -0.79353392 0.003925967
0.0078446604 0.045901131 0.0058758822 -0.064385615 0.5856331 -0.80801505 0.001779309
0.010581304 0.045790095 0.0058946633 0.10567787 0.60253853 -0.79106218 0.0014130832
0.013149792 0.045424283 0.0061945883 0.26316196 0.60170662 -0.75411868 0.0010618796
0.02827478 0.023622096 0.0066967872 0.91547233 0.21434166 -0.34054103 0.00072090857
-0.0025509635 0.025556695 0.0068280124 -0.96439868 0.031087661 -0.26261902 0.0024593116
0.028147476 0.025098376 0.0072402922 0.92434376 0.23950204 -0.2970311 0.00092207856
-0.0030557422 0.029107109 0.0094974898 -0.97443777 0.037407037 -0.22152145 0.0015465844
-0.0025563703 0.028253298 0.0075451699 -0.95624858 0.063734911 -0.28552842 0.001578462
0.026822384 0.029392987 0.0065681008 0.87173218 0.31061426 -0.37894824 0.0038762207
0.027587319 0.028238486 0.0078541897 0.92001116 0.26032001 -0.2929385 0.00072576705
-0.0023642613 0.031540055 0.0076302229 -0.93525535 0.085578747 -0.34347302 0.0015373587
0.026531084 0.031480465 0.0075879036 0.88209242 0.30838603 -0.35610548 0.0029261794
0.027449841 0.030044332 0.0090320967 0.89465797 0.29655969 -0.33412483 0.00247956
-0.0021733523 0.034506705 0.0079143699 -0.91028768 0.099393487 -0.4018673 0.001989665
0.025415847 0.034394752 0.0077952319 0.81507361 0.38716576 -0.43099618 0.0012079158
-0.0018364043 0.037366811 0.0080411974 -0.88500851 0.12502377 -0.44847414 0.0026650901
0.02347759 0.037837394 0.007699721 0.74027312 0.45451424 -0.49539137 0.0012379449
0.024810923 0.036736324 0.008827772 0.78578514 0.4187558 -0.45517612 0.001860434
-0.0011504182 0.040368594 0.0080031455 -0.77428555 0.25254467 -0.58026123 0.003529863
0.00033989432 0.04143846 0.0066526798 -0.67181355 0.31703308 -0.66944486 0.0063031856
0.020798534 0.041010514 0.0072214999 0.6415652 0.51213557 -0.57106155 0.001462417
0.022285273 0.040154792 0.008128034 0.68567234 0.49741748 -0.53144073 0.0023766498
-0.00065677473 0.04317937 0.0085722525 -0.69635475 0.30996221 -0.64731258 0.0040187738
0.0010352739 0.043630753 0.0071724006 -0.57008272 0.37464717 -0.73119432 0.0046964749
0.017249234 0.044075839 0.0070915739 0.40696734 0.59165061 -0.69593614 0.00096338458
0.019683132 0.043061379 0.0080543477 0.54304349 0.55326551 -0.63166535 0.0013084423
0.021649504 0.042167783 0.0092369579 0.64362615 0.52828807 -0.55376631 0.0011764433
-0.00014712273 0.045309655 0.0091724955 -0.67703986 0.36270773 -0.64035934 0.0060401927
0.0017868163 0.046115555 0.0081288517 -0.45374203 0.47455016 -0.75426805 0.0044053462
0.0047940691 0.046962436 0.0072657657 -0.22666383 0.57928306 -0.78297812 0.0024325049
0.0077188793 0.047451429 0.0071011842 -0.04522156 0.61876392 -0.78427434 0.0018091412
0.01082629 0.047334351 0.0071750605 0.12111541 0.63449264 -0.76338071 0.0011706299
0.013758826 0.046618786 0.0074000168 0.28148374 0.61684895 -0.73502678 0.0013939352
0.016477078 0.045990154 0.0082313586 0.41236919 0.61476386 -0.67232215 0.0019770071
0.018648531 0.045467019 0.0092896372 0.53899688 0.58980387 -0.60134333 0.0015729169
0.0024356637 0.048293769 0.0091500953 -0.41933694 0.51467448 -0.74784142 0.0024351645
0.0047454098 0.048836175 0.0087001845 -0.22688048 0.58968025 -0.77511442 0.0031317857
0.0078326883 0.049105115 0.0084596388 -0.029881516 0.63647109 -0.77072144 0.0020990458
0.010650829 0.049062707 0.0086712893 0.14724134 0.65007168 -0.74547088 0.0015796826
0.013339762 0.048388984 0.0088392757 0.29165423 0.65351564 -0.69846624 0.0013387706
0.015356247 0.047992304 0.0093478821 0.39952326 0.62188518 -0.67352796 0.0015477655
-0.0030599344 0.022589035 0.0099840574 -0.98307699 0.025108054 -0.18146396 0.00057036057
-0.0030580575 0.025488038 0.0097662173 -0.97694165 0.036538385 -0.2103567 0.0014040611
-0.0030575029 0.028247792 0.0097018387 -0.97443742 0.037411671 -0.22152245 0.0015465199
0.02799581 0.028659225 0.010056999 0.92191738 0.25063851 -0.29537892 0.00081139209
-0.0031316162 0.031514071 0.010218225 -0.97298121 0.026953934 -0.22930562 0.0016936838
0.027004063 0.03251414 0.0096919201 0.91475987 0.29798409 -0.27279982 0.0012169422
0.027549176 0.031132523 0.010709034 0.9147557 0.2979925 -0.27280489 0.0012216175
-0.0033134143 0.034322985 0.011123892 -0.95450109 0.029073866 -0.29678658 0.0022169864
0.026495557 0.034532033 0.010691376 0.89704245 0.33684045 -0.28610039 0.00084407924
-0.0033146844 0.03725395 0.011270221 -0.94173324 0.024909222 -0.33543724 0.0018886231
-0.0025724 0.038088299 0.0096713863 -0.87853813 0.10845526 -0.46519697 0.0026119603
0.025475051 0.037375309 0.010984045 0.86521077 0.37692142 -0.33066693 0.0021567326
-0.0032966693 0.040104672 0.011732653 -0.90019298 0.088958971 -0.42630845 0.0026200204
-0.0024681825 0.040583141 0.010143271 -0.8698197 0.15714365 -0.46767455 0.0023437333
0.023575243 0.040678807 0.010595763 0.76195168 0.47089189 -0.44462398 0.0017859121
0.024794232 0.039337657 0.011446681 0.81686157 0.43811744 -0.37522027 0.0021536362
-0.0030774155 0.043165464 0.012012934 -0.84886837 0.16865209 -0.50097799 0.0028321072
-0.0020368169 0.043583013 0.010583693 -0.81473476 0.22067207 -0.53620052 0.0020452505
0.020592738 0.044119891 0.0099870488 0.58889192 0.56835246 -0.57461447 0.0014471381
0.022289788 0.043149523 0.011230782 0.72244471 0.51375663 -0.46273935 0.0033973835
-0.0013030649 0.046372853 0.010998555 -0.74086195 0.31106287 -0.59528434 0.0012494089
0.00049815251 0.047390774 0.0097616278 -0.60598707 0.42299387 -0.67368823 0.0017583291
0.017319286 0.047303751 0.010026269 0.43969974 0.64040947 -0.62971407 0.0013707357
0.019512095 0.046374623 0.011080317 0.59733868 0.60245681 -0.52936971 0.0014589201
0.021543782 0.045134954 0.012216296 0.66702193 0.55884385 -0.4927223 0.0015108899
-0.00064031483 0.048973761 0.011821965 -0.59719187 0.45429596 -0.66104233 0.0030381475
0.0013716191 0.049535315 0.010718219 -0.4286314 0.52758455 -0.73343688 0.0061236704
0.0043380708 0.050235841 0.0099043995 -0.19239804 0.63764238 -0.74591893 0.0022648165
0.0078501729 0.050440878 0.0095765665 -0.013832605 0.66932976 -0.74283665 0.0019295476
0.011008648 0.05035739 0.0099071376 0.16182148 0.67650741 -0.71843684 0.0013313225
0.013914104 0.049878638 0.01052223 0.31121904 0.66082817 -0.68297058 0.0013968152
0.016411828 0.049113635 0.011261757 0.44682634 0.65443492 -0.60996819 0.0021617122
0.018365417 0.048279092 0.011984255 0.55207866 0.60957247 -0.56888545 0.0015027894
0.002017214 0.05155145 0.011930782 -0.3757014 0.59332049 -0.71191233 0.0024073005
0.0048056901 0.052014247 0.011361046 -0.18225171 0.66255856 -0.72649878 0.0029784963
0.0078738676 0.052073896 0.011089742 0.0056998008 0.69692433 -0.71712202 0.0020428691
0.010670635 0.051925167 0.011317473 0.18513207 0.70138264 -0.68832296 0.0015634957
0.013408595 0.051516999 0.011888262 0.33078048 0.684457 -0.64969438 0.0010392012
-0.003578074 0.029366672 0.013384636 -0.98352355 -0.013172941 -0.18029928 0.00030935157
-0.0035737311 0.031045578 0.012936594 -0.97977704 -0.0040219608 -0.20005175 0.0007254114
-0.0040786611 0.034583714 0.014475347 -0.98484522 -0.047907177 -0.1666878 0.0016037408
0.026960563 0.034726433 0.0131489 0.90061396 0.34446898 -0.26501992 0.0010754234
-0.0042398553 0.037750967 0.014248554 -0.95971316 -0.039403517 -0.27820486 0.0020161779
0.026266601 0.037386507 0.013825523 0.89107496 0.37912887 -0.24949285 0.0018367934
-0.0042643896 0.040531766 0.014180178 -0.94116712 0.0066276831 -0.33787647 0.0024958251
0.024884652 0.040822882 0.013922509 0.87257314 0.40155339 -0.27815619 0.0036591289
-0.0040753293 0.043367855 0.014091635 -0.90479618 0.097818591 -0.41445804 0.0027718928
0.023279965 0.043779187 0.013794698 0.80541337 0.47967216 -0.34817225 0.00040727746
0.024359565 0.042457245 0.014811706 0.85742849 0.42582837 -0.28894031 0.0039187619
-0.003585611 0.046306681 0.014099803 -0.80090451 0.25008211 -0.54406887 0.0029245242
-0.0025959483 0.04690282 0.012794869 -0.76210958 0.26974285 -0.58858109 0.0034478521
0.020466108 0.047240745 0.013219185 0.67015392 0.59955186 -0.43752855 0.0019474371
0.021968441 0.04595365 0.014003934 0.73905373 0.5434131 -0.39812276 0.0020556094
-0.0032855882 0.048893847 0.014815286 -0.77294207 0.31543684 -0.55050898 0.0038586098
-0.0018930045 0.049521435 0.013513021 -0.68865913 0.37940976 -0.61789715 0.0027882594
0.017364435 0.050152175 0.013161115 0.49689883 0.64607865 -0.57937378 0.0019343428
0.019352665 0.049070258 0.01407495 0.64339828 0.60909444 -0.46372688 0.0012190999
-0.0010775186 0.051990435 0.014383724 -0.56983107 0.50036621 -0.65186363 0.003801299
0.0012840879 0.05269096 0.01328529 -0.34686017 0.60259849 -0.71872318 0.0035972344
0.0044349907 0.05360594 0.012918007 -0.14711754 0.68114942 -0.71721119 0.0022589818
0.007900374 0.053735793 0.012780504 0.032236278 0.71174353 -0.70169932 0.0018126448
0.010970559 0.053440567 0.013031585 0.19384201 0.72117579 -0.66507947 0.0011022453
0.014002061 0.052811798 0.013676954 0.35307384 0.70051533 -0.62017512 0.0013582613
0.016521284 0.051776707 0.014273115 0.4838492 0.68096995 -0.54969984 0.0016237628
0.018500542 0.05111362 0.015469369 0.63675827 0.62956488 -0.44518182 0.0016685363
-0.00016033406 0.054040402 0.015305843 -0.52848077 0.55982721 -0.63820183 0.0036121651
0.0017742589 0.054506417 0.014650423 -0.32165578 0.66125447 -0.67770207 0.0029557124
0.0047944803 0.055120543 0.014327565 -0.11279897 0.7246111 -0.67986411 0.001474129
0.0079235146 0.055139534 0.014260223 0.054123014 0.73406005 -0.67692435 0.0021137649
0.010867817 0.054762207 0.014514705 0.22499549 0.73656654 -0.6378454 0.0015051321
0.013162532 0.054142646 0.014797758 0.3718985 0.72362977 -0.58142197 0.0012611294
-0.0043466366 0.034250163 0.01646341 -0.98292977 -0.052216034 -0.17641558 0.0015861792
-0.0048115994 0.037290771 0.017112592 -0.97487283 -0.12386902 -0.18514699 0.0024680058
0.026366094 0.037866756 0.015615609 0.91417122 0.35061407 -0.20337333 0.00026519134
-0.0052174092 0.040466364 0.017197214 -0.9632414 -0.075570658 -0.25778875 0.0026854309
0.025961719 0.039480165 0.017197099 0.90357286 0.36956984 -0.21673526 0.00082329486
-0.0053414423 0.043182023 0.017247517 -0.94478089 -0.001556023 -0.32769901 0.0035469052
0.023958756 0.044348583 0.016581144 0.81417578 0.49056488 -0.31058642 0.00076407567
0.02444531 0.043353274 0.016470339 0.85360748 0.44225824 -0.27524871 0.0039549707
-0.0050922362 0.046280012 0.01701051 -0.90622485 0.099977963 -0.41080505 0.0021837747
0.022555145 0.046673946 0.016628765 0.7952764 0.51983804 -0.31193557 0.0010619885
-0.0043508005 0.049467038 0.016795404 -0.81370229 0.27535418 -0.51192641 0.0025248777
0.020466357 0.049784366 0.016765518 0.74372625 0.56720251 -0.35376918 0.0011662579
0.021676745 0.048323218 0.016917096 0.76343459 0.55519879 -0.33003324 0.0016599065
-0.0037629716 0.052091829 0.017428132 -0.73109633 0.37798858 -0.56799895 0.003459129
-0.0021746811 0.053030014 0.016194278 -0.60674089 0.46432346 -0.64518929 0.0061901286
0.017151188 0.053051386 0.016628882 0.51745331 0.70635849 -0.48301116 0.0029437004
0.019060817 0.051734433 0.017202774 0.66600102 0.63497406 -0.39147231 0.0028551568
-0.0031294778 0.054125242 0.018055376 -0.63485104 0.4902285 -0.59719354 0.0034790009
-0.001215095 0.055121146 0.017154511 -0.50066829 0.58071554 -0.64195067 0.006296881
0.0013406349 0.056100436 0.016511567 -0.27566221 0.69588858 -0.66313612 0.0019185973
0.0045693391 0.056509946 0.015912134 -0.10762601 0.74666846 -0.65643179 0.0017869178
0.007947701 0.056558389 0.015809154 0.069638051 0.767708 -0.63700467 0.0018515352
0.011049489 0.056276709 0.016360786 0.2338589 0.76295191 -0.60267276 0.0012092944
0.013853288 0.055395667 0.016881246 0.39480126 0.7274 -0.56126755 0.0012983264
0.016402181 0.054329634 0.017703639 0.56378508 0.70452005 -0.43104276 0.0017048311
-0.00041372987 0.056862663 0.018223967 -0.43956438 0.64789283 -0.6221078 0.0024159085
0.0018535077 0.057585713 0.017905345 -0.26297712 0.7184543 -0.64394605 0.0024994866
0.0046103876 0.057715956 0.01737025 -0.091495991 0.77543199 -0.62476689 0.0016842858
0.0077994918 0.057766411 0.017369064 0.082806401 0.796772 -0.59857941 0.0019770276
0.010693692 0.05746631 0.017790897 0.25101483 0.78672349 -0.56396604 0.0014274287
0.013175395 0.056874935 0.018321123 0.41772458 0.75805604 -0.50085646 0.0023340993
-0.0046343855 0.035017185 0.020021837 -0.97885996 -0.14989871 -0.13915297 0.00094502541
-0.0052993963 0.037602581 0.020282265 -0.97546363 -0.16588199 -0.14475471 0.0010785984
-0.0061381441 0.041313201 0.021069374 -0.97249031 -0.15615155 -0.17285617 0.0016946491
-0.0056181503 0.039924983 0.01943538 -0.97397202 -0.15578215 -0.1646525 0.0017383824
-0.0062484299 0.043709103 0.020138185 -0.96574765 -0.080362722 -0.24672508 0.0031436335
-0.0063746236 0.046450827 0.020268437 -0.93904281 0.030170137 -0.34247386 0.0036833419
0.02311461 0.047112688 0.019478437 0.81333292 0.52078688 -0.25936583 0.00053157768
-0.0062958822 0.049209423 0.020537054 -0.91823328 0.10220786 -0.38262412 0.0022765668
-0.0055404105 0.049458876 0.018927706 -0.88136172 0.17262745 -0.43977413 0.0021166452
0.02117664 0.050691202 0.020466771 0.78440589 0.56252652 -0.26128784 0.00058184291
0.022130556 0.048861798 0.019619603 0.79485023 0.5439083 -0.26902938 0.00069050636
-0.0061379382 0.051751576 0.021055724 -0.85669571 0.24116901 -0.45597142 0.0034716928
-0.0051590689 0.052569147 0.019802151 -0.82038051 0.29326507 -0.49088845 0.001597226
0.019642668 0.052303422 0.019379839 0.69339174 0.63902426 -0.33295017 0.0025585156
-0.0040040649 0.055266906 0.020048225 -0.69638497 0.45740879 -0.5530147 0.0058269771
-0.0023128046 0.056133199 0.018979048 -0.51005125 0.59185809 -0.6241408 0.0013588584
0.01501512 0.056328211 0.019220417 0.52677423 0.74533504 -0.40863734 0.0017176336
0.016868891 0.055310667 0.019962406 0.62386733 0.69195592 -0.36329955 0.00046383819
0.018729828 0.054276019 0.021383014 0.68365133 0.65589708 -0.32003108 0.0023535162
-0.0033224907 0.057404649 0.021209048 -0.57354039 0.59586054 -0.56214023 0.002466327
-0.001302644 0.058104891 0.020199783 -0.42511126 0.67050207 -0.60803574 0.0046382444
0.0013950709 0.05895007 0.01967282 -0.23613232 0.76562685 -0.59837866 0.0017938012
0.0045353202 0.059224423 0.019280961 -0.060612366 0.80122548 -0.5952847 0.0012710915
0.0075079519 0.059233855 0.019352624 0.11455659 0.82328832 -0.55594349 0.0023467431
0.010649572 0.058814976 0.019826116 0.27194747 0.82561529 -0.4943724 0.0022940601
0.01342872 0.057755034 0.020052847 0.42817956 0.79166478 -0.43580857 0.0027880941
0.015238444 0.057223577 0.021088209 0.55911034 0.74733073 -0.359016 0.0018855862
0.0020640087 0.060205851 0.021083873 -0.2220947 0.79521388 -0.5641886 0.0022406201
0.0047469642 0.060373653 0.020848624 -0.037804525 0.83246779 -0.55278218 0.0017590907
0.0073527014 0.060251635 0.020892935 0.13580912 0.8481949 -0.51197785 0.0017615937
-0.0056654927 0.038479447 0.022816684 -0.97345871 -0.18933319 -0.12857342 0.00044408615
-0.0061701555 0.040258855 0.023192342 -0.97434253 -0.17583726 -0.1404916 0.0004964238
-0.0068098414 0.043346874 0.0230243 -0.96951264 -0.16115421 -0.18459275 0.0015435581
-0.007166056 0.046234518 0.02302382 -0.96871859 -0.10221118 -0.2261353 0.0032791882
-0.0073146345 0.049404431 0.023318203 -0.94676125 0.029122028 -0.32061672 0.0014988362
-0.0068652211 0.052261796 0.022904303 -0.91073519 0.15852529 -0.38135439 0.0038248207
0.020759 0.051893026 0.022296514 0.73630422 0.61534947 -0.28142691 0.0014255525
-0.0064481138 0.054987337 0.023528621 -0.80335701 0.34377536 -0.48624697 0.0040639034
-0.0053808079 0.055653363 0.022246484 -0.78173107 0.38413063 -0.49126387 0.0018896809
0.017036792 0.056433868 0.022739705 0.59500837 0.73190391 -0.33208686 0.0015134205
0.019243615 0.053827107 0.021792796 0.69201541 0.65288275 -0.30799159 0.0022449282
-0.004322507 0.058133002 0.023151763 -0.63422775 0.55281758 -0.54050708 0.0054006684
-0.0019691095 0.05934662 0.022120448 -0.40717381 0.73089486 -0.5477246 0.0039520762
0.011027809 0.059798028 0.021763604 0.29466617 0.84839308 -0.43977389 0.0021881019
0.013735265 0.058859903 0.022636235 0.48164791 0.80865264 -0.33778116 0.0015747776
0.016103374 0.057387386 0.023181077 0.57231992 0.75337219 -0.323852 0.0011110186
-0.0031816231 0.060105998 0.024107423 -0.56213027 0.66801357 -0.48761398 0.0032392277
-0.0013437837 0.060572121 0.023343243 -0.36387834 0.76359284 -0.53340286 0.003988436
0.0015701903 0.061283562 0.0229335 -0.19423258 0.83513522 -0.51460952 0.002462626
0.0044224653 0.061587747 0.022899834 0.0038662807 0.87523597 -0.4836807 0.0016948953
0.0074887341 0.061382774 0.022965427 0.14781877 0.87481588 -0.46135321 0.00090517756
0.010352973 0.060647424 0.023044014 0.3031522 0.86017704 -0.41011471 0.0014472186
0.012578219 0.060092289 0.02400307 0.48455021 0.825342 -0.28986496 0.0026387149
-0.0067043905 0.041705236 0.025348451 -0.97086906 -0.18424679 -0.15318717 0.00038171295
-0.0072166128 0.043518849 0.02595764 -0.97422326 -0.17449054 -0.142976 0.00036455522
-0.0077103269 0.046484146 0.025484281 -0.96796316 -0.13582711 -0.21118322 0.0011827184
-0.0082312189 0.049350716 0.026465479 -0.95983708 -0.040060319 -0.27768329 0.0024797721
-0.0079646297 0.052526254 0.02564466 -0.93858171 0.082564369 -0.33503354 0.0027071484
-0.0075863167 0.055361331 0.025982928 -0.88110495 0.23324567 -0.41140065 0.0015765048
-0.0067201061 0.057957191 0.026293091 -0.75553614 0.45384127 -0.47243339 0.0022432243
-0.0051333816 0.059105787 0.025081366 -0.58190173 0.62098199 -0.52513975 0.0043411232
0.013869629 0.059782673 0.0254662 0.48458469 0.82531548 -0.28988275 0.0026679824
0.015868049 0.058241803 0.025188114 0.54324287 0.79209161 -0.27834877 0.0015678675
-0.0042048991 0.060769085 0.026146781 -0.5573113 0.66702741 -0.49444771 0.0031936541
-0.0016054835 0.061938878 0.025636818 -0.31001809 0.81833541 -0.48395863 0.0018989948
0.0015741349 0.062591076 0.025205409 -0.14575389 0.87430042 -0.4629845 0.0025056459
0.0045829704 0.062750779 0.025151717 0.033697739 0.90817189 -0.41723892 0.0024035242
0.0078452919 0.062398259 0.025325049 0.19211175 0.90540677 -0.37859166 0.002471712
0.010450609 0.061774772 0.025971558 0.36979875 0.88063395 -0.29619697 0.0040452261
0.012363144 0.060781393 0.025428649 0.46689525 0.84004396 -0.27628756 0.0023980024
-0.00068915082 0.062995672 0.02694213 -0.29079103 0.84672421 -0.44553196 0.0030051374
0.0015765006 0.063284159 0.026597857 -0.11099712 0.90809816 -0.40377888 0.0023769757
0.0045976667 0.063497327 0.026929237 0.043787222 0.92571563 -0.37567711 0.0012073484
0.0073586507 0.062918678 0.026379324 0.17567167 0.91690636 -0.35836041 0.0027160672
-0.0081394566 0.046513226 0.028239954 -0.97157782 -0.15327488 -0.18039802 0.001346543
-0.0087809442 0.049596887 0.02875236 -0.97213858 -0.1197497 -0.20151103 0.0026504288
-0.0091298902 0.052355073 0.029297724 -0.96579558 -0.0059826802 -0.25923547 0.0029486744
-0.0087631587 0.052530784 0.027883198 -0.96271282 0.022152081 -0.26961681 0.0039861375
-0.0089953104 0.055275679 0.029320076 -0.93856144 0.1254392 -0.32150793 0.0035362912
-0.0082600871 0.05632307 0.027954545 -0.90735435 0.1884041 -0.37578183 0.0030404131
-0.0088073527 0.057591911 0.030042883 -0.85685766 0.33635876 -0.39071432 0.0054033161
-0.0077714915 0.058622774 0.028795943 -0.77802908 0.44186637 -0.44657016 0.0061121532
-0.0067717019 0.060763028 0.029489953 -0.67267942 0.58795637 -0.4492324 0.0045671463
-0.0047767852 0.061856527 0.028458808 -0.49220291 0.75215137 -0.43818328 0.0022646044
-0.0027073163 0.062577017 0.027566936 -0.33692625 0.8310439 -0.44254568 0.0027272587
0.0099078361 0.062663056 0.028201159 0.33663872 0.90609801 -0.25624368 0.0045870729
0.013447908 0.06067555 0.02844223 0.44257858 0.85575289 -0.26797614 0.0032552951
-0.003992219 0.063155375 0.029961642 -0.4425579 0.79930478 -0.40651515 0.0037616834
-0.0014257549 0.063666068 0.028965894 -0.28632191 0.87482667 -0.39076582 0.0020311254
0.0013273322 0.064147405 0.028892167 -0.13742407 0.91680247 -0.37495035 0.0028041019
0.0041119694 0.064351715 0.02945536 -0.015297797 0.93995219 -0.34096321 0.0031468023
0.0072148433 0.063495703 0.028137937 0.14988583 0.92932135 -0.33748475 0.0037388934
-0.0083195157 0.046287119 0.031020101 -0.97531867 -0.17290741 -0.13731906 0.00044544367
-0.0091390256 0.04947054 0.031352419 -0.97364491 -0.16011307 -0.16241726 0.0011248998
-0.0098761944 0.052801222 0.032487024 -0.97391313 -0.11171395 -0.19751744 0.0023827457
-0.0097886715 0.05545105 0.031822223 -0.95641524 0.029606666 -0.29050535 0.002904936
-0.0093942415 0.058354054 0.031921886 -0.89322704 0.26238158 -0.36510459 0.006797364
-0.0090335421 0.060396414 0.032783426 -0.7582584 0.50844932 -0.40807304 0.007833912
-0.0075005069 0.061633844 0.031860467 -0.63568401 0.61779529 -0.46285501 0.0083285607
-0.0060568056 0.063253522 0.032552179 -0.49661273 0.78704178 -0.36597946 0.0089214863
-0.0044133971 0.063838415 0.032038298 -0.40360421 0.84401262 -0.35319424 0.0029504222
-0.0017202148 0.064525031 0.031433377 -0.27822235 0.90149081 -0.33152178 0.00098906574
-0.0094049079 0.04967922 0.034257051 -0.97505468 -0.15529752 -0.15859114 0.0012733341
-0.010180681 0.052533463 0.034618642 -0.97565556 -0.11744569 -0.18520965 0.001627304
-0.01059088 0.05550418 0.034654114 -0.95746434 -0.063769408 -0.28141695 0.0042928406
-0.010659881 0.058425855 0.035032611 -0.93181932 0.11995839 -0.34252417 0.0063109035
-0.0096781375 0.061286036 0.035034169 -0.79741126 0.44025129 -0.41269132 0.00979215
-0.0083837016 0.062472109 0.03433096 -0.54683131 0.74256974 -0.38673726 0.007546491
-0.0072001675 0.063568875 0.034874957 -0.52874637 0.74905455 -0.39917985 0.0068466836
-0.0044730264 0.064818554 0.035272881 -0.41356838 0.84107447 -0.34864727 0.0030688264
-0.002755011 0.064968295 0.033893254 -0.40074769 0.84579599 -0.3521798 0.0025043769
-0.010488258 0.053036913 0.036819335 -0.97293562 -0.13093518 -0.19040017 0.001641911
-0.0112923 0.055502713 0.03811343 -0.95740819 -0.15702933 -0.24230434 0.0048151962
-0.012085351 0.058429722 0.038856633 -0.93531966 -0.13062245 -0.32880834 0.013315329
-0.011532579 0.058512423 0.037444618 -0.93431026 0.039515544 -0.35426384 0.010969101
-0.012087913 0.060765829 0.038951803 -0.79104096 0.29581809 -0.53548658 0.018356811
-0.01106434 0.061575513 0.037700076 -0.81751883 0.35999164 -0.44952086 0.010017894
-0.0098895375 0.063435011 0.038109675 -0.56847632 0.71873724 -0.40031412 0.012347523
-0.0073467474 0.064621791 0.037753776 -0.50836301 0.77820092 -0.3687416 0.0071350904
-0.012328207 0.056500856 0.041440792 -0.91193837 -0.25161669 -0.32412556 0.0063962322
-0.011630135 0.05534967 0.041218754 -0.92436904 -0.23308554 -0.30201477 0.0064606722
-0.012957375 0.058504935 0.040957686 -0.89834911 -0.26217932 -0.35246405 0.0078031216
-0.013302807 0.061303716 0.04112044 -0.82245594 0.17649892 -0.54075348 0.034644198
-0.012813685 0.06340193 0.041778613 -0.65359765 0.52819264 -0.54205412 0.01173727
-0.010633803 0.064314492 0.040750589 -0.54931581 0.66488802 -0.50613832 0.013377015
-0.0074664331 0.065361969 0.04045495 -0.53823137 0.7137385 -0.4482013 0.0097600715
-0.012738126 0.056249548 0.043705091 -0.82269853 -0.40951777 -0.39428708 0.019007133
-0.015374514 0.059138682 0.044578977 -0.67925566 -0.46390584 -0.56868541 0.017803648
-0.013917056 0.057964314 0.043519933 -0.81354141 -0.41657683 -0.40572667 0.019609705
-0.015744928 0.06142455 0.044228688 -0.79427606 0.025511596 -0.60702127 0.029513475
-0.014268954 0.061241779 0.042650964 -0.83927268 0.074768722 -0.53854513 0.025372524
-0.015536091 0.063651077 0.044723693 -0.71774322 0.28153676 -0.63685298 0.020655675
-0.013451306 0.064535141 0.043913726 -0.59255087 0.51442957 -0.61987549 0.012034699
-0.011162287 0.065227456 0.043258622 -0.55009711 0.62705153 -0.55154288 0.016681459
