# .PCD v0.7 - Point Cloud Data file format
VERSION 0.7
FIELDS x y z normal_x normal_y normal_z curvature
SIZE 4 4 4 4 4 4 4
TYPE F F F F F F F
COUNT 1 1 1 1 1 1 1
WIDTH 551
HEIGHT 1
VIEWPOINT 0 0 0 1 0 0 0
POINTS 551
DATA ascii
-0.0006415465 0.016240049 -0.015541485 -0.90130109 -0.41989079 -0.10652718 0.0030532568
0.028997099 0.01698973 -0.014756442 0.94052243 -0.14035091 -0.30938503 0.0012488037
-0.0017918076 0.019058976 -0.013425862 -0.92499232 -0.36903599 -0.090562612 0.0013109625
0.029165359 0.020125814 -0.015072769 0.9727205 -0.0017860255 -0.23197332 0.0032982961
0.029187847 0.022418736 -0.01473601 0.97645164 0.050269041 -0.20979804 0.0017289546
0.028568195 0.026125241 -0.014931228 0.96997964 0.11943828 -0.21183479 0.00077362242
0.01355315 0.00013276585 -0.010773779 -0.21845742 -0.80553943 -0.55080181 0.0023667193
0.016343316 -7.7869045e-05 -0.010965737 0.012465874 -0.81956512 -0.57285047 0.0032786154
0.018926168 0.00014038756 -0.010745794 0.26786309 -0.80936909 -0.52265769 0.0034585679
0.0079252245 0.0030518724 -0.011112798 -0.53008187 -0.70922518 -0.46477184 0.0011634985
0.010338142 0.0018596225 -0.01158398 -0.37340304 -0.78332061 -0.49696964 0.0019120079
0.013091733 0.0011910559 -0.012181223 -0.21226238 -0.81105489 -0.54510051 0.0026181329
0.016284687 0.0010128741 -0.012591263 0.01399608 -0.81768698 -0.57549292 0.0027895896
0.019500758 0.0012179737 -0.012056683 0.26890099 -0.79575497 -0.54264748 0.0035609347
0.022237213 0.0022396715 -0.011563135 0.45043519 -0.74847984 -0.48670951 0.0020109112
0.024246618 0.0032362638 -0.010695712 0.62437975 -0.62431604 -0.46944579 0.0015750109
0.0050166757 0.0056383871 -0.011210667 -0.6553939 -0.62952358 -0.41732362 0.0012384952
0.0067071477 0.004565211 -0.012025686 -0.56005526 -0.70509785 -0.4349426 0.0024983997
0.023681754 0.0041405209 -0.012657758 0.61690521 -0.63088071 -0.47055012 0.0013557698
0.025401434 0.0051759589 -0.011568134 0.72780722 -0.54221553 -0.4198797 0.00080985919
0.0024639373 0.0088624712 -0.011415437 -0.7828607 -0.54392695 -0.30211356 0.0020456442
0.0038949365 0.0073962975 -0.012109494 -0.69501722 -0.62076211 -0.36277479 0.0012897898
0.02641784 0.0071052033 -0.012317931 0.75518894 -0.5132845 -0.40771157 0.0016879956
0.027575172 0.0084236693 -0.011392517 0.82575977 -0.42378747 -0.3721894 0.0014524574
0.0012664318 0.011017842 -0.011676433 -0.83124393 -0.48425025 -0.27301127 0.0018462987
0.028637849 0.011109933 -0.011526717 0.89956194 -0.29340643 -0.32357556 0.0011441612
-0.00042875676 0.014335764 -0.011086544 -0.91649485 -0.37547198 -0.13805063 0.0013019482
0.00021525718 0.013075011 -0.011795414 -0.8859973 -0.42014632 -0.19617824 0.002585669
0.029267855 0.013821815 -0.012013975 0.92533296 -0.22517942 -0.30504629 0.00078181678
0.029923264 0.015270983 -0.010610005 0.95106691 -0.17037432 -0.25776795 0.0016610894
-0.0011136548 0.016829349 -0.011972232 -0.91901284 -0.37875104 -0.10937589 0.0012601907
0.029815521 0.017278489 -0.012197924 0.95982933 -0.11150714 -0.25747588 0.0013709088
0.02988489 0.015940864 -0.011175549 0.95524102 -0.14837569 -0.25592816 0.002296353
0.029803853 0.02002088 -0.012369865 0.98165441 0.019360928 -0.18968312 0.0013833735
0.029372841 0.02393592 -0.011965578 0.97667783 0.072610229 -0.20206001 0.00095494522
0.029945621 0.021956002 -0.010280525 0.98326164 0.051416121 -0.17479379 0.001272309
0.014624705 -0.0024608104 -0.0072047026 -0.11736317 -0.84003437 -0.52968681 0.0026028494
0.016472591 -0.0024594716 -0.0073834867 0.047569316 -0.82743144 -0.55954844 0.0044827303
0.018105352 -0.0024615331 -0.0071080686 0.151472 -0.84240907 -0.51711035 0.002993976
0.0086702434 0.00016638613 -0.0075004259 -0.48044088 -0.73515946 -0.47824383 0.0014859652
0.010614094 -0.00035126274 -0.0084336801 -0.38387546 -0.76485527 -0.51733547 0.0021765265
0.013390263 -0.0011921129 -0.0086958539 -0.19748175 -0.80881351 -0.55391479 0.0025488508
0.016417816 -0.001432905 -0.0089006517 0.012012119 -0.81569272 -0.57836068 0.0023416947
0.01944381 -0.0010647946 -0.008697873 0.21424808 -0.81104851 -0.54433256 0.0022420499
0.022066137 -0.00025049108 -0.0081053004 0.46700746 -0.72774303 -0.50228882 0.0025862912
0.0052687479 0.0032522676 -0.0079129543 -0.66832089 -0.62026906 -0.41062567 0.0018922641
0.0073318523 0.0018786857 -0.0086296219 -0.54143786 -0.69631988 -0.47115135 0.0018052923
0.0095939105 0.00089938287 -0.0095445123 -0.37645292 -0.76063144 -0.5288884 0.0018994526
0.022964222 0.0012031505 -0.0093548577 0.44933 -0.73035502 -0.51447463 0.0021383173
0.025014393 0.002378684 -0.0083494289 0.65494227 -0.61025941 -0.44568363 0.0022522535
0.0026473803 0.0061872546 -0.0076177875 -0.75869644 -0.55660802 -0.33847788 0.0018340934
0.0041574244 0.0049674595 -0.0086479196 -0.70670354 -0.59727705 -0.3792496 0.0013531556
0.02639257 0.0045917118 -0.009080695 0.76253563 -0.51579618 -0.39050436 0.0011555138
0.027485883 0.0056398427 -0.0081927646 0.80526721 -0.47335121 -0.35704803 0.0018291904
0.0018729109 0.0081182104 -0.0086656902 -0.82158023 -0.49507627 -0.2826755 0.0018055702
0.0032528916 0.0067732083 -0.0098730084 -0.70327765 -0.59650326 -0.38676137 0.0012799799
0.028506758 0.0080114752 -0.0086333686 0.86564755 -0.37669182 -0.32978418 0.0014955179
0.00039473252 0.010994682 -0.0086264908 -0.90520865 -0.36709988 -0.21409094 0.002793001
0.029442865 0.010742965 -0.0089444276 0.92044455 -0.27233517 -0.28038433 0.0012213516
0.030113112 0.012125445 -0.0078119994 0.93198299 -0.24710648 -0.26522839 0.00065019884
-0.00066813198 0.01418657 -0.0084766755 -0.92449784 -0.3452909 -0.16148682 0.0014688993
0.030272601 0.014239389 -0.0084957806 0.95461118 -0.16769259 -0.24616398 0.0016585822
0.03056241 0.017209817 -0.0080095734 0.98033261 -0.04271752 -0.19267373 0.0017503126
0.010734097 -0.0028439392 -0.004985556 -0.37337565 -0.75980318 -0.53224975 0.0014473629
0.013315825 -0.0033331602 -0.0055883829 -0.18438239 -0.81377399 -0.55115789 0.00271821
0.016303856 -0.003636993 -0.005611829 0.030977061 -0.85143185 -0.52354962 0.0020761306
0.019281633 -0.0032231305 -0.0055209394 0.24557149 -0.81419373 -0.52610195 0.0033277178
0.021460094 -0.0027454891 -0.0048105652 0.43233261 -0.74635571 -0.50600559 0.0033507324
0.0056166071 0.00031744409 -0.0042802454 -0.63829154 -0.6043191 -0.47684622 0.0019427161
0.0076086763 -0.00057707401 -0.0054286858 -0.53183955 -0.69424111 -0.48494956 0.0020096703
0.010086596 -0.0016323333 -0.0062117083 -0.36499441 -0.75758517 -0.54115033 0.0017780755
0.01208173 -0.0019989265 -0.0069477917 -0.25262058 -0.77593261 -0.57802367 0.003658304
0.020438325 -0.0019999398 -0.00678522 0.29761934 -0.80206525 -0.51779735 0.0058313678
0.022596823 -0.0013343832 -0.0059045777 0.44861326 -0.74813616 -0.48891562 0.0018089523
0.024709705 -0.00014803186 -0.0050597582 0.63462323 -0.63949382 -0.43393666 0.001183238
0.0045956969 0.0022771759 -0.0053683803 -0.67769438 -0.58787239 -0.44174245 0.0018892722
0.0063694981 0.0010937003 -0.0062544905 -0.62338281 -0.62712038 -0.46702668 0.0014213065
0.025842702 0.0016422002 -0.0059198751 0.70493394 -0.59344769 -0.38844311 0.0027682933
0.027171545 0.0030332974 -0.0054313848 0.77733761 -0.5262112 -0.34474349 0.0016826362
0.0023070239 0.005322983 -0.0053518624 -0.81063139 -0.49065942 -0.31957802 0.0029276281
0.0033885851 0.0043846006 -0.0062357099 -0.77028245 -0.53084081 -0.35337356 0.0020558552
0.028216511 0.0050780084 -0.0057123499 0.84735703 -0.43347716 -0.30673033 0.0019187783
0.00098788389 0.0080317147 -0.0057776161 -0.86823493 -0.41856092 -0.26641107 0.0025687905
0.029477462 0.0080705453 -0.0057565169 0.91204315 -0.31868979 -0.25809726 0.0013745915
-0.00044688227 0.011953885 -0.005476749 -0.93444335 -0.31101793 -0.17344546 0.0029871264
1.8444058e-05 0.010093212 -0.0054281317 -0.93444276 -0.31101975 -0.1734454 0.0029867778
0.030423265 0.011029693 -0.0052049858 0.93688852 -0.25313431 -0.24116985 0.00056339998
-0.00090910785 0.014025857 -0.0062207938 -0.94792449 -0.29139316 -0.12856556 0.00074454368
0.03068307 0.013327573 -0.00625908 0.96117961 -0.17140828 -0.2162244 0.0012316529
0.011286076 -0.0057938155 -0.0013684593 -0.31772861 -0.73010886 -0.60497069 0.0019158118
0.013386087 -0.0060211727 -0.0018638484 -0.16822031 -0.79352373 -0.58482653 0.0033471251
0.016279237 -0.0061772726 -0.0019000201 0.062237766 -0.80529118 -0.58960372 0.0029341872
0.018886499 -0.0058835782 -0.0016479376 0.29711822 -0.79306924 -0.53175366 0.003252503
0.0076144906 -0.0031416737 -0.0021053599 -0.50253004 -0.66378176 -0.55394709 0.0013829159
0.01018977 -0.0042560454 -0.0026991218 -0.35034186 -0.74041015 -0.57363182 0.0019181466
0.013205417 -0.0049232394 -0.0032830716 -0.16308853 -0.78971153 -0.59140325 0.0022999381
0.016379427 -0.0050606756 -0.0034880314 0.037416641 -0.81236446 -0.58194834 0.002447335
0.019573124 -0.0048085731 -0.0029225526 0.28017494 -0.80656284 -0.52053666 0.0040512788
0.022268891 -0.003668061 -0.0025732359 0.49641535 -0.75393486 -0.43029538 0.0027887034
0.0240981 -0.0026569623 -0.0019505182 0.59482515 -0.68775481 -0.41614452 0.0012222129
0.0049605765 -0.00057109213 -0.0022749002 -0.64732248 -0.57267004 -0.50301361 0.001559842
0.0067585767 -0.0015945532 -0.0031851195 -0.56979734 -0.65009141 -0.50270474 0.0028393436
0.023597922 -0.0017842455 -0.0040383399 0.57352597 -0.67103165 -0.46987703 0.0024035079
0.025457416 -0.00092484104 -0.0024950458 0.68463939 -0.62162626 -0.38059118 0.0024400195
0.0025118636 0.0027365184 -0.0023548612 -0.76813889 -0.51990461 -0.37371346 0.0024933699
0.003719151 0.0014469065 -0.0029156692 -0.69358975 -0.57040727 -0.43996453 0.0016397634
0.026509307 0.00093994499 -0.0035034281 0.73553252 -0.58359325 -0.34410852 0.0017798046
0.027851569 0.0023845034 -0.0025909976 0.81469792 -0.49550265 -0.30123845 0.0014306066
0.0013235963 0.0051893331 -0.0025173286 -0.84322757 -0.42475373 -0.3294715 0.0023089463
0.029186962 0.0050658947 -0.0027247346 0.89123428 -0.38059387 -0.24667729 0.0016061881
0.03008364 0.0064230608 -0.0013209046 0.94497073 -0.27230772 -0.18132532 0.00056327856
0.00030519144 0.0078668613 -0.0028290474 -0.90882272 -0.33628395 -0.24688938 0.002391038
0.03021086 0.0080408622 -0.0029238574 0.92599815 -0.29674405 -0.23338895 0.00097399182
-0.00055107445 0.010817363 -0.0023203674 -0.96580404 -0.22163238 -0.13454245 0.0022727423
0.030941729 0.010858783 -0.0025065304 0.94352913 -0.25620663 -0.21002632 0.00033139961
-0.00092372141 0.013193396 -0.0028286488 -0.97192734 -0.21265806 -0.10066643 0.00066456769
0.013488613 -0.0086794877 0.00172078 -0.1124335 -0.77973241 -0.61593515 0.0026468183
0.0158512 -0.0086772507 0.0016164943 0.13040212 -0.82728672 -0.54643577 0.0032735984
0.007850484 -0.0061647017 0.0012723538 -0.45087156 -0.65136373 -0.61027879 0.0013872419
0.010444793 -0.0068841865 0.00046822848 -0.27316505 -0.75262499 -0.59911311 0.0016717385
0.013442105 -0.00746678 9.5288269e-05 -0.11468981 -0.79568982 -0.59474695 0.0018997857
0.016368689 -0.0076099271 0.00019406527 0.10582575 -0.81583923 -0.56851315 0.0041410178
0.019293634 -0.006991405 0.0003537992 0.29609561 -0.800376 -0.52127296 0.0031877351
0.021793323 -0.0061245868 0.00097153476 0.48890722 -0.74899191 -0.44719228 0.002409972
0.0049626697 -0.0033483575 0.00081425486 -0.60404652 -0.57924205 -0.5473631 0.0020026921
0.0070360191 -0.0045658546 6.1498024e-05 -0.48492631 -0.6691395 -0.56311524 0.0017129516
0.0091834674 -0.0053326292 -0.0007487894 -0.35329196 -0.70840544 -0.61102086 0.0014835782
0.022712089 -0.0049118055 4.498288e-05 0.50941837 -0.74605185 -0.42883512 0.004260934
0.024807414 -0.0032644686 0.0002974933 0.64542103 -0.66370362 -0.37805989 0.0016858587
0.0025082317 -0.0003501093 0.0010285224 -0.74634999 -0.47976115 -0.46129268 0.0022430222
0.0038872722 -0.0012399647 -8.0591533e-05 -0.67871368 -0.54052311 -0.49717453 0.0024499784
0.026201231 -0.001572968 3.0098483e-05 0.7545293 -0.57263654 -0.320582 0.0010022214
0.027307393 -0.0004757219 0.00070280721 0.79183459 -0.53744119 -0.29009482 0.0013916068
0.0016437856 0.001901452 0.00039528729 -0.80814654 -0.41897458 -0.41395578 0.0019325174
0.028549585 0.0018222618 0.0004260391 0.85990548 -0.44509056 -0.24991372 0.0012677265
0.00047725847 0.0047253715 0.00025288807 -0.88743377 -0.32368386 -0.32816166 0.0024745932
0.029589567 0.0043196315 0.00010367623 0.91338217 -0.34914464 -0.20935872 0.0023900568
0.030204384 0.0057382407 0.00048733642 0.93982452 -0.29103309 -0.1789681 0.00047163269
-0.00046592037 0.0080953334 0.0004155077 -0.95798159 -0.19436391 -0.21093599 0.0048597865
8.2322076e-06 0.0071370052 -0.00068730721 -0.94589537 -0.21769404 -0.24060598 0.0026157519
0.030678295 0.0076261284 0.00051764539 0.94496965 -0.27231094 -0.18132629 0.00056244258
-0.00094049692 0.011019528 0.0010653376 -0.96975744 -0.17861775 -0.1663318 0.0025005224
0.0078772521 -0.0090000425 0.004321692 -0.39655301 -0.66429222 -0.63360995 0.0017073654
0.01045201 -0.0094590345 0.0035534627 -0.24549998 -0.74898583 -0.61542666 0.0022626969
0.013351111 -0.0099298526 0.0033786097 -0.04060315 -0.81071621 -0.58402956 0.0029357702
0.016337803 -0.0097990185 0.0033670268 0.13956282 -0.80843884 -0.57179433 0.0026329758
0.018956274 -0.0092542423 0.0037111952 0.34192196 -0.79983127 -0.49331456 0.0032218806
0.020951672 -0.0087407036 0.0045633554 0.43849602 -0.78013182 -0.44622362 0.0019062256
0.0048934733 -0.0063778199 0.0039517484 -0.55034989 -0.57851207 -0.60202885 0.0020368064
0.0071558952 -0.0073770043 0.0030847085 -0.42785755 -0.67007577 -0.60657758 0.0015216775
0.0097468384 -0.0080812387 0.0022206246 -0.26844454 -0.73523968 -0.62238258 0.0022814521
0.019985525 -0.0079835979 0.0024089604 0.34797186 -0.7763049 -0.52561039 0.0046378942
0.022301039 -0.0071490519 0.0034129391 0.53733438 -0.74341357 -0.39825612 0.0023504756
0.024490504 -0.0056361211 0.0039442121 0.669119 -0.64357531 -0.37160525 0.0017451975
0.0024098842 -0.0033608978 0.0039707874 -0.709777 -0.46814123 -0.5263654 0.0021326542
0.0041275625 -0.0044110082 0.0028544185 -0.60952449 -0.54985732 -0.57108384 0.0035291894
0.023686826 -0.0053738756 0.0021974086 0.57675457 -0.71924621 -0.38734871 0.0016515029
0.025518501 -0.004022636 0.0031759567 0.74284875 -0.59542823 -0.30600822 0.00078681239
0.027131669 -0.0025481386 0.004374647 0.8013407 -0.53836632 -0.26079646 0.0015000778
0.0014439941 -0.0010125106 0.0033500572 -0.79656905 -0.37440124 -0.47465932 0.0014156307
0.02790479 -0.00081914524 0.0033909618 0.83143622 -0.49959645 -0.24314046 0.0014402068
-0.00047886913 0.0024501653 0.004423128 -0.8882404 -0.24545014 -0.38830817 0.0029648126
0.00037259934 0.0017329558 0.0030919486 -0.85894889 -0.31723565 -0.40195557 0.0025816406
0.029152781 0.0014173733 0.0037232474 0.90013796 -0.39626753 -0.18089671 0.0023509003
0.029953301 0.0031615393 0.003847742 0.93122822 -0.32859212 -0.15761112 0.0015351486
-0.00067442836 0.005258014 0.0035618809 -0.95625341 -0.15275219 -0.2494919 0.0034649342
1.9277068e-06 0.0038634362 0.0022395193 -0.91726756 -0.25065428 -0.30950394 0.002922768
0.029853135 0.0036271559 0.0023231148 0.93123406 -0.3285771 -0.15760779 0.0015235159
0.030351948 0.0050522881 0.0026972233 0.94551343 -0.29581374 -0.13600914 0.00070350064
-0.00094780856 0.0081351306 0.0027625398 -0.96671718 -0.13578358 -0.2168424 0.0024498175
0.030826574 0.0069492804 0.0027029752 0.95393687 -0.26452854 -0.14152446 0.0003767999
-0.00094701687 0.010899395 0.0025787693 -0.97455639 -0.15626352 -0.16069096 0.0016044594
0.0078508221 -0.011964917 0.0073848036 -0.32143608 -0.67563927 -0.66346842 0.0015697528
0.010371113 -0.012315862 0.006858381 -0.17169873 -0.72516763 -0.66682196 0.0021433835
0.013387365 -0.012372237 0.0065498757 0.021792317 -0.80039358 -0.59907866 0.0036568346
0.016322875 -0.012140054 0.0068014837 0.21946172 -0.81626874 -0.5343613 0.0035012348
0.018363362 -0.011837101 0.0073844432 0.4081845 -0.77838635 -0.47696966 0.0019993754
0.0049386821 -0.0095895594 0.0068986411 -0.49075013 -0.58245105 -0.64800853 0.0018478668
0.0072317631 -0.01027799 0.0060543013 -0.38432464 -0.65583533 -0.6497497 0.0027548124
0.0099718319 -0.010884664 0.0054112473 -0.20071621 -0.74828595 -0.63228244 0.0020547151
0.013342692 -0.011132522 0.004956299 -0.021048374 -0.80582136 -0.59178442 0.0032724864
0.016898446 -0.011007166 0.0053600264 0.17052801 -0.80273652 -0.57143176 0.0025879573
0.019536801 -0.010492414 0.0062255361 0.41642931 -0.78876776 -0.45214164 0.0029368917
0.021780899 -0.0092618782 0.0065378048 0.5594362 -0.72753048 -0.39715305 0.0026905625
0.0021109357 -0.0063266642 0.0067297532 -0.65946454 -0.46915904 -0.5873639 0.0030012734
0.0040220292 -0.0075439196 0.0058533461 -0.53633296 -0.57835919 -0.61469311 0.0019733401
0.023200642 -0.0078166304 0.0059967446 0.64650214 -0.68145579 -0.34300566 0.0014318811
0.024787528 -0.0065114712 0.0065239263 0.69649684 -0.64941376 -0.30521128 0.0022897923
-0.00048924523 -0.0025726957 0.0076345443 -0.78890026 -0.29975238 -0.53645593 0.0032215198
0.0010035271 -0.0038862256 0.0062372121 -0.768296 -0.36916697 -0.52291209 0.0010943986
0.026280524 -0.0045927456 0.0061394139 0.76395917 -0.58865523 -0.26429409 0.0018105515
0.027410261 -0.0030417647 0.006386681 0.8069979 -0.54303765 -0.23208725 0.002562833
-0.00070470205 -0.00078341924 0.0069087246 -0.86392421 -0.24706964 -0.43885252 0.0033333963
0.00015364344 -0.0011260211 0.0056425999 -0.82208824 -0.32821503 -0.46523726 0.0023009998
0.028454391 -0.001208792 0.006509651 0.8710925 -0.45796999 -0.17737366 0.00085187389
-0.0011014516 0.0018433543 0.0065627084 -0.92964071 -0.14984652 -0.33662167 0.0037381852
0.029562984 0.0017379569 0.0051655411 0.91512656 -0.37367985 -0.15135002 0.0014011568
-0.0013337274 0.004819239 0.0060293679 -0.95038044 -0.11783103 -0.28791118 0.0036002833
0.030595325 0.0046094554 0.0063419878 0.94647503 -0.30136046 -0.11561482 0.00034950676
-0.0014433345 0.0077237608 0.0067033037 -0.9595626 -0.093465537 -0.26552543 0.001729342
0.0076566357 -0.014850652 0.010421684 -0.2400707 -0.68803489 -0.68481678 0.002176699
0.01035135 -0.015127493 0.010055488 -0.08067669 -0.74133825 -0.66626495 0.0028944418
0.013121557 -0.015064167 0.0099693332 0.10757443 -0.79696256 -0.59437227 0.0030027707
0.015702505 -0.014796022 0.010436529 0.31497779 -0.7862218 -0.53164303 0.0038176465
0.0023979312 -0.011769678 0.010687524 -0.556409 -0.48324832 -0.67592895 0.0017983656
0.0046276064 -0.012646589 0.0098513309 -0.42524588 -0.57600033 -0.69813299 0.0019783247
0.0072765383 -0.013277512 0.0090061724 -0.28531489 -0.68601334 -0.66931391 0.0014290523
0.010182457 -0.013769545 0.0085512679 -0.12449007 -0.75078678 -0.64870763 0.0017062982
0.013200083 -0.013868732 0.0084380861 0.059483983 -0.7972796 -0.60067207 0.0026760211
0.016511694 -0.013575772 0.0090268198 0.2427121 -0.79505932 -0.55585194 0.0025499642
0.019361274 -0.012472887 0.0094762519 0.4819302 -0.77129483 -0.41574928 0.00170911
0.021223767 -0.011766638 0.010578537 0.55875832 -0.72971499 -0.3940877 0.0018584084
0.0015713287 -0.0098000821 0.0098976418 -0.58773828 -0.45867136 -0.66647154 0.0019775971
0.0036723879 -0.010430429 0.0086116605 -0.53490919 -0.52274722 -0.66378272 0.0015386763
0.020399179 -0.011221777 0.0082713161 0.44371378 -0.79409927 -0.41536063 0.0024728526
0.022292471 -0.010179885 0.0091287997 0.60835367 -0.70606279 -0.36246535 0.0024422482
0.024087405 -0.0088566495 0.0099460129 0.69389755 -0.65981609 -0.28835544 0.0015826842
-0.00076060154 -0.0064064357 0.010153556 -0.74343079 -0.33970129 -0.57611954 0.002257193
0.00076370395 -0.0072630886 0.0089348555 -0.68504101 -0.42045897 -0.59492272 0.0028455362
0.02537569 -0.007095472 0.0094596613 0.7405237 -0.61963254 -0.26015419 0.001282236
-0.0011835331 -0.0037556267 0.0094059706 -0.83117843 -0.27507162 -0.48319548 0.0036157337
-1.0759788e-05 -0.0047368733 0.0081296507 -0.78365046 -0.32707343 -0.52812409 0.0031407042
0.027265217 -0.004143334 0.008662561 0.82571805 -0.52610511 -0.20347756 0.0014137281
-0.001889803 -0.00096467091 0.0094393454 -0.90325564 -0.13034822 -0.40882578 0.00267686
0.029280573 -0.00017621648 0.0082261506 0.87896681 -0.44504958 -0.17131333 0.00042198208
-0.0021800376 0.0019873851 0.009347681 -0.94861877 -0.043679059 -0.31339195 0.0040666601
0.029752878 0.0012642341 0.0081041101 0.89854819 -0.40599915 -0.1666607 0.0022486397
-0.002083662 0.0048278901 0.0093333106 -0.95657182 -0.028380625 -0.29011172 0.0016408347
0.0055682706 -0.017691398 0.013806412 -0.26859456 -0.6467998 -0.71379757 0.0024026241
0.0077014947 -0.017869787 0.013415044 -0.13398473 -0.69547421 -0.70594883 0.002784559
0.010418775 -0.017911825 0.013255604 0.029860029 -0.76856333 -0.63907659 0.0030705419
0.012704625 -0.01777141 0.013386071 0.23435491 -0.79614294 -0.55788374 0.0033592063
0.0020596425 -0.015177222 0.013412811 -0.47011372 -0.50650412 -0.72280467 0.0012602978
0.0044872831 -0.015808851 0.012615401 -0.31899524 -0.63463867 -0.7039004 0.00094120257
0.0074111759 -0.016312141 0.0119376 -0.16893284 -0.70052528 -0.69334406 0.0015898207
0.010387518 -0.016640417 0.011768879 -0.033036754 -0.75728178 -0.65225214 0.0021204243
0.01339537 -0.016553262 0.012012562 0.18696551 -0.79193795 -0.5812729 0.0051819384
0.016143154 -0.015888607 0.01236747 0.30653009 -0.80141842 -0.5135833 0.0013605535
0.018421028 -0.015023494 0.012984833 0.47845784 -0.76632637 -0.42874464 0.0018322557
-0.00062953058 -0.012211481 0.013449373 -0.60032809 -0.43153805 -0.67333579 0.001406368
0.001251542 -0.012970189 0.012422921 -0.56309056 -0.46376425 -0.68399692 0.0013505412
0.0035685867 -0.013763875 0.011379614 -0.40893468 -0.57821947 -0.70599896 0.0017267847
0.017858757 -0.01419268 0.010951245 0.4514544 -0.78100598 -0.43153057 0.0015183765
0.019765217 -0.013634982 0.012093784 0.53010762 -0.75964582 -0.37672812 0.0017447573
0.021687735 -0.012201747 0.012265671 0.63288283 -0.6992476 -0.33243358 0.0016272167
-0.0013091457 -0.0097029321 0.012707552 -0.67195117 -0.37030312 -0.64137137 0.0015779439
0.0004251551 -0.010623699 0.01150048 -0.61489415 -0.43368626 -0.65865117 0.00087562134
0.023080984 -0.010696598 0.011878297 0.67977482 -0.68290669 -0.26747844 0.001930292
0.024593443 -0.0091972509 0.012238681 0.73864341 -0.6261583 -0.24966305 0.0013115864
-0.0034247641 -0.0057771457 0.013639459 -0.8113817 -0.19978209 -0.54931492 0.0027369887
-0.0021334901 -0.0068529164 0.012293475 -0.7830174 -0.25274819 -0.56833291 0.0015281539
0.026167251 -0.0072181551 0.012656348 0.79032755 -0.57626796 -0.2080809 0.00086288789
0.027071292 -0.0055044247 0.011521662 0.79662657 -0.56530458 -0.21404865 0.00072739442
-0.003421196 -0.0038294694 0.013271395 -0.87631911 -0.089754142 -0.47329581 0.0026416299
-0.0025767959 -0.0039517735 0.011708904 -0.85352552 -0.16597451 -0.49390957 0.0024260476
0.028015716 -0.0035657394 0.011139208 0.85951531 -0.48071894 -0.17361693 0.0012476709
-0.003417046 -0.00091404468 0.012843216 -0.9300189 0.019294593 -0.36700493 0.0032861466
-0.0029224188 -0.00091000134 0.011744678 -0.91066492 -0.072603241 -0.40671632 0.0031022846
-0.0034218237 0.0015130797 0.013336131 -0.94673771 0.14514694 -0.28743693 0.0082775429
-0.0029226134 0.0019946592 0.011767263 -0.94877577 0.042418096 -0.31308988 0.0030007672
-0.0027684472 0.0043390538 0.012585107 -0.97013533 0.18890974 -0.15215266 0.0074294279
0.0053528822 -0.020744339 0.016671095 -0.13823432 -0.66790158 -0.7312994 0.0049034157
0.0073768161 -0.020804072 0.016455797 -0.02325218 -0.73929381 -0.67298144 0.0033397111
0.00999864 -0.020738063 0.016538264 0.17231075 -0.78336114 -0.5972054 0.0035768573
-0.00051904708 -0.017816285 0.016858125 -0.46812442 -0.47634616 -0.7442807 0.00053299189
0.0014622241 -0.018448582 0.016176531 -0.39990389 -0.53519785 -0.74406999 0.0012085527
0.0043035164 -0.019039834 0.015427774 -0.23754296 -0.64646298 -0.72502351 0.0012958988
0.0074549993 -0.01935216 0.014968894 -0.075010203 -0.72040117 -0.68948942 0.0017520484
0.010457657 -0.019451771 0.015100162 0.11831389 -0.77753878 -0.61760443 0.0049183802
0.013388742 -0.01889237 0.015311494 0.26821607 -0.7895782 -0.55192971 0.0016861211
0.015795605 -0.018115129 0.01579901 0.45833892 -0.77792591 -0.42983335 0.0041042329
-0.0012382887 -0.015784238 0.01609114 -0.54490823 -0.41576836 -0.72815639 0.0021667599
0.00098247791 -0.016222874 0.014863009 -0.47551119 -0.48485056 -0.73403609 0.0020642676
0.0032851503 -0.017026624 0.014208067 -0.34534577 -0.58352315 -0.73500818 0.0038750644
0.016813695 -0.016974708 0.01481043 0.4197416 -0.79000604 -0.44688633 0.0048621385
0.019123739 -0.015723128 0.015378948 0.55528718 -0.75879878 -0.34041247 0.0023841839
-0.0036343902 -0.012233935 0.01634323 -0.68446571 -0.2947208 -0.66681814 0.0020875155
-0.0019202797 -0.013115061 0.015176568 -0.6414271 -0.33658358 -0.68940747 0.0012426209
0.00013854344 -0.014135012 0.014080122 -0.50831097 -0.4922052 -0.70664984 0.001451046
0.020427646 -0.014311472 0.014508957 0.61241686 -0.72327739 -0.31908527 0.0028602444
0.022041576 -0.012996502 0.014936525 0.66516709 -0.6968953 -0.26812238 0.00084422965
0.023940055 -0.011444892 0.016557926 0.73334795 -0.6428647 -0.22119184 0.00060968334
-0.0040332903 -0.0096199289 0.015888881 -0.76229697 -0.19662294 -0.61663836 0.0028215293
-0.0026354967 -0.010147481 0.014386391 -0.71983445 -0.28165814 -0.63443446 0.0017620837
0.023587406 -0.011143315 0.014399344 0.72155195 -0.65506971 -0.22415692 0.0009695745
0.025091164 -0.0094579486 0.015211442 0.74161744 -0.63202327 -0.22483379 0.00073039636
-0.004240124 -0.0068657938 0.015309991 -0.84255373 -0.12087843 -0.52487302 0.0034330597
-0.0044164802 -0.0038495185 0.015242126 -0.90925562 0.010462616 -0.41610655 0.0028100782
-0.0043187202 -0.0010691872 0.015217232 -0.9409278 0.12766087 -0.31362009 0.0058108727
-0.0037656394 0.0020036744 0.015242789 -0.95122892 0.23698713 -0.19748585 0.0041857893
-0.0027109806 0.0051746638 0.015450204 -0.95224792 0.27598372 -0.13060248 0.0017595459
-0.001981986 0.0071355449 0.01600405 -0.94439214 0.30000669 -0.13460863 0.0011986804
0.0043974128 -0.023845004 0.019734228 -0.078806594 -0.69193029 -0.71765029 0.0029928728
0.0068615731 -0.023849532 0.019818282 0.13839433 -0.74278271 -0.65507317 0.004091416
-0.0012251936 -0.021329027 0.019482054 -0.41356885 -0.49034429 -0.76715273 0.001177332
0.0013024089 -0.021938602 0.018834339 -0.2741355 -0.58185977 -0.7656951 0.0025275594
0.0042691114 -0.022108415 0.018169183 -0.15854216 -0.66941524 -0.72577375 0.0031354711
0.0075604864 -0.022356302 0.018200042 0.069379695 -0.75442582 -0.65270823 0.0036607084
0.010476679 -0.021944797 0.018350953 0.239678 -0.79365188 -0.55917001 0.004210047
0.013156841 -0.021171652 0.018768057 0.38665098 -0.79382616 -0.46940497 0.0029009134
-0.0040141796 -0.018208181 0.01941416 -0.53654432 -0.38573799 -0.75055069 0.0013348347
-0.0017527533 -0.019108368 0.018408755 -0.47114331 -0.45581445 -0.75515383 0.00050559948
0.0008572209 -0.019770397 0.017445229 -0.32353976 -0.55773008 -0.76436853 0.001675146
0.013909013 -0.02016037 0.017650006 0.34677362 -0.80979812 -0.47326005 0.004041486
0.016335333 -0.019120285 0.018305745 0.49895442 -0.77420384 -0.38942638 0.0016625513
0.018543515 -0.017917322 0.019322934 0.62300062 -0.71621829 -0.31448603 0.0022239401
-0.0045324573 -0.015628815 0.018714838 -0.64045298 -0.28586709 -0.71281129 0.001316795
-0.0024487958 -0.016532894 0.017424909 -0.52950603 -0.42450082 -0.7344538 0.0015491203
0.019502206 -0.016540812 0.018073991 0.62575269 -0.72669512 -0.28345701 0.0020677827
0.021336416 -0.01493646 0.018498601 0.69677573 -0.68071967 -0.22610696 0.0011317546
-0.006437487 -0.012512462 0.019619351 -0.75365418 -0.15721802 -0.63819116 0.0026854111
-0.0049940101 -0.01283606 0.018090693 -0.72368497 -0.20811895 -0.6580019 0.0013484252
0.022789728 -0.013202244 0.018056961 0.72104895 -0.662319 -0.20352402 0.00084773271
-0.0066815508 -0.0098004742 0.01947687 -0.81748337 -0.050164621 -0.57376343 0.0028243221
-0.0054887971 -0.0098844031 0.017800396 -0.79504567 -0.12702397 -0.59309983 0.0022313495
0.024959657 -0.010241526 0.017345751 0.75181854 -0.62665188 -0.20512508 0.00032868367
-0.0064282222 -0.0068393629 0.019045914 -0.87432367 0.046287302 -0.48313108 0.0028868311
-0.0056718211 -0.0068177227 0.017747846 -0.85968661 -0.040701192 -0.50919777 0.0019294011
-0.0064329202 -0.0043833097 0.019336695 -0.91627949 0.1962757 -0.3491528 0.0052284696
-0.0056724655 -0.0038752672 0.017787898 -0.92319506 0.086498037 -0.37447155 0.0057702973
-0.0053120665 -0.0010575005 0.018329622 -0.91187137 0.2904079 -0.29009295 0.0046631056
-0.0043307673 0.0016451934 0.018449957 -0.93136036 0.3119441 -0.18777341 0.0015429563
-0.0034674732 0.0037287669 0.018045599 -0.9429757 0.29947621 -0.14529599 0.0017920131
0.0011969475 -0.026479265 0.022626657 -0.11090906 -0.67240769 -0.73182458 0.0030269236
0.0041709631 -0.026474139 0.022540325 0.053549167 -0.74952495 -0.65980667 0.0040474972
0.0059072729 -0.026484067 0.022707844 0.20552695 -0.77240729 -0.60095382 0.0052159489
-0.004061135 -0.0238824 0.022471115 -0.41634646 -0.45252928 -0.78858918 0.0011007079
-0.0016647127 -0.024565067 0.02188891 -0.27918816 -0.57104993 -0.77198178 0.0010524287
0.0011961758 -0.024917942 0.021284221 -0.15136115 -0.65649343 -0.73898995 0.0011876042
0.0041112825 -0.025103243 0.021066697 -0.004061636 -0.72463804 -0.68911773 0.001013236
0.0072363745 -0.024977839 0.02129532 0.16410248 -0.7715621 -0.61462373 0.0023546917
0.010290624 -0.024242869 0.021707714 0.34306961 -0.80600631 -0.48234531 0.0038527511
0.012596291 -0.023500429 0.022538895 0.50328952 -0.78302044 -0.36548403 0.002137397
-0.0066832919 -0.020924294 0.022558434 -0.53490216 -0.33756515 -0.77455115 0.0013488341
-0.0047047669 -0.021688357 0.021664305 -0.49028599 -0.37420109 -0.7871424 0.00087832415
-0.0021672156 -0.022173716 0.020520888 -0.38511017 -0.49452496 -0.77918887 0.0040496476
0.00033307 -0.023250395 0.020135919 -0.21707544 -0.60412639 -0.7667526 0.0020521593
0.010812079 -0.023132471 0.020238662 0.2884874 -0.80060911 -0.52516669 0.0029779347
0.013589212 -0.022270359 0.021301044 0.50198585 -0.78405833 -0.36505166 0.0020156309
0.01586557 -0.020806599 0.021459654 0.54987156 -0.76287925 -0.34008321 0.0014164916
-0.00717622 -0.018617444 0.022127839 -0.61253458 -0.26621971 -0.74426365 0.001820263
-0.0051459465 -0.019002642 0.02067117 -0.55372846 -0.34352031 -0.75853717 0.0032235219
0.017357148 -0.019577676 0.021244103 0.61106938 -0.75129128 -0.24931015 0.00095372915
0.019002808 -0.018258864 0.021624224 0.67018044 -0.71183282 -0.21012437 0.0021132627
-0.0075520668 -0.015721882 0.02156532 -0.67502916 -0.20692873 -0.7081781 0.0010392289
-0.0058310665 -0.016598446 0.020234296 -0.64394683 -0.25851309 -0.72007185 0.00079332973
0.020481598 -0.016770022 0.021499733 0.70967245 -0.6823175 -0.17552142 0.0008005136
0.021697521 -0.015273625 0.021078104 0.71051377 -0.68073183 -0.17825373 0.0008844831
-0.007901594 -0.012849091 0.021330466 -0.77079606 -0.084829301 -0.63140911 0.003075053
0.022711696 -0.014053727 0.021604056 0.7203247 -0.66897869 -0.18330255 0.00064384361
-0.0080952793 -0.0099555412 0.021593781 -0.85712028 0.038870208 -0.51364779 0.0043574371
-0.0075940541 -0.0069815917 0.021223858 -0.8941074 0.15136947 -0.42149636 0.0054895086
-0.007004166 -0.003933501 0.021295989 -0.90599072 0.28903294 -0.3092584 0.0049211062
-0.0064761904 -0.0019382043 0.022015119 -0.90537918 0.37402105 -0.20098981 0.001902989
-0.0057739229 -0.00069799228 0.021391464 -0.92043054 0.34805709 -0.17794359 0.0014643755
-0.0046103639 0.0018965313 0.021241793 -0.90270686 0.41349033 -0.11893729 0.0013701139
-0.0010471112 -0.029662022 0.025801493 -0.084884539 -0.71913338 -0.68966788 0.0067891977
0.00069988245 -0.029664112 0.025833199 0.076232925 -0.7488575 -0.65833187 0.0042265006
-0.006933054 -0.026854014 0.025583567 -0.41696274 -0.42162022 -0.80521953 0.0017766737
-0.0046063708 -0.027547413 0.025069779 -0.29170841 -0.53747886 -0.79121596 0.003310092
-0.0017878519 -0.02783007 0.024406126 -0.19460039 -0.61483127 -0.76427299 0.0027645847
0.0011980557 -0.028063605 0.024164712 0.036132421 -0.72712421 -0.68555444 0.003617713
0.0041002757 -0.027960768 0.024287814 0.10934772 -0.77481848 -0.62265503 0.0022106054
0.007052884 -0.027244294 0.024474008 0.31300461 -0.80796933 -0.4992131 0.0043503586
0.0091718631 -0.026623363 0.025059232 0.40935454 -0.80893028 -0.42197242 0.0023022902
-0.0095297685 -0.023916798 0.025699789 -0.52032125 -0.32120141 -0.79126191 0.0011984893
-0.007629537 -0.024764357 0.024942914 -0.48644406 -0.35556543 -0.79808861 0.0011756205
-0.0049948185 -0.025089512 0.023698805 -0.35446259 -0.49186671 -0.79525048 0.0019402604
-0.0026487024 -0.025890848 0.023165243 -0.27393454 -0.55534649 -0.78520703 0.0048145181
0.0081456713 -0.026015425 0.023174414 0.28471592 -0.8206709 -0.49541506 0.0044675348
0.010362768 -0.025541443 0.024229208 0.40031278 -0.81181204 -0.42510092 0.0028236369
0.012772358 -0.024230141 0.024572173 0.53786623 -0.7848717 -0.30769527 0.0020987496
-0.0099899955 -0.021686545 0.025368376 -0.59372735 -0.23066655 -0.77089608 0.0018411271
-0.0079190768 -0.021970522 0.023928445 -0.56728232 -0.27841556 -0.77503264 0.0016283558
-0.0059981914 -0.023036176 0.023145283 -0.43831512 -0.41421559 -0.79768741 0.0015329327
0.014123978 -0.023078473 0.023963505 0.52977115 -0.79496551 -0.29558825 0.0019109329
0.016134582 -0.021618884 0.02462464 0.60084784 -0.75969112 -0.24869935 0.00099316973
-0.010259913 -0.018893523 0.024915164 -0.67245722 -0.14252098 -0.72628438 0.0025527293
-0.0085924976 -0.019079827 0.023458205 -0.65035599 -0.20046057 -0.73270226 0.0013308468
0.018149342 -0.019905711 0.025274092 0.67770863 -0.71372604 -0.17693534 0.0008823754
-0.010347677 -0.015930582 0.0245724 -0.74352372 -0.031889096 -0.66794872 0.0024810731
-0.0089767585 -0.016338611 0.023192743 -0.71853 -0.12155931 -0.68479043 0.0018768952
0.021824379 -0.015617589 0.023856306 0.71578598 -0.67633671 -0.17383626 0.00064421183
-0.010248434 -0.012900673 0.024426309 -0.81397468 0.051395584 -0.57862228 0.0030473166
-0.010030498 -0.010056636 0.024575928 -0.84561527 0.16717158 -0.50694031 0.0045719831
-0.0089725014 -0.009137691 0.022995178 -0.86716366 0.13049315 -0.48062322 0.0046646828
-0.0096838688 -0.0076057771 0.025159745 -0.86819452 0.35440031 -0.34733084 0.0030212211
-0.0088285366 -0.0066727875 0.023998152 -0.89103538 0.27231723 -0.3631795 0.006836507
-0.0079523493 -0.0041359398 0.024397293 -0.89022565 0.37296751 -0.26152182 0.0035083215
-0.0067711654 -0.0014569229 0.024856972 -0.87371951 0.45391738 -0.17485186 0.0019047575
-0.006023718 3.7451275e-05 0.024838248 -0.89052147 0.42975453 -0.14927347 0.0021501363
-0.0055150185 0.00078417826 0.024079794 -0.89052153 0.4297547 -0.14927265 0.0021504064
-0.0097640362 -0.030016994 0.028655684 -0.38990718 -0.42834449 -0.81516463 0.001224363
-0.0076636062 -0.030614885 0.028206849 -0.30141389 -0.51761585 -0.80076426 0.0022919101
-0.0047543258 -0.03096226 0.027627693 -0.19673625 -0.59893942 -0.77625149 0.0018935372
-0.0018732834 -0.031133918 0.027392121 -0.035887744 -0.71468484 -0.69852543 0.0043540411
0.0011493805 -0.030904157 0.027312616 0.16132888 -0.78775871 -0.59448236 0.0033183426
0.0040148161 -0.030278428 0.02754884 0.28976339 -0.8132996 -0.50456011 0.0046368311
0.0059659081 -0.029816473 0.028152103 0.45090398 -0.80711764 -0.38111237 0.0020159641
-0.01261196 -0.026840845 0.028730804 -0.48954093 -0.30935162 -0.81526142 0.0014525324
-0.010653947 -0.027871994 0.028068272 -0.46457687 -0.34658411 -0.81489128 0.0012670979
-0.0079423608 -0.028149439 0.026839139 -0.39937961 -0.42025298 -0.81479043 0.0016612284
-0.0053231581 -0.028912602 0.026221583 -0.22673972 -0.57505691 -0.78606528 0.0020986788
0.0049473238 -0.029198622 0.026353998 0.28794613 -0.84167695 -0.45680079 0.0047066715
0.0072074658 -0.028668443 0.027183687 0.44030499 -0.81925058 -0.3673692 0.0021962179
0.0096846977 -0.027313134 0.027303422 0.53431422 -0.78810251 -0.30561876 0.0035350034
-0.012951285 -0.024816206 0.028444277 -0.56956172 -0.21485662 -0.79337007 0.001695609
-0.010886951 -0.025051033 0.027087549 -0.52878726 -0.27623612 -0.80254447 0.00067594775
-0.0089162188 -0.025815649 0.026179189 -0.50631618 -0.32801887 -0.79752594 0.0018994785
0.011212803 -0.026249917 0.027206386 0.54419529 -0.79694355 -0.26216885 0.0011807645
0.013224354 -0.024766451 0.027545882 0.55382913 -0.79415298 -0.25018844 0.0010380428
-0.01323801 -0.021929281 0.028066868 -0.64010048 -0.13043459 -0.75713813 0.0015454969
-0.011425895 -0.02214084 0.026616866 -0.6230529 -0.16961625 -0.76356757 0.0010265387
0.015197491 -0.022963131 0.026564041 0.60507345 -0.75671226 -0.24753335 0.00080673862
-0.013338404 -0.019017389 0.027829921 -0.70839494 -0.018679859 -0.70556909 0.0023786391
-0.011793419 -0.018954683 0.026354557 -0.68869996 -0.077242382 -0.72092021 0.0021379723
-0.013141264 -0.016076328 0.027859451 -0.76745379 0.10947383 -0.63168842 0.0027077338
-0.011843287 -0.015856007 0.02635034 -0.76199126 0.029261552 -0.64692593 0.0026838067
-0.012870574 -0.013309043 0.02820632 -0.81795633 0.23004328 -0.52728319 0.0039154561
-0.011804367 -0.01296935 0.026749847 -0.82293266 0.12547898 -0.55410904 0.0025416524
-0.012615731 -0.011273752 0.028860474 -0.81726128 0.37146258 -0.44056731 0.0044941325
-0.011436908 -0.0099655278 0.027336435 -0.85798728 0.23347819 -0.45754308 0.0021702126
-0.01031698 -0.0071272608 0.027273571 -0.86099946 0.40718725 -0.30475968 0.0032796275
-0.0095917881 -0.0052393777 0.02844193 -0.8573029 0.45229194 -0.24589379 0.0011990101
-0.0086377459 -0.0040088948 0.027380278 -0.85968715 0.466104 -0.20900978 0.002246988
-0.0073998249 -0.0017205332 0.027497137 -0.86132252 0.48620239 -0.14741375 0.0010375282
-0.0050490033 0.0017839121 0.026497627 -0.86910588 0.47857454 -0.12498529 0.0008535423
-0.012757915 -0.032883741 0.031572349 -0.36146706 -0.45434117 -0.81419629 0.0017196049
-0.010418042 -0.033479519 0.031040354 -0.29788029 -0.53078878 -0.79342961 0.0017445469
-0.007715703 -0.033688053 0.030468209 -0.19622612 -0.60346937 -0.77286494 0.0033441768
-0.0048473454 -0.033997439 0.030393081 0.020231221 -0.72665602 -0.68670344 0.0064342041
-0.0019275221 -0.033761397 0.03032822 0.091811933 -0.78454274 -0.61323994 0.0065529593
0.0010754368 -0.033126295 0.03055303 0.26548016 -0.81071353 -0.52178913 0.0062714992
0.0032210883 -0.032530569 0.031048128 0.38125172 -0.82106143 -0.4248592 0.0032603815
-0.015424015 -0.029941263 0.031588808 -0.48083135 -0.314309 -0.81854194 0.0014124912
-0.013430293 -0.030749222 0.030822134 -0.45052889 -0.35331368 -0.81987387 0.0014691495
-0.010801264 -0.030966489 0.029662328 -0.328109 -0.47597247 -0.81596243 0.0020242129
-0.0085195517 -0.03172823 0.02919112 -0.28905272 -0.51013279 -0.8100698 0.0019767256
-0.0058353688 -0.032385714 0.02901035 -0.14738847 -0.64043075 -0.75374061 0.0053150207
0.001619763 -0.032056451 0.029092802 0.23617867 -0.82186306 -0.51842141 0.0066061639
0.0043392824 -0.031550139 0.030138841 0.42957646 -0.83220887 -0.35055992 0.0026159317
0.0068074558 -0.030205814 0.030239156 0.47723415 -0.81694448 -0.3238045 0.0016696525
-0.015858183 -0.027636863 0.031205298 -0.56750149 -0.20982406 -0.79618835 0.0020385033
-0.013733272 -0.027895456 0.029869983 -0.53170878 -0.24897732 -0.80950361 0.001746018
-0.011718535 -0.028975269 0.029121133 -0.42363617 -0.33145577 -0.84301221 0.0037469177
0.0079894727 -0.029135117 0.02926364 0.45561895 -0.82341528 -0.33822873 0.0025930621
0.00976755 -0.028193882 0.030287148 0.57585907 -0.78764629 -0.21908811 0.0016339513
0.012041658 -0.026442254 0.030513549 0.57727975 -0.78545135 -0.22319099 0.0015115106
-0.016244844 -0.02474493 0.030950876 -0.63438851 -0.077611066 -0.76910847 0.0010227882
-0.014109121 -0.025245715 0.029397642 -0.60335201 -0.14828327 -0.78356779 0.0012633175
0.012775056 -0.025635341 0.029615501 0.5705874 -0.79069585 -0.22187878 0.0014478073
-0.016184738 -0.021861695 0.030747937 -0.69389874 0.0013505552 -0.72007138 0.0034657521
-0.014469155 -0.022343479 0.029197915 -0.66610551 -0.069688372 -0.74259478 0.0018219161
-0.015877357 -0.018998539 0.030632073 -0.75997412 0.10925989 -0.6407041 0.0038153941
-0.014635588 -0.019073997 0.029166156 -0.73279792 0.038548864 -0.67935348 0.0020185234
-0.015558835 -0.01619193 0.030899638 -0.79621869 0.22828813 -0.56028587 0.0031252019
-0.014416803 -0.015953606 0.029457102 -0.77869177 0.15582459 -0.60774821 0.0014402935
-0.015213542 -0.014115969 0.031348489 -0.79756683 0.29579014 -0.52573311 0.0022524032
-0.014016881 -0.012995914 0.030145442 -0.81275272 0.27878407 -0.51157832 0.0027001437
-0.013089007 -0.010395612 0.03066528 -0.83546865 0.42011595 -0.35425234 0.0045393547
-0.012124591 -0.0095240353 0.029263044 -0.85429752 0.35276368 -0.38175049 0.0054162694
-0.012189157 -0.0083117587 0.031568788 -0.83756334 0.47072768 -0.27731413 0.0014374316
-0.01103653 -0.0068887612 0.030393342 -0.8378585 0.49827713 -0.22296424 0.00090465689
-0.0098969592 -0.0047649359 0.030772189 -0.83245021 0.51747745 -0.19810009 0.0004713485
-0.0087937079 -0.0032468545 0.030296786 -0.83938283 0.50901192 -0.1906395 0.000770682
-0.007361141 -0.001231025 0.030000964 -0.84675938 0.51210773 -0.14402828 0.00044673923
-0.015707592 -0.035962723 0.034612313 -0.33682489 -0.52217066 -0.78350925 0.0038722609
-0.013421866 -0.036450043 0.034107167 -0.27109459 -0.55770123 -0.78452343 0.0016420158
-0.010471469 -0.036777951 0.033659905 -0.077048488 -0.68798453 -0.72162378 0.0056482283
-0.0075114872 -0.036756694 0.033390764 0.019940794 -0.78162783 -0.62342632 0.0055669681
-0.0047888127 -0.036370128 0.033232536 0.1380952 -0.79719675 -0.58771342 0.0083403429
-0.0021429628 -0.036053345 0.033845171 0.3205635 -0.84587121 -0.42631081 0.0018618953
-0.018582636 -0.033193439 0.034647822 -0.44241434 -0.35795629 -0.82227546 0.0019745661
-0.016469223 -0.03389857 0.033832911 -0.38482526 -0.42590255 -0.81885082 0.0014158776
-0.013687358 -0.034188151 0.032725062 -0.29966673 -0.50535548 -0.80920684 0.0020814554
-0.010688833 -0.034973256 0.032191828 -0.20500857 -0.59582764 -0.77650565 0.0028258392
-0.00141293 -0.035078458 0.03246526 0.25737852 -0.85170102 -0.45646653 0.0065664351
0.0012032177 -0.034468062 0.033324476 0.37950084 -0.84850746 -0.36880088 0.0051223137
0.0036536078 -0.033101432 0.033131439 0.45565858 -0.82385147 -0.33711126 0.0028219435
-0.019112058 -0.030832035 0.034190912 -0.52355838 -0.22974016 -0.82043046 0.0016474088
-0.01670103 -0.031018419 0.032760493 -0.51119959 -0.26208571 -0.81852674 0.0011795157
-0.014732471 -0.032097183 0.032067947 -0.40290537 -0.36591244 -0.8389132 0.0022437009
0.0052615968 -0.03218703 0.033351235 0.46605548 -0.8313064 -0.30285645 0.0015893212
0.007285642 -0.030730704 0.033057515 0.55212605 -0.7983377 -0.24044481 0.0021629594
-0.01935949 -0.027901171 0.033770848 -0.59499729 -0.11616256 -0.79528886 0.0017850435
-0.017373934 -0.027966211 0.032344341 -0.57910544 -0.1522266 -0.80091447 0.0012410837
0.0113409 -0.027350741 0.033051454 0.59447771 -0.7815659 -0.18907943 0.00043061064
-0.019401802 -0.024837716 0.0336079 -0.66523737 0.012631065 -0.74652517 0.0023620753
-0.017774006 -0.024770826 0.032226872 -0.6388467 -0.042822044 -0.76814133 0.0017297019
-0.019201236 -0.021884084 0.033721853 -0.72218132 0.14307077 -0.67674577 0.002412864
-0.01770222 -0.021554237 0.032238629 -0.70644164 0.076029815 -0.70367587 0.0020144696
-0.018754503 -0.019028032 0.034059849 -0.76082504 0.2643486 -0.59267616 0.0026823238
-0.017428791 -0.018570308 0.032634702 -0.75926918 0.17969656 -0.62547535 0.002144916
-0.018377751 -0.017017165 0.034614228 -0.78291702 0.3451781 -0.51758385 0.00093228812
-0.017000299 -0.015783947 0.033300351 -0.79759526 0.2904309 -0.52866966 0.0029811852
-0.015793184 -0.013094349 0.033434536 -0.81461 0.43377677 -0.38503027 0.0036176776
-0.014735152 -0.012117522 0.032148279 -0.8174426 0.38279781 -0.43041083 0.0025502753
-0.013901986 -0.010008168 0.033423614 -0.80925059 0.51757145 -0.27790904 0.00028735591
-0.012654183 -0.0079463283 0.03365764 -0.81054115 0.52368736 -0.26224917 0.00054268941
-0.011477597 -0.006316646 0.033320151 -0.80919528 0.56969243 -0.14371304 0.0019015188
-0.0098685175 -0.0041173506 0.033217054 -0.81188571 0.56326985 -0.15352055 0.0012382831
-0.018886542 -0.038759626 0.037663221 -0.34473664 -0.53127152 -0.77389097 0.0019959041
-0.016465569 -0.03915941 0.037171669 -0.22874944 -0.61586052 -0.75391608 0.003341093
-0.013607726 -0.039311782 0.036616899 -0.10429131 -0.68471336 -0.72131193 0.005977131
-0.010536618 -0.039290495 0.036363091 0.014353162 -0.76538086 -0.64341742 0.0060036308
-0.0076021748 -0.038976319 0.036425702 0.15437889 -0.82750827 -0.53981215 0.0067772749
-0.0053125327 -0.038704976 0.03700453 0.30391434 -0.84866029 -0.43291092 0.0066338214
-0.021910293 -0.035893545 0.03755958 -0.44617161 -0.36305451 -0.81799895 0.0022006137
-0.019682415 -0.036710545 0.036826465 -0.36156479 -0.46780068 -0.80649447 0.0014984887
-0.0167778 -0.037081808 0.035757244 -0.28493333 -0.53746665 -0.79368919 0.001969069
-0.013820508 -0.037752725 0.035253122 -0.17842969 -0.64106017 -0.74646151 0.0027416889
-0.0061782645 -0.037908919 0.035087906 0.14910857 -0.85072809 -0.50401217 0.0086882105
-0.0042785178 -0.037858874 0.036031965 0.27855781 -0.8665157 -0.41419333 0.0075594797
-0.0018866463 -0.037054174 0.036424641 0.36909705 -0.86244094 -0.34635672 0.0031738379
0.00061002077 -0.035800539 0.036359034 0.43413952 -0.85454971 -0.28507474 0.0021459269
-0.02251252 -0.033650994 0.03712415 -0.49276543 -0.26622418 -0.82843649 0.0014896505
-0.019854361 -0.034057841 0.035705 -0.44015241 -0.34169242 -0.83036876 0.001747102
-0.017716877 -0.035190865 0.035051119 -0.38585699 -0.39257288 -0.83486581 0.0022765312
0.0014588907 -0.035130784 0.035378464 0.43089911 -0.85670096 -0.2835305 0.0023195052
0.0040107835 -0.033659808 0.036162294 0.49888599 -0.83381718 -0.23635083 0.00055506389
-0.024138723 -0.031728029 0.03776481 -0.59666795 -0.086907491 -0.79776835 0.00194161
-0.022718994 -0.030834572 0.03665268 -0.55852544 -0.15604444 -0.81467748 0.0012489547
-0.020599401 -0.031303898 0.035285164 -0.54499453 -0.17309363 -0.82037765 0.0016761551
-0.022759559 -0.028029652 0.0364867 -0.63505763 -0.024678655 -0.77207041 0.0011204313
-0.020938398 -0.027975449 0.034994278 -0.62030452 -0.060258653 -0.78204298 0.0016720577
-0.024141673 -0.026355172 0.037820719 -0.68170595 0.1870548 -0.70731002 0.0039552944
-0.022505913 -0.025046937 0.036499396 -0.69888496 0.13242981 -0.70286715 0.0030867252
-0.020937817 -0.024971353 0.034981679 -0.68348032 0.068862461 -0.72671354 0.0018798249
-0.022129316 -0.022132369 0.036885425 -0.74293447 0.26023167 -0.61670732 0.0037679956
-0.020755939 -0.021685096 0.035452679 -0.73281813 0.19133471 -0.65296906 0.0018114339
-0.021695178 -0.019813245 0.03752134 -0.76058596 0.38702101 -0.52127129 0.0030228319
-0.020200107 -0.018782627 0.036114655 -0.76462883 0.31595179 -0.56170917 0.0022776378
-0.019039236 -0.016176142 0.036505494 -0.78027064 0.46359599 -0.41982922 0.0033171044
-0.017777525 -0.014884988 0.035508804 -0.8138563 0.44101676 -0.37834141 0.0030488896
-0.016841928 -0.0127504 0.036597479 -0.78369129 0.5239535 -0.33361769 0.0016240177
-0.015568661 -0.010795281 0.03670492 -0.78814834 0.56483471 -0.24450788 0.0016204251
-0.014440944 -0.0093539553 0.036439549 -0.77073318 0.61139089 -0.1793641 0.0015844122
-0.012815829 -0.0073731747 0.035727266 -0.7761057 0.6095444 -0.16160297 0.0018696258
-0.010547479 -0.0045812903 0.036789723 -0.77590263 0.62090623 -0.11158212 0.00050624477
-0.021460976 -0.041460566 0.040714867 -0.27458191 -0.60504884 -0.74734241 0.0028859384
-0.019837987 -0.041755743 0.040412374 -0.19047321 -0.70875144 -0.67925793 0.0041456609
-0.016808281 -0.042194091 0.040276151 -0.080349632 -0.76476926 -0.63927448 0.0048627304
-0.013919315 -0.042124473 0.040073764 0.063689016 -0.83380884 -0.54836714 0.0050109518
-0.010891699 -0.041818492 0.040395275 0.20994721 -0.88879365 -0.40739182 0.0027900226
-0.024631774 -0.039218627 0.040599711 -0.425174 -0.4333472 -0.79463023 0.0027427564
-0.022473102 -0.03982909 0.03993075 -0.33392069 -0.53663194 -0.77493423 0.0013762627
-0.019745458 -0.039969876 0.038937181 -0.25282595 -0.59238046 -0.76496035 0.0029772727
-0.016977096 -0.040712245 0.038690202 -0.15202473 -0.67944258 -0.71780652 0.002720326
-0.013666313 -0.041011572 0.038531892 -0.017349472 -0.80066258 -0.59886432 0.0039257677
-0.010714824 -0.04102198 0.038915291 0.13010938 -0.86118823 -0.49135166 0.0049401559
-0.0076762973 -0.040343367 0.039106667 0.28169093 -0.88098079 -0.38016185 0.0056438698
