# .PCD v0.7 - Point Cloud Data file format
VERSION 0.7
FIELDS x y z normal_x normal_y normal_z curvature
SIZE 4 4 4 4 4 4 4
TYPE F F F F F F F
COUNT 1 1 1 1 1 1 1
WIDTH 556
HEIGHT 1
VIEWPOINT 0 0 0 1 0 0 0
POINTS 556
DATA ascii
0.043271676 0.020599026 -0.025582859 0.0072663738 -0.76882774 -0.63941467 0.0028579512
0.046184994 0.020873534 -0.025429094 0.24157861 -0.7762394 -0.58231628 0.0041413261
0.048416469 0.02129318 -0.024740841 0.49108428 -0.70736212 -0.50840455 0.0047708587
0.03511332 0.023545738 -0.025052043 -0.5467571 -0.52729577 -0.65039665 0.0021269894
0.037187964 0.023048082 -0.026175654 -0.45037997 -0.61697155 -0.6453712 0.0058340235
0.040117633 0.022186743 -0.026833165 -0.22176133 -0.72288376 -0.6544165 0.0022711393
0.043295607 0.021884225 -0.027154123 -0.019093229 -0.75820279 -0.65173918 0.0027929384
0.046492018 0.022036012 -0.026799405 0.21946791 -0.75382072 -0.61934489 0.0039244872
0.049424745 0.023069754 -0.026072254 0.53492033 -0.66970074 -0.51513213 0.0083322972
0.051113453 0.023783287 -0.025002478 0.68026602 -0.56964326 -0.46124259 0.0045189634
0.032610543 0.027175738 -0.024378588 -0.79002982 -0.11366174 -0.60244 0.0023567593
0.034180857 0.025993036 -0.025760151 -0.72366631 -0.30301777 -0.6200704 0.0035625282
0.036105767 0.02514434 -0.027166596 -0.57965553 -0.44400018 -0.68327391 0.0027724858
0.050636195 0.024998648 -0.027124634 0.65501916 -0.52636188 -0.54211897 0.0045696944
0.052024268 0.025996571 -0.025733057 0.81042683 -0.41930586 -0.40913445 0.0052191163
0.032587584 0.029169168 -0.024683092 -0.82146257 -0.059123434 -0.56718922 0.0056679156
0.033661593 0.028990973 -0.026190698 -0.80849028 -0.088247694 -0.58185548 0.0032217496
0.05304319 0.029084336 -0.025914833 0.90923297 -0.18931659 -0.37074867 0.0024032092
0.032603521 0.031421676 -0.02447173 -0.85240841 0.16103728 -0.49746057 0.0058229337
0.033666566 0.032200776 -0.025990672 -0.85198689 0.15774895 -0.4992331 0.0052588442
0.053174272 0.032077357 -0.026256675 0.94378865 0.033696163 -0.32882738 0.0027284808
0.034506872 0.035148907 -0.025837719 -0.82198411 0.37856454 -0.42547727 0.0042366749
0.052833758 0.034890234 -0.025807116 0.90755945 0.30060136 -0.29321438 0.0048449379
0.035358921 0.037305724 -0.025173645 -0.75336128 0.56011295 -0.34455797 0.0053447532
0.036677167 0.038426898 -0.02617676 -0.72211242 0.60081095 -0.34289941 0.0045158905
0.051532302 0.03762104 -0.025227724 0.88304234 0.40790346 -0.23205826 0.0061497497
0.038191028 0.040135235 -0.025621038 -0.63158202 0.73081452 -0.25887123 0.0029719393
0.039160814 0.040655028 -0.026176443 -0.62761277 0.72355837 -0.28734231 0.0031593279
0.03793294 0.018390726 -0.021748843 -0.2820785 -0.71111977 -0.64400345 0.0016303206
0.040427882 0.018091442 -0.022164002 -0.12731716 -0.77253389 -0.62207866 0.0022369721
0.043209888 0.01799774 -0.022247741 0.055908877 -0.80480319 -0.59090269 0.0024951326
0.045982931 0.018262336 -0.021927865 0.26165852 -0.78969228 -0.55490619 0.0022863415
0.034674171 0.020713082 -0.022294549 -0.46963489 -0.59236926 -0.65463102 0.0026908522
0.037080005 0.019959223 -0.023046322 -0.35186487 -0.6655618 -0.65819347 0.0030569846
0.04008184 0.019353408 -0.023592049 -0.15394332 -0.76048183 -0.63084769 0.0017410439
0.043418817 0.019146213 -0.023742454 0.027994603 -0.78104597 -0.6238457 0.0021576793
0.046499487 0.019412352 -0.023358451 0.22392288 -0.78430164 -0.57855809 0.0023396667
0.049107563 0.020394642 -0.022854647 0.49518049 -0.71822149 -0.4888294 0.0045441855
0.051324125 0.021281449 -0.021370223 0.70716476 -0.5705325 -0.41762495 0.0064834002
0.032197312 0.023320962 -0.022066757 -0.67614824 -0.38036734 -0.63098669 0.0032670379
0.033908229 0.022706913 -0.023318123 -0.58872795 -0.48787439 -0.64449829 0.0056318077
0.050493058 0.022065843 -0.023633858 0.65278858 -0.61819082 -0.43784377 0.0030405929
0.051863816 0.023164526 -0.022828428 0.73652726 -0.53718299 -0.4110499 0.0043523647
0.031639289 0.026169017 -0.022743911 -0.79204005 -0.21453117 -0.57153213 0.0065273237
0.033085473 0.02495834 -0.024021944 -0.71638 -0.29309523 -0.63316256 0.0027948318
0.053109728 0.025683768 -0.023128372 0.87652761 -0.33660266 -0.34409031 0.0031381589
0.053923354 0.027089102 -0.022212666 0.88898224 -0.31663349 -0.33083808 0.0021910483
0.031445175 0.029132232 -0.022903053 -0.84274369 0.0076610837 -0.53826046 0.0012630644
0.053733617 0.028338673 -0.023718368 0.92316812 -0.21154602 -0.32094994 0.002790123
0.054385975 0.029345684 -0.022113279 0.95896256 -0.12759614 -0.25319964 0.004071529
0.031797159 0.032052241 -0.022754742 -0.85740966 0.24085557 -0.45479363 0.0026734578
0.054320864 0.031559158 -0.02262558 0.95936286 0.019201437 -0.2815212 0.0034442844
0.032439996 0.034528419 -0.022296211 -0.82540303 0.38761726 -0.41044199 0.00283031
0.033375051 0.035528306 -0.023165368 -0.82707942 0.3995336 -0.3953639 0.0043930942
0.05328257 0.035361145 -0.023740998 0.89993989 0.38243231 -0.20941256 0.0069525097
0.034758389 0.037929535 -0.022710333 -0.75520158 0.57766289 -0.30980024 0.0031695629
0.036268082 0.039272621 -0.023465803 -0.62611562 0.73512489 -0.25994343 0.0035730624
0.050612837 0.039113726 -0.023568204 0.88306445 0.40783855 -0.23208798 0.0061781076
0.051964339 0.037772488 -0.023519566 0.88306612 0.40783751 -0.2320834 0.0061788675
0.037242662 0.040330578 -0.022563184 -0.57601863 0.78886908 -0.21421507 0.0040183738
0.03927708 0.041466516 -0.022444462 -0.57599396 0.78888565 -0.21422018 0.0040141954
0.038043201 0.015520028 -0.018549472 -0.21505401 -0.7487722 -0.62697047 0.0017347927
0.040487573 0.015325286 -0.018705361 -0.029116973 -0.78762931 -0.61546111 0.0030438248
0.04302026 0.015400643 -0.018713811 0.11209534 -0.8164646 -0.56641001 0.0021932921
0.044868413 0.015525547 -0.018393805 0.21814296 -0.81890297 -0.53085923 0.0053195893
0.032593396 0.018242134 -0.018585494 -0.47880796 -0.59675676 -0.64391327 0.0012252849
0.034648962 0.017679973 -0.019366162 -0.38267505 -0.63782299 -0.66838729 0.0025283264
0.037264705 0.017089983 -0.020024307 -0.23480193 -0.73326343 -0.6381166 0.0010978611
0.040260367 0.016554732 -0.020239575 -0.084665835 -0.78012401 -0.61986947 0.0015813494
0.043407947 0.016537232 -0.020242285 0.07432884 -0.7952472 -0.60171181 0.0015911162
0.0463508 0.016985852 -0.019877585 0.2501606 -0.80321407 -0.54061717 0.0018092066
0.048684876 0.017902968 -0.019451853 0.51056212 -0.72782534 -0.45781723 0.0028124487
0.031558279 0.020335691 -0.019387674 -0.58607692 -0.47387183 -0.6572361 0.0037215087
0.033744358 0.019515108 -0.020534925 -0.44730651 -0.61213505 -0.65207946 0.0018907811
0.050080776 0.019383395 -0.020108074 0.57358211 -0.71243066 -0.40428472 0.0031807728
0.051526036 0.020594966 -0.019684622 0.712084 -0.60564023 -0.35515663 0.0039390363
0.029420367 0.023733385 -0.019039763 -0.75549877 -0.26898205 -0.59738624 0.0035815244
0.030771261 0.022834182 -0.020226086 -0.72113925 -0.31181031 -0.61865371 0.0018007339
0.05286872 0.022923008 -0.020177584 0.84394348 -0.44527406 -0.2991496 0.0011638706
0.053902194 0.024131862 -0.018780222 0.87962198 -0.38812628 -0.27499649 0.0033748825
0.029170288 0.026190763 -0.019305 -0.82973289 -0.063662477 -0.55451816 0.0034152025
0.030301278 0.026000585 -0.02087749 -0.79798543 -0.12852931 -0.58881193 0.0033184795
0.05365311 0.024923293 -0.020773938 0.89307737 -0.3551991 -0.2761274 0.0022143836
0.054348618 0.02622827 -0.019736839 0.9231171 -0.29126698 -0.25103444 0.0013294719
0.02930039 0.028916705 -0.019383956 -0.86073148 0.12049612 -0.49459273 0.00272438
0.030230386 0.029367115 -0.020877058 -0.85494548 0.068141811 -0.51422268 0.0029064224
0.054615874 0.027888721 -0.020304283 0.95301133 -0.19557802 -0.23134102 0.0022297117
0.029603569 0.031135783 -0.019169187 -0.855151 0.29350838 -0.42728177 0.0017767078
0.030514391 0.032336496 -0.020076683 -0.85757732 0.30179289 -0.41651195 0.0026002286
0.05449767 0.033015292 -0.021234384 0.96788603 0.12036318 -0.22070211 0.011361244
0.031526819 0.035017982 -0.019729201 -0.80894768 0.46562582 -0.35888198 0.0030981079
0.032424424 0.036982749 -0.018822264 -0.74597901 0.59594643 -0.29725933 0.0038860424
0.033851035 0.038158845 -0.019926565 -0.70663917 0.64765155 -0.28497115 0.0034096695
0.035640232 0.039879825 -0.020179024 -0.58327651 0.78466845 -0.20996204 0.0033442988
0.036836628 0.040717669 -0.019929131 -0.57143873 0.79157966 -0.21647023 0.0035614241
0.038877856 0.041767877 -0.019369533 -0.55109835 0.81212521 -0.19168556 0.0020701564
0.032433301 0.015434203 -0.015820183 -0.43046767 -0.61960554 -0.65634328 0.0015957433
0.034410715 0.014843724 -0.016324613 -0.31244501 -0.69438136 -0.64823806 0.0016303941
0.037248313 0.014315209 -0.016818851 -0.19926575 -0.74606103 -0.63536292 0.0012839263
0.040289074 0.013878717 -0.01678087 -0.0094815269 -0.8108359 -0.58519673 0.0012463027
0.043318633 0.014163147 -0.016850751 0.16230464 -0.82833874 -0.5362016 0.0030756781
0.046099745 0.014952895 -0.016774053 0.33408049 -0.80392736 -0.49202761 0.0031684106
0.048114564 0.015391816 -0.015725276 0.49426758 -0.7499885 -0.43956438 0.0032617946
0.029301876 0.018057238 -0.015732164 -0.56763804 -0.48983178 -0.66170382 0.0022825161
0.031420767 0.017185096 -0.016734246 -0.46657136 -0.58667934 -0.66190511 0.0013659359
0.03407564 0.016400728 -0.017757734 -0.33802128 -0.67625517 -0.65453845 0.001364468
0.047310829 0.01611281 -0.017860068 0.39873269 -0.80170554 -0.44528693 0.0086976951
0.049441565 0.017003596 -0.016868411 0.60437453 -0.71679318 -0.34776297 0.0040134354
0.051032599 0.018114885 -0.016171789 0.67512411 -0.66419005 -0.32102796 0.0014308488
0.028616944 0.020356193 -0.016475026 -0.66154528 -0.3744058 -0.64975238 0.0023729349
0.030493131 0.019441204 -0.017775817 -0.59802073 -0.46918675 -0.64979613 0.00071626663
0.052113116 0.019930905 -0.016854657 0.77670234 -0.55899 -0.29028186 0.0022097144
0.027963761 0.023090506 -0.016914206 -0.75181597 -0.2368826 -0.61535299 0.0029880712
0.053497363 0.022400843 -0.017162254 0.86826539 -0.44171825 -0.22583221 0.001780533
0.054066554 0.023750437 -0.017464628 0.87669468 -0.40493777 -0.25967625 0.0036819435
0.027524099 0.02603633 -0.016773792 -0.85622907 0.0052429643 -0.51656967 0.0023365954
0.054618392 0.0251604 -0.01669695 0.89423436 -0.37781432 -0.24000254 0.0027368935
0.027917916 0.029235296 -0.016854735 -0.86595798 0.17133954 -0.46985045 0.0028256672
0.028778875 0.032010395 -0.016853314 -0.84479034 0.32689524 -0.4236376 0.0021153125
0.029901011 0.033256125 -0.018128714 -0.82691073 0.36114526 -0.43103689 0.0032402847
0.029473292 0.034219164 -0.016018411 -0.80727577 0.47095042 -0.35568449 0.0026760281
0.030612906 0.035245914 -0.017218804 -0.80566972 0.480905 -0.34587085 0.001920625
0.032012187 0.037494235 -0.016422605 -0.71731478 0.64676619 -0.25913885 0.0022535988
0.033550087 0.038924851 -0.016751554 -0.65556431 0.72918135 -0.1962907 0.0010619202
0.034996957 0.04003543 -0.016897004 -0.65127319 0.73242849 -0.19847363 0.001162192
0.035886392 0.04061703 -0.017171731 -0.58647811 0.78875738 -0.18413393 0.0028001682
0.032207519 0.012324086 -0.012627515 -0.34251606 -0.67837477 -0.6499927 0.0012253285
0.034558143 0.011934212 -0.013124214 -0.22922312 -0.73745024 -0.63531393 0.001644459
0.037398905 0.01170332 -0.013584121 -0.096818581 -0.78892869 -0.60680938 0.0018376362
0.04024775 0.011746746 -0.013784674 0.061469108 -0.82543886 -0.5611347 0.0018563566
0.04318133 0.011998765 -0.013485744 0.22686224 -0.83270758 -0.50510556 0.0037243171
0.045320455 0.01238528 -0.012911139 0.43430957 -0.80527604 -0.40361574 0.0039616637
0.029132342 0.014731833 -0.012990798 -0.49096516 -0.53941685 -0.68409264 0.0034701666
0.031295769 0.014061351 -0.013799546 -0.37674215 -0.66045541 -0.64951062 0.001113147
0.034046486 0.013413108 -0.014587989 -0.26215741 -0.71864337 -0.64406925 0.0013109514
0.037200656 0.012897013 -0.015090188 -0.14888193 -0.77409685 -0.61531156 0.0014790914
0.043500762 0.013013367 -0.01502292 0.18987478 -0.83467656 -0.51697451 0.0020456244
0.046446964 0.013601069 -0.014103653 0.42623594 -0.79548049 -0.43073612 0.0036485726
0.048646349 0.014730713 -0.013454666 0.62461418 -0.72769612 -0.28339991 0.004156623
0.026330387 0.017823404 -0.012722449 -0.63805997 -0.38691828 -0.66571289 0.0026655241
0.028229276 0.016940186 -0.013926201 -0.57734436 -0.45373225 -0.67882293 0.0047251545
0.030421806 0.015953062 -0.014949943 -0.46585134 -0.57272828 -0.67451084 0.0011508351
0.049780738 0.016009431 -0.013999619 0.69303524 -0.67138672 -0.26256794 0.00098563579
0.051446818 0.017761512 -0.01362226 0.69986904 -0.66224343 -0.26761347 0.001062015
0.025868142 0.020226277 -0.01334952 -0.73897052 -0.24420498 -0.62792236 0.0040759551
0.027320666 0.019776892 -0.014752436 -0.70560598 -0.30135244 -0.64133215 0.0025163612
0.052183911 0.018885879 -0.014178297 0.7275092 -0.62688065 -0.27883875 0.0028075387
0.02558131 0.023078743 -0.01370637 -0.80546409 -0.067209601 -0.58882129 0.0033223911
0.026895929 0.022043837 -0.015216639 -0.76047254 -0.19122311 -0.62057656 0.0058950917
0.025737735 0.02604872 -0.0139345 -0.84287179 0.078146085 -0.53240997 0.0034522454
0.026011178 0.028928798 -0.013437631 -0.86011058 0.29587445 -0.41553351 0.0021182213
0.026913054 0.029383902 -0.014932748 -0.85868055 0.25176707 -0.44640905 0.0039628362
0.026581613 0.031369045 -0.012799055 -0.8294338 0.42727771 -0.35982388 0.002812458
0.027643565 0.032234754 -0.014215513 -0.83982772 0.36660606 -0.40036154 0.0012853693
0.028857449 0.034665581 -0.013762684 -0.79116416 0.52604258 -0.31199107 0.0020857381
0.030168539 0.036200188 -0.014174445 -0.75731349 0.61116672 -0.23011217 0.0030318135
0.031239642 0.037566639 -0.013616433 -0.71849591 0.66186708 -0.21376555 0.0030130832
0.032932322 0.03908005 -0.014024755 -0.66205913 0.72447026 -0.19188675 0.00100552
0.034312017 0.040001582 -0.013982525 -0.66204101 0.72448874 -0.19187984 0.0010081847
0.032574367 0.0093504982 -0.009481376 -0.18342809 -0.73743516 -0.65003347 0.00076020043
0.034590933 0.0091587659 -0.0097871386 -0.128162 -0.76222819 -0.63449395 0.0021873901
0.037395287 0.0091070943 -0.010052625 -0.004983156 -0.82242674 -0.56884927 0.0018001877
0.04018949 0.0091877878 -0.0098803807 0.1685964 -0.8451311 -0.50727576 0.0038950678
0.04208919 0.0093523981 -0.0093874242 0.26404667 -0.86084849 -0.43499324 0.0068707773
0.026618211 0.012439302 -0.0095719201 -0.42139769 -0.554003 -0.71798646 0.0018158394
0.028557682 0.01174143 -0.010100346 -0.3980678 -0.58278614 -0.70845068 0.0020948527
0.031254359 0.011093432 -0.010830982 -0.27264321 -0.70163745 -0.6583088 0.0014176514
0.034160823 0.010457604 -0.011270454 -0.17422625 -0.75478715 -0.63240939 0.0012970337
0.037149716 0.010182605 -0.011530031 -0.051334288 -0.80342078 -0.59319472 0.0014378442
0.040344391 0.010205314 -0.011469136 0.091354683 -0.83232278 -0.54671115 0.0015877045
0.043314781 0.010567088 -0.010875523 0.32143626 -0.84710956 -0.42318338 0.0030181345
0.046157729 0.011834644 -0.010715626 0.52369303 -0.79115719 -0.31593665 0.0026239785
0.025689617 0.014397743 -0.010198596 -0.54699725 -0.4327985 -0.71657485 0.0039173826
0.028008372 0.013889027 -0.011480904 -0.51015025 -0.501082 -0.69904476 0.0024312381
0.030081445 0.01298478 -0.012072047 -0.43616569 -0.60185617 -0.66897583 0.0012191812
0.047598116 0.013215688 -0.012052899 0.56203943 -0.76764566 -0.30794784 0.0013927486
0.049105395 0.014172905 -0.010934284 0.60773152 -0.73777503 -0.29385448 0.0040242248
0.023266483 0.017729187 -0.0097298771 -0.67173761 -0.25333685 -0.69612426 0.0036120214
0.025044028 0.017010499 -0.011048539 -0.65547299 -0.30223763 -0.69210374 0.0022599415
0.027077822 0.015745668 -0.012200853 -0.54209399 -0.47690466 -0.69187868 0.0023565551
0.050988305 0.01626276 -0.010635873 0.7142809 -0.66261435 -0.22526656 0.00027170728
0.023040684 0.020222459 -0.010024147 -0.74259728 -0.087210342 -0.6640358 0.004253997
0.024373766 0.0200247 -0.0115447 -0.75490969 -0.15841582 -0.63640845 0.0031631778
0.0230604 0.023159936 -0.010090506 -0.82140166 0.059739385 -0.56721294 0.0026465028
0.024112433 0.023147598 -0.01164187 -0.8116172 -0.0076585426 -0.58413941 0.0024204089
0.023354048 0.026016908 -0.0099391015 -0.84130311 0.21319766 -0.49674511 0.0030086304
0.024264121 0.026300205 -0.01139014 -0.844015 0.13150522 -0.51994717 0.0015213909
0.023535484 0.027902557 -0.0094183888 -0.8386299 0.34137702 -0.42445454 0.0019368235
0.024798768 0.029104538 -0.010933165 -0.85276687 0.34181142 -0.39490971 0.0025656708
0.02592759 0.031870447 -0.010653693 -0.81783718 0.48164111 -0.31490341 0.0012980297
0.027096113 0.033047851 -0.011897584 -0.83608401 0.46478572 -0.29144093 0.0045006624
0.026778858 0.033927616 -0.0094692614 -0.74890363 0.60811222 -0.26333031 0.0040184665
0.028251121 0.035087839 -0.011006352 -0.73675478 0.64132851 -0.21422012 0.0023961985
0.031069672 0.038015883 -0.010440907 -0.69364053 0.69564396 -0.1869286 0.00085077382
0.03233555 0.0066122385 -0.0063418057 -0.08539369 -0.76390862 -0.63964951 0.0013101839
0.03418915 0.006609547 -0.0065345373 -0.02149613 -0.79708534 -0.60348392 0.0019092626
0.036531981 0.0066109756 -0.0064328667 0.069075719 -0.84045666 -0.537458 0.0021595065
0.025756909 0.0090686129 -0.0066622482 -0.34121209 -0.54850048 -0.76336199 0.0017592873
0.028392786 0.0085498253 -0.0072929459 -0.28829712 -0.62472987 -0.72567022 0.0013941783
0.031261764 0.0081852544 -0.0078691207 -0.18978953 -0.71717721 -0.67054957 0.0018896096
0.034213543 0.0078623062 -0.0080924351 -0.07182008 -0.78360492 -0.61709416 0.0010927721
0.037330821 0.0077504609 -0.008052554 0.030743165 -0.82341975 -0.56659919 0.0010331556
0.040226523 0.0080666058 -0.0079011833 0.20855533 -0.86183375 -0.4623282 0.0036279624
0.043098409 0.0088608339 -0.0075867698 0.38478139 -0.84310663 -0.37565205 0.0041434597
0.022972055 0.011388669 -0.0067741079 -0.4566803 -0.39996642 -0.79465085 0.0034106467
0.025316924 0.011186759 -0.0079473844 -0.43449065 -0.5175643 -0.73711938 0.0031084951
0.02792841 0.010321301 -0.0086320424 -0.32205126 -0.61544573 -0.71938127 0.0014722635
0.030272609 0.0098195495 -0.0092326161 -0.25508884 -0.67016506 -0.69699967 0.0010426854
0.044251893 0.0098325284 -0.0086303707 0.41797274 -0.84370089 -0.33684954 0.0062159332
0.04615071 0.010775368 -0.0080354363 0.50658381 -0.80269611 -0.31472489 0.0029558958
0.04820608 0.012621549 -0.0085834768 0.60450035 -0.7458986 -0.27966905 0.0031083354
0.020415653 0.015012623 -0.0065524485 -0.56602454 -0.25163969 -0.78504372 0.0034794167
0.022292163 0.014096272 -0.0075658644 -0.52592158 -0.292611 -0.79861462 0.0033341805
0.024414433 0.013580312 -0.0088802306 -0.54993492 -0.36430243 -0.7515685 0.0019335565
0.048877083 0.013311584 -0.0088191088 0.61695129 -0.73917395 -0.27017239 0.0030020524
0.020176802 0.017108766 -0.0066743079 -0.66481674 -0.08040908 -0.74266624 0.0043891063
0.02191213 0.016952559 -0.0082562603 -0.67760932 -0.14021686 -0.72193128 0.0025322449
0.020212661 0.019945106 -0.0067432751 -0.7367844 0.057292581 -0.67369592 0.0031610862
0.021502838 0.020071637 -0.0082444027 -0.7507211 -0.011216745 -0.66052407 0.0021597655
0.020415297 0.022715578 -0.0065605473 -0.78090388 0.19599347 -0.59310675 0.002616609
0.021518994 0.023112744 -0.0078970958 -0.8070339 0.13701729 -0.57438886 0.0033456173
0.02215486 0.026043372 -0.0078016692 -0.83468682 0.2625736 -0.48410022 0.003375089
0.023160897 0.028946735 -0.0076471092 -0.83190525 0.37839794 -0.40589246 0.0019642364
0.024146264 0.029913727 -0.008830687 -0.85577661 0.37246066 -0.35905355 0.004907025
0.023687234 0.03089067 -0.0064830091 -0.78971148 0.52838016 -0.31172138 0.0041320235
0.02507362 0.032190211 -0.0078643644 -0.8018378 0.52935863 -0.27719226 0.0020000727
0.026409967 0.034054037 -0.0078388359 -0.73858589 0.63932401 -0.21390593 0.0026765531
0.027784206 0.035421304 -0.0081989793 -0.74436468 0.631836 -0.21611218 0.0027127427
0.029221075 0.036870655 -0.0075558331 -0.72108245 0.66101044 -0.20761807 0.0014710069
0.023019468 0.0060645277 -0.0034837702 -0.28933492 -0.55737299 -0.77821636 0.0017294813
0.025470112 0.0057502128 -0.0039972668 -0.21132627 -0.62948364 -0.74772424 0.0015888304
0.028347725 0.0056410274 -0.0045722323 -0.12841105 -0.69459122 -0.70785141 0.0015859132
0.031255782 0.0053712502 -0.0047163307 -0.059322163 -0.76480556 -0.64152431 0.0027176563
0.034246922 0.0053704493 -0.0048235208 0.029348401 -0.81178808 -0.5832141 0.00062238722
0.037249304 0.005713189 -0.0048680129 0.17785279 -0.85172266 -0.49288639 0.0027291493
0.039684113 0.0061674146 -0.0045803902 0.28693515 -0.85707897 -0.42788297 0.0047016917
0.019755244 0.0086839953 -0.0037693626 -0.38627529 -0.4041518 -0.82912767 0.0029586086
0.022405624 0.0080714542 -0.0046130144 -0.30241257 -0.50126392 -0.81072879 0.00097658962
0.025176736 0.0076850979 -0.0054319021 -0.25656307 -0.5939495 -0.76249552 0.00098809041
0.028105831 0.0072246492 -0.0060022231 -0.19334686 -0.66575986 -0.72068077 0.0016736584
0.041009944 0.0069768913 -0.0053419378 0.30692697 -0.87908673 -0.3646948 0.004744234
0.043250922 0.0078806663 -0.0049556498 0.44222867 -0.84249109 -0.30764031 0.0033007916
0.045558564 0.0094436975 -0.0049267914 0.5247215 -0.80963343 -0.26298481 0.0010539471
0.01746515 0.011612365 -0.0035855111 -0.5268749 -0.25449687 -0.81094652 0.0027809038
0.019330258 0.011092226 -0.0045600249 -0.50460774 -0.28893882 -0.81356335 0.0011933716
0.021683576 0.010744485 -0.0057571493 -0.44071484 -0.37735015 -0.81447977 0.0028081399
0.046935953 0.010608506 -0.005183978 0.55817783 -0.78956401 -0.25500235 0.00061453722
0.017242922 0.014160254 -0.0039440212 -0.63242429 -0.088720717 -0.76952463 0.0041237306
0.019206017 0.014043088 -0.0053856527 -0.60544139 -0.14430848 -0.7826978 0.0022544235
0.020898556 0.012921941 -0.0061976817 -0.54899073 -0.2567867 -0.79540545 0.0018231227
0.017268542 0.017142273 -0.0039974828 -0.69301301 0.061793283 -0.71827191 0.0033936303
0.01882468 0.017154813 -0.0054734941 -0.68926543 0.0018461855 -0.72450656 0.0022451261
0.017531985 0.019852011 -0.0037533038 -0.74408138 0.18680687 -0.64144063 0.002085926
0.018951315 0.020191135 -0.0052310359 -0.74661207 0.11222763 -0.65572506 0.0021235796
0.017735256 0.021703912 -0.0033494437 -0.76828527 0.30040219 -0.56524003 0.0020194764
0.019303359 0.023090035 -0.004797759 -0.78147614 0.23107457 -0.57956833 0.001832594
0.020071747 0.025812618 -0.0044142986 -0.81269825 0.36209255 -0.45652002 0.0024613386
0.021058038 0.026473118 -0.0056255707 -0.82319278 0.30785087 -0.47705504 0.0017428503
0.020555284 0.02781534 -0.0033903026 -0.7987029 0.49365264 -0.34406519 0.0024759113
0.022011645 0.028996021 -0.0050137341 -0.80991739 0.47984371 -0.33731863 0.001857464
0.023407079 0.031394884 -0.0046381201 -0.76882124 0.58423877 -0.25995952 0.0037185259
0.024560444 0.032602288 -0.0054371785 -0.73807323 0.64425904 -0.20044535 0.0011518388
0.026074134 0.034230176 -0.0055665378 -0.73633945 0.65286767 -0.17767394 0.0006748442
0.027258992 0.035420086 -0.005319884 -0.7212956 0.6699847 -0.17565101 0.00083438092
0.019936526 0.0032447868 -0.00055595289 -0.23384273 -0.5760901 -0.78322273 0.0016524602
0.022437969 0.002963681 -0.00091408181 -0.15919273 -0.64642054 -0.74618906 0.0010838746
0.025377581 0.0027208964 -0.0012063084 -0.10033906 -0.70471942 -0.70235503 0.0017476025
0.028374391 0.0026371113 -0.001353984 -0.019848917 -0.7640388 -0.64486492 0.0022942263
0.031165747 0.002766107 -0.0014764657 0.070256338 -0.81219304 -0.57914287 0.0023961312
0.034084421 0.0030204516 -0.0013049318 0.17159842 -0.8456558 -0.50539118 0.0017194883
0.036761671 0.003379124 -0.00070030539 0.3130365 -0.8666659 -0.38845652 0.003257313
0.014534228 0.0062228711 -0.00032814391 -0.37081504 -0.37382105 -0.85014939 0.0026807047
0.016697314 0.0055369902 -0.00086874771 -0.34534982 -0.42630354 -0.83606148 0.0030725643
0.019326467 0.0049706176 -0.001589259 -0.26988435 -0.54220235 -0.79572546 0.00091845857
0.022145953 0.004884514 -0.0023875867 -0.19909291 -0.59525651 -0.77848047 0.0011487878
0.025124812 0.0043721385 -0.0026926668 -0.14747955 -0.67438233 -0.72350413 0.0012835792
0.028155079 0.0040236954 -0.0029254074 -0.08046446 -0.73309857 -0.67534572 0.0012966903
0.031406023 0.0038357989 -0.0028868434 0.0038884948 -0.79010737 -0.61295605 0.0018337349
0.034663647 0.0040249033 -0.0027682895 0.12309836 -0.85324162 -0.50677967 0.0037541543
0.037427504 0.00424599 -0.0020517102 0.29406959 -0.87299603 -0.38910291 0.0027830233
0.040223118 0.0053239381 -0.0020582986 0.39032429 -0.85555691 -0.34010208 0.0031205923
0.042384174 0.0062104734 -0.001289388 0.474493 -0.83287704 -0.28490749 0.0013536797
0.014050228 0.0084788455 -0.00068160275 -0.47209808 -0.2389518 -0.84854311 0.002174254
0.016374106 0.0080897566 -0.0018752385 -0.43301672 -0.31439 -0.84478122 0.00082954555
0.019010399 0.0074459212 -0.0028269861 -0.33509618 -0.43641168 -0.83501816 0.0017264193
0.021029916 0.0066549303 -0.0032937431 -0.27617577 -0.527915 -0.80313933 0.0016458629
0.043427683 0.0072361296 -0.0022429789 0.47608534 -0.83172578 -0.28561327 0.0013081026
0.045307472 0.0087814974 -0.0027585232 0.51337403 -0.81670523 -0.26351401 0.00083224877
0.013672558 0.01125757 -0.0010081424 -0.56426519 -0.10920419 -0.81833935 0.0029925266
0.016037747 0.011006193 -0.0025276474 -0.54771554 -0.15526195 -0.82213223 0.0013185691
0.013709317 0.013939138 -0.0011343793 -0.63928437 0.061406501 -0.76651466 0.0038707072
0.015665215 0.014146187 -0.0027213376 -0.62572807 -0.0068128081 -0.78001153 0.0034613241
0.014155419 0.016926983 -0.00088946719 -0.69929457 0.2005177 -0.68613392 0.0024418493
0.015669372 0.017256547 -0.0023430467 -0.69213128 0.12627546 -0.71063977 0.001877367
0.014527439 0.01923628 -0.00055325578 -0.73641729 0.32498729 -0.59335721 0.0021429448
0.016057624 0.020121707 -0.0019258037 -0.73924959 0.23746224 -0.63017601 0.001629918
0.017049206 0.022925027 -0.001699694 -0.77266747 0.36146441 -0.52185088 0.0026322636
0.018378995 0.024000214 -0.0029212688 -0.78494775 0.33391464 -0.52187943 0.0014242132
0.017590033 0.024895189 -0.00092708122 -0.77818483 0.42267185 -0.46451798 0.0017143065
0.018935129 0.026299611 -0.0018094041 -0.78302181 0.45276552 -0.42647427 0.00061372161
0.020218315 0.028513948 -0.0016586798 -0.77766478 0.53110391 -0.33640182 0.0021683718
0.021384709 0.029684696 -0.0023942494 -0.76437908 0.59272116 -0.25378376 0.0030457079
0.022436677 0.031206217 -0.0019693279 -0.74952143 0.61620575 -0.2418842 0.0026243534
0.024338093 0.033017367 -0.0029986901 -0.73674417 0.64950234 -0.18802832 0.00086261885
0.025296411 0.033982348 -0.002689203 -0.7384572 0.6498673 -0.17987065 0.000991637
-0.066823728 -0.039291736 0.0021331299 -0.16901332 -0.47405058 -0.86412418 0.021814197
-0.064776964 -0.03931471 0.001921631 0.043692674 -0.50498563 -0.86202121 0.018935336
-0.06251739 -0.038831122 0.0024062416 0.29529375 -0.55617195 -0.77683616 0.01008521
-0.06736505 -0.03675748 0.0016910326 -0.4671478 -0.10078467 -0.87841636 0.013985798
-0.064676791 -0.03669896 0.00099563424 -0.064878188 -0.13575913 -0.98861533 0.02081454
-0.061659038 -0.03684004 0.0018841856 0.3025355 -0.28611767 -0.90918034 0.0069613033
-0.059577975 -0.036152624 0.0024283594 0.32512477 -0.2837587 -0.90209478 0.007621557
-0.067511268 -0.033931375 0.0017267858 -0.40525955 0.21407388 -0.88878405 0.023800395
-0.064629093 -0.033961885 0.0012020069 -0.0082707945 0.24539588 -0.96938771 0.019993171
-0.06175153 -0.033945784 0.0016324631 0.16115318 0.16437374 -0.97314489 0.010180754
-0.058857795 -0.033924341 0.0023725433 0.16594012 -0.073346332 -0.9834044 0.0075206356
-0.056893785 -0.0328351 0.0026710129 0.1356612 0.025779793 -0.99041981 0.0033415654
-0.066753469 -0.032222837 0.0024515486 -0.37892222 0.43061894 -0.81913692 0.020574123
-0.064576633 -0.031908873 0.0022339656 -0.11150899 0.56970102 -0.81425214 0.010510429
-0.06160482 -0.031852193 0.0022725728 0.036043245 0.44044083 -0.89705783 0.010449297
-0.058617268 -0.031901248 0.0025580078 0.057499655 0.084938139 -0.9947257 0.0083106486
-0.056892864 -0.032357801 0.0026639795 0.11050688 0.0079145441 -0.99384385 0.0043266742
0.014624319 0.0005401643 0.0026593304 -0.19588445 -0.53562993 -0.82141942 0.0030643023
0.016522316 0.00038130139 0.0023994276 -0.15931264 -0.57686704 -0.80115163 0.0018855955
0.019494362 0.00011385418 0.0020994984 -0.10981392 -0.64816338 -0.75354177 0.0018848322
0.022448888 6.3995598e-05 0.0017801899 -0.049836826 -0.71230811 -0.70009536 0.0021466063
0.025301075 6.3998159e-05 0.0017265409 0.017834369 -0.77016932 -0.63759005 0.0021380105
0.02812708 0.00018295809 0.0017459599 0.096169978 -0.81402147 -0.57281798 0.0020602047
0.030917795 0.00036147516 0.0021195209 0.21194491 -0.84682333 -0.48782131 0.0023768204
0.011194387 0.0029225547 0.002404694 -0.27918944 -0.36007953 -0.89016628 0.0019394854
0.013506892 0.002299478 0.0019693705 -0.24172761 -0.46281233 -0.85286134 0.0011594975
0.016244365 0.0022025334 0.0012366759 -0.22297819 -0.51261032 -0.82916307 0.0023062024
0.019172704 0.0019902291 0.0006169175 -0.18649988 -0.5959177 -0.78108883 0.0023392199
0.02228675 0.0015832542 0.00037537268 -0.10693507 -0.66980118 -0.7348001 0.0012401926
0.025131617 0.0013060274 0.00028659546 -0.043576591 -0.72623146 -0.6860677 0.0013191218
0.028307544 0.0012513951 0.00032305389 0.035215508 -0.78538698 -0.61800253 0.0014544406
0.031554412 0.0013940411 0.00064250384 0.14220732 -0.85097748 -0.50558323 0.0032551403
0.034226999 0.0017412251 0.0011415752 0.25188798 -0.87001193 -0.42382967 0.0037410087
0.036884431 0.0027842855 0.00082011789 0.33936408 -0.87084407 -0.35561576 0.0022043602
0.038864076 0.0033950631 0.0017675554 0.41380259 -0.85847121 -0.30297616 0.00081216812
0.010530488 0.0051682815 0.0019874817 -0.38966709 -0.24307154 -0.88829935 0.0030158551
0.01334717 0.0050162021 0.00081224786 -0.34572309 -0.35506493 -0.86856455 0.0029762262
0.01576104 0.0044504981 8.2664337e-05 -0.28662369 -0.46005681 -0.84035391 0.0016089568
0.038712356 0.0038574461 -1.5606958e-05 0.41346538 -0.85818934 -0.30423245 0.00088583759
0.040213451 0.0044181999 0.00088024093 0.41345966 -0.85819119 -0.30423519 0.00088556559
0.042033907 0.005753574 3.0556839e-05 0.45116153 -0.83349741 -0.31895977 0.0013350869
0.0084257042 0.0079296734 0.002627576 -0.50445157 0.0011647256 -0.8634392 0.0052299351
0.010309346 0.0081491536 0.0015434127 -0.48341227 -0.13838188 -0.8643859 0.0022399393
0.01283081 0.0078491829 0.00018648137 -0.50592649 -0.16340911 -0.84695679 0.0023456281
0.010378419 0.011190793 0.0014500668 -0.62979323 0.098495327 -0.77049285 0.001758437
0.012331408 0.010965334 -4.1733671e-05 -0.59103853 -0.029885538 -0.80608958 0.0036111553
0.010853813 0.014027362 0.0015750504 -0.68723303 0.19254062 -0.7004562 0.0032401679
0.012367374 0.014240601 0.00013251655 -0.66898251 0.12906016 -0.73198766 0.0022452348
0.011304048 0.016664255 0.0020278788 -0.71459377 0.30949074 -0.62735248 0.0013187056
0.01284097 0.017208725 0.00058163784 -0.71342951 0.24123456 -0.65789384 0.0011604497
0.013543065 0.020115266 0.0012804397 -0.74658769 0.3420828 -0.57060152 0.001049969
0.01501847 0.021156115 1.3867539e-05 -0.76385707 0.32824954 -0.55567485 0.0010426689
0.014331602 0.022438545 0.0019792244 -0.75067019 0.45641091 -0.47768539 0.0023578866
0.015600978 0.023245983 0.00079534401 -0.76102811 0.47688058 -0.43979663 0.0014392653
0.016844396 0.025504271 0.0011523896 -0.75480002 0.5301187 -0.38633037 0.0025941788
0.018162744 0.026916554 0.00044641251 -0.76241076 0.5478332 -0.34439602 0.0047791651
0.019444926 0.028900482 0.0014774064 -0.75111479 0.59412575 -0.28782141 0.0014132678
0.021172563 0.030387174 -0.00014024027 -0.75193602 0.60283613 -0.26679745 0.002476969
0.023096927 0.032324765 0.00044449125 -0.73101199 0.65632421 -0.18670815 0.00080039998
-0.069254585 -0.041681368 0.0054568741 -0.517658 -0.49039981 -0.70109785 0.027698254
-0.067391939 -0.041808076 0.0042678001 -0.17684641 -0.7890929 -0.58826673 0.027365195
-0.064920597 -0.041723911 0.0043888483 0.094852209 -0.74552113 -0.65969789 0.014606355
-0.062528826 -0.041675732 0.0053974385 0.24744532 -0.77467132 -0.58194083 0.0043094484
-0.0700498 -0.039727647 0.0050712577 -0.63026726 -0.36323714 -0.68616462 0.0045732446
-0.068218485 -0.040091392 0.0035722351 -0.39347172 -0.53326064 -0.74887455 0.019062262
-0.06429249 -0.040757991 0.0032691406 0.094888702 -0.74551934 -0.65969467 0.014602373
-0.061507951 -0.040016595 0.0037990513 0.31942564 -0.67035037 -0.66977429 0.010600606
-0.058821406 -0.039652664 0.0045900764 0.26076087 -0.60892427 -0.74914283 0.0098616574
-0.055963084 -0.039088771 0.0050765467 0.2240594 -0.62056983 -0.75145894 0.0040673553
-0.053667575 -0.038807053 0.0055071507 0.19032733 -0.65266186 -0.73335391 0.003851898
-0.070500217 -0.036857769 0.0045585069 -0.69123614 -0.16859472 -0.70268655 0.0019755568
-0.068743706 -0.037366677 0.0030908978 -0.57744229 -0.20634854 -0.7899245 0.0094019705
-0.060256153 -0.038095389 0.0028497672 0.30101436 -0.32370129 -0.89699942 0.010555352
-0.058378611 -0.037120823 0.0032040572 0.31648308 -0.35111591 -0.88122422 0.0056765759
-0.055663127 -0.037026744 0.0039607668 0.24580899 -0.44239527 -0.86247575 0.0052018808
-0.052687466 -0.0369922 0.004682661 0.22277215 -0.45800665 -0.86058265 0.0032973771
-0.049818784 -0.036466584 0.0050991294 0.2366841 -0.44427121 -0.86406231 0.0028465455
-0.047599684 -0.035740849 0.0054180454 0.29892942 -0.46406242 -0.83383888 0.0023921563
-0.070285544 -0.0339364 0.0039432305 -0.68333983 0.24829595 -0.68658268 0.024953915
-0.068716131 -0.032546259 0.0030604298 -0.41427594 0.69005334 -0.59346598 0.0097060548
-0.057545688 -0.035069957 0.0027929144 0.22887392 -0.15630904 -0.96082479 0.0047580828
-0.055657122 -0.033953227 0.0030083689 0.16813499 -0.14651039 -0.97481555 0.0050846352
-0.052700531 -0.033851765 0.0034778644 0.16338788 -0.22946854 -0.95950437 0.0032703164
-0.04971372 -0.03378382 0.0040247333 0.20425819 -0.29023197 -0.93490326 0.0030685368
-0.046700314 -0.033659991 0.0048675807 0.28301701 -0.33072367 -0.90029061 0.0016457563
-0.044170417 -0.032998577 0.0054167197 0.29664758 -0.29502115 -0.90827459 0.000943002
-0.069900647 -0.032051753 0.0049951915 -0.69653863 0.44798338 -0.56048626 0.028992528
-0.067581192 -0.031149995 0.004194655 -0.41424471 0.69005686 -0.59348363 0.0097235683
-0.064756565 -0.030370418 0.0036274793 -0.26154414 0.65528142 -0.70866138 0.013273948
-0.061620399 -0.030282727 0.0031551104 -0.093573883 0.49805343 -0.86208278 0.0093509676
-0.058558006 -0.030282401 0.0029899203 0.023930607 0.25132182 -0.96760768 0.0056536864
-0.055756874 -0.030793691 0.0029040889 -0.015434647 0.17562462 -0.9843362 0.0080193616
-0.052652527 -0.03071855 0.0030818479 0.10197336 0.0059593958 -0.99476928 0.0051863091
-0.049593788 -0.030745365 0.003460401 0.19331132 -0.12916063 -0.97259873 0.0058378712
-0.046677407 -0.030851847 0.0041853292 0.23918672 -0.15918489 -0.95783603 0.0034101247
-0.043702103 -0.030765116 0.004988763 0.27776518 -0.20685218 -0.93811446 0.0013238904
-0.041611571 -0.030229989 0.0055080522 0.29674479 -0.22579376 -0.92787921 0.0025300106
-0.064361177 -0.028921498 0.0051022237 -0.34782591 0.70621657 -0.61666465 0.0070235627
-0.061533667 -0.028179277 0.0046737841 -0.24454845 0.61855203 -0.74671912 0.0091822352
-0.058756769 -0.027919887 0.0041053239 -0.15591758 0.47832313 -0.86423182 0.0095943399
-0.055820122 -0.027887069 0.0035886785 -0.088149488 0.31132963 -0.94620478 0.0051585995
-0.052686352 -0.027872557 0.0033582042 0.001095672 0.27068448 -0.96266741 0.0058780755
-0.049604982 -0.0278854 0.0035572196 0.10302898 0.18881069 -0.97659385 0.0065653226
-0.046788134 -0.027914925 0.0040161307 0.17717047 0.10429541 -0.97863835 0.0051682247
-0.043744199 -0.027956123 0.0046565505 0.20730178 -0.0023325416 -0.97827423 0.001994095
-0.040876761 -0.027901366 0.0053722085 0.22988859 -0.069102928 -0.97076052 0.0019578396
-0.058317807 -0.025866946 0.0052341456 -0.28522339 0.5671373 -0.77265966 0.0038929733
-0.055406868 -0.025117988 0.0048251478 -0.19399428 0.49756989 -0.84545273 0.0038811539
-0.052582424 -0.024831289 0.004470041 -0.094048232 0.42337495 -0.90105975 0.0045535699
-0.049695842 -0.024824599 0.0043476238 0.015342607 0.34289196 -0.93924952 0.0046240776
-0.04669724 -0.024772385 0.0045221709 0.088631406 0.25015482 -0.96414053 0.0044757738
-0.043639529 -0.024919489 0.0048829303 0.14727585 0.15739729 -0.97649169 0.0034532938
-0.040729005 -0.024919368 0.0053819288 0.15802254 0.054052327 -0.985955 0.0029824199
-0.039046761 -0.024900662 0.0056663249 0.19341917 0.031551767 -0.98060882 0.0031075338
-0.05247283 -0.02297424 0.0055460962 -0.1618789 0.55791181 -0.81395924 0.0022461182
-0.049722098 -0.022670163 0.0053797043 -0.069722176 0.49213618 -0.86772162 0.0028538604
-0.046688184 -0.022481788 0.0053057978 0.0050989017 0.41091076 -0.91166133 0.0040485561
-0.043580737 -0.022487087 0.0054073576 0.07525643 0.31774849 -0.94518369 0.003810571
-0.041378476 -0.022676038 0.0055794884 0.12232003 0.23519735 -0.96421993 0.0019861716
0.007753727 -0.0028194441 0.0055991504 -0.12624349 -0.4263261 -0.89571685 0.0020731275
0.010477196 -0.0029927127 0.0054331459 -0.087618545 -0.5171355 -0.85140693 0.0019568375
0.013374551 -0.003075199 0.0052586659 -0.053858407 -0.59132487 -0.80463296 0.0020624679
0.016376715 -0.0030557192 0.0051282714 -0.020018242 -0.6642108 -0.7472772 0.0022495994
0.019252215 -0.0030554759 0.0050957422 0.022794543 -0.73093653 -0.68206465 0.0021399343
0.022114171 -0.0029913634 0.0052565373 0.078921773 -0.79338896 -0.60357714 0.0024134784
0.024785999 -0.0028185921 0.0054876399 0.16532773 -0.82447904 -0.54120344 0.0022549569
0.0027145843 0.0005401643 0.0056592319 -0.24254964 -0.11003135 -0.96387905 0.0018474063
0.0045658182 -0.00043591473 0.0053385948 -0.2225648 -0.24453473 -0.94375187 0.0027335286
0.0072643375 -0.0008982413 0.0049157972 -0.19506188 -0.33659688 -0.92122388 0.0034575788
0.010366933 -0.00089651754 0.0043181409 -0.13214202 -0.45212567 -0.88211161 0.0014975464
0.013435348 -0.0009302086 0.0038357798 -0.11296234 -0.53534967 -0.83704251 0.0017323476
0.016260665 -0.0012417844 0.0036260493 -0.080322258 -0.6071586 -0.79051036 0.001571773
0.019119356 -0.0015188481 0.0036276833 -0.044426218 -0.69668591 -0.71599936 0.0018347943
0.02229869 -0.0016107793 0.0036278113 0.013497037 -0.75808609 -0.65201479 0.0016342936
0.025418229 -0.0016121424 0.0038756377 0.10580107 -0.81315804 -0.57234621 0.0030740423
0.028256221 -0.001308964 0.0040979045 0.18113104 -0.85794055 -0.48075929 0.0035499714
0.031296555 -0.00049681659 0.0040103043 0.2726346 -0.87081349 -0.40908951 0.0031372462
0.033735018 0.00026645558 0.0041324077 0.3307341 -0.87323159 -0.357885 0.0024351282
0.0024960709 0.0023288268 0.0055532441 -0.32961848 -0.066647045 -0.94175887 0.0050638393
0.004389083 0.0022172828 0.0049420041 -0.2893894 -0.13050312 -0.9482736 0.0029255995
0.007251191 0.002213476 0.0039528413 -0.30621612 -0.2272145 -0.92444861 0.0045033507
0.010036062 0.0019565278 0.0031961836 -0.30256754 -0.28717792 -0.90883535 0.0021619746
0.01240304 0.0011760565 0.0028061564 -0.22130233 -0.43648332 -0.87207091 0.0011224953
0.035313614 0.0011371123 0.0035508594 0.34176016 -0.88517529 -0.31569698 0.0013481632
0.03723437 0.0021090691 0.0034710774 0.38759291 -0.87300462 -0.29603162 0.00071145134
0.0026183075 0.00447552 0.0055758986 -0.45516881 0.10409409 -0.88429958 0.0058701737
0.0043875976 0.005091141 0.0047628824 -0.42068294 0.033470258 -0.9065901 0.0053045466
0.0072446773 0.0050777411 0.0034792917 -0.40223312 -0.090499423 -0.91105342 0.0048304908
0.0090647107 0.0044351872 0.0028194236 -0.35795489 -0.18799412 -0.91461825 0.0056717116
0.0046458505 0.0077804178 0.0049607069 -0.52223146 0.17304796 -0.83506209 0.0039825337
0.0070743626 0.0081831841 0.00350444 -0.51221073 0.069657423 -0.8560304 0.0058395644
0.0053247968 0.010346396 0.0053223264 -0.59382153 0.30115157 -0.74611235 0.0029852088
0.0072192689 0.011256272 0.0040383055 -0.62879926 0.21889678 -0.74612039 0.0031569111
0.0089076469 0.012228389 0.0029293394 -0.60729063 0.14380066 -0.78135741 0.0028230685
0.0076396009 0.013930394 0.0046570706 -0.67669785 0.34156382 -0.65223771 0.0016382098
0.0092538949 0.014282993 0.0032449076 -0.68151784 0.26699045 -0.68135858 0.0023533255
0.0083499132 0.016250094 0.0053621177 -0.69392627 0.43228373 -0.57584465 0.0018450486
0.0098821912 0.01714531 0.0040271254 -0.69827044 0.39794838 -0.59502572 0.0031145399
0.011095758 0.019637676 0.0043176068 -0.73198527 0.46664673 -0.49642557 0.0018790578
0.012496308 0.020895287 0.0033567494 -0.76281536 0.45710668 -0.45734701 0.0019383312
0.013489543 0.023107942 0.0043153968 -0.73429239 0.56007117 -0.38358191 0.0010184287
0.015112928 0.024399428 0.0030381179 -0.73733884 0.58130062 -0.34412363 0.0019689021
0.014684577 0.024965568 0.0046575163 -0.71480167 0.616503 -0.33012503 0.002584754
0.016165132 0.026101686 0.003596015 -0.70731825 0.64986742 -0.27816036 0.0010521199
0.017531954 0.027795194 0.0039420519 -0.71968907 0.64047819 -0.26802137 0.0011734836
0.01850356 0.028776266 0.0043235314 -0.72671986 0.63725698 -0.25647965 0.0010529553
-0.069913946 -0.041788135 0.0065834615 -0.47591394 -0.37241092 -0.79675335 0.025070323
-0.068856172 -0.042210747 0.0059743617 -0.26926032 -0.77833933 -0.56717443 0.041568067
-0.063856497 -0.042239927 0.0062786881 0.13733383 -0.85224223 -0.5047996 0.0071331491
-0.061383419 -0.042131301 0.0071513238 0.24782981 -0.82050043 -0.51513046 0.0024084558
-0.058908727 -0.041946512 0.0075264201 0.22987658 -0.81379867 -0.53374946 0.004114259
-0.055804726 -0.04163022 0.0079700351 0.1729878 -0.82005513 -0.54551345 0.0049344338
-0.053544596 -0.041479837 0.008426616 0.15453565 -0.84405971 -0.51349968 0.007538504
-0.071264625 -0.039743327 0.0063104872 -0.66961157 -0.33952594 -0.66056228 0.0047541959
-0.058373515 -0.041084073 0.0062534781 0.22023566 -0.80455089 -0.55153799 0.003996016
-0.055592328 -0.040380977 0.0063866968 0.2096431 -0.68109578 -0.70153993 0.0052007069
-0.052609902 -0.039987419 0.0069377162 0.22445564 -0.70049512 -0.67744094 0.0044084433
-0.049671832 -0.039361104 0.0072561195 0.26704079 -0.69062746 -0.67210335 0.0042484249
-0.047040388 -0.038993657 0.0079808291 0.29384691 -0.64321667 -0.70705467 0.0022421065
-0.044863556 -0.038592737 0.0085507426 0.30949432 -0.69675809 -0.6471023 0.0033760474
-0.072296411 -0.03672668 0.0064465348 -0.69105631 -0.1274469 -0.71147627 0.020956837
-0.071732819 -0.037644666 0.0059411917 -0.69487607 -0.24044485 -0.67774159 0.0065414715
-0.05154106 -0.038351316 0.0057835672 0.23407643 -0.63931006 -0.73245537 0.0025539438
-0.049255963 -0.037718281 0.0060361447 0.25086734 -0.52044761 -0.81621069 0.0032250583
-0.046449766 -0.036898687 0.0065527344 0.30538589 -0.51842088 -0.79873604 0.0019881988
-0.043800119 -0.036754932 0.0075225169 0.32490167 -0.56705058 -0.75689656 0.0020063159
-0.04123852 -0.03611619 0.0081972573 0.34245291 -0.56309581 -0.75209647 0.0018582523
-0.072305255 -0.035047445 0.0065001938 -0.7067619 0.065186486 -0.70444191 0.025986049
-0.045540363 -0.034991194 0.0057942364 0.29251888 -0.36613101 -0.88339168 0.0026436269
-0.043399289 -0.034157556 0.0061842343 0.32276893 -0.39616257 -0.85957867 0.0018871798
-0.04062546 -0.033896331 0.0071549993 0.3417519 -0.38290259 -0.85824889 0.0012550505
-0.037860248 -0.033559091 0.0080945827 0.34009376 -0.45236069 -0.82444286 0.0019447834
-0.035922024 -0.032791827 0.0085045192 0.3651 -0.46675596 -0.80550659 0.0017526974
-0.06958884 -0.031408351 0.0060515497 -0.60943085 0.63360059 -0.47659683 0.016313367
-0.06798397 -0.030080913 0.0065421802 -0.43342009 0.77766287 -0.45539802 0.0020973242
-0.042411283 -0.032104168 0.0057113264 0.28072223 -0.24898541 -0.92693114 0.0025726873
-0.040509526 -0.031120086 0.0060950313 0.33492848 -0.26974946 -0.90280569 0.0015898501
-0.037726041 -0.030998494 0.0070428061 0.32745484 -0.33081517 -0.88506192 0.0018509343
-0.034812383 -0.030845925 0.008081425 0.34372801 -0.36637944 -0.86464852 0.0013330778
-0.032695483 -0.029727096 0.00842526 0.35073766 -0.37634948 -0.85752213 0.0020080293
-0.066886388 -0.028926892 0.0074580321 -0.46422622 0.75502139 -0.46307316 0.0032099502
-0.064541288 -0.027584361 0.0070690727 -0.48190516 0.70631492 -0.51854277 0.0060597593
-0.062442347 -0.026911715 0.0062842593 -0.34260425 0.71268547 -0.61212885 0.005695167
-0.039634056 -0.028652912 0.0057892716 0.28191203 -0.12286747 -0.95154047 0.0017980956
-0.037597302 -0.027949451 0.0062997718 0.29829746 -0.16829543 -0.93951863 0.0015978516
-0.034638565 -0.027843406 0.0071996325 0.28183302 -0.2013375 -0.93810093 0.0012266287
-0.031838205 -0.027619846 0.0080430796 0.28113875 -0.25837833 -0.92423034 0.001811891
-0.029850261 -0.026996082 0.008521528 0.323125 -0.31013003 -0.89409709 0.0024212783
-0.06341254 -0.026010485 0.0081953797 -0.5477066 0.72771657 -0.41285107 0.0035414523
-0.0613098 -0.025267178 0.0073782001 -0.44676733 0.66864592 -0.59440011 0.0029091341
-0.05878767 -0.024403123 0.006640065 -0.3424626 0.6162554 -0.7091887 0.0022795764
-0.056376256 -0.023755366 0.0060443077 -0.26159558 0.61441642 -0.74435216 0.0022718071
-0.039533932 -0.023464816 0.0057444666 0.15502115 0.09479773 -0.98335236 0.0015424276
-0.037604898 -0.024821101 0.0060342248 0.19437043 0.002989518 -0.98092365 0.0014868336
-0.034573473 -0.02472222 0.0067533613 0.2386644 -0.071674444 -0.96845347 0.0024009726
-0.031738382 -0.024762206 0.0074590463 0.24306619 -0.15319718 -0.95783585 0.0021951054
-0.028844936 -0.024658309 0.0082300361 0.25486821 -0.1877549 -0.94857281 0.0015160555
-0.026747841 -0.023617076 0.0085716937 0.26687938 -0.21656737 -0.93908143 0.00082637288
-0.058336984 -0.022751419 0.0079764035 -0.41614723 0.66834807 -0.61654866 0.0018957788
-0.055666339 -0.0219575 0.007327965 -0.31202728 0.66447836 -0.67904902 0.0025512143
-0.052788988 -0.02163364 0.0066228998 -0.20063047 0.59175515 -0.78075165 0.00094355328
-0.04971157 -0.021299671 0.0062438464 -0.12987529 0.54051346 -0.83125061 0.0019297358
-0.046524946 -0.021077445 0.0060192291 -0.062575795 0.46809638 -0.88145906 0.0025615972
-0.043633822 -0.021073354 0.0059337313 -0.0025041627 0.38012555 -0.92493153 0.0040433365
-0.040566131 -0.021537909 0.0059639788 0.11082048 0.22318752 -0.96845555 0.0019664266
-0.037660651 -0.021811482 0.0062881857 0.16970623 0.12084628 -0.97805721 0.0015265677
-0.034571927 -0.0218338 0.0067322669 0.17138067 0.075378135 -0.98231709 0.0026552402
-0.031720385 -0.021858117 0.0072137858 0.19759423 -0.011120845 -0.98022085 0.0021613627
-0.028634101 -0.021891806 0.0078849075 0.22547348 -0.11631643 -0.96728075 0.0012049174
-0.02587181 -0.02166014 0.0084693646 0.20805113 -0.13201109 -0.9691686 0.0014826995
-0.054520242 -0.020231897 0.0085033718 -0.3222813 0.67123002 -0.66752154 0.0036218711
-0.052394535 -0.019826727 0.0080962256 -0.2575793 0.65786368 -0.70772052 0.0022592151
-0.04951198 -0.019334363 0.0076466706 -0.1941103 0.61205387 -0.7666232 0.0022029527
-0.04667227 -0.018974785 0.0073932311 -0.12811205 0.55152559 -0.82426137 0.0021461847
-0.043747235 -0.018960267 0.0070583583 -0.048292242 0.47105551 -0.88078076 0.0022732834
-0.040756103 -0.018903719 0.006918632 -0.00041226522 0.38920018 -0.92115313 0.0036925774
-0.037645116 -0.019003499 0.006935833 0.040251534 0.3312943 -0.94266844 0.0045986408
-0.034603536 -0.018963803 0.007125054 0.070284791 0.24854083 -0.96606815 0.0040219505
-0.031735647 -0.018976733 0.0074190865 0.11240237 0.098154709 -0.98880303 0.004373176
-0.028629841 -0.018994216 0.0078187212 0.14356364 0.025763305 -0.98930573 0.0042913901
-0.025522567 -0.019014785 0.0082842195 0.18219319 -0.077821076 -0.9801783 0.0016825417
-0.023405593 -0.018503502 0.0085633071 0.14684258 -0.090668865 -0.98499566 0.001832264
-0.046164509 -0.017237341 0.008516565 -0.18013294 0.63436788 -0.75175089 0.0016010966
-0.043544259 -0.016934484 0.0083406307 -0.12517066 0.5884366 -0.7987957 0.002055398
-0.040465321 -0.016688438 0.0081242407 -0.080613047 0.51925796 -0.85080713 0.0021180452
-0.037490759 -0.016332656 0.0080247112 -0.04506065 0.44956121 -0.89211226 0.0033663239
-0.034621444 -0.015977966 0.0080413399 -0.0036992638 0.36694041 -0.93023711 0.0030470658
-0.031784095 -0.015867868 0.0080737332 0.0013606164 0.30880544 -0.95112431 0.0051900768
-0.028656812 -0.01587351 0.0082199667 0.029978478 0.20061131 -0.97921211 0.0054646707
-0.025527794 -0.01587915 0.0083690612 0.047332682 0.07944949 -0.99571449 0.0016053235
-0.022699898 -0.015885631 0.0085437633 0.064783469 0.010062918 -0.99784857 0.0017736002
