# .PCD v0.7 - Point Cloud Data file format
VERSION 0.7
FIELDS x y z normal_x normal_y normal_z curvature
SIZE 4 4 4 4 4 4 4
TYPE F F F F F F F
COUNT 1 1 1 1 1 1 1
WIDTH 552
HEIGHT 1
VIEWPOINT 0 0 0 1 0 0 0
POINTS 552
DATA ascii
0.0061194249 -0.0071249106 -0.0024109706 -0.47140282 0.18808641 -0.861628 0.0016528824
0.0080668302 -0.0059859441 -0.0029647038 -0.32160953 0.20034294 -0.92543501 0.0017229775
0.011040602 -0.0059294831 -0.0037158481 -0.16760617 0.19925086 -0.96550888 0.0027668937
0.014092541 -0.0059276465 -0.0038663372 0.10781753 0.18331979 -0.9771229 0.0043539801
0.017167915 -0.0059343153 -0.003329705 0.27573827 0.14877838 -0.9496491 0.0032289939
0.019170878 -0.0061792056 -0.002599044 0.45857111 0.13891019 -0.87773377 0.0021058854
0.0086699612 -0.0032721823 -0.0026193534 -0.3170464 0.16582958 -0.9337998 0.0020291035
0.011053553 -0.0031117736 -0.0031563183 -0.16383368 0.16429897 -0.97270983 0.0023930478
0.014108298 -0.0031106726 -0.0033430362 0.072553806 0.16819401 -0.98308021 0.0029109803
0.017151481 -0.0031472114 -0.0028646684 0.26074332 0.13117014 -0.95645559 0.0023919418
0.018852424 -0.0040596523 -0.0024041161 0.43593109 0.15564273 -0.88641942 0.0023915269
0.0092632659 -0.00091567135 -0.0024123117 -0.24862249 0.14478299 -0.95771849 0.00046505942
0.011123449 -0.00011009572 -0.0026839792 -0.15531605 0.14629288 -0.97697252 0.001823273
0.013925462 -8.4197847e-05 -0.0028651899 0.0554673 0.12991081 -0.98997301 0.0027654062
0.016456423 -0.00025550032 -0.0025953664 0.23081638 0.14895478 -0.96152812 0.0032961417
0.011778662 0.0023068502 -0.0024000301 -0.096536823 0.13558702 -0.98605114 0.003511182
0.013772407 0.0026511759 -0.0024513253 0.028498655 0.12546605 -0.99168855 0.0025323085
0.015669635 0.0021890081 -0.0023909882 0.10893746 0.13495241 -0.98484546 0.0020074386
0.011794399 -0.057196032 -0.0017655417 0.76888305 -0.54858679 -0.32843781 0.0010372385
0.012725514 -0.055716317 -0.002264671 0.78658158 -0.52262038 -0.32887289 0.00096627604
0.01417205 -0.053954836 -0.0012333915 0.81170791 -0.50226611 -0.29809225 0.00053493923
0.016169306 -0.050682701 -0.00090483273 0.8477574 -0.4401325 -0.29595751 0.00085887907
0.017478591 -0.047934432 -0.001316855 0.85318822 -0.39069167 -0.34558645 0.002078844
-0.014677568 -0.044040378 -0.0010779127 -0.82894087 0.54433692 -0.12866327 0.00053443376
0.018294035 -0.045994479 -0.001622349 0.86823809 -0.36859354 -0.33211678 0.0024846282
0.019209977 -0.044353303 -0.00090486556 0.87044317 -0.35155627 -0.34458229 0.0033552402
-0.013484933 -0.042119574 -0.0013724491 -0.83885878 0.53368825 -0.107204 0.00037436755
0.020074533 -0.041862927 -0.0010143787 0.85959357 -0.32948914 -0.39055839 0.0037427486
-0.012070228 -0.039766278 -0.0012596473 -0.83484316 0.53196585 -0.14159547 0.0011800872
-0.011029368 -0.038295422 -0.0018736845 -0.82551569 0.54339385 -0.15246961 0.0016311045
0.020860285 -0.039128914 -0.0012217303 0.87530404 -0.25533372 -0.41066715 0.0015507216
0.021808017 -0.038242023 0.00025591999 0.87581581 -0.25418544 -0.41028816 0.001571184
-0.0095498869 -0.035829272 -0.0012231072 -0.84087932 0.5033406 -0.1989225 0.0034891209
0.021241589 -0.036183048 -0.0017300372 0.84576702 -0.14236194 -0.51420927 0.0023506612
0.022029683 -0.035758078 -0.0004557526 0.86780345 -0.19459972 -0.45721784 0.0026059917
-0.0085390573 -0.033908065 -0.00058021396 -0.84486943 0.48407668 -0.22773971 0.0041876645
-0.0075332643 -0.032490384 -0.0011911526 -0.83486778 0.47092074 -0.28500789 0.0028314705
0.021219989 -0.034021553 -0.0021964237 0.82214129 -0.10209841 -0.56005323 0.0038817753
0.022326974 -0.03285075 -0.00079479662 0.83771759 -0.1094397 -0.53502548 0.0028667147
-0.0063331812 -0.03012242 -0.0010398084 -0.83888948 0.41383317 -0.35356268 0.0044285953
-0.0052031754 -0.029074904 -0.0020803735 -0.79861355 0.427935 -0.42318797 0.0027013922
0.022460619 -0.030093797 -0.00096940866 0.83643335 -0.080355324 -0.54214597 0.0012221476
-0.0057059941 -0.028022781 -3.2367883e-05 -0.82074863 0.42126796 -0.38588202 0.0028628118
-0.0045720814 -0.026771175 -0.0011377301 -0.80378163 0.39476815 -0.44507661 0.001740641
0.022772131 -0.027045697 -0.00077916705 0.81714439 -0.060243737 -0.57327628 0.00067772181
-0.0035542496 -0.02405473 -0.00076788059 -0.78374714 0.34942421 -0.51346195 0.0027629531
-0.0022546528 -0.023064941 -0.0019398108 -0.6981408 0.357326 -0.62041718 0.0015655776
0.022937629 -0.023947164 -0.00089310482 0.82049954 -0.040508561 -0.57021016 0.0005832382
-0.0030202158 -0.021389782 7.7447155e-05 -0.7849611 0.3116819 -0.5354349 0.0020272734
-0.001858928 -0.020858744 -0.0011443943 -0.74819404 0.32820985 -0.57661414 0.0015732183
0.02310854 -0.02097361 -0.00086056872 0.78632802 -0.011057248 -0.61771023 0.0030919116
-0.00079119316 -0.018017855 -0.00090540037 -0.7178005 0.32955557 -0.61331522 0.0030244598
0.00093202142 -0.016803609 -0.002106227 -0.66840643 0.3407872 -0.66113305 0.0013808858
0.023031676 -0.017914906 -0.00093907665 0.73921716 0.04277641 -0.67210722 0.0030605644
-9.1017573e-05 -0.01513732 -0.00029216195 -0.69742018 0.29407269 -0.65354902 0.0016443321
0.0015692997 -0.014669009 -0.0017100081 -0.59458709 0.30046847 -0.74577802 0.0017840262
0.022938699 -0.014956104 -0.00088284002 0.71420974 0.043534815 -0.69857657 0.0035973075
0.00037838134 -0.012543616 0.000314879 -0.69774115 0.23723547 -0.67592657 0.0017403906
0.0020795537 -0.012076086 -0.0011318763 -0.60595649 0.26212519 -0.75107068 0.0010955511
0.0037634578 -0.01114061 -0.0021102354 -0.58891183 0.27254793 -0.76085514 0.0012028709
0.02122218 -0.011847364 -0.0021491274 0.58525628 0.084191516 -0.80646569 0.0035476212
0.022914799 -0.012155895 -0.00068260112 0.69865572 0.041028894 -0.71428061 0.0026969546
0.0022998878 -0.0091557587 -0.00036799407 -0.62690794 0.2105772 -0.75009578 0.0030968993
0.0043812306 -0.0087357303 -0.0017823761 -0.50312793 0.22317521 -0.83489823 0.0021776119
0.020915655 -0.00876782 -0.0019754434 0.53455031 0.10451028 -0.83864981 0.0026001299
0.022718005 -0.0090470584 -0.00055002933 0.66135186 0.086205333 -0.74510562 0.0019967423
0.0026929993 -0.006077616 2.7773203e-05 -0.63570219 0.16535439 -0.75401634 0.0020259107
0.0049144155 -0.0059235124 -0.001476937 -0.48507294 0.19901741 -0.85152584 0.0013501924
0.0065940069 -0.0050051236 -0.002178885 -0.41526875 0.19528908 -0.88848978 0.00054480851
0.020541366 -0.0058201896 -0.001784198 0.51277745 0.12185388 -0.84982997 0.0022640205
0.022537719 -0.0060186898 -0.00035638898 0.65376854 0.10531571 -0.74932986 0.0015518134
0.0030125214 -0.0032237757 0.00032657664 -0.63021469 0.12689008 -0.76598203 0.0021945115
0.0049531152 -0.0031249369 -0.00093512563 -0.500579 0.14064583 -0.85418928 0.0034506379
0.007120817 -0.0029090613 -0.0019866617 -0.35596219 0.16439861 -0.91992611 0.0019320683
0.018385252 -0.0019378761 -0.0022932515 0.38389397 0.14540668 -0.91185653 0.00065684738
0.020137165 -0.0030655954 -0.0015898054 0.49388492 0.13191785 -0.85946226 0.0018394205
0.022401929 -0.0032317648 -8.3261635e-05 0.63842571 0.11668763 -0.76078683 0.0017789388
0.0033056347 -0.00028519076 0.0005049929 -0.63408542 0.088360786 -0.76819789 0.0022328545
0.0049572852 -4.8800022e-05 -0.00048151717 -0.491211 0.13226247 -0.8609404 0.0015627937
0.0078394394 7.0473296e-05 -0.0017936863 -0.34444553 0.14712678 -0.92720604 0.0017172772
0.0098950407 0.0011283433 -0.0022663847 -0.16368948 0.1592114 -0.9735797 0.0020466163
0.01789481 0.00036875356 -0.0021027599 0.29951683 0.15096316 -0.94207215 0.0033968582
0.020086866 -4.9487455e-05 -0.001151946 0.46207979 0.14159149 -0.87546223 0.0020721096
0.022168016 -0.00021564227 0.00019364199 0.63003683 0.12333112 -0.76670921 0.0016669136
0.0049605998 0.0030327095 -0.00012299907 -0.46399355 0.09173128 -0.88107628 0.001545337
0.0080204587 0.003021955 -0.0014583451 -0.30016783 0.13492528 -0.9442957 0.0017900829
0.01080473 0.0032885228 -0.0021499125 -0.13876678 0.15223017 -0.9785549 0.0018775481
0.014235228 0.0039588274 -0.0022610084 0.044447739 0.16210184 -0.98577249 0.0026869727
0.017121701 0.0031053605 -0.0018986585 0.26540419 0.18274844 -0.94665921 0.0030408506
0.020108866 0.0030285963 -0.00064803241 0.48792231 0.14302184 -0.8610903 0.0026885264
0.021886645 0.0028681336 0.00048370333 0.63286239 0.12990843 -0.76328826 0.0014451119
0.0051530087 0.0058402345 -1.6825041e-05 -0.45411071 0.036145192 -0.89021176 0.0020587402
0.0080248294 0.0058615049 -0.0011899376 -0.32420662 0.078117542 -0.9427554 0.002026604
0.011082512 0.0058510904 -0.0019074678 -0.13559665 0.10742034 -0.9849236 0.001929264
0.013911468 0.0058491183 -0.0020446586 0.025118643 0.12232147 -0.9921726 0.0019482031
0.016998194 0.0058564413 -0.0015428446 0.28688356 0.14412238 -0.94706208 0.0023458372
0.020057086 0.0058196131 -0.00023574987 0.48055872 0.13224052 -0.86693472 0.0029152173
0.0052000545 0.0089628501 9.1952737e-05 -0.41373828 0.031037297 -0.90986663 0.0015075367
0.0080284355 0.008940015 -0.00097054837 -0.29879558 0.055496674 -0.95270211 0.001929449
0.011089451 0.0089263124 -0.0016092499 -0.11883795 0.098609485 -0.98800486 0.001481925
0.013922201 0.0089247776 -0.0016832603 0.088425353 0.1240975 -0.9883222 0.0019760854
0.017014237 0.0089372769 -0.0011062201 0.32074258 0.12321514 -0.93911779 0.0036121202
0.019721964 0.0088313082 5.2703079e-05 0.48942661 0.13452534 -0.86160576 0.0028869435
0.0052006822 0.012047347 0.00015222887 -0.38606617 0.00949049 -0.92242223 0.0016225261
0.0080307536 0.01201936 -0.00083029165 -0.27043474 0.036357019 -0.96205151 0.0020016087
0.011094702 0.012003623 -0.0013833295 -0.09061186 0.05437972 -0.99440044 0.0015038092
0.013931355 0.012003896 -0.0013749674 0.17248972 0.10256951 -0.97965652 0.005049374
0.017029947 0.012023816 -0.00067926699 0.33363536 0.12146528 -0.9348442 0.0035447048
0.019345092 0.011910876 0.00035415241 0.50802684 0.143675 -0.84927392 0.0028187612
0.0050713518 0.0149586 0.00016590604 -0.37524393 -0.01256596 -0.92684096 0.002050638
0.0080319513 0.014861489 -0.00075980346 -0.23877555 0.018176457 -0.97090465 0.0020402062
0.011098987 0.01484615 -0.0011995328 -0.054764796 0.074455813 -0.99571937 0.0016709698
0.013939888 0.014850115 -0.0010879892 0.19443923 0.089196242 -0.97685075 0.0040710703
0.017045466 0.014879255 -0.00025812886 0.35389015 0.12500815 -0.9268952 0.0030449128
0.018972928 0.014194885 0.00054031354 0.53187722 0.15871763 -0.83181447 0.0021739162
0.0049631991 0.017975712 0.00013252976 -0.33167341 -0.034171797 -0.94277513 0.0018680991
0.0080328723 0.017940534 -0.00070761342 -0.19170871 0.019932592 -0.98124945 0.0015715969
0.01110299 0.017927084 -0.0010298742 0.047822863 0.057908155 -0.99717581 0.0052280086
0.013948984 0.017937502 -0.00078407326 0.22273812 0.094905362 -0.97024781 0.0036976365
0.016670864 0.017855907 2.066046e-05 0.39165333 0.13013785 -0.91086322 0.0033981889
0.0033060685 0.021080976 0.00058546406 -0.36195982 -0.075307831 -0.92914683 0.0039344244
0.0049620606 0.021052185 -2.8684735e-06 -0.28944236 -0.046736468 -0.95605373 0.0020297687
0.0080333436 0.021018747 -0.00068650674 -0.16107748 0.010035829 -0.98689079 0.0027039659
0.011107299 0.021010881 -0.00084877922 0.085572414 0.064169839 -0.99426335 0.0045521841
0.013959323 0.021031031 -0.00043945434 0.2475401 0.10299183 -0.96338803 0.0030849567
0.016190387 0.020903749 0.00027676602 0.43153071 0.14496005 -0.89037508 0.0036089863
0.00296636 0.024059741 0.00048195152 -0.37183309 -0.069644608 -0.92568338 0.0017097826
0.0049610706 0.023890736 -0.00012008846 -0.23171371 -0.029728441 -0.97232962 0.001654159
0.0080338484 0.023860838 -0.00066069444 -0.11270501 0.019781098 -0.99343151 0.003265213
0.011111764 0.023861043 -0.0006585361 0.1261739 0.068939433 -0.98960978 0.0035658861
0.013970674 0.023894399 -5.9165061e-05 0.28854126 0.12514514 -0.94925374 0.0029786432
0.01574303 0.023307836 0.00049431482 0.47770432 0.17620105 -0.86066931 0.0028178981
0.0026015702 0.027142346 0.00035482389 -0.3143082 -0.062129013 -0.94728577 0.0016135694
0.0049600657 0.026964838 -0.00023578061 -0.18655217 -0.018550901 -0.98226988 0.0019960501
0.0080351839 0.026943179 -0.0005845651 -0.057029739 0.038955662 -0.99761212 0.0039572814
0.011118218 0.026955862 -0.00038387696 0.1737656 0.090896793 -0.98058319 0.0034034892
0.013631741 0.026774073 0.00025185407 0.35335472 0.14823294 -0.92367065 0.0035878296
0.00045712889 0.031295065 0.00066272169 -0.34503692 -0.10584211 -0.93260229 0.00083776319
0.0021876176 0.030136075 0.00026676012 -0.24448495 -0.065308653 -0.96745116 0.0019307802
0.0049596145 0.030040935 -0.0002998081 -0.13719454 -0.0055819303 -0.9905284 0.0026933257
0.0080375466 0.03003066 -0.00044928095 0.073818572 0.054640185 -0.99577373 0.0038379224
0.011127202 0.030061737 -3.6284328e-06 0.22285292 0.11613572 -0.96790963 0.0032176299
0.013064015 0.029596178 0.0005102132 0.41980994 0.17690086 -0.89020538 0.0033066748
0.00019823294 0.033229753 0.0005582294 -0.2794393 -0.085574538 -0.95634234 0.00095490366
0.0021174212 0.032915082 0.00010933471 -0.22334921 -0.064192273 -0.97262245 0.00085663947
0.0049596936 0.032884263 -0.00029773009 -0.075933278 0.024412597 -0.99681401 0.0032272933
0.0080411155 0.032889169 -0.00023501995 0.12442218 0.081157789 -0.98890465 0.0032272069
0.010826916 0.032764155 0.00031773653 0.28868306 0.1515055 -0.94536144 0.0040131523
-0.00024599786 0.036166806 0.00044893869 -0.25355506 -0.064980999 -0.96513593 0.001910212
0.0021172662 0.035988785 -2.407236e-06 -0.13368087 -0.0047111944 -0.99101323 0.0021181775
0.0049607269 0.035972454 -0.00020115962 0.0479444 0.06142224 -0.99695969 0.0039947955
0.0080175269 0.035970129 0.00012665614 0.21187614 0.1475641 -0.96609181 0.0015723436
0.010223966 0.035084955 0.00054785493 0.3769843 0.19642392 -0.90515208 0.0049381074
-0.00070890033 0.039191276 0.00035552355 -0.17872202 -0.033329532 -0.98333496 0.0017981457
0.0021173591 0.039070994 -2.4538022e-06 -0.07641048 0.029449495 -0.99664146 0.002457168
0.0049631582 0.039076161 5.3578056e-05 0.11401761 0.080491647 -0.99021262 0.0029038885
0.0073397057 0.038872004 0.000422179 0.20955989 0.15664388 -0.96516699 0.0020992442
-0.002961891 0.042595096 0.00063839112 -0.2420762 -0.045248944 -0.96920151 0.0017531309
-0.00096648274 0.041949976 0.00034974632 -0.11239912 0.012199387 -0.99358821 0.0018874581
0.0021178948 0.041930489 0.00014625327 0.015701663 0.09032701 -0.9957884 0.0028076437
0.0047452189 0.041780524 0.00037308619 0.16355599 0.14747746 -0.97544855 0.0040316274
0.0066302828 0.040789623 0.00062794238 0.25350532 0.19550259 -0.94737208 0.00077034452
-0.0030395512 0.044804782 0.00063246698 -0.17582791 0.005757655 -0.98440403 0.0015926495
-0.00096668157 0.045044184 0.00044148811 -0.018776171 0.050727628 -0.99853605 0.0023256904
0.0018962349 0.044749103 0.00045630615 0.072023734 0.12947835 -0.98896313 0.0025418177
0.0039390814 0.043791685 0.00057424861 0.2557095 0.24379712 -0.93550825 0.0043368055
-0.0028668593 0.046963263 0.00063256174 -0.10690767 0.056505658 -0.99266201 0.0010104317
-0.0010769849 0.047181103 0.00062018004 -0.0061086225 0.11937994 -0.99282986 0.0035372463
0.01805602 -0.04809102 0.0013900474 0.8732205 -0.38944075 -0.29295385 0.0011251734
0.019762795 -0.044853892 0.0023424476 0.88616002 -0.36155969 -0.28981915 0.0014773472
-0.012842108 -0.040895205 0.00073454529 -0.82791138 0.54420537 -0.13565888 0.00097751734
0.020907072 -0.04189831 0.0013090547 0.88848901 -0.33487052 -0.31376582 0.0014617009
-0.011194215 -0.03809062 0.0012731776 -0.85254091 0.5132302 -0.098836944 0.00037052768
0.021372061 -0.040452149 0.0010872558 0.89199245 -0.3281616 -0.31090102 0.0016201432
0.022131765 -0.038873646 0.0020618415 0.90450668 -0.2489164 -0.34627774 0.0010159524
-0.010512864 -0.036764886 0.002498962 -0.8611936 0.49819371 -0.10074093 0.00048757717
0.02294209 -0.036024094 0.0018503871 0.90625823 -0.2161954 -0.36325696 0.0011881
-0.0088210618 -0.033826154 0.0014743581 -0.87688071 0.45896724 -0.14293146 0.0010154542
-0.00811953 -0.032202642 0.0020599887 -0.87714416 0.45583001 -0.15111963 0.0011208808
0.023761373 -0.033025242 0.0020288099 0.90374374 -0.17558074 -0.39040831 0.0023332541
-0.0069770631 -0.029839111 0.0014370419 -0.89408106 0.388531 -0.22285146 0.0030336166
0.023985961 -0.029907351 0.0014225389 0.88955534 -0.12287153 -0.43999299 0.0028378528
0.024807768 -0.029651638 0.0030975835 0.89808458 -0.1602276 -0.40959883 0.0020140137
-0.0059379688 -0.026981728 0.0018160632 -0.91143382 0.33573604 -0.23784404 0.0030298792
-0.0052473634 -0.025715631 0.0010756329 -0.86445296 0.37328973 -0.33671322 0.0067086271
0.024166837 -0.027086366 0.0012866929 0.86746097 -0.071371727 -0.49235928 0.0010992264
0.02500388 -0.02689323 0.0027074562 0.88520038 -0.093825787 -0.45565003 0.0017660413
-0.0057611191 -0.025383007 0.0036235824 -0.93406159 0.29751301 -0.19752221 0.00057464774
-0.0048220786 -0.023973694 0.0018443889 -0.90057242 0.3326872 -0.2798008 0.0036767055
0.024225796 -0.024054332 0.0011182253 0.85807192 -0.049942058 -0.51109523 0.0005529052
0.025009988 -0.024123782 0.0024211928 0.87764257 -0.061772987 -0.47531828 0.00087039033
-0.0038584936 -0.020978721 0.0020059589 -0.89217448 0.28169876 -0.35308701 0.0038225113
0.024209464 -0.02190006 0.00080877286 0.82188869 -0.035304494 -0.56855303 0.00059305853
0.025202084 -0.020902008 0.0024853046 0.86451381 -0.030709751 -0.50167006 0.00089674885
-0.0031432647 -0.018209286 0.0024838117 -0.86785924 0.28096247 -0.40973219 0.0042860713
-0.0022179319 -0.017460356 0.0011812001 -0.82847959 0.31539148 -0.46276328 0.0036156329
0.025233183 -0.017914413 0.002135756 0.85463947 -0.01301915 -0.51905864 0.0014558486
-0.0028910881 -0.016054051 0.0034446344 -0.92348015 0.22153763 -0.313218 0.0034917144
-0.0016664651 -0.014961154 0.0019126325 -0.81728232 0.28493887 -0.50085872 0.0024629564
0.025223002 -0.015049379 0.0019527581 0.84155619 -0.0042808088 -0.54015261 0.0021036044
-0.0007960826 -0.01192644 0.0020607598 -0.80610138 0.23397444 -0.54355913 0.0045047635
0.024205426 -0.010972033 0.00073225051 0.72112685 0.054098904 -0.6906876 0.001800698
0.025486169 -0.011964883 0.0023951745 0.82634526 0.012773442 -0.56301892 0.0034080949
-0.00026082608 -0.0088667534 0.0024578087 -0.78627694 0.17823064 -0.59161001 0.0024736675
0.0010111912 -0.0084442347 0.0010395572 -0.67758077 0.20117798 -0.70739794 0.0022583688
0.024217024 -0.0090761799 0.00095197442 0.71459305 0.063614555 -0.69664198 0.0013976573
0.025236785 -0.0088623017 0.0022051875 0.79135132 0.078768879 -0.60626614 0.0023075291
5.2975374e-06 -0.0060806037 0.0028129257 -0.77395302 0.12130006 -0.6215167 0.0018566765
0.0013122254 -0.0058493949 0.0013244187 -0.7400229 0.15079331 -0.65545964 0.001356557
0.024007082 -0.0058809109 0.0010652428 0.69038069 0.086762443 -0.7182247 0.0014151947
0.025252583 -0.0060065184 0.00249351 0.80173957 0.068470493 -0.59373862 0.0021117351
0.00021552297 -0.0031491695 0.0031447462 -0.74881321 0.097009279 -0.65564317 0.0013037015
0.0016141899 -0.0030882508 0.0015804959 -0.66372299 0.11641711 -0.73886323 0.0022248144
0.023854321 -0.0029956184 0.0012828743 0.75316799 0.10144214 -0.64995956 0.0021381872
0.025210664 -0.0032666922 0.002817424 0.78869581 0.085919097 -0.60875022 0.0019281514
0.00034803001 -0.00031045405 0.0033125323 -0.72957367 0.053530414 -0.681804 0.0011431318
0.0019226982 -6.9249654e-06 0.0016976008 -0.68164921 0.076665968 -0.72765142 0.0033111467
0.023621093 6.7433924e-05 0.0015515117 0.73647481 0.11881376 -0.66594899 0.0014013009
0.025028124 -0.00015518384 0.0030940021 0.77283859 0.10307711 -0.62617534 0.0017066562
0.00045421472 0.0030608275 0.0033684946 -0.75163239 0.02222703 -0.65920764 0.0015332783
0.0021210148 0.003047978 0.001773553 -0.61350274 0.05734773 -0.78760743 0.0018868644
0.023344886 0.0030896189 0.0018294384 0.69580591 0.13821816 -0.7048049 0.0027280319
0.024824377 0.002822422 0.0034060255 0.75673282 0.12275521 -0.64209557 0.0011963691
0.00045420608 0.0059277141 0.003376516 -0.67813122 -0.012045809 -0.73484212 0.0017635961
0.0021214245 0.0059062564 0.0018945807 -0.6237942 -0.00037502288 -0.78158855 0.0030704616
0.0037819878 0.0061272401 0.00075729634 -0.51641351 0.020402953 -0.85609627 0.0040367716
0.021357741 0.0068400404 0.00077802688 0.63315356 0.14196713 -0.76089537 0.0011723074
0.023054374 0.0058754804 0.0021081939 0.69433308 0.14163487 -0.70557857 0.002318461
0.00031084986 0.009318918 0.0033126846 -0.65515709 -0.04086484 -0.75438672 0.0019077131
0.0021215018 0.0090015065 0.0018895655 -0.56523043 -0.016919354 -0.82475954 0.0011286986
0.0037824314 0.0089786276 0.0008258298 -0.53879672 0.0092589986 -0.84238493 0.00099195156
0.021114543 0.0092761181 0.0010505919 0.64163667 0.14850016 -0.75249588 0.0013290818
0.02277698 0.0089243678 0.0024467744 0.69541812 0.15278658 -0.70217508 0.0026669987
0.0001602924 0.012226533 0.0032147588 -0.6266591 -0.06794437 -0.77632588 0.002215957
0.0021213938 0.012094782 0.0018174076 -0.53635883 -0.037993498 -0.84313446 0.0011032016
0.0037824193 0.012066469 0.00082404166 -0.51230222 -0.015496785 -0.85866547 0.0010512422
0.020774052 0.012184201 0.0013707837 0.56432754 0.16099599 -0.80970037 0.0027251889
0.022432948 0.011990624 0.0028049988 0.68406963 0.17601062 -0.70786226 0.0015917107
-7.3625182e-05 0.015059972 0.0031179688 -0.6380735 -0.092845321 -0.76435721 0.0022623884
0.0021209975 0.014945319 0.0016384912 -0.49864417 -0.047743626 -0.86549091 0.0013350932
0.0037818039 0.014201099 0.00072876364 -0.43455553 -0.028838785 -0.9001832 0.0035201209
0.02031674 0.01501037 0.001634208 0.58455688 0.17454684 -0.79235512 0.0019933924
0.022138726 0.01480929 0.0032007084 0.71330923 0.1870541 -0.67542642 0.00076901854
-0.00032376224 0.017986635 0.0029207156 -0.60113657 -0.11542934 -0.790766 0.0022651162
0.0021204308 0.018028785 0.0013987531 -0.46866605 -0.064945243 -0.88098478 0.0014526804
0.018276235 0.018365929 0.00093168765 0.5608353 0.17719962 -0.80874234 0.0019134748
0.020112926 0.01786294 0.0021690819 0.62474811 0.20315881 -0.75393385 0.0037148783
0.021966437 0.016687218 0.0035989657 0.75564021 0.20870322 -0.62084693 0.0022621392
-0.00072048913 0.021094482 0.0027344669 -0.56165081 -0.13782541 -0.81581408 0.0019430307
0.0018824933 0.02111196 0.0012186065 -0.42565814 -0.093730442 -0.90001655 0.0017686113
0.017570267 0.021288628 0.0011087081 0.49764112 0.18261379 -0.84794199 0.0030716693
0.019607466 0.020923875 0.0025474224 0.63969254 0.22590545 -0.73468375 0.0031899917
-0.0028917466 0.024809634 0.0035210624 -0.6123746 -0.17632386 -0.77065378 0.0019190098
-0.00097630703 0.024030756 0.0024078628 -0.52565759 -0.14426617 -0.83837426 0.0017141915
0.0015799513 0.023869572 0.0010569578 -0.41200438 -0.10818885 -0.90473616 0.0014504627
0.017046781 0.024078205 0.0014563259 0.53240591 0.20495999 -0.82130104 0.00186948
0.019073192 0.023880605 0.0029826853 0.68032771 0.23843929 -0.69303745 0.0017795315
-0.0032716412 0.027086422 0.0032428717 -0.56311148 -0.18605359 -0.80516434 0.0022751011
-0.00091043237 0.026969889 0.0018834062 -0.45011649 -0.14194962 -0.88161528 0.001010607
0.0012487117 0.026782049 0.00089532486 -0.36295423 -0.10798883 -0.92552829 0.0017425732
0.014871933 0.027594635 0.00096768397 0.4242008 0.19553828 -0.88420498 0.0032709085
0.016894665 0.026874207 0.0021189568 0.58970094 0.24255471 -0.77033764 0.0033767859
0.018732589 0.026118297 0.003423512 0.6543166 0.26051867 -0.70992947 0.0018510534
-0.0038275858 0.030122772 0.0029028291 -0.51319212 -0.18981311 -0.83702141 0.0019419446
-0.0010670878 0.02998957 0.001476449 -0.42121965 -0.1375784 -0.89646322 0.0011670906
0.00093202142 0.029164027 0.00075194985 -0.2993331 -0.10288175 -0.94858581 0.0020197164
0.014320784 0.030323204 0.0013518916 0.48554003 0.22079451 -0.84587276 0.002373965
0.016464308 0.029781204 0.0026964708 0.62141329 0.25547549 -0.74066031 0.0031496326
-0.0059962934 0.033497158 0.0033720331 -0.55365413 -0.22551753 -0.80162895 0.0018941646
-0.0041071605 0.033044249 0.0024090582 -0.46445239 -0.18625915 -0.86578953 0.0012259155
-0.0013842923 0.032896318 0.0011754322 -0.36568475 -0.14398341 -0.91953439 0.0015763189
0.012071573 0.033476561 0.00089609367 0.36861107 0.21478754 -0.9044292 0.0042466875
0.014031125 0.033056349 0.0019626371 0.5532915 0.25725892 -0.79226661 0.0035511504
0.015981469 0.032562111 0.0033228472 0.67247808 0.28695893 -0.68222272 0.0019414366
-0.0066374545 0.036172543 0.0030676457 -0.49147764 -0.2079418 -0.84570092 0.0019434681
-0.0040680533 0.035901327 0.0018164613 -0.38964686 -0.15933271 -0.90707684 0.0010490778
-0.0018543834 0.035893001 0.00092767784 -0.30684394 -0.12083046 -0.94405866 0.0018992871
0.0094816824 0.037475739 0.0007449761 0.42001095 0.26704887 -0.8673383 0.0030455787
0.011331202 0.036078632 0.0012697822 0.43656385 0.25727761 -0.86210221 0.0031335566
0.013743755 0.0358078 0.0027120528 0.606704 0.30455363 -0.73427337 0.0021108706
-0.0087845353 0.03953791 0.0034195655 -0.52083683 -0.23009005 -0.82206303 0.0014804304
-0.0069088507 0.039026342 0.0025463142 -0.43201566 -0.18344393 -0.88301235 0.0015005616
-0.0040624253 0.038952563 0.0013284602 -0.34975573 -0.13408066 -0.9271965 0.0013637854
-0.0022572686 0.038698502 0.00076090335 -0.23390317 -0.08723823 -0.96833813 0.0017565235
0.0088451868 0.039422553 0.00099813496 0.34155801 0.24997574 -0.90600789 0.0042461604
0.01115073 0.038944922 0.0020762607 0.47223496 0.30146298 -0.82832015 0.002264567
0.013141689 0.038388819 0.0033302512 0.63498288 0.32741141 -0.69971305 0.0023383594
-0.0093688844 0.042145871 0.0030927486 -0.46294448 -0.19852422 -0.86386949 0.0017845965
-0.0069600525 0.042062264 0.001985501 -0.36616448 -0.15170443 -0.91810095 0.0018059028
-0.004235277 0.04191697 0.0010419148 -0.2937187 -0.099005036 -0.95075095 0.0016019985
0.0058860551 0.042706113 0.00080134091 0.25167143 0.22519726 -0.94124794 0.0045880014
0.0081051625 0.042093087 0.0015288419 0.40534002 0.28489548 -0.86863917 0.0025107954
0.010740083 0.041811273 0.0029593632 0.56530017 0.34762144 -0.74806076 0.0022012345
-0.011652465 0.045752879 0.0034463629 -0.48824742 -0.21608098 -0.84553146 0.0015068214
-0.0098030651 0.045038544 0.0026980471 -0.40196699 -0.15875991 -0.90178591 0.0022394413
-0.0069206599 0.044924706 0.0015898999 -0.29919529 -0.08960218 -0.94997561 0.0021364936
-0.0044002943 0.044985007 0.00089248992 -0.16805433 -0.00052410917 -0.98577756 0.001551015
0.0029906388 0.045716438 0.00081804651 0.15764046 0.21636808 -0.9635011 0.0031602448
0.0050671655 0.044974308 0.0011567511 0.3171936 0.29385334 -0.90168655 0.0023740919
0.0078257145 0.044921316 0.0024118242 0.4991951 0.34117571 -0.79649436 0.0030696695
0.0096937679 0.044401135 0.0034674779 0.57004011 0.38706398 -0.72473156 0.0020538948
-0.012243332 0.048117355 0.003218682 -0.43108773 -0.16792776 -0.8865459 0.0025784622
-0.0097365165 0.04797782 0.0022262647 -0.33618882 -0.091272987 -0.93736136 0.0021288905
-0.0069166813 0.04799423 0.0013728379 -0.23291744 -0.02698046 -0.97212219 0.002629821
-0.0041362536 0.048038792 0.00089018373 -0.13387731 0.030043211 -0.99054241 0.0023855066
-0.00091911556 0.048608772 0.00085091311 0.090393484 0.16161384 -0.98270541 0.0047971243
0.0021685374 0.048045598 0.001186321 0.23632456 0.27898315 -0.93076259 0.0022814884
0.0049829609 0.047841892 0.0021483325 0.42336389 0.35570958 -0.83320683 0.0030336778
0.007100617 0.047432229 0.0031365477 0.52318293 0.40912127 -0.74759579 0.003673126
-0.012927618 0.050983369 0.0030619684 -0.35705665 -0.099650584 -0.92875201 0.0019105548
-0.010026092 0.051081814 0.0020783488 -0.27453986 -0.028303979 -0.96115905 0.0027092763
-0.006917228 0.051090561 0.0014104072 -0.1531914 0.063258611 -0.98616976 0.0028550604
-0.0040599043 0.051060341 0.0011508598 -0.0016163797 0.1623013 -0.98673993 0.004563611
-0.00097037369 0.051089402 0.0013978386 0.1486017 0.2495364 -0.95689559 0.0048677363
0.0020899228 0.051151536 0.0022190968 0.33336735 0.35090676 -0.87506044 0.0043594181
0.0044502425 0.050462529 0.0030222563 0.47627205 0.41449019 -0.77547592 0.003486847
-0.014985166 0.054255102 0.0035414263 -0.38653404 -0.084484845 -0.91839731 0.0017557106
-0.013199615 0.054042146 0.0029150634 -0.28256628 -0.025310785 -0.9589138 0.0027036846
-0.010026313 0.054028749 0.0020916807 -0.19808342 0.062280044 -0.97820455 0.0033197121
-0.0069224704 0.053982377 0.0017145476 -0.037059184 0.20463756 -0.978136 0.0061709741
-0.0040665981 0.053987712 0.0017561638 0.099106587 0.28090987 -0.95460331 0.0048844195
-0.00097417395 0.054062095 0.0023575728 0.25626254 0.34816393 -0.90172684 0.0049157813
0.0016785662 0.053535938 0.0031778123 0.42313215 0.45463395 -0.7837519 0.0059595057
-0.015257881 0.057067573 0.003480833 -0.30553323 0.017213218 -0.95202583 0.0025355315
-0.012981924 0.057040814 0.0029066317 -0.19664037 0.094670571 -0.97589451 0.0034442088
-0.0098836767 0.056880236 0.0024222429 -0.092195384 0.19316205 -0.97682571 0.0044478807
-0.0069332928 0.056918941 0.0023323721 0.02656723 0.27696997 -0.96051121 0.0035987119
-0.0041118236 0.05694041 0.002759316 0.20953594 0.3464669 -0.91436064 0.0051334659
-0.0015454146 0.056345288 0.0032047909 0.34478712 0.446951 -0.82544327 0.0049485881
-0.015001915 0.059309203 0.0035645091 -0.20910974 0.15853471 -0.96495587 0.0037486437
-0.012862405 0.059849545 0.0032889405 -0.09916763 0.21616977 -0.97130656 0.0031840948
-0.009869623 0.059820831 0.0031541274 -0.0023830927 0.3078506 -0.95143175 0.0034194414
-0.0070840986 0.05941204 0.0032215659 0.12813751 0.40518677 -0.90520966 0.0060383179
-0.004897452 0.058919586 0.003391935 0.27853504 0.48971441 -0.82619494 0.0050977464
0.023666762 -0.03570189 0.0041297749 0.91242152 -0.21447617 -0.34854978 0.00097691559
-0.0086323414 -0.033041578 0.0037504807 -0.87714517 0.45582777 -0.15112057 0.0011231371
0.024395585 -0.033324029 0.0043355152 0.91271836 -0.19973679 -0.35644138 0.0008728237
0.024902752 -0.031684708 0.0048613921 0.92547208 -0.19097835 -0.32715231 0.00055481133
-0.0074440464 -0.030197676 0.0041253194 -0.90531594 0.37460151 -0.20019166 0.0017539809
0.025277762 -0.029852808 0.0047036959 0.92714882 -0.14858563 -0.34397298 0.0012261801
-0.0064951451 -0.027356002 0.0046325028 -0.92572403 0.3269515 -0.19009916 0.00080072857
0.02586594 -0.027134499 0.0049332976 0.92587841 -0.1255441 -0.35635343 0.0012417351
-0.0057911063 -0.024773683 0.005612351 -0.93436658 0.30128792 -0.19022262 0.00055143319
-0.0053084199 -0.023083637 0.0054364279 -0.93436891 0.30128285 -0.19021939 0.00055120583
0.026186354 -0.023859058 0.0047651269 0.91599154 -0.085172549 -0.39205247 0.0015406054
-0.0046622874 -0.020901004 0.0049401498 -0.93771118 0.28122434 -0.20398676 0.0006438446
0.026537705 -0.020999478 0.00506764 0.92413771 -0.074826054 -0.37466046 0.0019633393
-0.0038654031 -0.01789839 0.0051173144 -0.93543607 0.25115657 -0.24875647 0.0021982132
0.026647031 -0.017936077 0.0050436216 0.91495746 -0.036340293 -0.40191069 0.00067575381
-0.0031441399 -0.015148047 0.0049634688 -0.93873376 0.20807339 -0.2747443 0.0037099028
-0.0024163029 -0.013916056 0.003856279 -0.90788317 0.23864192 -0.34467113 0.0043990486
0.026870871 -0.015070176 0.0052783736 0.91659528 -0.026616482 -0.3989296 0.00075128052
-0.0029125602 -0.012536464 0.0059367018 -0.92734438 0.20332631 -0.31415078 0.0047088983
-0.0022475303 -0.0117589 0.0045541599 -0.89867538 0.23757792 -0.36869958 0.0045320676
0.027075756 -0.011932736 0.0054358202 0.91803592 -0.0068781809 -0.39643767 0.0014865742
-0.001947294 -0.0089180069 0.0051785484 -0.9080655 0.13710925 -0.39575008 0.0055423365
0.026821792 -0.008912649 0.0048714704 0.89057195 0.0081289634 -0.45476976 0.0023276198
-0.0014151237 -0.00597233 0.0048253816 -0.87670881 0.087546691 -0.47298744 0.0077803861
0.026834231 -0.0060385964 0.0050862934 0.89105886 0.039632972 -0.45215413 0.00098912732
-0.0012271684 -0.0031603717 0.0050267191 -0.82813042 0.066990383 -0.55651808 0.002607842
0.026594725 -0.003161435 0.0050909668 0.88078201 0.06662713 -0.46881104 0.00079799042
-0.0010459532 2.9473449e-05 0.0050625731 -0.84582657 0.018965984 -0.53312075 0.0026505773
0.026309157 2.2439635e-05 0.0050536008 0.87225699 0.098007016 -0.4791266 0.00055071182
-0.00098763243 0.0030742092 0.0050301766 -0.81718713 -0.0091083869 -0.5763005 0.0017704328
0.025868777 0.0030737612 0.0049747168 0.84400749 0.11936855 -0.52287894 0.0018083388
-0.0010340395 0.0059904382 0.0050237253 -0.77216536 -0.032195378 -0.63460547 0.0025583766
0.024364647 0.0071287206 0.0037492886 0.74601018 0.14203781 -0.65061057 0.0012379533
0.025535598 0.0058507142 0.005143241 0.83938503 0.13178067 -0.52732033 0.0020966872
-0.0012759482 0.008823677 0.0050877142 -0.77356613 -0.083943486 -0.62813139 0.0013275077
0.024225028 0.0092093833 0.0041253045 0.74950236 0.16227812 -0.64180368 0.0014357624
0.025325539 0.008696856 0.0055708643 0.83197874 0.15760472 -0.53195119 0.0016755281
-0.0029169421 0.012226696 0.0064452915 -0.78537816 -0.11163057 -0.60886753 0.0027555816
-0.0015248964 0.011945302 0.0049890922 -0.74911779 -0.10836741 -0.65351284 0.0011210663
0.023933593 0.012213725 0.0046511334 0.80043513 0.1780089 -0.57237786 0.0010199691
0.025081418 0.011712629 0.0061934134 0.82780725 0.17894398 -0.53170878 0.0011465771
-0.0031955068 0.015305335 0.0062002614 -0.72996897 -0.15480967 -0.66571712 0.0012243551
-0.0017357771 0.015000738 0.0047122822 -0.72120965 -0.12421789 -0.68148845 0.0012391875
0.02355578 0.015065406 0.0050649405 0.80461073 0.20029511 -0.5590021 0.00082785462
-0.0035301289 0.01807869 0.0058553219 -0.73588985 -0.1846315 -0.65144253 0.00088042259
-0.0020013636 0.017793927 0.0043579396 -0.68586516 -0.15074153 -0.71194524 0.000865234
0.021496736 0.018846389 0.0037792996 0.7220645 0.22314121 -0.65485191 0.0043444214
0.022811603 0.017893841 0.0051292721 0.80648988 0.22379246 -0.54725766 0.0006924764
-0.0038397973 0.021061366 0.0053868876 -0.69464403 -0.18196973 -0.69595736 0.0013991486
-0.0022576652 0.020528585 0.003959842 -0.65418178 -0.16817127 -0.73740387 0.0010880647
0.021082584 0.021207273 0.0041360571 0.76358843 0.23085412 -0.6030249 0.0019021623
0.02225747 0.0208588 0.0055572847 0.78854865 0.25152433 -0.56118315 0.0015675431
-0.0059624864 0.02489035 0.0063401237 -0.70607311 -0.24608172 -0.66400647 0.0014233004
-0.004263917 0.023971468 0.0049468186 -0.68340725 -0.21095657 -0.69889325 0.00087895704
0.020508558 0.024325982 0.0047627226 0.77030188 0.27045909 -0.57748324 0.0014318444
0.021733863 0.023300072 0.0059328368 0.78630877 0.27233756 -0.55457258 0.0021603412
-0.0063956319 0.027272284 0.0058433441 -0.68720752 -0.2631976 -0.67710614 0.00050552911
-0.0046777939 0.026908353 0.0043395362 -0.64541745 -0.23267467 -0.72752929 0.00097231107
0.019755375 0.027067794 0.0050979988 0.77235198 0.28071591 -0.56979913 0.0030358364
-0.0086918911 0.031236161 0.0065150335 -0.67494273 -0.30374813 -0.6724503 0.00039267869
-0.0069165877 0.030005347 0.0052887169 -0.6325115 -0.26938963 -0.72619456 0.0010073242
-0.0051512658 0.029414898 0.0039734147 -0.61164832 -0.23544787 -0.75528187 0.0015973499
0.017906221 0.030161537 0.0042490978 0.74208665 0.28723186 -0.60564452 0.0021921995
0.019074371 0.029725825 0.005524856 0.76898128 0.31183544 -0.55805606 0.0017374892
-0.0091012707 0.033270493 0.0059819017 -0.63830853 -0.30441317 -0.70703232 0.00089422631
-0.0072721811 0.032829847 0.0045111142 -0.58546257 -0.26281413 -0.76691741 0.0014628026
0.01718062 0.033037957 0.0048833452 0.75603145 0.31683892 -0.57273865 0.0016212466
0.018730812 0.031948123 0.0063783452 0.77511203 0.35028431 -0.5258348 0.0012767653
-0.011576434 0.037243102 0.0064210966 -0.64891082 -0.34328565 -0.67902112 0.00055270502
-0.0097829979 0.036106516 0.005334272 -0.60373104 -0.30441824 -0.73677564 0.0013679219
-0.0078942394 0.035579346 0.0040376293 -0.58742583 -0.26177961 -0.76576906 0.0016628122
0.015028258 0.036606133 0.0042305728 0.7126615 0.32473108 -0.62182254 0.0024911566
0.016466165 0.035850339 0.0055622486 0.74016464 0.35204422 -0.57290584 0.0017808552
-0.012095596 0.039332982 0.0058837226 -0.6351468 -0.31329185 -0.70600057 0.0011362722
-0.010053555 0.03886595 0.0044674203 -0.5498023 -0.2672537 -0.79138666 0.00098857807
0.014361631 0.039149582 0.0050285924 0.72460687 0.36626554 -0.58377594 0.0017191343
0.015841424 0.038193736 0.0062856451 0.75089008 0.39154941 -0.53183931 0.0016065325
-0.014710442 0.04279485 0.0066185966 -0.6377815 -0.33899456 -0.69160497 0.0016179152
-0.01277348 0.042056609 0.0053312648 -0.57641548 -0.3165842 -0.75333899 0.0015305307
-0.010723382 0.041723214 0.004028447 -0.50109911 -0.24169029 -0.83095455 0.0012280124
0.012017955 0.042236865 0.0042765262 0.65666354 0.39737177 -0.64100593 0.0019352953
0.013473682 0.041677009 0.0055713924 0.72429281 0.39535737 -0.5648827 0.0021872837
-0.015442091 0.045233686 0.0060551222 -0.59995592 -0.31177229 -0.73678422 0.0016061825
-0.013143424 0.04487627 0.0046424158 -0.51824164 -0.26004952 -0.81473917 0.00088828849
0.0090634087 0.046113212 0.0038421676 0.62957615 0.38292494 -0.67601955 0.0043784631
0.010923524 0.044905715 0.0049778875 0.64459407 0.42862311 -0.63307238 0.0020430314
0.012962583 0.043749709 0.0065399781 0.71091968 0.46970448 -0.5234223 0.0017456705
-0.017950291 0.049028013 0.0064041838 -0.59406787 -0.33064267 -0.73332042 0.0020054749
-0.016052203 0.048026349 0.0054934374 -0.55303186 -0.29258353 -0.78009653 0.0015488202
-0.013853035 0.047846839 0.0041477028 -0.46544993 -0.22995727 -0.85467893 0.001558369
0.0082240151 0.04833005 0.0046143397 0.60977393 0.44780052 -0.65394998 0.0042962534
0.01006095 0.047378711 0.0058273152 0.66800386 0.4775283 -0.57073432 0.0017314157
-0.01856737 0.051243495 0.0060959738 -0.55975056 -0.26225826 -0.78606611 0.0027560745
-0.016078331 0.050984427 0.004606666 -0.47990882 -0.20009463 -0.8541953 0.0009635489
-0.014373228 0.050175831 0.003816294 -0.47638312 -0.17081344 -0.86248589 0.0019492395
0.005608642 0.051339176 0.0043783141 0.56292659 0.46974483 -0.68003929 0.0042823115
0.0073890593 0.050648574 0.0056166146 0.63685483 0.50510466 -0.58248192 0.0021469728
-0.020840943 0.054932006 0.0064909682 -0.57707047 -0.25221142 -0.77677482 0.0026734781
-0.018960472 0.054007392 0.0055371737 -0.48967609 -0.20824592 -0.84667051 0.0024477069
-0.016363017 0.053908914 0.0041898843 -0.43330097 -0.13697113 -0.89078015 0.001413823
0.0025095954 0.054508939 0.0042717112 0.46504986 0.47826377 -0.74497813 0.0016631812
0.0046768319 0.05370076 0.0054207589 0.58910465 0.51643938 -0.62148708 0.0023528717
-0.02126235 0.057100821 0.0061758906 -0.52884477 -0.15813716 -0.83385599 0.002979337
-0.018941343 0.056989558 0.0050001205 -0.4137879 -0.084478535 -0.90644526 0.001899102
-0.016704746 0.057057984 0.0040228656 -0.36009219 -0.050828736 -0.93153101 0.0022759601
-0.002894483 0.058309752 0.003838636 0.28043047 0.46390191 -0.84032953 0.0047264886
-0.00070371648 0.05754118 0.004360456 0.40181684 0.49843296 -0.76818478 0.0018359667
0.0019127824 0.056647465 0.0054811351 0.5541541 0.55763972 -0.61802202 0.0025308502
0.0038190798 0.055774901 0.006497182 0.59950012 0.5234279 -0.6054939 0.0024293929
-0.021551164 0.060025312 0.0060214521 -0.47209913 -0.046246603 -0.88033152 0.0029579448
-0.018994227 0.06007034 0.0048064883 -0.35059673 0.026841056 -0.93614185 0.0027460197
-0.01626114 0.060130965 0.0039813882 -0.27532333 0.074725263 -0.95844311 0.0026041109
-0.014132124 0.06116844 0.0037580952 -0.065588608 0.22725691 -0.9716236 0.0055247806
-0.0088706082 0.061162159 0.0037128702 0.081327118 0.38141382 -0.92081994 0.004385611
-0.0067247562 0.060880672 0.0040705781 0.23177895 0.54873955 -0.80322063 0.0042491541
-0.0040024985 0.060214143 0.0045855469 0.31930745 0.52320218 -0.79012805 0.0015398129
-0.0013435823 0.059618916 0.0056787366 0.47625023 0.5897885 -0.65217739 0.0021285249
0.00093202142 0.058654848 0.006443657 0.48837003 0.57676399 -0.65485722 0.0026179308
-0.021708775 0.063071579 0.006101897 -0.38075906 0.074483357 -0.92166954 0.0043118051
-0.01897496 0.063034452 0.0051029301 -0.2691527 0.17910713 -0.94629669 0.005469657
-0.016071927 0.062942445 0.0044574398 -0.12294032 0.2876817 -0.94980252 0.0059239808
-0.012953048 0.062918402 0.0042869993 -0.022811452 0.38195631 -0.92389876 0.0065343711
-0.0098471129 0.062957279 0.0045574773 0.11540675 0.47137868 -0.87434739 0.0048824842
-0.0071185986 0.062910467 0.0053685238 0.32320136 0.59744412 -0.73389477 0.0026097435
-0.004435143 0.062245287 0.0060299886 0.39725199 0.61669672 -0.67961466 0.0023304035
-0.021468647 0.065884203 0.0063861422 -0.29737988 0.2137147 -0.93053275 0.011379142
-0.019012479 0.066038862 0.0059479428 -0.095192529 0.37166119 -0.92347515 0.010223921
-0.016074071 0.066035837 0.0057078321 0.030888727 0.49514437 -0.86826146 0.0081057902
-0.013089069 0.06568145 0.0057658283 0.11572855 0.5829106 -0.80425256 0.0070866458
-0.010123997 0.065186083 0.0060593877 0.22413233 0.61042643 -0.75970012 0.0048253899
-0.008211012 0.064922117 0.0065305009 0.32946458 0.6530652 -0.68187898 0.0020659191
0.026461154 -0.02653357 0.0069664195 0.94108075 -0.12064685 -0.31592935 0.0011283621
0.026954401 -0.023894895 0.0071652904 0.93919432 -0.10720076 -0.32622382 0.00093522994
-0.0050938074 -0.021251593 0.0073255971 -0.93771136 0.28122395 -0.20398621 0.00064425042
0.027453974 -0.020776402 0.0074637132 0.93441886 -0.075534441 -0.34807462 0.0014722488
0.027551964 -0.022302713 0.0091179386 0.94910294 -0.095428281 -0.30016169 0.00061849231
-0.0043776995 -0.018141139 0.0079136714 -0.94767827 0.23342827 -0.21775499 0.001049747
0.027416497 -0.018339703 0.0068310574 0.92568308 -0.077135317 -0.3703526 0.0016532564
0.028015085 -0.017691851 0.0087717548 0.95015883 -0.056112442 -0.30667505 0.0008280343
-0.0036036572 -0.014901648 0.0077324584 -0.95191383 0.189546 -0.24069157 0.00098824943
0.027975386 -0.015010494 0.0081135659 0.94566286 -0.028363543 -0.32390922 0.00023954215
-0.0032241982 -0.011928262 0.0084006619 -0.96010965 0.13244891 -0.24626572 0.0012801531
0.027976079 -0.011871579 0.0081250938 0.94782305 -0.01470165 -0.31845775 0.00027610984
-0.0029360487 -0.0089835851 0.0086628171 -0.95311254 0.1157852 -0.27958947 0.0013093505
0.027956845 -0.0089681372 0.0078061344 0.94756764 -0.005537976 -0.31950727 0.00036831156
-0.0029422948 -0.0068183984 0.0093877884 -0.95486861 0.059470795 -0.29101416 0.0015335168
-0.002440532 -0.0060630022 0.0070700673 -0.95041215 0.05673974 -0.30577332 0.0021846446
0.027952434 -0.0060713813 0.0077329651 0.94242299 0.024709234 -0.33350921 0.00097887858
-0.0029428299 -0.0027024918 0.0094498545 -0.95409447 -0.0010218351 -0.29950389 0.0026622573
-0.0024433064 -0.0031747643 0.0074380459 -0.94765472 -0.014353727 -0.31897429 0.0024358945
0.027419047 -0.0026897215 0.0068740845 0.91120929 0.054455403 -0.40832874 0.0024890541
0.027974609 -0.0031786535 0.0081007062 0.94275028 0.043551899 -0.33064359 0.0011141053
-0.0029375947 -3.9549079e-05 0.008842242 -0.94246387 -0.035873488 -0.33237776 0.0038389759
-0.0024433371 -4.0651765e-05 0.0074421242 -0.92620856 -0.015315983 -0.37670037 0.0053183399
0.027449546 -4.0230225e-05 0.0073889438 0.91995353 0.091174893 -0.38127762 0.0015290588
0.02800481 -3.875501e-05 0.0086014429 0.93957591 0.074347317 -0.33417007 0.0014470314
-0.0030559108 0.0033443728 0.0085235722 -0.93035203 -0.075790785 -0.35874885 0.0055172862
-0.0024410815 0.0030911788 0.0071429536 -0.89842248 -0.041141324 -0.4372007 0.0052910331
0.027230255 0.0030963123 0.0077546369 0.90911537 0.12247191 -0.39813295 0.00091758382
0.027927477 0.0028664856 0.0093246177 0.95130789 0.10505936 -0.28978601 0.00077773863
-0.0032305061 0.0060918732 0.0082863709 -0.89834273 -0.073550411 -0.43309438 0.0066422611
-0.0024392223 0.005737971 0.0068963664 -0.85386634 -0.053226352 -0.51776373 0.0079717524
0.026824724 0.0062317522 0.0076959571 0.90506345 0.13388447 -0.40365225 0.00057802955
0.027565094 0.0052882535 0.0093395887 0.94908136 0.12062726 -0.29102165 0.00075948617
-0.0034644841 0.0089546805 0.0079777818 -0.877886 -0.11156236 -0.46569306 0.0056823012
0.026559032 0.0089105153 0.0080197388 0.90728909 0.14105105 -0.39614531 0.00067943288
-0.0038962411 0.012007474 0.0079559302 -0.8405993 -0.16167051 -0.51696759 0.0059859506
0.025965495 0.011890053 0.0079390164 0.89286602 0.18696725 -0.40967482 0.0013717642
-0.005851923 0.016437117 0.0096457973 -0.87740088 -0.27952915 -0.38991177 0.0065579633
-0.0045479792 0.015074519 0.0080328761 -0.83579087 -0.19217107 -0.51431888 0.0032845009
0.024526879 0.015849192 0.0068233982 0.82795 0.21192971 -0.51921535 0.00062093517
0.025353318 0.014964219 0.0080932304 0.89559066 0.21093941 -0.39169109 0.0013266158
-0.0060014785 0.018342145 0.0088635227 -0.82896346 -0.23829314 -0.50599986 0.0026962189
-0.0049511911 0.017897114 0.0074511822 -0.79907936 -0.2086605 -0.56385547 0.0029348244
0.023985544 0.018434511 0.0072190985 0.82895106 0.24296978 -0.50379139 0.00075346336
0.02477273 0.017841408 0.0084266206 0.88805956 0.24458434 -0.389267 0.0021698165
-0.0064546 0.021082247 0.0083635338 -0.80530632 -0.23576124 -0.54396528 0.0031459054
-0.0052494789 0.020510131 0.0069579659 -0.72350365 -0.21412686 -0.65627152 0.00077993365
0.023620807 0.020958947 0.0079396637 0.8653096 0.26441342 -0.42582262 0.0016983598
0.024662463 0.019817639 0.0093925372 0.88537991 0.2892386 -0.3639276 0.0021399003
-0.0087589901 0.025158424 0.0096301213 -0.81638843 -0.34829971 -0.46064872 0.0077545326
-0.0070256963 0.023912629 0.0079280576 -0.78706706 -0.27032542 -0.55448139 0.0031278105
0.022596186 0.023951249 0.0078843851 0.85803163 0.30087101 -0.41624314 0.0016438192
-0.0090505229 0.027316475 0.0087207165 -0.76593482 -0.32702318 -0.55353379 0.0024892217
-0.0077727903 0.026757576 0.0074229548 -0.74373394 -0.29148164 -0.60157984 0.0022852176
0.021047065 0.027652401 0.0074546365 0.85057461 0.31836241 -0.41853109 0.0018573893
0.022013346 0.026602512 0.0086642224 0.86384839 0.31598216 -0.39232811 0.0013239487
-0.0097728409 0.03012336 0.008182073 -0.75791866 -0.31741086 -0.56992078 0.0023454176
-0.0082188835 0.02909724 0.0069151893 -0.67228425 -0.29377851 -0.67950577 0.00053452695
0.020331273 0.030098468 0.0079121273 0.85141635 0.3323032 -0.40578917 0.0013635515
-0.011969834 0.033424243 0.0089449985 -0.73365021 -0.37610185 -0.56595474 0.0019218515
-0.010460977 0.032781478 0.0075794337 -0.72287381 -0.33122206 -0.60642022 0.0020932211
0.01827511 0.033922661 0.0070321187 0.82731771 0.35707799 -0.4336367 0.0014259419
0.019324278 0.032948527 0.0082700858 0.84168416 0.35252923 -0.40901223 0.0018078586
-0.012658515 0.036031965 0.008153066 -0.71781737 -0.34630066 -0.6039983 0.0016378973
-0.01099002 0.035002321 0.0069805309 -0.64922029 -0.32883164 -0.6858446 0.00074294035
0.017789606 0.036125015 0.0079060039 0.82600003 0.39518416 -0.40193701 0.00097703724
0.018839967 0.035051297 0.009117581 0.83919549 0.36693352 -0.40138611 0.0010442706
-0.014964468 0.039362054 0.0087974165 -0.70927286 -0.38576686 -0.5900135 0.0015604775
-0.013387483 0.038723145 0.0074419184 -0.65678322 -0.33981001 -0.67317522 0.00021253694
0.01539279 0.040208537 0.0072857067 0.79568011 0.43156523 -0.42502311 0.0018288636
0.016557589 0.038799129 0.0080947503 0.80630773 0.39978942 -0.43593141 0.0013172316
-0.017481888 0.042604554 0.0096542612 -0.69950527 -0.43306482 -0.56846046 0.0015831429
-0.015815146 0.042045373 0.0081222812 -0.6819517 -0.3742156 -0.62841445 0.001857192
-0.01399514 0.041128773 0.0068174675 -0.65004581 -0.31042758 -0.69359583 0.0024913822
0.014676316 0.042317856 0.0080052726 0.79824382 0.45381665 -0.39605215 0.0010334675
0.01592931 0.040840935 0.0089179054 0.80550081 0.42203629 -0.4159973 0.0020888385
-0.018415151 0.045397185 0.0088148313 -0.69225448 -0.41043669 -0.59357011 0.00199559
-0.016776446 0.044722658 0.0075563313 -0.66744632 -0.3612988 -0.65113628 0.0019585437
0.012179413 0.045671377 0.0072846143 0.75394797 0.49137494 -0.43601957 0.0012773726
0.013418534 0.04483043 0.0085004717 0.7814883 0.47999671 -0.39859655 0.0009784064
-0.020979527 0.048989866 0.009334527 -0.69351357 -0.4062497 -0.59497905 0.0021241803
-0.019131145 0.04796553 0.0080618821 -0.66114539 -0.35751814 -0.65959644 0.0026595748
-0.017370034 0.046918031 0.0069211498 -0.64320457 -0.34979999 -0.68112248 0.0011998484
0.010984192 0.048059199 0.0079084933 0.75096989 0.4977476 -0.43392578 0.0015319926
0.012558989 0.046954025 0.0095432773 0.78733528 0.5138154 -0.34072998 0.0014196574
-0.021551246 0.051251028 0.0086504472 -0.68702829 -0.36067939 -0.63079518 0.0022584994
-0.019856539 0.050634235 0.0073073413 -0.61545193 -0.31080094 -0.72430772 0.0012805127
