# .PCD v0.7 - Point Cloud Data file format
VERSION 0.7
FIELDS x y z normal_x normal_y normal_z curvature
SIZE 4 4 4 4 4 4 4
TYPE F F F F F F F
COUNT 1 1 1 1 1 1 1
WIDTH 554
HEIGHT 1
VIEWPOINT 0 0 0 1 0 0 0
POINTS 554
DATA ascii
0.028472383 0.03684013 -0.041650645 -0.63117075 0.75622892 -0.17245665 0.0040507033
0.043917991 0.034170657 -0.041192215 0.92064577 0.24412234 -0.30465645 0.0015507526
0.029584503 0.037896499 -0.041031506 -0.57804209 0.79320645 -0.19154841 0.0042915177
0.031472139 0.038843229 -0.041578095 -0.59196168 0.79017431 -0.15876371 0.003792858
0.030127814 0.015619043 -0.037364125 -0.40233997 -0.72951704 -0.55310714 0.0014302416
0.032704461 0.015032081 -0.037974123 -0.23511571 -0.78393143 -0.57460612 0.0021634239
0.035602897 0.014793556 -0.038234312 -0.0033719654 -0.79353058 -0.60852104 0.0037668834
0.0385562 0.015096558 -0.038079593 0.27420154 -0.77691686 -0.56675726 0.0045098444
0.040915854 0.01563625 -0.037385482 0.49511957 -0.69668293 -0.51912385 0.0034397852
0.02697243 0.018114641 -0.037762035 -0.56790364 -0.62742138 -0.53275508 0.0021350014
0.029270453 0.01699442 -0.038545307 -0.4224571 -0.71707481 -0.5543769 0.0017260157
0.031727586 0.016348753 -0.03929593 -0.23502553 -0.77015877 -0.59297425 0.0019640452
0.039296426 0.016347293 -0.039332282 0.30757293 -0.7505784 -0.58483404 0.0066079018
0.041805331 0.017344659 -0.038495675 0.57373893 -0.62830096 -0.52541548 0.0068759248
0.043690857 0.018494967 -0.037496369 0.69571888 -0.54369694 -0.46943468 0.0019836221
0.024370054 0.021131562 -0.037629768 -0.75507647 -0.45235443 -0.47458932 0.0025186671
0.025903199 0.020101057 -0.038779166 -0.68695003 -0.50844902 -0.51921016 0.002128857
0.042817615 0.019269723 -0.039392274 0.64306068 -0.56101984 -0.52127701 0.00091116573
0.044448517 0.020577582 -0.038305439 0.77080065 -0.45539933 -0.44550854 0.003027634
0.023572048 0.023594251 -0.038193483 -0.87522423 -0.2224839 -0.42951536 0.0027218277
0.045558088 0.023421576 -0.038536567 0.88370281 -0.27873871 -0.37599736 0.0025924235
0.046384901 0.024145314 -0.036952727 0.90521085 -0.22079428 -0.36310223 0.0036609133
0.023094695 0.026660237 -0.038195595 -0.92471451 -0.0072549079 -0.38059238 0.0031782894
0.045840356 0.025728161 -0.039283764 0.91714847 -0.11627143 -0.38120812 0.003077538
0.046406962 0.02666907 -0.038054451 0.94555247 -0.063139804 -0.31928664 0.0027874555
0.023431348 0.02956119 -0.038267557 -0.92229921 0.19556755 -0.33334294 0.003222218
0.045835707 0.029812576 -0.039326083 0.93773746 0.11519335 -0.32768717 0.0045812954
0.046423782 0.028406445 -0.037902843 0.94493169 -0.061031256 -0.32152659 0.0027693938
0.024360264 0.032440878 -0.038122632 -0.87509817 0.3971228 -0.27658027 0.0033914573
0.02521739 0.033728421 -0.038797986 -0.83585829 0.47930163 -0.26760197 0.0018718629
0.026456464 0.035723787 -0.038152132 -0.74091846 0.63434535 -0.22055811 0.0033979618
0.027906027 0.037538856 -0.037187111 -0.62483144 0.75518876 -0.19818063 0.0034658033
0.029129544 0.038127996 -0.038281661 -0.60636967 0.76638246 -0.21206999 0.0032575291
0.031231707 0.03909114 -0.039020281 -0.50564969 0.84831518 -0.157098 0.00074488396
0.030295821 0.012988342 -0.033937227 -0.36044547 -0.76058447 -0.53999108 0.0014481454
0.032549366 0.012581531 -0.034478009 -0.20021078 -0.81253427 -0.54745197 0.0018099449
0.035466988 0.01231179 -0.034671128 0.001236028 -0.82124305 -0.5705772 0.0027135185
0.038414139 0.012580613 -0.034507878 0.26422492 -0.79741311 -0.54251045 0.0051862439
0.040544577 0.012989227 -0.033908945 0.47843042 -0.72152519 -0.50050551 0.0043330891
0.027265048 0.015415002 -0.034691863 -0.52102745 -0.67209303 -0.52613813 0.0017560655
0.029544862 0.014403321 -0.035349611 -0.35933569 -0.74787521 -0.5581761 0.0010201315
0.032433175 0.013630642 -0.035936583 -0.20686419 -0.78850144 -0.57920009 0.0016650194
0.035554744 0.013350353 -0.036227018 -0.002807956 -0.81091177 -0.58516163 0.0025635075
0.038626216 0.013647079 -0.035986491 0.22547254 -0.80356383 -0.55086052 0.0032057329
0.041570213 0.014597388 -0.035180982 0.48822343 -0.72035468 -0.49267346 0.0045984602
0.043463238 0.015873197 -0.034501493 0.65223521 -0.61738116 -0.43980652 0.0027542473
0.024493145 0.018185619 -0.03470432 -0.70239896 -0.51958066 -0.48648915 0.0029637138
0.026205638 0.017095927 -0.035704948 -0.58365721 -0.62096244 -0.52321124 0.0039946609
0.042695194 0.016380001 -0.036353003 0.63971221 -0.60345012 -0.4760423 0.00058407307
0.044349365 0.017661983 -0.035258092 0.73192525 -0.53613335 -0.42053109 0.0029833165
0.022020904 0.021717507 -0.033760469 -0.83840775 -0.32412469 -0.43819588 0.003617574
0.023335986 0.020571226 -0.035320505 -0.8202799 -0.37135956 -0.43500912 0.0021018987
0.045562062 0.020072613 -0.035672899 0.85457629 -0.3591772 -0.37508807 0.0011311129
0.046414468 0.021376032 -0.034718744 0.87362367 -0.33898869 -0.34909642 0.0013087071
0.021894701 0.02367034 -0.034351572 -0.92315912 -0.12884116 -0.36218384 0.0038237013
0.022509305 0.023540376 -0.035842843 -0.89054149 -0.19177707 -0.41250145 0.0033768832
0.046842713 0.023722079 -0.035305653 0.92111391 -0.22526824 -0.31749544 0.00071761431
0.021821819 0.026225045 -0.034578834 -0.95402968 0.052790351 -0.29502633 0.0024603747
0.022340894 0.026801184 -0.036055885 -0.93738669 0.015197308 -0.34795859 0.0029312125
0.047095399 0.026386084 -0.03576104 0.95820314 -0.078800999 -0.27502179 0.0020411233
0.021998949 0.028665641 -0.034203611 -0.93400884 0.2151635 -0.28518808 0.0019379127
0.022634612 0.029841946 -0.035394482 -0.92979831 0.22336085 -0.29254919 0.0018257208
0.046562325 0.028926942 -0.036653917 0.9520511 -0.037462439 -0.30363667 0.0016251584
0.02359578 0.032509413 -0.035172522 -0.87521398 0.44007677 -0.20083065 0.0023526209
0.024852287 0.034688529 -0.035109758 -0.80355972 0.56657451 -0.18244219 0.0011876549
0.025933484 0.035962656 -0.035451505 -0.73173457 0.65919656 -0.17327531 0.0016056658
0.027161639 0.037283108 -0.035256546 -0.69837594 0.69910657 -0.15336572 0.0010918818
0.028403528 0.038064092 -0.036197584 -0.64176971 0.74660629 -0.17524481 0.0039199283
0.033366352 0.010009181 -0.030865444 -0.15427524 -0.82650995 -0.5413689 0.0034916506
0.035542756 0.010003345 -0.031111656 0.01594292 -0.85635418 -0.51614273 0.0026142977
0.037316792 0.010008242 -0.030905334 0.15412286 -0.86445171 -0.47850737 0.0046342635
0.027351728 0.012795379 -0.031330436 -0.49418241 -0.69578445 -0.52121753 0.0010583504
0.029613065 0.012022104 -0.032122802 -0.35984716 -0.76753461 -0.5304721 0.0011476035
0.032522544 0.011140337 -0.032346439 -0.19114369 -0.81558365 -0.54615682 0.0015901771
0.03564848 0.01084548 -0.032483507 0.0014707966 -0.82424432 -0.56623238 0.0019482105
0.038623925 0.011202363 -0.032334857 0.21169454 -0.81723845 -0.53601003 0.0023211555
0.041281123 0.012214117 -0.031982411 0.4774144 -0.73755288 -0.47758895 0.0036021187
0.043254238 0.013085384 -0.030830963 0.65360075 -0.65250432 -0.38346344 0.0073720408
0.02449834 0.015386524 -0.031552829 -0.63103348 -0.60314697 -0.48786324 0.0010982377
0.026221622 0.014544385 -0.032446984 -0.56541449 -0.65727538 -0.49829251 0.0026719151
0.028299486 0.013588751 -0.033350311 -0.42809093 -0.72952098 -0.53342044 0.002488737
0.04236545 0.013741255 -0.033139359 0.55186141 -0.71220076 -0.43384227 0.0073156455
0.043967221 0.014949141 -0.032434467 0.70712823 -0.59139889 -0.38757843 0.0029190928
0.021726411 0.018796477 -0.030836953 -0.78820449 -0.42294204 -0.44704992 0.0029195261
0.023326918 0.017555948 -0.032235231 -0.71978396 -0.51092345 -0.46996632 0.0028809621
0.045415781 0.017281864 -0.032652229 0.82227147 -0.45633221 -0.34004506 0.0013703026
0.04633167 0.018423073 -0.031821337 0.85775954 -0.40809971 -0.31257507 0.0021000009
0.021499047 0.020741852 -0.031896193 -0.85403138 -0.30708435 -0.41991621 0.0025289131
0.022359509 0.019654209 -0.032803975 -0.83156294 -0.35311082 -0.42873746 0.0038683587
0.046933305 0.020643882 -0.032324806 0.93101984 -0.26700094 -0.24882229 0.0022083265
0.021168515 0.023427291 -0.032352738 -0.92894858 -0.12200607 -0.34952691 0.0026578028
0.04743493 0.02286445 -0.032729823 0.95395768 -0.1826359 -0.23792636 0.0023036813
0.02113926 0.026697559 -0.032209821 -0.9583168 0.11292103 -0.26244587 0.0033851196
0.048068341 0.025376711 -0.030995561 0.96417814 -0.15662749 -0.21407571 0.00077981327
0.021657519 0.029239995 -0.032249596 -0.93667227 0.26836243 -0.22500378 0.0024600043
0.022225324 0.030821158 -0.032570809 -0.92440701 0.32561621 -0.19860943 0.0018227951
0.022940433 0.032575507 -0.031897832 -0.8763898 0.44838277 -0.17576648 0.0011256357
0.02449893 0.03492476 -0.032332364 -0.78068197 0.60727209 -0.14750034 0.001950778
0.02561352 0.036268149 -0.03198747 -0.78066152 0.60729307 -0.14752181 0.0019451623
0.027108371 0.037526533 -0.03258897 -0.71717656 0.68400228 -0.13341217 0.00065413018
0.027832935 0.010075893 -0.028049408 -0.45510036 -0.72676945 -0.51448011 0.00093980943
0.029887302 0.0095956381 -0.028727213 -0.3155424 -0.79005557 -0.5255903 0.0019711209
0.032499548 0.0090785511 -0.029132241 -0.16525874 -0.84234715 -0.51297247 0.0018809785
0.035490826 0.0088807307 -0.029254105 0.0093236519 -0.86134744 -0.5079307 0.001618651
0.03848739 0.009302415 -0.029146265 0.26088306 -0.84003526 -0.47568983 0.0041062785
0.040927023 0.0099212695 -0.028354136 0.51601636 -0.76549369 -0.38437808 0.0038865886
0.024600636 0.012551194 -0.028106578 -0.57357734 -0.65490925 -0.49203956 0.00095078314
0.026643163 0.011785652 -0.02921859 -0.49783304 -0.68893695 -0.52680945 0.0023142511
0.029314918 0.010739489 -0.030047417 -0.32788631 -0.77117389 -0.54569346 0.0019148693
0.039781015 0.010460425 -0.030383212 0.34252694 -0.80725372 -0.48064187 0.0071416139
0.041855942 0.011169931 -0.029405212 0.52659386 -0.75359029 -0.39344722 0.0039682798
0.043594882 0.012330631 -0.028711706 0.70790428 -0.61008054 -0.35591197 0.004693585
0.021858804 0.015824143 -0.028105242 -0.72728664 -0.50403637 -0.46583423 0.0017146014
0.023586225 0.014488673 -0.029141067 -0.66243607 -0.57537484 -0.47971055 0.0027241062
0.025409257 0.013683258 -0.030457608 -0.6025461 -0.61585301 -0.50760537 0.0014854239
0.044857267 0.014384381 -0.029405387 0.80135185 -0.51924241 -0.29702294 0.0006125159
0.046193033 0.015827376 -0.028019799 0.84422535 -0.47862604 -0.24124821 0.0020899321
0.021269266 0.017723735 -0.028985038 -0.82133162 -0.39554429 -0.41104618 0.0042390865
0.022481909 0.016687669 -0.030005725 -0.70271611 -0.52259314 -0.48279041 0.0010070028
0.046005163 0.016422 -0.029764188 0.84313154 -0.46280497 -0.27375317 0.0014283982
0.046677459 0.017544171 -0.02925417 0.89992285 -0.3692112 -0.23199543 0.0021036759
0.020380242 0.020555135 -0.02911916 -0.90965652 -0.17300522 -0.37761638 0.0018408383
0.047521617 0.020350188 -0.029595109 0.93267679 -0.27591088 -0.2323516 0.0022724804
0.020061806 0.023655092 -0.029218126 -0.94649023 -0.016871216 -0.32229114 0.0022349141
0.048145499 0.024758566 -0.030313296 0.96419489 -0.15656978 -0.21404213 0.00076147873
0.02033091 0.026620612 -0.029290479 -0.95019215 0.15808862 -0.26859438 0.002440705
0.048188906 0.025882471 -0.029929442 0.96419835 -0.15656056 -0.21403371 0.00074336916
0.021079168 0.02953011 -0.029290196 -0.9257893 0.32388198 -0.19497344 0.0020321929
0.02181592 0.031457938 -0.028990088 -0.88285285 0.43777174 -0.17007865 0.001034335
0.022679619 0.032972831 -0.029360421 -0.85590047 0.49803546 -0.13926625 0.0018849871
0.023757288 0.034477256 -0.02982123 -0.81514847 0.56704992 -0.11826818 0.0028102091
0.030471539 0.0070278081 -0.025063111 -0.27237037 -0.81414217 -0.51282239 0.0016586502
0.032670043 0.006798754 -0.025453139 -0.11330593 -0.85914946 -0.49902299 0.0019165666
0.035551183 0.0067962804 -0.025610318 0.076768637 -0.88151687 -0.46586978 0.0025996631
0.037679978 0.0069368179 -0.025176251 0.3156907 -0.8502453 -0.42121527 0.0044535669
0.026691452 0.0092861336 -0.025901075 -0.45913112 -0.71766561 -0.52359796 0.0011849029
0.02932523 0.0082617328 -0.026361132 -0.30064636 -0.80074674 -0.51808918 0.0016022221
0.032472096 0.0077071865 -0.026924016 -0.13474497 -0.83877051 -0.52754885 0.0016555338
0.035716284 0.0076419008 -0.027143976 0.046837568 -0.8584516 -0.51075149 0.0021075995
0.038695417 0.0079192799 -0.026527217 0.32067752 -0.84924966 -0.41945311 0.0042162612
0.041264396 0.0090732239 -0.026220046 0.52645051 -0.76646459 -0.36794281 0.0042828242
0.022008153 0.012821142 -0.025023742 -0.7097556 -0.50958323 -0.4863866 0.0018115899
0.023821199 0.011593126 -0.025960084 -0.6062693 -0.60399818 -0.51732361 0.0022077714
0.02579744 0.010712467 -0.026907174 -0.51732147 -0.68213737 -0.51678538 0.0025651287
0.042752389 0.010543544 -0.027027948 0.68464845 -0.66085356 -0.30745569 0.0023496165
0.044111315 0.011715796 -0.026315717 0.72412682 -0.6271196 -0.28698656 0.0024059061
0.021174014 0.014819326 -0.025908979 -0.73406047 -0.48342341 -0.47692463 0.0019064558
0.022702076 0.013698479 -0.026968854 -0.64718789 -0.58537114 -0.48835281 0.0012282891
0.045546144 0.013927573 -0.026611311 0.84117866 -0.48830834 -0.23232184 0.0020929496
0.046396669 0.015231635 -0.02612905 0.85660732 -0.46761903 -0.21807425 0.0012773795
0.018899579 0.018848162 -0.02476543 -0.87365103 -0.19840305 -0.44426346 0.0065095839
0.020006672 0.017560255 -0.026345251 -0.85293716 -0.30250773 -0.42542595 0.0028900709
0.047212429 0.017648825 -0.026795778 0.90047902 -0.37306079 -0.22352451 0.0020000946
0.018880017 0.020607878 -0.025243385 -0.93113023 -0.097408906 -0.35143706 0.0029739295
0.019445632 0.02056995 -0.026775923 -0.91339529 -0.14086448 -0.38192448 0.0027514547
0.04801549 0.02071682 -0.027546657 0.94183034 -0.26972625 -0.20050767 0.001737826
0.018873122 0.023494175 -0.025411917 -0.95822281 0.062325343 -0.27914998 0.0020325943
0.019263608 0.023642931 -0.0267139 -0.94819152 0.014643002 -0.31736165 0.0016999297
0.018897405 0.025310103 -0.024818582 -0.96702325 0.12872168 -0.21976526 0.00314304
0.019582309 0.026476944 -0.026436349 -0.94681859 0.19203095 -0.25818342 0.0013557202
0.020482512 0.029578092 -0.026245568 -0.90911943 0.37207651 -0.18724577 0.0022324095
0.021599473 0.031987268 -0.026113058 -0.85522342 0.50190592 -0.12916398 0.0020174389
0.022585947 0.033396192 -0.02682717 -0.7957716 0.59619069 -0.10632153 0.0015995732
0.023949828 0.035222914 -0.026213011 -0.79579085 0.59616667 -0.106312 0.0016017962
0.025091412 0.036381632 -0.025664492 -0.78027225 0.61832207 -0.094090283 0.00065154542
0.027009193 0.0066776439 -0.022435041 -0.38518402 -0.76328886 -0.51867467 0.0013514688
0.02963764 0.006160676 -0.023278469 -0.25996229 -0.82553405 -0.50091225 0.0020740773
0.032556687 0.0054823169 -0.023182239 -0.07493332 -0.86929703 -0.48857719 0.001787835
0.035484519 0.0055169193 -0.023234723 0.11444689 -0.88530159 -0.45071399 0.0031288662
0.038552698 0.0062477444 -0.023163611 0.3227545 -0.85578549 -0.40430287 0.0035400768
0.040677786 0.0069225212 -0.022315614 0.5395487 -0.77100861 -0.33827949 0.0056825061
0.023856539 0.0089766774 -0.022778723 -0.54228938 -0.65688783 -0.52385157 0.0017122197
0.026161384 0.0080326796 -0.023709007 -0.44965497 -0.72546053 -0.52107328 0.0018651924
0.028277531 0.0074824574 -0.024534447 -0.32328111 -0.77289349 -0.54600823 0.0026188004
0.039875407 0.0074822339 -0.024547769 0.42769364 -0.83017975 -0.35760283 0.010417487
0.041748933 0.008317478 -0.023617305 0.61053681 -0.73148811 -0.30359486 0.0044614868
0.043385338 0.0095261969 -0.022901369 0.70879447 -0.66297138 -0.24099678 0.0024304474
0.021159787 0.011952274 -0.022920424 -0.6878143 -0.53119463 -0.49471581 0.0016545618
0.022763448 0.010627678 -0.023620144 -0.59492761 -0.61645472 -0.51579529 0.0013899975
0.044397928 0.011011114 -0.023223449 0.76186335 -0.60744321 -0.22489326 0.0010762126
0.018824656 0.015307043 -0.022485608 -0.81738049 -0.34858736 -0.45866755 0.0033397891
0.019971427 0.014270868 -0.023537882 -0.77735549 -0.42014685 -0.46818277 0.0016020297
0.045713227 0.013292987 -0.024183376 0.81601942 -0.53752446 -0.21255541 0.0014041696
0.047047146 0.01597004 -0.024234606 0.8565169 -0.4754844 -0.20073237 0.0012101128
0.018447407 0.017660411 -0.023133319 -0.88148475 -0.22355303 -0.41594324 0.0023171578
0.019358935 0.016631383 -0.024444399 -0.85401845 -0.25460896 -0.45368135 0.0040390999
0.01805203 0.020559581 -0.023028944 -0.94491065 -0.013743249 -0.32703978 0.0014045722
0.018246109 0.023527002 -0.023223724 -0.95652592 0.12369926 -0.2641151 0.0028044591
0.018793533 0.02641201 -0.02325164 -0.94609416 0.24457014 -0.21234685 0.001886994
0.019377267 0.027815919 -0.024007929 -0.94094187 0.26861677 -0.20609103 0.0010801156
0.01901949 0.028184164 -0.021835549 -0.89453566 0.40081179 -0.19787842 0.0031847716
0.019918017 0.029609704 -0.023117734 -0.89388132 0.42331114 -0.14759375 0.0015898958
0.021197136 0.031964991 -0.02328882 -0.86772507 0.47962049 -0.13045061 0.0012348199
0.022356028 0.033746235 -0.022463201 -0.80938256 0.57928717 -0.096572153 0.0015887335
0.022917997 0.034239739 -0.024655087 -0.78410232 0.61450505 -0.086989291 0.00069681613
0.027735539 0.0039626835 -0.01882921 -0.32087564 -0.79564917 -0.51379091 0.0016797899
0.029697077 0.0037697088 -0.019365594 -0.1959601 -0.84989548 -0.48915988 0.0022525112
0.032697584 0.0035786438 -0.019689204 -0.020858733 -0.89006495 -0.45535633 0.0021471907
0.035400566 0.003774514 -0.019692156 0.17001413 -0.89915216 -0.40326253 0.0025594917
0.037456725 0.0039624153 -0.018859608 0.40256694 -0.84791565 -0.34493321 0.0037514968
0.024004381 0.0065332022 -0.019735651 -0.48645443 -0.69245976 -0.53278661 0.00090781844
0.026521944 0.0054305685 -0.020236343 -0.35275877 -0.77930462 -0.51792431 0.0010438364
0.029331921 0.0047053015 -0.020772032 -0.21278164 -0.83068573 -0.51447564 0.001602004
0.032536238 0.0043919301 -0.021203743 -0.057043575 -0.87036526 -0.48909146 0.0019338011
0.035806637 0.0045054466 -0.021084415 0.1394275 -0.88349205 -0.44721553 0.0023748495
0.038566258 0.0049806745 -0.020207012 0.40104261 -0.85636628 -0.32527176 0.0039482745
0.041098833 0.0064085 -0.019946409 0.60871279 -0.75175911 -0.25362775 0.0050708875
0.021193007 0.009012429 -0.01978175 -0.63451385 -0.57278746 -0.51894772 0.0013570637
0.022920243 0.0081107952 -0.020709643 -0.55565119 -0.65355062 -0.51392931 0.0025066359
0.042450294 0.0078804828 -0.020994565 0.69360912 -0.67615563 -0.24843498 0.0047679148
0.043642431 0.0090191215 -0.0203161 0.72287011 -0.66261548 -0.19595808 0.0017213363
0.018534569 0.01240859 -0.019634753 -0.74709576 -0.44734105 -0.49166435 0.0015212875
0.019940546 0.011194833 -0.020412941 -0.70109087 -0.50274372 -0.50568795 0.0018544731
0.045181785 0.011377197 -0.020695625 0.80234796 -0.56454808 -0.19370891 0.0024748193
0.01790629 0.014685733 -0.020298691 -0.83781451 -0.32108328 -0.44155669 0.0032624649
0.017185682 0.017614635 -0.020251308 -0.91652608 -0.10675063 -0.38546631 0.0027377657
0.016943831 0.020478589 -0.020035511 -0.94774562 0.065087073 -0.31231692 0.0016500055
0.017348576 0.023498015 -0.020156072 -0.94484144 0.17558244 -0.27648756 0.0019561474
0.018176194 0.026476895 -0.020412767 -0.93680108 0.29646748 -0.18577063 0.0023547697
0.018870929 0.028535511 -0.019946067 -0.90418899 0.39716187 -0.15717752 0.0010109064
0.019546716 0.029887343 -0.01996514 -0.8752051 0.46828806 -0.12133558 0.0015349513
0.021032935 0.032188833 -0.020347429 -0.85342133 0.50770801 -0.11791753 0.00046303286
0.024178989 0.003833401 -0.016220229 -0.40542042 -0.74569875 -0.52874166 0.0012293694
0.026605956 0.0032377448 -0.016940415 -0.30503869 -0.81105512 -0.49914029 0.0018900569
0.029602418 0.0025464278 -0.017178925 -0.13315763 -0.8675524 -0.47918874 0.0013202727
0.032453496 0.0022253161 -0.017024884 0.025547933 -0.89726686 -0.44074884 0.0024675927
0.035516426 0.0027717715 -0.01738788 0.21445297 -0.90646881 -0.36376414 0.0027956187
0.038187947 0.0035738237 -0.017077168 0.39558125 -0.85385001 -0.33831295 0.0035765504
0.021353967 0.0061027952 -0.016627289 -0.53884894 -0.64378536 -0.54330683 0.00088230608
0.023418371 0.0052644843 -0.017516604 -0.4367778 -0.72259361 -0.53580183 0.00075288099
0.025735639 0.0044210544 -0.01819816 -0.33841863 -0.79016238 -0.51099533 0.0020081042
0.039581299 0.0046508489 -0.017857788 0.44810814 -0.85277903 -0.2682668 0.0058195293
0.04116245 0.0055370908 -0.016869055 0.61643922 -0.75156432 -0.23484841 0.0038885539
0.018374152 0.0093182623 -0.016377503 -0.67163765 -0.50514627 -0.54196876 0.00098306336
0.020118671 0.0081973337 -0.017512389 -0.64392781 -0.55527484 -0.52633327 0.00026561631
0.043696921 0.0085111745 -0.017495407 0.70909739 -0.67992407 -0.18677309 0.0021199323
0.016073426 0.013095323 -0.015931619 -0.8073352 -0.31546777 -0.49868831 0.0036939743
0.017424595 0.011609193 -0.01711238 -0.77880716 -0.36349943 -0.5112021 0.0025192148
0.019160613 0.010304827 -0.018387301 -0.72822863 -0.46090531 -0.50719756 0.002131474
0.01587753 0.014857003 -0.016342664 -0.87798309 -0.17699797 -0.44476661 0.0034586529
0.016710583 0.014356807 -0.017825177 -0.86025488 -0.23046809 -0.4548032 0.0022481624
0.015813822 0.017609384 -0.016894566 -0.92990112 -0.018992439 -0.36731893 0.0020786398
0.016444294 0.017322144 -0.018383898 -0.91420227 -0.071152695 -0.39896294 0.0023956359
0.015862735 0.020386493 -0.016788401 -0.9456678 0.10431406 -0.30794635 0.0020854108
0.016450191 0.021405958 -0.018212801 -0.94165808 0.066086642 -0.33001924 0.0017415837
0.016060788 0.022638673 -0.01631007 -0.93607706 0.21751194 -0.27649286 0.0011199772
0.016652528 0.023836171 -0.017275495 -0.93405122 0.24376598 -0.26101056 0.0023503692
0.017521953 0.026438838 -0.017388143 -0.91958719 0.34276375 -0.19202171 0.0013343586
0.018612888 0.028963547 -0.016966943 -0.86858791 0.47532079 -0.14008968 0.0016688067
0.019441096 0.03031827 -0.017092658 -0.86131269 0.49447936 -0.11675009 0.00083937705
0.020848643 0.032234635 -0.01776175 -0.84248793 0.52879632 -0.10290084 0.00025466687
0.027039912 0.00073746359 -0.01308437 -0.22571595 -0.82936198 -0.51108801 0.0019333106
0.0295419 0.00055570761 -0.01350201 -0.064484686 -0.89152735 -0.44835326 0.0019906859
0.032535691 0.00059091905 -0.013523176 0.10249484 -0.91275471 -0.39544114 0.0028629194
0.034738038 0.00080304872 -0.013056261 0.30048814 -0.87701648 -0.37489864 0.0043560369
0.021108784 0.0037169247 -0.013498761 -0.49249122 -0.6764046 -0.54765797 0.0012783889
0.023510052 0.002716125 -0.014081397 -0.37989539 -0.74871814 -0.54323161 0.0025366284
0.026413959 0.0017583952 -0.014475942 -0.25985026 -0.82007504 -0.50985759 0.0010310221
0.029340653 0.0013713588 -0.014986923 -0.11105032 -0.86813617 -0.4837431 0.0020013945
0.032537058 0.0012574077 -0.014969383 0.05584931 -0.89918941 -0.43398079 0.001987624
0.035600387 0.0016097063 -0.014417627 0.24834281 -0.89620352 -0.36762077 0.0021721174
0.038295921 0.0027663005 -0.014329554 0.48001292 -0.83992988 -0.25319049 0.0041347924
0.018446909 0.0060876929 -0.013434279 -0.61403793 -0.56212091 -0.55405539 0.00081558689
0.020263974 0.0053015836 -0.014563126 -0.5678575 -0.63220382 -0.52712065 0.0027197988
0.022464106 0.0044460921 -0.015615923 -0.47515717 -0.67981601 -0.55863744 0.0026833902
0.041145787 0.0046988232 -0.013172893 0.61677027 -0.76213378 -0.19684118 0.0011407934
0.015593761 0.0096270368 -0.013134008 -0.76590115 -0.37693053 -0.52088279 0.0016486085
0.017303849 0.0084296595 -0.014260155 -0.6977061 -0.45713302 -0.55157554 0.0012211265
0.019279147 0.0071824673 -0.015491052 -0.60291654 -0.57999837 -0.54780781 0.0012578622
0.043001723 0.0071854326 -0.015306247 0.65571779 -0.7305823 -0.19048274 0.0014435162
0.015182647 0.011785911 -0.01380493 -0.82485241 -0.28209463 -0.48993996 0.004531364
0.016272156 0.011123784 -0.015101539 -0.78835809 -0.33494821 -0.51604378 0.0040214132
0.014839173 0.014460629 -0.014168266 -0.89144546 -0.10723659 -0.44025603 0.0029668298
0.014777542 0.017645866 -0.014336326 -0.93052894 0.037017137 -0.36434272 0.0021233615
0.01505378 0.020627951 -0.014165211 -0.93513441 0.17970119 -0.30533755 0.0025192907
0.015552911 0.023028001 -0.01389489 -0.92752928 0.29037902 -0.23530696 0.0018207802
0.016205871 0.024459552 -0.01469567 -0.92736256 0.31669712 -0.19925259 0.0010347057
0.017035831 0.026619475 -0.014477718 -0.89826167 0.40756112 -0.16437735 0.0019688362
0.018095978 0.028665084 -0.014633937 -0.87861526 0.46150938 -0.12265569 0.0010067982
0.019325728 0.030512156 -0.014352901 -0.85389686 0.51147145 -0.096214607 0.0011307943
0.021657974 0.00065228133 -0.010018272 -0.38374165 -0.7448079 -0.54589707 0.0024841898
0.023850761 0.00026017893 -0.010770736 -0.29906076 -0.78973889 -0.53560716 0.0014115385
0.026571926 -0.00026339351 -0.011190198 -0.18647297 -0.85133642 -0.49036127 0.0021130806
0.029581411 -0.00057694642 -0.011258368 -0.037551466 -0.8926276 -0.44922808 0.00097074365
0.032453578 -0.00048528309 -0.011015649 0.16404401 -0.91367757 -0.37186411 0.0036452499
0.035386115 0.00038270094 -0.011126035 0.35265794 -0.88993835 -0.28920922 0.0032376775
0.01828629 0.0034094504 -0.010574819 -0.56550997 -0.58451974 -0.58183783 0.0013055893
0.020492733 0.0023843274 -0.011325045 -0.4332903 -0.71041238 -0.55459332 0.0009289693
0.023003982 0.001493366 -0.012053446 -0.33385313 -0.76631689 -0.54890841 0.0014578213
0.036887392 0.0012638001 -0.012001766 0.47648221 -0.84457195 -0.24425966 0.0020821539
0.038522415 0.0021198485 -0.011306294 0.50111324 -0.82788324 -0.25198168 0.0027107084
0.040309686 0.0037893606 -0.012276633 0.57047737 -0.78609073 -0.23794319 0.003278512
0.015536784 0.0063434378 -0.01028161 -0.65531349 -0.48693374 -0.57745975 0.0008669055
0.017225014 0.0054558255 -0.0114428 -0.64676708 -0.51425058 -0.5632394 0.00061752286
0.014679168 0.008663537 -0.011102066 -0.74036616 -0.38526946 -0.55084056 0.0034150553
0.016351506 0.0073889331 -0.012187186 -0.67593586 -0.48516846 -0.55472726 0.00012885914
0.013036143 0.011654617 -0.010112691 -0.86113352 -0.16115128 -0.48216105 0.0028948116
0.013918255 0.011440648 -0.011564679 -0.8472836 -0.1957307 -0.493761 0.0019419413
0.012926543 0.014800668 -0.010380477 -0.90674025 0.00091524364 -0.4216885 0.0020968146
0.01367962 0.014596259 -0.011888264 -0.89114368 -0.053810973 -0.45051897 0.0015476022
0.013033285 0.017190784 -0.010223268 -0.9246558 0.15840109 -0.3462958 0.0022811363
0.013684647 0.017592877 -0.011702948 -0.92335689 0.088193282 -0.3736763 0.0021927978
0.014080382 0.020449564 -0.011250058 -0.92699873 0.2398854 -0.28831995 0.0024135457
0.01507976 0.023598813 -0.011200178 -0.91103429 0.35377565 -0.21180022 0.0018631245
0.015792618 0.025480542 -0.010528488 -0.87873495 0.4449169 -0.17284031 0.001265708
0.016576761 0.026551025 -0.01186874 -0.88725001 0.43239868 -0.16068199 0.0014572021
0.018276179 0.029306279 -0.011913253 -0.84282154 0.53208911 -0.080827206 0.00046728607
0.023806429 -0.0020962199 -0.0070991311 -0.21465206 -0.83225143 -0.51115757 0.0017445083
0.026560867 -0.0022089805 -0.0077101653 -0.073319107 -0.88672888 -0.45643875 0.0021978577
0.029574653 -0.0022086336 -0.0077789505 0.082199581 -0.91547781 -0.39388287 0.00315674
0.031788681 -0.0020718458 -0.0073075425 0.27508035 -0.9134143 -0.30000848 0.0033206083
0.018160596 0.00051864539 -0.0073383506 -0.46596727 -0.65508419 -0.59475976 0.0014576587
0.020539131 -0.00022176222 -0.0080705211 -0.36441839 -0.7334705 -0.57377714 0.0024592155
0.023293672 -0.00099439698 -0.0085858814 -0.24946107 -0.81488293 -0.52319688 0.00085645047
0.026202068 -0.0013675557 -0.0091347024 -0.12394449 -0.86384076 -0.48827955 0.0016177241
0.029473914 -0.0015053399 -0.0093468511 0.027097253 -0.90918237 -0.41551539 0.0024996994
0.032829277 -0.0013706984 -0.0083584888 0.23394427 -0.91436678 -0.33045945 0.0045083361
0.035343081 -0.00046724733 -0.0082094241 0.38959455 -0.88613355 -0.25096509 0.0018848585
0.037719246 0.00080903154 -0.0075132083 0.46742195 -0.8650474 -0.18223532 0.0018907078
0.015297252 0.0032342034 -0.0074798032 -0.58056265 -0.53878015 -0.61046124 0.001003955
0.017307358 0.0022868854 -0.0085020112 -0.51508296 -0.61973906 -0.59212589 0.0014311412
0.019535195 0.0012697852 -0.0092290668 -0.41793203 -0.70677346 -0.57079238 0.0016901619
0.038036335 0.001269686 -0.0092673432 0.48270169 -0.84529448 -0.22907716 0.0015650194
0.012464489 0.0064819721 -0.0070410026 -0.6814276 -0.38452557 -0.62273306 0.0024188934
0.014281903 0.0055664931 -0.0082939193 -0.66631484 -0.42974144 -0.60938239 0.0021194615
0.016287049 0.004505056 -0.0095332693 -0.62941086 -0.50319952 -0.59214211 0.0012109702
0.012284288 0.0089197829 -0.0079159383 -0.79325318 -0.23163973 -0.56310964 0.0044179857
0.013528488 0.0077505508 -0.0089618247 -0.70890558 -0.36181861 -0.60542566 0.0030179047
0.011928223 0.011708781 -0.008070888 -0.87359798 -0.04457245 -0.48460269 0.00189936
0.011965392 0.014463615 -0.0082870359 -0.91038346 0.067811847 -0.40817109 0.0026284822
0.012349569 0.017640118 -0.0081467349 -0.91543937 0.21356361 -0.34111771 0.0020479599
0.012853508 0.019589033 -0.0081932973 -0.90516984 0.29195234 -0.30891988 0.0012385004
0.013486149 0.021202898 -0.0083717685 -0.91829562 0.30289996 -0.25492096 0.0019824926
0.014363558 0.023477944 -0.0080987643 -0.89611739 0.39778277 -0.19683126 0.0019902275
0.015571934 0.025873844 -0.0077770581 -0.8532567 0.50537163 -0.12865603 0.0012795208
0.016750392 0.027389612 -0.0095046889 -0.84766179 0.51753712 -0.11672579 0.001690437
0.018616671 0.029962616 -0.0090627503 -0.83100265 0.55191159 -0.069484584 0.00028958052
0.018204277 -0.0021963774 -0.0041720401 -0.36814758 -0.72384846 -0.58353305 0.0015802684
0.020756047 -0.0026088255 -0.0049586152 -0.26516491 -0.78995413 -0.55286539 0.0018174765
0.023586389 -0.0032224313 -0.0051568458 -0.16912973 -0.85278159 -0.49412426 0.0022326577
0.026541686 -0.0033648328 -0.0054644602 -0.0020293277 -0.90435904 -0.42676777 0.002396818
0.02943136 -0.0033377144 -0.0050796121 0.15086626 -0.9236818 -0.35220924 0.00342002
0.032513294 -0.0025092384 -0.005225569 0.31797209 -0.9114117 -0.26119435 0.0030216624
0.034264643 -0.0019966187 -0.0040010046 0.46125105 -0.86268854 -0.20740317 0.0028113138
0.015094732 0.00012143143 -0.004542172 -0.50158918 -0.58877963 -0.63383502 0.0019737417
0.017405378 -0.00060636678 -0.0054750373 -0.40224886 -0.69620776 -0.59455079 0.00073778373
0.019925063 -0.0013858222 -0.0062048351 -0.31111574 -0.76157999 -0.56850928 0.0015282246
0.035389952 -0.0010551882 -0.0055958261 0.45116189 -0.86961257 -0.20056656 0.0032717462
0.037539698 0.00034456234 -0.0040325355 0.47283107 -0.86077565 -0.18840384 0.0021863347
0.01211729 0.00325468 -0.0044270554 -0.61451614 -0.461918 -0.63953245 0.0021185463
0.014085592 0.0023454265 -0.005582809 -0.59751505 -0.5037263 -0.62388742 0.00051234319
0.0099171996 0.0064320252 -0.0039618937 -0.75528497 -0.26428565 -0.59974808 0.0036849107
0.011400947 0.0056195129 -0.0053032958 -0.71456367 -0.30970746 -0.62728 0.0022687123
0.013132637 0.0045356331 -0.0063796174 -0.64762068 -0.44178998 -0.62081331 0.00095146307
0.0096985884 0.0086397193 -0.0042757466 -0.81631124 -0.1175914 -0.56551588 0.0036547561
0.010839535 0.0084670819 -0.0058338237 -0.80155057 -0.14829732 -0.57924491 0.0024041347
0.0096761193 0.011573428 -0.0043409257 -0.86708403 0.056037955 -0.49500009 0.0023553176
0.010564978 0.011643328 -0.0057940292 -0.85558194 -0.0081459722 -0.5176034 0.0023188239
0.0099142296 0.014153909 -0.0041241106 -0.89004254 0.20853344 -0.40538648 0.0021423877
0.01068918 0.014711203 -0.0054676151 -0.89685506 0.15218025 -0.4153218 0.0037725812
0.011187295 0.017488662 -0.0050851097 -0.90625334 0.26287526 -0.33106115 0.0025992701
0.012321228 0.020467987 -0.0052439673 -0.89222646 0.37399915 -0.2530942 0.0020109215
0.013132032 0.021764312 -0.0064030122 -0.90079504 0.38766706 -0.19565916 0.0032558166
0.013756179 0.023344493 -0.0054543107 -0.87189496 0.46010625 -0.16763462 0.00098183833
0.015028914 0.025555644 -0.0052658152 -0.83072042 0.54119891 -0.13041151 0.0016373449
0.016866697 0.027835239 -0.0061276387 -0.82867163 0.55106592 -0.098130837 0.0010501983
0.021052053 -0.0053134235 -0.00096829032 -0.15998837 -0.83541489 -0.52581906 0.0017740364
0.023622502 -0.0053074649 -0.00142966 -0.027252968 -0.88962209 -0.45588362 0.0019398058
0.026701827 -0.0053113746 -0.0011269926 0.13022107 -0.91948104 -0.37094092 0.002901118
0.012803238 -0.0020133974 -0.00087837671 -0.46697387 -0.58042049 -0.66711867 0.0022374294
0.014880638 -0.0025875354 -0.0016442788 -0.40242824 -0.65895438 -0.63547671 0.0016864631
0.017577117 -0.0034921304 -0.0021380696 -0.28470716 -0.76048368 -0.58361506 0.0011188205
0.020416297 -0.0042208312 -0.0024615854 -0.20436098 -0.81756383 -0.53835481 0.0011197106
0.023459269 -0.0045384811 -0.0028299401 -0.084330715 -0.87001133 -0.48576593 0.0024508955
0.026603241 -0.0045850184 -0.0028659035 0.078540511 -0.91517609 -0.39532769 0.0044688825
0.029444775 -0.0044010356 -0.0021317189 0.25539356 -0.90736753 -0.33385378 0.003604006
0.032246094 -0.0033495165 -0.002243489 0.35809892 -0.89847851 -0.25397155 0.00108988
0.0099751418 0.0008162437 -0.00079725479 -0.55383009 -0.45779753 -0.69548082 0.00088474416
0.011857864 -0.00012669212 -0.0017161255 -0.51926309 -0.50185537 -0.691742 0.0019297953
0.014117154 -0.00084070559 -0.0028666896 -0.4707076 -0.59876025 -0.64801276 0.0035942658
0.035245966 -0.0015308978 -0.0034143755 0.46645975 -0.86284906 -0.19469664 0.0023452505
0.0092647178 0.0030000401 -0.001504502 -0.65687323 -0.36851594 -0.65780962 0.0029519189
0.011151445 0.0022613481 -0.0027760831 -0.64431268 -0.41502893 -0.64234889 0.0014168866
0.0087354546 0.0057444498 -0.0021566118 -0.78396428 -0.17593648 -0.59535408 0.0025206658
0.01039204 0.0045623211 -0.0036232898 -0.71148676 -0.32493052 -0.62306243 0.002923005
0.0083502317 0.0085263252 -0.0021676335 -0.83558488 -0.015926534 -0.5491305 0.0026352482
0.0084214117 0.011512779 -0.002141126 -0.86495721 0.087882154 -0.49409103 0.0011871002
0.0091650076 0.014684916 -0.0022047439 -0.88055015 0.26116607 -0.39550442 0.0019135553
0.009823163 0.017087417 -0.0017470592 -0.87571669 0.34790835 -0.33478373 0.002559609
0.010565758 0.018111711 -0.0027267465 -0.89148188 0.33848017 -0.30114996 0.0035902706
0.01143865 0.020406988 -0.0021587391 -0.86046302 0.44367415 -0.25051302 0.0011679184
0.012769791 0.022676703 -0.0022286156 -0.8398096 0.5165174 -0.16712178 0.0013966311
0.013703984 0.023996139 -0.0024707743 -0.82756752 0.54405403 -0.13833703 0.0013705706
0.014613186 0.025189165 -0.0035070011 -0.80897892 0.58053923 -0.092343301 0.0004813041
0.016483616 0.027524326 -0.0036458203 -0.81343615 0.5759201 -0.081472151 0.00042616905
0.012637875 -0.0048774825 0.0020310304 -0.34664616 -0.66356772 -0.66295874 0.0017968297
0.014619307 -0.0054944488 0.0017286274 -0.28570393 -0.72803843 -0.62316394 0.0021018637
0.017702162 -0.0059659537 0.0010811344 -0.19546598 -0.79847652 -0.56941044 0.0018910749
0.020554287 -0.0061867237 0.00063416263 -0.095792763 -0.86475712 -0.49296939 0.00305957
0.023483714 -0.00627991 0.00053993735 0.050580949 -0.91146666 -0.40825245 0.0025748243
0.026234854 -0.0061144447 0.00079002971 0.19327827 -0.92261857 -0.3337943 0.0030078117
0.029049143 -0.0054339617 0.0010159186 0.28161073 -0.91378629 -0.29272848 0.001910443
0.0095470948 -0.0025021748 0.0017448387 -0.45666808 -0.53504264 -0.71076274 0.0017795148
0.011684683 -0.0031720528 0.00091343099 -0.3908363 -0.6189357 -0.68129706 0.0011639381
0.014338658 -0.0040460592 0.00021845236 -0.32657123 -0.70515156 -0.62937468 0.0012883531
0.016866475 -0.0047155181 -0.00025433311 -0.24995843 -0.77004349 -0.58698702 0.001466941
0.030078446 -0.0048544081 8.5072767e-05 0.27895647 -0.91813719 -0.28143823 0.001938864
0.032366842 -0.003752681 0.00015465124 0.34242767 -0.90722775 -0.24429716 0.0015383711
0.0065456522 0.00066104322 0.0020441881 -0.57503718 -0.39237955 -0.71789312 0.0012982691
0.0086484626 -0.00031660625 0.0010121886 -0.56532079 -0.4178924 -0.71118093 0.00087925256
0.010876356 -0.0010723046 -0.00028449259 -0.52259886 -0.51064777 -0.68273652 0.00054208114
0.0061332728 0.0027149646 0.0015129801 -0.66583252 -0.23154992 -0.70926136 0.0052617141
0.0078251399 0.0023924517 0.00012471108 -0.64788008 -0.29356232 -0.70290303 0.003719267
0.0059570498 0.0056093317 0.0012044921 -0.76226336 -0.046251997 -0.64561248 0.0041425703
0.0072679766 0.0055380692 -0.00037689303 -0.75238162 -0.12238894 -0.64725792 0.0038658669
0.0060481546 0.0085508917 0.0012231218 -0.83117688 0.10190599 -0.54658961 0.0024088412
0.0071509792 0.0086085871 -0.00029553767 -0.82135463 0.033980709 -0.56940484 0.0025878435
0.0064387494 0.011206245 0.0014544488 -0.85623461 0.23120488 -0.46195942 0.0028658882
0.0073440368 0.011829086 5.4713164e-05 -0.85767376 0.16149315 -0.4881759 0.0019688101
0.0067036753 0.013161931 0.0020182303 -0.8578645 0.27522865 -0.43395576 0.0018754611
0.007843392 0.014604794 0.00075707602 -0.86921388 0.29668957 -0.39552814 0.0013225422
0.0090927687 0.017458489 0.0007644649 -0.85379434 0.43405068 -0.28746349 0.0017488231
0.010019231 0.019553136 0.0016107431 -0.84997368 0.46663249 -0.24453825 0.00075240596
0.011086365 0.020971913 0.00080952042 -0.8207677 0.55081153 -0.15148291 0.0018927944
0.012336815 0.022520695 -0.00065998529 -0.81646675 0.56388372 -0.12416647 0.00095766084
0.013545644 0.024232719 0.00046076084 -0.81645614 0.56390125 -0.12415618 0.00095377787
0.014863138 -0.0082600024 0.0050962614 -0.1594404 -0.79059225 -0.59122145 0.0019425065
0.01767548 -0.0084467614 0.0048613567 -0.060591199 -0.8517229 -0.52047753 0.0022800826
0.020322977 -0.0084265433 0.0047164671 0.049834654 -0.89522386 -0.44282123 0.0024968958
0.023225464 -0.0082584964 0.0050189961 0.18364313 -0.92251241 -0.33947924 0.0025019618
0.0067381454 -0.0049152197 0.0052188206 -0.41559592 -0.52220809 -0.74470043 0.00094014709
0.0089571662 -0.0054749683 0.0044707526 -0.37993428 -0.58931816 -0.71298951 0.0024716689
0.011715216 -0.0062379586 0.0038564878 -0.27698234 -0.69829625 -0.66004783 0.0011692615
0.014457072 -0.0069738436 0.0035818664 -0.20978768 -0.76962465 -0.60304815 0.0013917518
0.017396528 -0.0073610647 0.0032105597 -0.13309072 -0.82795936 -0.54476607 0.0017979791
0.020620326 -0.0075238431 0.0029771407 -0.021132687 -0.8824169 -0.46999335 0.0021193391
0.023621237 -0.007512005 0.0033357411 0.12739851 -0.91974181 -0.37127423 0.0044365823
0.026503066 -0.0070439437 0.0038033954 0.26144722 -0.9231714 -0.28177962 0.0035864695
0.029287865 -0.0058459463 0.0033611108 0.32047901 -0.9166078 -0.23900507 0.0014237675
0.0059152511 -0.0029783775 0.0045932326 -0.49215382 -0.43859547 -0.75194329 0.0017903739
0.008322956 -0.0034494875 0.003253259 -0.48804021 -0.48324889 -0.72683376 0.0011611079
0.010748706 -0.0044080066 0.0025208762 -0.37952802 -0.61433071 -0.69177759 0.00097763981
0.0035368572 -0.00013352046 0.0049003349 -0.59582394 -0.28828096 -0.74959183 0.003578217
0.0054344186 -0.00046431983 0.0035403043 -0.60827953 -0.33595473 -0.71911782 0.0016422869
0.0073442725 -0.0013985755 0.0026483806 -0.56345791 -0.39664122 -0.72470063 0.0012377107
0.0032925056 0.0025401493 0.0044413125 -0.72292691 -0.086144455 -0.68553323 0.0050185802
0.0047809756 0.0022771503 0.0029756094 -0.69941026 -0.14414337 -0.7000342 0.0039815372
0.003387962 0.0055949874 0.0044082925 -0.78592956 0.082779817 -0.61274976 0.0029386419
0.0045728558 0.0055777747 0.0029569289 -0.77160144 0.021008657 -0.63575929 0.0024326097
0.0037075458 0.0084638335 0.0046742 -0.81813788 0.24277484 -0.52125877 0.0032764054
0.0046770927 0.0088137276 0.0033604035 -0.81651002 0.14140686 -0.55974597 0.0014362829
0.0052462514 0.011533009 0.003759614 -0.84404552 0.27787483 -0.45866409 0.0015894182
0.0062484411 0.01417622 0.0040808511 -0.83877641 0.40778607 -0.36078346 0.002423706
0.0072871256 0.015480418 0.0031670502 -0.84641051 0.43784276 -0.30312189 0.0015473887
0.0082476381 0.017646661 0.003813376 -0.83705449 0.47173637 -0.27713639 0.00083580439
0.0095848246 0.01977383 0.0039476994 -0.79930681 0.5817349 -0.15064269 0.0023015405
0.010516768 0.020794068 0.0028105548 -0.81666195 0.55921519 -0.14262414 0.0019494735
0.012207605 0.022993863 0.0040025506 -0.79242641 0.59982646 -0.11076412 0.00032126912
0.0062877522 -0.0083182128 0.0080986591 -0.30627048 -0.59870362 -0.74010295 0.0024649913
0.008566048 -0.0087292893 0.0075921547 -0.24285327 -0.67882931 -0.69297415 0.0021070233
0.011639261 -0.0090993755 0.0070661432 -0.1732922 -0.7531569 -0.63460571 0.0024633543
0.01462621 -0.0094468221 0.0068464493 -0.063384503 -0.83150262 -0.55189294 0.0014166215
0.017460983 -0.0096404161 0.0069268453 0.018962983 -0.88233721 -0.47023553 0.0025767656
0.020671023 -0.0093492977 0.0067969072 0.1249254 -0.91238832 -0.38979644 0.0026333914
0.023508968 -0.0088239927 0.0069344481 0.2464955 -0.92175651 -0.29934096 0.0029819291
0.025495915 -0.0083025517 0.0072915424 0.29631218 -0.92084074 -0.25347847 0.0025317823
0.0031852941 -0.0057209469 0.0077982079 -0.43725571 -0.45681202 -0.77468067 0.0026502316
0.0055558211 -0.0063765692 0.0069121602 -0.35390884 -0.53908801 -0.76428562 0.0015956326
0.0082235625 -0.0069775209 0.0061354758 -0.30046883 -0.64868397 -0.69923359 0.0015581899
0.010845919 -0.0076561398 0.005690421 -0.23242952 -0.72102779 -0.65275991 0.0017851825
0.026564568 -0.007644874 0.0063399742 0.31599265 -0.91571319 -0.24822977 0.0017099971
0.02836046 -0.0068565132 0.0069905091 0.30737185 -0.92258358 -0.23315664 0.0015375172
0.00064417569 -0.0028048996 0.0079844277 -0.52275288 -0.30228627 -0.79709005 0.0029853487
0.0026754192 -0.003255618 0.006851742 -0.52819753 -0.34024286 -0.77797318 0.0014636409
0.004788931 -0.0037648911 0.0057555404 -0.51587433 -0.39749914 -0.75885969 0.0011283141
0.00033901108 -0.0002892334 0.0076044519 -0.65272862 -0.11679664 -0.74853456 0.0048350017
0.0021851575 -0.00050968328 0.0061009978 -0.61641145 -0.22227126 -0.75540215 0.0053141159
0.0004182054 0.002410966 0.0074429708 -0.73061347 0.062391698 -0.67993468 0.0038168936
0.0018963347 0.0024399101 0.0059150178 -0.72477311 -0.012891717 -0.68886697 0.003073436
0.00064197101 0.0052813627 0.0077006789 -0.77196658 0.20653227 -0.60117555 0.0029041127
0.0019560684 0.005616562 0.0062125111 -0.77716011 0.13680373 -0.61425316 0.0022535096
0.00099350198 0.0075671407 0.0083196629 -0.78782833 0.35375535 -0.50416625 0.0025761644
0.0024561863 0.0086889658 0.0067375302 -0.80023539 0.27071336 -0.53510511 0.0017509806
0.003428489 0.0113247 0.0070627779 -0.80463153 0.40912753 -0.43032864 0.0020998488
0.0044720634 0.012443896 0.0061567817 -0.83005577 0.36863929 -0.41846451 0.002428676
0.0052419752 0.014448343 0.0068950593 -0.81468487 0.4878087 -0.31357813 0.0024096733
0.0066354149 0.016541682 0.0068291891 -0.78211772 0.57476085 -0.24071078 0.0025204013
0.0077889734 0.01800267 0.0063769487 -0.78796053 0.58380902 -0.19566594 0.0025363786
0.009660664 0.020567957 0.0083255935 -0.77016675 0.6193344 -0.15253893 0.00070454308
0.01059776 0.021468515 0.0070200334 -0.77843583 0.61212498 -0.13907047 0.00076735718
0.0058315611 -0.011402287 0.011013249 -0.17888236 -0.68948996 -0.7018581 0.0017177021
0.0084894467 -0.011512108 0.010581684 -0.10759219 -0.75407565 -0.64791501 0.0026995102
0.011479205 -0.011725228 0.010441841 -0.033692501 -0.81705886 -0.57556897 0.0026449903
0.014447604 -0.011692116 0.010381363 0.057023458 -0.86771613 -0.49377847 0.0026213152
0.01744031 -0.011429712 0.010512915 0.15830867 -0.90372634 -0.39776507 0.0028580274
0.019398833 -0.011283662 0.011110382 0.29106027 -0.91367316 -0.28369913 0.0032140415
0.00012696499 -0.0085058641 0.010829055 -0.38143191 -0.44034427 -0.8127771 0.0021418342
0.0027874261 -0.0094351554 0.010314343 -0.28438729 -0.57785213 -0.76499075 0.0013153345
0.0055114413 -0.0096639004 0.0095354486 -0.27338469 -0.63086754 -0.72613156 0.0026805028
0.0083720898 -0.01017211 0.0091470107 -0.17343858 -0.72513896 -0.6664027 0.0015223344
0.011397386 -0.010542866 0.0088677695 -0.10654375 -0.77649415 -0.62105167 0.0018521937
0.014730747 -0.010742476 0.0088229645 -0.017526338 -0.84433615 -0.53552705 0.0022126334
0.017631698 -0.010748357 0.0090604192 0.076035932 -0.89644307 -0.43658724 0.0021775544
0.020352259 -0.010470703 0.0095347241 0.19261758 -0.92439383 -0.32923335 0.0027386444
0.023042141 -0.0097159501 0.0096030505 0.31096235 -0.92028069 -0.23745702 0.0018447929
0.025616074 -0.0085880356 0.0095668901 0.33730111 -0.91699642 -0.21294473 0.0010248503
-0.0026939232 -0.0057108207 0.011022942 -0.43935952 -0.30970094 -0.84323692 0.0027994029
-0.00042582757 -0.0061514666 0.010012509 -0.45975283 -0.34853637 -0.81679225 0.0014488976
0.0022977958 -0.0069082072 0.0089194393 -0.36940014 -0.48282999 -0.79398912 0.002168125
0.004365155 -0.0078448327 0.0085294414 -0.33094072 -0.58179325 -0.74296361 0.0017012995
-0.0030949004 -0.003233376 0.010686927 -0.55291623 -0.13231313 -0.82266456 0.0047986405
-0.0008455239 -0.0034372732 0.009188938 -0.55947846 -0.19028552 -0.80670649 0.002504997
-0.003020755 -0.00048491196 0.010502033 -0.64022249 0.04459608 -0.76689392 0.0039570834
-0.0013232559 -0.00047516066 0.0090204626 -0.64598453 -0.032037649 -0.76267791 0.0031710619
-0.0027808526 0.0022809529 0.010715344 -0.69823194 0.1942296 -0.68901891 0.002596806
-0.0012461044 0.002603604 0.0092422627 -0.70916986 0.12367228 -0.6941061 0.0022940414
-0.0024044937 0.00446337 0.011153849 -0.73247451 0.35227364 -0.58256704 0.0022767833
-0.00083043042 0.0056909793 0.0098020788 -0.74831694 0.29872462 -0.59227133 0.0044939085
0.00030217657 0.0085877981 0.010058789 -0.79397321 0.38882849 -0.46735305 0.0024453576
0.0015948884 0.0096238777 0.0088113938 -0.80667651 0.37316278 -0.45828226 0.0023835409
0.00098799437 0.010513965 0.010876494 -0.77894723 0.47195968 -0.41291085 0.0019983111
0.0022779037 0.011646967 0.0097176759 -0.76658863 0.5080778 -0.39268169 0.003059387
0.0035668625 0.013714932 0.0099494373 -0.77202851 0.54564357 -0.32595256 0.0010287446
0.004717269 0.015185103 0.0098614097 -0.76612508 0.60447371 -0.21832067 0.001281266
0.0060632522 0.01685299 0.0098637464 -0.76528972 0.61322278 -0.19567715 0.00083541387
0.0075106765 0.018456172 0.0096891541 -0.7651552 0.61587942 -0.18769675 0.00073615543
0.0087064663 0.019630561 0.0089249881 -0.76050371 0.62908614 -0.16088749 0.000545152
-0.074252307 -0.03288519 0.013864996 -0.32793492 -0.41838622 -0.84700161 0.095897526
-0.073181711 -0.032839961 0.013616337 0.14258936 -0.55300224 -0.82088786 0.14282003
-0.074579969 -0.03043793 0.013617993 -0.41259888 -0.13884582 -0.90026879 0.061344806
-0.072565809 -0.030300222 0.013087654 0.41060486 -0.14871629 -0.8996039 0.038291216
-0.070741959 -0.028929975 0.014267402 0.53461343 0.020804683 -0.84484059 0.027339581
-0.074655861 -0.027102357 0.013481958 -0.30161038 0.36005107 -0.88283318 0.074436665
-0.072717398 -0.027796624 0.013216739 0.24250171 0.36791077 -0.89768296 0.075180739
0.0034202496 -0.014293106 0.014280068 -0.10037991 -0.67423612 -0.73166221 0.0022198756
0.0056146919 -0.014288614 0.01414108 -0.033531014 -0.75521225 -0.65462214 0.0022972603
0.0085409489 -0.014287308 0.01410033 0.02841891 -0.83113861 -0.55533862 0.0027965934
0.010494666 -0.014292244 0.014253365 0.1242352 -0.86383891 -0.48820895 0.0025401316
-0.0055235517 -0.011038117 0.014192419 -0.29748517 -0.31688011 -0.90060508 0.0029506583
-0.0030816458 -0.011816988 0.013923332 -0.27289072 -0.4674314 -0.8408559 0.0024909587
-0.00013293687 -0.012379862 0.013379203 -0.21810426 -0.56311959 -0.79707396 0.0030999654
0.0026856922 -0.012544867 0.012813415 -0.17065597 -0.63479471 -0.75359946 0.0024256774
0.0055325171 -0.012849789 0.012560054 -0.088916317 -0.72988296 -0.67776448 0.0015543245
0.0085159549 -0.013018304 0.012394232 -0.045279503 -0.79340881 -0.60700262 0.0015337005
0.011440327 -0.013273589 0.012811997 0.054193974 -0.85053545 -0.52311802 0.0038919703
0.01460066 -0.012929887 0.012796009 0.12767231 -0.90729511 -0.40064371 0.0030793899
0.017661603 -0.012249229 0.01270866 0.22528291 -0.90691727 -0.35601783 0.002055079
0.020153243 -0.011527259 0.012996231 0.29105568 -0.91367394 -0.28370157 0.0032141402
-0.0063129561 -0.0089693721 0.01383521 -0.35949391 -0.29127976 -0.88652146 0.0030680944
-0.003393773 -0.0093824174 0.012778715 -0.3268739 -0.40231594 -0.85515809 0.0024560338
-0.00049078895 -0.0099902917 0.011913406 -0.28759253 -0.49607182 -0.81926996 0.002109064
0.0018352227 -0.010689419 0.011574121 -0.23643902 -0.57977378 -0.77971715 0.0022496849
0.021640411 -0.010833669 0.012504729 0.29105392 -0.913674 -0.283703 0.0032142869
0.023370342 -0.010119002 0.01312414 0.34013915 -0.9193449 -0.19776361 0.00052009226
