# .PCD v0.7 - Point Cloud Data file format
VERSION 0.7
FIELDS x y z normal_x normal_y normal_z curvature
SIZE 4 4 4 4 4 4 4
TYPE F F F F F F F
COUNT 1 1 1 1 1 1 1
WIDTH 551
HEIGHT 1
VIEWPOINT 0 0 0 1 0 0 0
POINTS 551
DATA ascii
0.024867274 0.0027130258 -0.0038087673 0.45792836 -0.71213955 -0.53212678 0.0023402653
0.0082073743 0.005750109 -0.0038267318 -0.57525855 -0.49351969 -0.6523158 0.0025407213
0.010377878 0.0047318772 -0.0046639484 -0.41817299 -0.58077794 -0.69844711 0.0014980837
0.013077291 0.0039014316 -0.0054514548 -0.30431786 -0.63835728 -0.7070294 0.0015724956
0.015366397 0.0034609453 -0.0059291977 -0.15845068 -0.7092647 -0.68690389 0.0014190008
0.023299264 0.0034616804 -0.0058158794 0.28377345 -0.76299477 -0.58078527 0.0055350461
0.025651572 0.0040894281 -0.0050094733 0.41411617 -0.72277319 -0.55326921 0.0025267259
0.027847691 0.0054296944 -0.0043924348 0.60622919 -0.65735626 -0.44762585 0.0026308475
0.005445973 0.0089497874 -0.0033559459 -0.69631624 -0.39928144 -0.59642082 0.0029398242
0.0073717791 0.0078465529 -0.004725608 -0.62889183 -0.44358116 -0.63853794 0.001293402
0.009462419 0.0068818247 -0.0058215018 -0.55248111 -0.53696686 -0.63751954 0.0010119556
0.029297205 0.0073793805 -0.0050292993 0.73695493 -0.57209635 -0.36000437 0.0013643752
0.030402396 0.0083528049 -0.0042329929 0.77522302 -0.54110032 -0.32594433 0.0019995852
0.0050593596 0.011128139 -0.0043501398 -0.76692373 -0.34989926 -0.53795779 0.0024641706
0.0063858535 0.010253225 -0.0054573463 -0.72765571 -0.39714143 -0.55928159 0.0018009086
0.03168153 0.010810171 -0.0046807891 0.84886056 -0.46784362 -0.24608567 0.0025429958
0.0042953701 0.014000304 -0.0047217081 -0.83570862 -0.29170051 -0.46529755 0.0016139373
0.032681547 0.013043762 -0.0050718496 0.89095259 -0.39840925 -0.21788444 0.0013886263
0.033467099 0.014716492 -0.0039447555 0.91166759 -0.36252379 -0.19349082 0.00039384144
0.0036285145 0.01676118 -0.0048253937 -0.91613919 -0.16064499 -0.36726308 0.0047264188
0.033631489 0.015620814 -0.0048656622 0.93786222 -0.30469215 -0.16606368 0.0023133233
0.0033072552 0.019710401 -0.0048767263 -0.95497835 -0.079901524 -0.28571305 0.0060192174
0.034575216 0.019832656 -0.0047511021 0.95958292 -0.23392677 -0.15645774 0.00032580039
0.0032522632 0.022896837 -0.0042674849 -0.98007351 -0.039975181 -0.1945709 0.0004993928
0.016505433 -0.0026444304 -0.00012207986 -0.0073833987 -0.69589478 -0.71810585 0.0036402643
0.017921917 -0.0026442246 -0.000151471 0.1572888 -0.7388196 -0.65529072 0.0028770093
0.008472478 0.00019075107 -0.0001193441 -0.42251649 -0.5197171 -0.74254555 0.0010045323
0.010714202 -0.0004309798 -0.00070686033 -0.33982703 -0.55803341 -0.75704449 0.0013898899
0.013456293 -0.00091807218 -0.0012746232 -0.20487607 -0.64204061 -0.73878932 0.0024622716
0.016374925 -0.00093863765 -0.0017999775 -0.089693561 -0.69103092 -0.71723866 0.0012554209
0.019384798 -0.0010065575 -0.0016312252 0.1293903 -0.73535126 -0.66521931 0.0013947581
0.022140149 -0.00054648868 -0.0012866647 0.31540543 -0.75139207 -0.57959408 0.004423629
0.024397131 7.3158561e-05 -0.0005589358 0.51754886 -0.71052963 -0.4767502 0.0031237828
0.0076798615 0.0021189754 -0.00086444104 -0.49473715 -0.47707984 -0.72638142 0.0028416335
0.010113389 0.0016311882 -0.0020259591 -0.37580189 -0.56619912 -0.73361534 0.00087094464
0.01302946 0.00089803175 -0.0027707941 -0.24168877 -0.64189798 -0.72770429 0.0017333718
0.022723038 0.00079746038 -0.0026856817 0.26469088 -0.76265222 -0.59016979 0.0033020405
0.025429104 0.001679496 -0.0017759444 0.50962347 -0.73151994 -0.45294869 0.0025029283
0.027476335 0.0028637811 -0.001027381 0.64728761 -0.63870025 -0.41602972 0.002806914
0.0051578619 0.0053531048 -0.00079972926 -0.64942926 -0.37696332 -0.66040915 0.0020552846
0.0070413463 0.004602355 -0.0020880539 -0.59235966 -0.43818694 -0.67609334 0.0021490182
0.0090493578 0.0036365653 -0.0029648896 -0.51585674 -0.50304043 -0.6934278 0.0019486046
0.026731966 0.0034800335 -0.0029781617 0.52383143 -0.70027435 -0.48499131 0.0024659289
0.028568635 0.0046054232 -0.0017801009 0.71864349 -0.60134733 -0.34918883 0.0028951918
0.030164883 0.0060889437 -0.00078079174 0.78121591 -0.5526408 -0.29032728 0.0020779211
0.0045005535 0.0079238378 -0.0014911923 -0.73713839 -0.31699154 -0.5967775 0.0031416412
0.0062341467 0.0069248145 -0.0028300243 -0.65086609 -0.45625055 -0.60680211 0.0018266733
0.030869201 0.0077844723 -0.0016942665 0.83613241 -0.49001479 -0.24651195 0.0018415643
0.002800145 0.011284162 -0.00056558917 -0.86445123 -0.18939508 -0.46567529 0.0030305961
0.003759725 0.010743422 -0.0019164288 -0.83660781 -0.25190929 -0.48644537 0.0016915558
0.032296263 0.010771018 -0.0023023121 0.88810927 -0.41278139 -0.20217192 0.00080585334
0.032965545 0.011976318 -0.0011940754 0.90242404 -0.38981354 -0.18351105 0.00047217513
0.0025801375 0.013974775 -0.0010451945 -0.93793941 -0.089348279 -0.33509186 0.0046904641
0.003328196 0.013482781 -0.0026195291 -0.89023232 -0.19129695 -0.41339067 0.0019766295
0.033361319 0.013595589 -0.0022114075 0.90948534 -0.37174088 -0.18613197 0.00035323665
0.0025594325 0.016907638 -0.0016810553 -0.95736843 -0.052052777 -0.28414109 0.0044359737
0.0027929884 0.019945286 -0.0022266663 -0.97581571 0.002882669 -0.21857573 0.00087356643
0.0027969407 0.021869645 -0.0013093508 -0.97801018 -0.0086582666 -0.20837723 0.0012220097
0.0078223357 -0.003139552 0.0024775502 -0.38364384 -0.50957817 -0.77016073 0.0022838349
0.01051707 -0.0037344629 0.0018500916 -0.27389538 -0.56430221 -0.77880955 0.0013114158
0.013477908 -0.0040804767 0.0014244348 -0.1247722 -0.63340658 -0.76369357 0.0013648773
0.016292745 -0.0042729555 0.0014618912 0.026924515 -0.70837331 -0.70532429 0.0036790918
0.019326502 -0.0037242761 0.0014195626 0.22536469 -0.75505066 -0.61571854 0.0035350856
0.022146702 -0.0031022779 0.0020679205 0.44469237 -0.73436278 -0.51279622 0.0029808765
0.0051211091 -0.00049116754 0.0024053531 -0.52132946 -0.41125396 -0.74772042 0.0020611777
0.0072781704 -0.0010309106 0.0013705858 -0.44547459 -0.47426957 -0.7593556 0.0015832717
0.009972671 -0.0016081501 0.0004648068 -0.28630552 -0.5880996 -0.75641793 0.0012122828
0.012492954 -0.0021729008 3.1068223e-05 -0.15986824 -0.65568751 -0.73791325 0.00182717
0.020528087 -0.0021727742 1.3827579e-05 0.23137055 -0.73894358 -0.63279545 0.0027973133
0.022840006 -0.0017775046 0.00079746242 0.38347247 -0.7352711 -0.55886072 0.0043519279
0.025127988 -0.00073371781 0.0015186265 0.58150923 -0.69943649 -0.41549444 0.0019043534
0.0028143681 0.0028034761 0.0027360164 -0.7010268 -0.29940477 -0.64723891 0.0025892428
0.0045385067 0.0019045197 0.0016022876 -0.58168292 -0.34061354 -0.738666 0.0021512478
0.0065886122 0.0013544079 0.00037769205 -0.53287762 -0.42271915 -0.73304158 0.0019437508
0.026315296 0.00082094601 0.00064112176 0.61900711 -0.68968689 -0.37571561 0.0031254194
0.027792281 0.001939479 0.0013700041 0.65944326 -0.6588583 -0.36199486 0.0017049249
0.0024855647 0.0050876401 0.0022953183 -0.7597695 -0.21178284 -0.61473441 0.0039601801
0.0039800182 0.0046217907 0.00082823983 -0.67936188 -0.32277423 -0.65900254 0.00376871
0.02941611 0.0041369582 0.0010126226 0.78160226 -0.56318855 -0.26817253 0.0022109391
0.03063252 0.0058800844 0.0014857196 0.81430072 -0.53390175 -0.22773488 0.0026133347
0.0021990121 0.0081190448 0.0016805686 -0.83665699 -0.16236645 -0.52310812 0.0048529347
0.0032767432 0.0075209974 0.0002783977 -0.76758486 -0.25253734 -0.58909971 0.0026484982
0.031602811 0.0078915106 0.0012320497 0.87780476 -0.44422695 -0.17922401 0.00037852884
0.0019540698 0.010762089 0.0013527146 -0.90998638 -0.07705427 -0.40741557 0.0059169172
0.032592431 0.010592998 0.00016771187 0.89011306 -0.41789603 -0.18182863 0.00039762488
0.0017735718 0.013551536 0.0013960742 -0.95716685 0.013841673 -0.28920585 0.0040012281
0.0018615278 0.016807165 0.0019831026 -0.96809447 0.002895073 -0.25056899 0.0020868764
0.0023318876 0.019359861 0.00060938229 -0.98158288 0.03332635 -0.188107 0.00045716175
0.010488163 -0.0089131016 0.0057168389 -0.093285695 -0.59074205 -0.80144972 0.0022085141
0.01335962 -0.0089117978 0.0056558046 0.062619366 -0.66691804 -0.74249518 0.0033007134
0.015280263 -0.0089155873 0.0058325371 0.19979157 -0.69828457 -0.68737322 0.0032095399
0.005166091 -0.006409571 0.0055189533 -0.37315631 -0.42230979 -0.82608038 0.0010824213
0.0074712047 -0.0070924214 0.0050933603 -0.25928718 -0.50369376 -0.82405263 0.0022333732
0.010309631 -0.0071655125 0.0044418676 -0.1451475 -0.58512622 -0.79784679 0.0022500125
0.013390183 -0.0072592674 0.0041979486 0.018258164 -0.65050393 -0.75928348 0.0035747632
0.016370159 -0.0071443478 0.0043609962 0.18766761 -0.71456629 -0.67392576 0.0025167416
0.01909221 -0.0066867149 0.0047903778 0.36252838 -0.73055804 -0.57866925 0.0022809617
0.021175431 -0.0061976896 0.0055731777 0.46908543 -0.72535247 -0.50380814 0.0027793467
0.0024781013 -0.003426705 0.0055009127 -0.49729249 -0.34144267 -0.79756951 0.0025019592
0.0045226156 -0.0040791547 0.0046256948 -0.45574069 -0.36997578 -0.80957907 0.0010191292
0.007123617 -0.0045303628 0.0036318114 -0.33555448 -0.49244633 -0.8030566 0.0030694962
0.010043083 -0.0053089396 0.0031370798 -0.20048472 -0.58059072 -0.78912628 0.001667016
0.019488048 -0.0053699436 0.0033788655 0.27781191 -0.72301722 -0.63250816 0.0024804911
0.022428568 -0.0045113349 0.0042989384 0.47570315 -0.71179742 -0.51676965 0.0044243415
0.024633298 -0.0029986736 0.0045910524 0.60040426 -0.67922884 -0.42209348 0.0022968065
0.0019184849 -0.00089060515 0.0049885251 -0.60340214 -0.26847744 -0.75088328 0.0032290684
0.0040737158 -0.0013295448 0.0035567305 -0.51898324 -0.35992008 -0.7753154 0.0039178822
0.025845174 -0.0015483419 0.0040039998 0.65511984 -0.65733057 -0.37247074 0.0037195696
0.027377453 -0.00019716189 0.0046889922 0.73175395 -0.61486828 -0.29406345 0.0022161289
0.0015564791 0.001800383 0.0044145416 -0.70399565 -0.19700612 -0.68233335 0.0018707545
0.0032921892 0.00090124586 0.0031467222 -0.6079185 -0.31387404 -0.7293272 0.0011645181
0.028589197 0.0016174163 0.004205144 0.76782423 -0.58281064 -0.26604086 0.0013132779
0.0008809155 0.0049301791 0.0044180807 -0.82632923 -0.095605068 -0.55501318 0.004562025
0.030266115 0.0042422204 0.0043117842 0.83426791 -0.51495677 -0.19701931 0.0010003354
0.00060062693 0.0078970799 0.004460738 -0.91070628 -0.037336186 -0.41136375 0.0066719102
0.031868625 0.007807137 0.0033371293 0.87782049 -0.44420567 -0.17919961 0.00036718242
0.0006945752 0.010817886 0.004354123 -0.94135219 0.041660476 -0.33484405 0.0051420601
0.0010905367 0.013907501 0.0042812293 -0.96468824 0.13824166 -0.22420071 0.0051435782
0.0015079802 0.016524896 0.004101797 -0.97704029 0.10884566 -0.18315266 0.0025747395
0.0049484777 -0.012049348 0.0086643575 -0.21909112 -0.46338877 -0.85864413 0.0018924458
0.0074865245 -0.012316334 0.0084543768 -0.091872126 -0.54561365 -0.83298576 0.0019818954
0.010304077 -0.012341357 0.0083379438 0.028161326 -0.60916668 -0.7925421 0.0022698874
0.012911595 -0.012124751 0.0084241312 0.1619689 -0.66477805 -0.72927105 0.0027174489
0.014893821 -0.011872216 0.0087941727 0.32198688 -0.69684094 -0.64088786 0.0024281486
0.0020358069 -0.0097754654 0.0084621534 -0.36096206 -0.36163262 -0.85960937 0.0025148035
0.0045192391 -0.010160881 0.0077759037 -0.27570361 -0.44654664 -0.85122478 0.0025237727
0.0073947441 -0.010142819 0.0070236614 -0.158996 -0.52956909 -0.83323276 0.0023456616
0.010232834 -0.010330647 0.0067941416 -0.051195636 -0.59993929 -0.79840583 0.0026264845
0.013396902 -0.010381825 0.0069805654 0.09333609 -0.66642761 -0.73970443 0.0021635015
0.016465511 -0.010053278 0.0074760504 0.25132126 -0.69971532 -0.66875708 0.0021288558
0.018985007 -0.0093140751 0.0080682747 0.47724649 -0.71593285 -0.50958395 0.0026710883
-0.00067166844 -0.0063596503 0.0086279307 -0.51830757 -0.24673407 -0.81882823 0.0026322852
0.0013710045 -0.0070631285 0.0076496918 -0.47096631 -0.29071623 -0.83287144 0.0013715113
0.0042868135 -0.0075263213 0.0064674858 -0.31798273 -0.4440383 -0.83768553 0.0014510938
0.006543024 -0.0083226217 0.0061138636 -0.23289376 -0.48653588 -0.8420471 0.0033997064
0.017444124 -0.0084413728 0.0060631027 0.2587342 -0.71759897 -0.64661294 0.0023854321
0.019699324 -0.0080103558 0.0068788491 0.41966015 -0.72428024 -0.54708642 0.0056928382
0.022178097 -0.006746165 0.0074999994 0.54483438 -0.72870839 -0.41489723 0.004517762
0.0240268 -0.0055970089 0.0082608899 0.62948757 -0.68573874 -0.36538705 0.0025726545
-0.0011524492 -0.0038088965 0.0082954224 -0.62337935 -0.18280186 -0.76025105 0.0032661115
0.0011001501 -0.0041508661 0.0067705689 -0.55427641 -0.25443411 -0.79249036 0.0027205183
0.0033076559 -0.0055656121 0.0060188612 -0.39635962 -0.41478199 -0.81905735 0.0022712452
0.023216723 -0.0053326697 0.0065095415 0.60019308 -0.70451969 -0.37870869 0.0031428724
0.025034532 -0.0039694957 0.0071737375 0.66637701 -0.66361547 -0.33993551 0.0021638344
-0.0012541639 -0.0010210749 0.0079252403 -0.70579898 -0.10817572 -0.70010418 0.0041319798
0.00032941066 -0.0012551609 0.0064088739 -0.66820151 -0.18677893 -0.72015303 0.0025579121
0.026579378 -0.0019753412 0.0065935245 0.76060361 -0.59890962 -0.25057819 0.0016680278
0.02758415 -0.0010197819 0.0073610237 0.77387512 -0.59081107 -0.22816554 0.00080603885
-0.001252598 0.0018652285 0.0075827083 -0.80221593 -0.011432501 -0.59692454 0.0047635771
-4.6676614e-05 0.0018613328 0.0061659953 -0.75369716 -0.1205077 -0.64607942 0.0027685617
0.029250778 0.001622564 0.0071201166 0.78695351 -0.57324231 -0.22824873 0.00072284968
-0.0011207468 0.0047264886 0.0073994566 -0.87534732 0.069828264 -0.47842565 0.0057881074
-4.6153888e-05 0.0035375371 0.005923315 -0.80341572 -0.051277943 -0.59320635 0.0042498363
-0.00087432488 0.0077031287 0.0075361021 -0.90370023 0.14034225 -0.40451199 0.0061816671
-4.6230081e-05 0.0092867324 0.0059586605 -0.93096232 0.10542309 -0.34956431 0.0063433456
-0.00053259457 0.010293778 0.008213127 -0.93566936 0.20360208 -0.28821695 0.0038218996
2.0072592e-05 0.011158751 0.0069506178 -0.95447308 0.16195206 -0.25050506 0.0040295236
0.00043112872 0.013551371 0.0071173944 -0.95997357 0.20083128 -0.19523698 0.0021855254
0.0011528099 0.016306661 0.0080326041 -0.95800024 0.26679242 -0.10515439 0.001409084
-0.00095976907 -0.015211047 0.011677147 -0.29250449 -0.32453576 -0.89950967 0.0011054275
0.0015783581 -0.01576151 0.011318305 -0.18752959 -0.43474093 -0.88081384 0.0032051501
0.0045459932 -0.016054925 0.011045768 -0.082038172 -0.5106796 -0.85584813 0.0024747809
0.0073848693 -0.015938463 0.010872811 0.023974352 -0.58054209 -0.81387722 0.002408427
0.010229477 -0.015680313 0.01100025 0.16446082 -0.63573325 -0.75418556 0.0032238076
0.012990875 -0.015118424 0.011370619 0.31565392 -0.67213166 -0.66977727 0.0034514777
-0.003455542 -0.012196532 0.011710211 -0.41390723 -0.23723456 -0.87886322 0.0022507282
-0.0016592678 -0.013057203 0.011231161 -0.38472295 -0.27332291 -0.8816365 0.0012774556
0.0013949098 -0.013119912 0.010151677 -0.26572925 -0.39292958 -0.8803376 0.0030189999
0.0044129966 -0.013393645 0.0095238853 -0.15323369 -0.47281364 -0.86773658 0.0023527639
0.0073659811 -0.013769749 0.0093996897 -0.027943796 -0.5628221 -0.82610559 0.001569856
0.010329376 -0.013825143 0.0095407972 0.092191853 -0.62573516 -0.77456838 0.0024316781
0.013363224 -0.013528534 0.0099196564 0.2101765 -0.67857957 -0.70381498 0.0016615667
0.016093004 -0.012815589 0.010449043 0.36130399 -0.71018898 -0.60422766 0.0018574089
0.018372549 -0.012189685 0.011469371 0.48389879 -0.71467656 -0.50505382 0.0035798331
-0.0038005258 -0.010112865 0.011540968 -0.524382 -0.17310967 -0.83370054 0.0029334638
-0.0017498845 -0.010223146 0.010360095 -0.46738568 -0.21025383 -0.85868734 0.0016801796
0.00075075089 -0.010600086 0.0093271472 -0.35242456 -0.32897383 -0.87611258 0.0031266988
0.017449787 -0.011287342 0.0094604185 0.45510167 -0.70954591 -0.53798431 0.0031057976
0.019518312 -0.010434864 0.010162042 0.528983 -0.7094081 -0.46574363 0.0045612515
0.021622008 -0.0091465591 0.010931022 0.64073384 -0.67691159 -0.36228555 0.0034093324
-0.004151775 -0.0070393789 0.011245093 -0.62264693 -0.097365506 -0.77642179 0.002994359
-0.0019599451 -0.0072050462 0.0097182998 -0.56637233 -0.16162467 -0.808146 0.002550388
-5.260027e-05 -0.0084997406 0.0089160642 -0.48268649 -0.25199598 -0.83875614 0.0018836576
0.022531429 -0.0077733817 0.0099242115 0.63089442 -0.69121122 -0.35241932 0.0037470493
0.024540918 -0.0060186759 0.010706039 0.72578907 -0.63641047 -0.26117432 0.0022194111
-0.0041775946 -0.0039409702 0.011134828 -0.7216 0.017598134 -0.69208658 0.002038561
-0.002565586 -0.0040696175 0.0095544895 -0.67157638 -0.095070839 -0.73481065 0.0023969978
0.025846092 -0.004169561 0.0098079406 0.77400994 -0.60201514 -0.19617945 0.0007966464
0.027047314 -0.0027246163 0.010516032 0.77400547 -0.60202032 -0.19618118 0.00079985615
-0.003932497 -0.0010319466 0.010895886 -0.78269613 0.077422582 -0.61756986 0.0043564639
-0.0027096593 -0.0010268231 0.0094684102 -0.7431227 -0.017918279 -0.66891521 0.0026475999
0.027976381 -0.0011087543 0.009868606 0.78950936 -0.58245051 -0.1934592 0.00056996342
-0.0036431449 0.001681131 0.011051547 -0.84657609 0.1807304 -0.50064498 0.0047089537
-0.002710761 0.0018710108 0.0095957685 -0.83814299 0.068160415 -0.54117513 0.0038681224
-0.0034550624 0.0038173436 0.011660709 -0.89403522 0.25780457 -0.36638486 0.0025023208
-0.0025431667 0.0048434152 0.010189115 -0.87815905 0.21560998 -0.42702353 0.0044765715
-0.0018062302 0.0078479089 0.010483953 -0.92040074 0.23750281 -0.31057191 0.0029393614
-0.00088480645 0.010888618 0.010193779 -0.9368872 0.2472423 -0.24721144 0.001525628
-5.5303084e-05 0.013237328 0.010170831 -0.94079745 0.28310058 -0.18642472 0.0031138214
-0.0041902456 -0.021101927 0.014700321 -0.22134987 -0.31016469 -0.92455506 0.0018706215
-0.0017734433 -0.021550922 0.014442862 -0.11298305 -0.40479735 -0.90739959 0.0018009664
0.0013999634 -0.021585934 0.014296588 -0.0045537264 -0.48778537 -0.87295169 0.0025149733
0.0045089764 -0.021355215 0.014381277 0.10858401 -0.56503087 -0.81789345 0.003122305
0.006852977 -0.020984601 0.014516442 0.25062308 -0.62293464 -0.74104023 0.0031222668
-0.0067205504 -0.018448384 0.014681811 -0.32730529 -0.2337563 -0.91554856 0.0015700656
-0.0046993652 -0.019097053 0.014145997 -0.28082746 -0.28695509 -0.9158563 0.0017322386
-0.0017676316 -0.0190663 0.013438038 -0.18475749 -0.37399518 -0.90884119 0.0029710205
0.0013983577 -0.019045198 0.012948983 -0.069647051 -0.44463521 -0.89299989 0.0027253332
0.0045606033 -0.019040149 0.012829172 0.012765374 -0.53284544 -0.84611624 0.0021188271
0.0074852421 -0.019056927 0.013208977 0.20884769 -0.62660754 -0.75082994 0.0023070008
0.010247734 -0.018767154 0.013817099 0.31247631 -0.67505419 -0.66832656 0.0027531087
0.012526696 -0.018076323 0.014248046 0.42755562 -0.69684631 -0.5758484 0.0025651443
-0.007237107 -0.016103582 0.014396855 -0.41925058 -0.1616898 -0.8933562 0.0016795256
-0.0046896306 -0.016140042 0.013350627 -0.35859671 -0.23395191 -0.90370071 0.0029524907
-0.0019543578 -0.016315425 0.012433604 -0.28456563 -0.29390365 -0.91249281 0.0017304837
0.00081465754 -0.017062709 0.012051847 -0.16915616 -0.41302344 -0.89487302 0.0036318779
0.0081953285 -0.017302329 0.011972332 0.10739608 -0.58869684 -0.80118799 0.0021530217
0.010729437 -0.017075919 0.012385787 0.22564107 -0.64853114 -0.72697556 0.0019888922
0.013406003 -0.016516084 0.013089984 0.3674818 -0.68511879 -0.62894303 0.0020181602
0.015742157 -0.015489993 0.013652253 0.48671073 -0.70435548 -0.51671654 0.0018156412
-0.0073830127 -0.0132421 0.014150591 -0.51272762 -0.076494552 -0.85513681 0.0034661682
-0.0047529675 -0.013254227 0.012679367 -0.41078544 -0.2068873 -0.88794875 0.0018399184
-0.0028113669 -0.014229784 0.012052719 -0.32403591 -0.28297445 -0.90273261 0.0027716372
0.01674705 -0.014144584 0.012741334 0.50035405 -0.72756219 -0.46936026 0.0032155039
0.018977575 -0.012918377 0.013654019 0.6022315 -0.70113385 -0.38174418 0.0034384234
-0.0073514907 -0.010109653 0.01398152 -0.60417742 -0.008423673 -0.79680532 0.0034112961
-0.0052597467 -0.01028455 0.01247435 -0.56054044 -0.077477723 -0.82449472 0.0023925586
0.020462621 -0.011106195 0.012693877 0.6568957 -0.68244833 -0.32055008 0.0012075646
0.021973234 -0.009867561 0.01327617 0.67565429 -0.67411935 -0.29841977 0.001167462
-0.0071352986 -0.0068955529 0.013937359 -0.71643174 0.095254667 -0.69112378 0.0028248623
-0.0055816136 -0.0071146744 0.012508417 -0.66057062 -0.022933593 -0.75041354 0.0022616687
0.023409095 -0.0080920076 0.012767634 0.74364716 -0.63249558 -0.2166522 0.0015617231
0.024522677 -0.006882167 0.01314105 0.74758762 -0.63050377 -0.20875292 0.0013899266
-0.0068919687 -0.0041564577 0.013976404 -0.77117002 0.17045556 -0.61338538 0.0055109356
-0.005652538 -0.0039559291 0.012612454 -0.736202 0.066437215 -0.67349291 0.0031972441
0.026207836 -0.0044449479 0.012814759 0.78230244 -0.59579712 -0.18173786 0.00068443874
-0.0065092728 -0.0016800689 0.01445585 -0.82889462 0.28361818 -0.48217678 0.0033404615
-0.005415868 -0.0010396081 0.013043392 -0.83447433 0.2062065 -0.51101029 0.0065395851
0.027634803 -0.0022519217 0.012263282 0.78432107 -0.58984423 -0.19215703 0.0005259327
-0.0047178292 0.0017891529 0.013160436 -0.86498922 0.28004584 -0.41637483 0.0033845298
-0.0038739771 0.0046958369 0.013700285 -0.89262736 0.34314218 -0.29235229 0.0014645732
-0.0029759004 0.0060090437 0.012363954 -0.90299535 0.33378267 -0.2705338 0.0017636305
-0.0034821471 0.0065220608 0.014454915 -0.90531164 0.34010646 -0.25443751 0.0012027862
-0.0026340084 0.0076848022 0.012993529 -0.91215825 0.31972498 -0.25640455 0.0012388981
-0.0016449982 0.010278177 0.013207032 -0.91813809 0.3626065 -0.15980893 0.0016840287
0.00042598433 0.014755727 0.012333645 -0.94206083 0.30408326 -0.14161545 0.0015505163
-0.0099688591 -0.027184078 0.017754804 -0.19274144 -0.26317695 -0.94529819 0.0017234329
-0.0076371389 -0.027569899 0.017550984 -0.10251965 -0.35848874 -0.92788768 0.0017173784
-0.0047396286 -0.027594602 0.017430758 -0.010912984 -0.43964419 -0.89810568 0.0022871071
-0.0019273412 -0.02737553 0.017421357 0.092191786 -0.51739973 -0.85076332 0.0027599437
0.00072764838 -0.027054008 0.01763726 0.21047561 -0.58752882 -0.78135133 0.0029081348
-0.012531289 -0.024501791 0.017791519 -0.28241855 -0.17136952 -0.94386029 0.0015495454
-0.010635182 -0.025132889 0.01735037 -0.21737549 -0.19865188 -0.95565963 0.0014203903
-0.0076751546 -0.025097607 0.016723383 -0.17465447 -0.30068222 -0.9375959 0.0025281594
-0.0047254232 -0.025072495 0.016276376 -0.089744836 -0.37757427 -0.92162013 0.0022839489
-0.0017834279 -0.025065869 0.016156824 0.0038214249 -0.45566642 -0.89014238 0.002503718
0.001402654 -0.025082082 0.016438687 0.1439825 -0.5497421 -0.82283205 0.0036690403
0.0044298023 -0.024655651 0.016862383 0.25127792 -0.6371606 -0.72861904 0.003613933
0.0068908222 -0.024070552 0.017397145 0.38852373 -0.67362142 -0.62871569 0.0039409632
-0.01285361 -0.022197211 0.017602982 -0.37651646 -0.083803259 -0.92261171 0.0016055414
-0.01062139 -0.022157192 0.016800623 -0.32366991 -0.15642393 -0.93315023 0.002543956
-0.0076584728 -0.022108698 0.015829943 -0.25416875 -0.23666777 -0.93775618 0.002465711
-0.004885436 -0.022399092 0.015299839 -0.17050909 -0.32366964 -0.93067962 0.0031907919
-0.0017775318 -0.023052264 0.015149578 -0.045876224 -0.43148902 -0.90095091 0.0022385465
0.0014010902 -0.023070773 0.01514363 0.065541707 -0.51686352 -0.85355508 0.0021256662
0.0046541346 -0.022853693 0.015477619 0.17937051 -0.60839742 -0.77309686 0.0025809009
0.0076193544 -0.022297533 0.016046192 0.3026042 -0.63963938 -0.70660603 0.0015997544
0.010126909 -0.021555603 0.016757792 0.42895609 -0.70194411 -0.56856936 0.0045230458
0.012226042 -0.020981103 0.017878339 0.54734981 -0.72295725 -0.42159322 0.0015832827
-0.012851277 -0.019244006 0.017524637 -0.47333345 -0.0074602356 -0.88085175 0.0028657264
-0.010611837 -0.019195624 0.016413895 -0.40826723 -0.095468774 -0.90785664 0.0025366175
-0.0079107182 -0.019339917 0.015315779 -0.33778259 -0.17042142 -0.92566699 0.002366401
0.010973813 -0.02011242 0.015611407 0.36123112 -0.70064503 -0.61531186 0.0033824227
0.013260104 -0.019085236 0.016274041 0.51206023 -0.70168036 -0.49541801 0.0045099435
0.015146161 -0.017988443 0.016873375 0.60190094 -0.6927495 -0.39725733 0.002808467
-0.012718836 -0.016309317 0.017479157 -0.56418306 0.063524157 -0.82320243 0.0030139631
-0.010605361 -0.016243901 0.016153675 -0.49099568 -0.033411343 -0.87052113 0.0031221374
-0.0086719664 -0.016401917 0.015142764 -0.44700313 -0.089087375 -0.89008516 0.0022786828
0.014606223 -0.017432734 0.015245064 0.52846849 -0.71808302 -0.45285517 0.001492294
0.016476339 -0.016494492 0.016289786 0.63282871 -0.69883758 -0.33339754 0.0017893981
0.018473634 -0.015055816 0.017235138 0.68062544 -0.67948961 -0.27393961 0.00035216202
-0.012432667 -0.013453729 0.017621826 -0.638161 0.1516543 -0.75481886 0.0024456468
-0.010639036 -0.013098121 0.016291821 -0.58299136 0.053336833 -0.81072575 0.0020543551
-0.0088644503 -0.013268054 0.015001037 -0.56039292 0.0039921366 -0.82821721 0.002502867
0.019278344 -0.013702301 0.015868494 0.68096375 -0.67295951 -0.28881472 0.0028806874
0.021276133 -0.011849566 0.016749635 0.71461731 -0.65846533 -0.23610516 0.00074987143
-0.010401922 -0.010036075 0.016585261 -0.67071974 0.13742845 -0.72886801 0.0018638778
-0.0088081611 -0.0099125924 0.015224068 -0.66437048 0.07777559 -0.74334568 0.0030220714
0.022189027 -0.010341681 0.015282392 0.73498756 -0.64136344 -0.22010513 0.0015903208
-0.009888228 -0.0071330378 0.016929399 -0.75655323 0.25943083 -0.60026908 0.0053625973
-0.0086290864 -0.0069201556 0.015424644 -0.72704047 0.15037195 -0.66992575 0.0039266217
0.024924299 -0.0069331741 0.016149998 0.75705576 -0.62332839 -0.19577584 0.00091487326
-0.0095345331 -0.0048670531 0.01757779 -0.81354052 0.34919092 -0.46499199 0.0029790425
-0.0082915807 -0.0038833553 0.016183477 -0.81304574 0.25588045 -0.522955 0.0040541803
-0.0073021627 -0.0011449631 0.016419604 -0.83967024 0.34961128 -0.41560298 0.0018956612
-0.0065752091 0.0010316683 0.01698067 -0.85869205 0.38467723 -0.33863175 0.0014029422
-0.0056733852 0.0021330744 0.015910508 -0.87569934 0.36644849 -0.31442991 0.0013163293
-0.00472333 0.0046444493 0.016095355 -0.88414615 0.37706625 -0.27587429 0.0013399296
-0.0036679741 0.0070424643 0.016740972 -0.88827616 0.42145896 -0.18258642 0.0021064624
-0.0027561679 0.0084882164 0.015232845 -0.89339256 0.39551339 -0.21311706 0.0017305788
-0.0015369521 0.010948599 0.015890077 -0.91042542 0.37169501 -0.18157196 0.0014898919
-0.018791134 -0.033198219 0.020787444 -0.21342452 -0.18800935 -0.95869833 0.0014725992
-0.016522273 -0.033843454 0.020604126 -0.12910238 -0.27300471 -0.95331055 0.0016557723
-0.013679509 -0.03396076 0.02039006 -0.053949315 -0.34829533 -0.93583113 0.0019924284
-0.010780632 -0.033884853 0.020320086 0.023176901 -0.42929065 -0.90286893 0.0023544987
-0.0079132644 -0.033544667 0.02039776 0.11214112 -0.51413441 -0.85034704 0.0032558967
-0.0052118856 -0.033173073 0.020613395 0.21401918 -0.58661336 -0.78107655 0.0032727488
-0.019266803 -0.031171571 0.020591991 -0.2543014 -0.11960371 -0.95970088 0.0020464885
-0.01663181 -0.031211723 0.01997968 -0.18422738 -0.18571384 -0.96517909 0.0020996023
-0.013650395 -0.031176295 0.019468237 -0.13129422 -0.28046238 -0.95084316 0.0023796621
-0.010680961 -0.031155929 0.019172352 -0.05796884 -0.35047579 -0.93477607 0.0024662609
-0.007720035 -0.031152535 0.019121381 0.019339161 -0.42822725 -0.90346414 0.0026964983
-0.0047638435 -0.031172909 0.01941097 0.13947345 -0.53615665 -0.83251625 0.0035829437
-0.0019788144 -0.030881342 0.019826664 0.25270838 -0.61587358 -0.74621594 0.0039092903
0.00063737691 -0.030275289 0.020345895 0.35748461 -0.66424513 -0.65649301 0.0033027006
-0.019461943 -0.028335692 0.02041563 -0.30308652 -0.013651889 -0.95286524 0.0016236386
-0.016614383 -0.028217532 0.019519906 -0.28608975 -0.10847515 -0.95204294 0.0024844324
-0.013626739 -0.028167244 0.018719897 -0.21346809 -0.19355354 -0.95758474 0.0024088288
-0.010851655 -0.028402807 0.018272743 -0.12722597 -0.27842337 -0.95199478 0.0026359332
-0.0077967313 -0.029059881 0.018167578 -0.033472981 -0.38920051 -0.92054474 0.0021139141
-0.0047488613 -0.029117916 0.018186728 0.059340406 -0.47521329 -0.87786734 0.0021353317
-0.00165992 -0.028859865 0.018422605 0.16426888 -0.57832879 -0.79909426 0.0025705784
0.0013372874 -0.028429687 0.018962232 0.26802129 -0.6285879 -0.73009712 0.0021484548
0.0040098387 -0.027730808 0.019627037 0.41985443 -0.68328506 -0.59736395 0.0041355812
0.0063572559 -0.027058363 0.020767495 0.52744931 -0.69760758 -0.48491335 0.00097929453
-0.019320944 -0.025257969 0.020444248 -0.41280565 0.045547109 -0.90967953 0.0026190775
-0.016605724 -0.025242176 0.019288883 -0.35450035 -0.035958249 -0.93436426 0.002230495
-0.013827682 -0.025319315 0.018329279 -0.25984898 -0.15031421 -0.95387846 0.0014898058
0.004934385 -0.026095962 0.01841723 0.33366972 -0.67858595 -0.65435904 0.0038394267
0.0075204135 -0.025233755 0.019315431 0.47079545 -0.72087258 -0.50861996 0.0048659933
0.0099099502 -0.02405474 0.020148853 0.53264844 -0.72143662 -0.44250965 0.001766887
-0.018758582 -0.022178492 0.020432539 -0.49734825 0.12692361 -0.85821623 0.0027369435
-0.016658437 -0.02219126 0.019304845 -0.4630242 0.072366484 -0.88338649 0.0012080253
-0.014349747 -0.022229021 0.01823961 -0.40646061 -0.011487652 -0.91359609 0.0022802118
0.0087851034 -0.023448288 0.018022582 0.49226907 -0.71990627 -0.48929143 0.003074511
0.010740031 -0.022726148 0.019017443 0.56426561 -0.7202732 -0.40349811 0.0015137402
0.012663852 -0.021458108 0.019603256 0.59911072 -0.70610929 -0.37746 0.0022291748
-0.01839241 -0.019630944 0.020724332 -0.57210028 0.22297621 -0.78929269 0.0023014098
-0.016571186 -0.019015871 0.019666895 -0.53250653 0.15601225 -0.8319236 0.0031806577
-0.014377902 -0.019187085 0.018305218 -0.49423793 0.074384578 -0.86613852 0.0027284157
0.014081775 -0.019901786 0.018873859 0.63541269 -0.70460951 -0.31587371 0.0013385924
0.015778609 -0.018309962 0.01870729 0.65168792 -0.6917026 -0.31120789 0.0016815622
-0.016184438 -0.016061567 0.020125097 -0.6197378 0.23538475 -0.74867815 0.0038352592
-0.014145986 -0.015931234 0.018621134 -0.58107895 0.13994756 -0.80172443 0.0027169932
0.017448507 -0.016860411 0.019465461 0.67857444 -0.68558604 -0.26364467 0.00028999132
0.018450066 -0.015886702 0.019840136 0.67803901 -0.68735665 -0.26039207 0.00029383707
-0.015580318 -0.013602309 0.020522049 -0.66747111 0.35026407 -0.65711296 0.0028390179
-0.013868626 -0.012817082 0.019064957 -0.6652115 0.20640595 -0.7175585 0.0020108046
0.020107426 -0.013610044 0.018129691 0.70540345 -0.66434568 -0.24708462 0.00087270024
-0.013199782 -0.010114859 0.01950941 -0.74996555 0.31789801 -0.58007979 0.0038286981
-0.011789012 -0.009280636 0.018217172 -0.69664186 0.24489218 -0.67432779 0.0030690376
0.022082265 -0.011152714 0.01826407 0.73935223 -0.63360256 -0.22782914 0.0012576057
-0.012559328 -0.0078641465 0.020141952 -0.75849402 0.44271308 -0.47821757 0.00092941185
-0.011309842 -0.0068716565 0.019099524 -0.78913218 0.40395325 -0.46270099 0.0015880378
-0.010125797 -0.0040617166 0.019515814 -0.81455767 0.42499006 -0.39481553 0.00061522139
-0.0089372592 -0.0027839229 0.018381223 -0.822568 0.43348655 -0.36806419 0.001392977
-0.0094731115 -0.0020564483 0.020299748 -0.81669462 0.46233374 -0.34533653 0.0012388109
-0.0084214425 -0.00094016024 0.01922448 -0.83752215 0.4498775 -0.31010771 0.0010534818
-0.0070813182 0.0016995277 0.019239638 -0.84767294 0.46026629 -0.26382878 0.0024164536
-0.0059757824 0.0031231954 0.0179355 -0.87606597 0.42347637 -0.23059948 0.0021819989
-0.0052981535 0.0047042533 0.018733939 -0.87190092 0.45688829 -0.1761867 0.0020155613
-0.0040340978 0.0070931329 0.020371243 -0.86508805 0.48298961 -0.13543907 0.00053746894
-0.022261607 -0.041696861 0.023854934 -0.033741526 -0.44738263 -0.89370584 0.0021595187
-0.02051707 -0.041696418 0.023850039 0.05172025 -0.52200282 -0.85137421 0.0024347487
-0.028076336 -0.039195549 0.023743322 -0.22316349 -0.17280036 -0.95934254 0.0014231823
-0.025671562 -0.039849158 0.023506319 -0.13806437 -0.25292629 -0.95758367 0.0020670472
-0.02272567 -0.039894227 0.023182791 -0.093041591 -0.32196358 -0.94216913 0.0018238478
-0.019732526 -0.039880071 0.023020402 -0.015136344 -0.40404379 -0.91461438 0.0029015932
-0.016807297 -0.039809428 0.023047248 0.057814404 -0.48836777 -0.87072068 0.0030695519
-0.013896974 -0.039464749 0.023166237 0.14468613 -0.56544769 -0.81199431 0.0048412322
-0.011082378 -0.038941596 0.023422049 0.23888603 -0.63318789 -0.73621094 0.0034533567
-0.02843789 -0.036895297 0.023555325 -0.25012618 -0.086298823 -0.96435958 0.0019947337
-0.025694529 -0.036883872 0.022885341 -0.206641 -0.15053709 -0.96676683 0.0022183554
-0.022745147 -0.036995471 0.022348043 -0.15907708 -0.24245997 -0.95703065 0.002794656
-0.019683834 -0.037054285 0.021927884 -0.098942742 -0.30424538 -0.94744134 0.0025813547
-0.016698314 -0.037037835 0.021725705 -0.028950216 -0.38126531 -0.92401218 0.0027217714
-0.013722656 -0.037040234 0.02175325 0.055820242 -0.46279079 -0.88470834 0.0021652991
-0.010755844 -0.037072495 0.022145595 0.17624581 -0.55358231 -0.81393129 0.0036573999
-0.0078658974 -0.03689776 0.022814434 0.29353753 -0.62695956 -0.72163522 0.0038559206
-0.0052022277 -0.036130205 0.023233727 0.37466055 -0.67602044 -0.6345281 0.0031010227
-0.028356316 -0.034026645 0.023471685 -0.32267135 0.029760305 -0.94604307 0.0018503303
-0.025678802 -0.033879276 0.022610225 -0.28309777 -0.042045709 -0.95816898 0.0019869001
-0.022656089 -0.034150809 0.021818358 -0.24185131 -0.11580326 -0.96337813 0.0026448988
-0.019790176 -0.034442324 0.021267015 -0.15241756 -0.21860735 -0.96383595 0.0015750077
-0.017020036 -0.035250179 0.021072101 -0.075902753 -0.30329981 -0.94986737 0.0014524452
-0.013699309 -0.035493262 0.021014059 0.0046658511 -0.43474871 -0.90053976 0.0017392727
-0.010482492 -0.035378162 0.021124993 0.097936049 -0.51395524 -0.85220808 0.0022902826
-0.0076381774 -0.034993477 0.021352785 0.19147879 -0.60124278 -0.77578539 0.0026742418
-0.0046356339 -0.034361545 0.021815769 0.31303614 -0.63824123 -0.70331812 0.0053686076
-0.0020219248 -0.033743162 0.022522807 0.41368833 -0.69016081 -0.59375077 0.003860072
0.00031487917 -0.032883864 0.023274854 0.5000909 -0.71745163 -0.48494565 0.0021551
-0.028032651 -0.031186566 0.023606783 -0.40098506 0.13449512 -0.90615785 0.0022056198
-0.025683656 -0.030902583 0.022691794 -0.39018002 0.11169223 -0.91393888 0.0014958082
-0.022644136 -0.031074692 0.021582188 -0.28799117 -0.056003224 -0.95599413 0.0013554681
-0.020716887 -0.031532366 0.021033533 -0.27725533 -0.068253681 -0.9583689 0.0014591232
-0.001379933 -0.032229561 0.021259438 0.32262117 -0.68301296 -0.65529299 0.0042499332
0.0013346082 -0.031385172 0.022114899 0.47253662 -0.70647383 -0.52688122 0.0056595067
0.0036688636 -0.030155273 0.02266123 0.50215429 -0.73093855 -0.46213624 0.0015286338
-0.027492255 -0.028986655 0.023821771 -0.47465774 0.24768354 -0.84460223 0.0024951007
-0.025630806 -0.02800004 0.023042185 -0.4601669 0.19866045 -0.86532104 0.0010398524
-0.022595249 -0.027946351 0.021643613 -0.39461204 0.077538349 -0.91557038 0.0025366978
-0.020879272 -0.027566163 0.020976415 -0.35795942 0.024830388 -0.93340695 0.0018709681
0.004834983 -0.028688572 0.021629112 0.51583266 -0.72382063 -0.45825788 0.0065444838
0.0071454924 -0.027386611 0.022459753 0.57968462 -0.74191099 -0.33694774 0.0039020895
-0.025034739 -0.025199948 0.023438478 -0.50872546 0.25726727 -0.82159102 0.0033071218
-0.022674035 -0.024907483 0.022158634 -0.46169889 0.18001522 -0.86857855 0.0013502318
-0.020722624 -0.024604352 0.021155041 -0.44507924 0.12203727 -0.88713658 0.0025155321
0.0086910995 -0.025984282 0.022165304 0.60156608 -0.74448556 -0.28958517 0.0022042829
0.010130175 -0.024722651 0.022010272 0.63147384 -0.72041762 -0.28677365 0.0027299749
-0.024499223 -0.023253083 0.023764953 -0.56422067 0.37180701 -0.73716664 0.0029103421
-0.022544134 -0.02210182 0.022914462 -0.53585202 0.31869087 -0.781856 0.0028436675
-0.020266622 -0.021789657 0.021493113 -0.52377254 0.20375693 -0.82713085 0.0023072211
0.011825304 -0.023147717 0.021726504 0.64571756 -0.71753168 -0.26114574 0.0010787207
0.013301461 -0.021638373 0.021286448 0.64570624 -0.71553725 -0.26658943 0.0011800418
-0.02177025 -0.01952902 0.023432078 -0.62968338 0.38418972 -0.67520154 0.0037329772
-0.019801516 -0.018875342 0.022016091 -0.59917802 0.30814102 -0.73894161 0.0036450918
0.014789032 -0.02015236 0.021307096 0.65992916 -0.70603812 -0.25691187 0.00087584479
0.016280798 -0.018671198 0.021447822 0.67473382 -0.68677235 -0.27032921 0.00027446097
-0.01922589 -0.016241591 0.02279632 -0.6654402 0.39064163 -0.6360727 0.004143307
-0.017599769 -0.015616574 0.021524757 -0.65642542 0.311708 -0.68698162 0.0029133551
-0.01851194 -0.01402898 0.023570061 -0.70349675 0.47527841 -0.52839643 0.0017742306
-0.016769277 -0.013003954 0.022260526 -0.70382625 0.42524895 -0.56902725 0.0040228865
-0.015810739 -0.010712544 0.022894368 -0.7427507 0.46768227 -0.47916034 0.0021092917
-0.014639004 -0.0096753798 0.021945797 -0.76203096 0.42245123 -0.49075839 0.0031800386
-0.01338753 -0.0071483487 0.022474699 -0.78947979 0.45963228 -0.40676749 0.0016215617
-0.01197568 -0.0057805167 0.021368966 -0.78945196 0.48392466 -0.37760112 0.0013149732
-0.012525162 -0.0050597475 0.023219213 -0.79636472 0.48393887 -0.36277589 0.00084074208
-0.011322447 -0.0040170783 0.022089493 -0.80124414 0.51053196 -0.31203377 0.001434864
-0.010016039 -0.0016781739 0.022326004 -0.81250703 0.51575804 -0.27170944 0.0021187279
-0.0088515347 1.4566467e-06 0.022069201 -0.826159 0.50563848 -0.2485778 0.0026327083
-0.0077736429 0.0016554869 0.021944307 -0.83483672 0.51648772 -0.19049431 0.001169147
-0.0065483195 0.0036474182 0.022922024 -0.84430528 0.50634819 -0.17538545 0.00086454581
-0.0055330438 0.0048774197 0.021456078 -0.84712321 0.50931507 -0.1515927 0.00052280538
-0.03636558 -0.045139566 0.026766881 -0.19913416 -0.34593442 -0.91688335 0.0023642774
-0.034250665 -0.045576941 0.026540224 -0.15437901 -0.35484484 -0.92209131 0.0024216007
-0.031447448 -0.045967016 0.026333746 -0.09420722 -0.41261387 -0.90602148 0.0025290491
-0.028533619 -0.045932304 0.026158137 -0.032689787 -0.47576466 -0.87896496 0.0034364148
-0.025682947 -0.045795128 0.026072109 0.030032121 -0.54074258 -0.84065187 0.003902792
-0.022697607 -0.045507453 0.02613871 0.10367446 -0.60689253 -0.78799301 0.004630473
-0.01972294 -0.045117058 0.026382765 0.17659076 -0.68128633 -0.7103976 0.0052732183
-0.017646171 -0.044979617 0.026840553 0.27985841 -0.75783885 -0.58937222 0.0082710339
-0.037249528 -0.043092802 0.026560934 -0.27239931 -0.13277015 -0.95297986 0.0028191064
-0.034580681 -0.043177716 0.025916081 -0.19666266 -0.20907232 -0.95792097 0.0031359305
-0.031798609 -0.043046076 0.025325986 -0.15751457 -0.29181218 -0.94341654 0.0031645524
-0.028807065 -0.043041416 0.024895616 -0.11033268 -0.33192608 -0.93683076 0.0030514656
-0.025793796 -0.043014832 0.02461257 -0.054712757 -0.40412238 -0.91306716 0.0030967665
-0.022862302 -0.043173391 0.024639029 0.018271677 -0.48498687 -0.87433052 0.0032224152
-0.019697344 -0.043186128 0.024867935 0.1016078 -0.56098914 -0.82156378 0.001815342
-0.016804244 -0.042990122 0.025279593 0.20694783 -0.66020018 -0.72201687 0.0034208116
-0.013932592 -0.042490348 0.025749644 0.27662906 -0.71154875 -0.64589065 0.0027135136
-0.011613538 -0.041924432 0.026340688 0.42290229 -0.74610913 -0.51427114 0.0056968629
-0.037307553 -0.040243357 0.026388282 -0.33891293 0.00080123445 -0.94081742 0.0024753334
-0.034596562 -0.040096182 0.02548915 -0.28904644 -0.061555531 -0.95533395 0.0019385713
-0.031792037 -0.040029123 0.024724372 -0.24337849 -0.12709343 -0.96156859 0.0024913331
-0.02905051 -0.040310618 0.024181746 -0.16561784 -0.20705266 -0.9642095 0.0020547472
-0.026754221 -0.041209772 0.023979381 -0.093372904 -0.29252753 -0.95168746 0.0017322422
-0.015787454 -0.041209817 0.023980021 0.13029639 -0.61971635 -0.77393448 0.003889678
-0.013512615 -0.040978283 0.024427542 0.22781181 -0.68292832 -0.69405377 0.0048187631
-0.010681218 -0.040475428 0.025132908 0.31411803 -0.72463679 -0.61337703 0.003746755
-0.0080607692 -0.039398383 0.025447337 0.40955099 -0.74932069 -0.5203715 0.0052165142
-0.0061036865 -0.038924813 0.026418194 0.45784006 -0.74661243 -0.48265138 0.0039141211
-0.036865618 -0.037400298 0.026451776 -0.41842353 0.16079228 -0.89390576 0.0035525989
-0.034601387 -0.037100274 0.025551088 -0.35644096 0.075391226 -0.9312712 0.0019740169
-0.031779677 -0.037018757 0.024547197 -0.31588402 0.010667218 -0.94873786 0.0032276493
-0.029923122 -0.037150662 0.023978665 -0.28472188 -0.035033025 -0.95796984 0.0016775981
-0.0071696923 -0.038149994 0.024346944 0.33004051 -0.67646086 -0.65838736 0.0031315887
-0.0047633937 -0.037418488 0.025296394 0.46406662 -0.74928486 -0.47245577 0.0052000824
-0.0025881259 -0.036127873 0.025448857 0.47527102 -0.74622613 -0.46611589 0.0038939584
-0.03632272 -0.03506685 0.026753336 -0.49946013 0.28869754 -0.81681901 0.0035367126
-0.034570016 -0.034209765 0.026075553 -0.42102292 0.23889756 -0.87502438 0.0036516378
-0.031797592 -0.034042798 0.024798967 -0.39151788 0.14104487 -0.90929651 0.0019956436
-0.029832203 -0.033736814 0.024038982 -0.36335856 0.08943139 -0.92734712 0.0019859539
-0.0013624306 -0.034900844 0.024767244 0.50999951 -0.76039195 -0.40212509 0.0024815483
0.00096250704 -0.033530638 0.025298599 0.53647727 -0.74828768 -0.39020216 0.0016126066
-0.03370044 -0.031576589 0.026442502 -0.50892431 0.34927684 -0.78676671 0.0033900519
-0.031591501 -0.031088963 0.025422886 -0.48556659 0.27631158 -0.82938349 0.002830975
-0.029466415 -0.030795598 0.024371749 -0.43669295 0.20813322 -0.87520272 0.0021008938
0.0024108416 -0.032312751 0.025045469 0.61623138 -0.73293853 -0.28820112 0.0030881641
0.0039107008 -0.031160787 0.025238937 0.61575836 -0.74241573 -0.26393285 0.0030603055
-0.031173134 -0.028365502 0.026249025 -0.548518 0.38687009 -0.74125546 0.0032208392
-0.028804639 -0.02805342 0.024849834 -0.51529485 0.27986312 -0.81002951 0.0013620999
-0.027009722 -0.027009033 0.024083495 -0.52392834 0.23165534 -0.81965542 0.0029008086
0.0071628201 -0.028332639 0.025333136 0.62823063 -0.74424553 -0.22677013 0.0010670822
0.0089225806 -0.026873305 0.026000515 0.62018842 -0.74650782 -0.24102362 0.00084830081
-0.030170331 -0.026408345 0.026614442 -0.57709455 0.45339319 -0.67926168 0.0045233057
-0.028450524 -0.025340671 0.025833869 -0.58020437 0.44063562 -0.68498403 0.0031266888
-0.026483059 -0.024817821 0.024541585 -0.5748049 0.33861578 -0.74494213 0.0026190968
0.010406367 -0.025323853 0.025141558 0.64931685 -0.72630143 -0.2255522 0.00044494643
0.011885406 -0.023777634 0.024263009 0.64809376 -0.72625816 -0.22918035 0.0005911623
-0.027559359 -0.022995867 0.026545838 -0.64018661 0.49005628 -0.59161294 0.0020933328
-0.025603078 -0.022154378 0.025319459 -0.6028055 0.40898076 -0.68509871 0.0016923586
-0.023830907 -0.021186043 0.024310991 -0.63058382 0.42039546 -0.65240455 0.0028432412
0.01288703 -0.022787804 0.024417326 0.65189415 -0.72141808 -0.2336448 0.00057036855
-0.0248546 -0.019878089 0.026323261 -0.64576918 0.53483689 -0.54491442 0.00095114077
-0.023004206 -0.019016169 0.025009582 -0.65540653 0.45099881 -0.60584027 0.0027215159
-0.021927303 -0.01647502 0.026020255 -0.69382232 0.50270998 -0.51564842 0.0013799941
-0.020514624 -0.015770072 0.024692228 -0.69221622 0.45157582 -0.56295288 0.0019589895
-0.019364221 -0.013373237 0.025633246 -0.71241212 0.52845508 -0.46174037 0.0013022745
-0.017857237 -0.01221522 0.024617895 -0.72697514 0.52608633 -0.44129395 0.00079838274
-0.018390739 -0.011118888 0.026651248 -0.73242688 0.54766142 -0.40449694 0.0012247124
-0.016768472 -0.010044289 0.025265466 -0.74816746 0.5369879 -0.38972998 0.0011375446
-0.015609724 -0.0078473715 0.025995128 -0.75704175 0.54661268 -0.357914 0.0013769192
-0.01447631 -0.0068803951 0.025025442 -0.7794075 0.52240896 -0.345851 0.0012423218
-0.013091351 -0.0046946667 0.025481405 -0.77380681 0.57263678 -0.27075836 0.0016864386
-0.011905691 -0.0033315902 0.024815127 -0.79423767 0.54806566 -0.26231769 0.0020549092
-0.010482227 -0.0013360577 0.025118539 -0.79653484 0.55680829 -0.23557755 0.00088212179
-0.008320773 0.0014116256 0.02450262 -0.82099408 0.53163582 -0.20816348 0.00058446429
-0.03719284 -0.050815903 0.029744498 -0.089345179 -0.58560044 -0.80566096 0.0022900759
-0.034659564 -0.050801888 0.029616904 -0.011882327 -0.63384527 -0.7733686 0.004049079
-0.03189265 -0.050814793 0.029734429 0.075082332 -0.70262128 -0.70759165 0.002665218
-0.042987011 -0.048281528 0.029639341 -0.27541816 -0.31070757 -0.90972835 0.0051656114
-0.040572256 -0.048805755 0.029204797 -0.22144775 -0.40318987 -0.88791823 0.0043284618
-0.037642866 -0.048969377 0.028642062 -0.15939876 -0.48430008 -0.860259 0.0039921007
-0.034564734 -0.049155653 0.028366674 -0.049711984 -0.56583768 -0.8230167 0.0036061506
-0.031539787 -0.049147259 0.028286267 -0.009383928 -0.61726826 -0.78669685 0.0041007851
-0.028601157 -0.049089447 0.028417859 0.11179558 -0.68651783 -0.71846706 0.0044341809
-0.025622005 -0.048780378 0.028626069 0.18144628 -0.74866498 -0.63763463 0.0055683488
-0.022656884 -0.048087221 0.028740924 0.25047794 -0.7791059 -0.574678 0.0039608995
-0.020272067 -0.047757812 0.029455338 0.31171799 -0.80292273 -0.50808167 0.0026443633
-0.043642495 -0.045922607 0.029348239 -0.3666786 -0.086663246 -0.92630249 0.0085373633
-0.040662479 -0.045987558 0.028255507 -0.31611013 -0.23378277 -0.91946727 0.0042961934
-0.03757415 -0.046179976 0.027374204 -0.23935628 -0.33318448 -0.91197401 0.0043604551
-0.034696151 -0.047054727 0.027205285 -0.11093515 -0.41193095 -0.90443701 0.0024875004
-0.031460609 -0.047518961 0.027145172 -0.043800965 -0.54521412 -0.83715165 0.0022160998
-0.028445888 -0.047513697 0.027094265 0.03806565 -0.62940854 -0.7761417 0.0031755359
-0.025194248 -0.047365595 0.027279574 0.10364047 -0.68884933 -0.71745747 0.0035996202
-0.022238072 -0.046842467 0.027400985 0.17928734 -0.74292386 -0.64491868 0.0040609776
-0.01941208 -0.046469875 0.027998503 0.24692726 -0.78826636 -0.56361604 0.0044367458
-0.016701089 -0.045634806 0.028386276 0.34519175 -0.81144327 -0.47159553 0.0040808339
-0.014324112 -0.044793662 0.028796591 0.4039053 -0.81037623 -0.42444175 0.0022857236
-0.043408807 -0.042978987 0.029127076 -0.46857324 0.038107321 -0.88260239 0.0039008427
-0.040540159 -0.043099653 0.027729517 -0.38800678 -0.053870168 -0.92008084 0.0038498943
-0.038629182 -0.043895803 0.027045146 -0.32113856 -0.097689018 -0.9419803 0.0022990622
-0.015657704 -0.0445274 0.027349785 0.34278116 -0.78294009 -0.51913959 0.0052592061
-0.013166124 -0.04372111 0.027989013 0.43211713 -0.80518067 -0.40615135 0.0022034911
-0.010770183 -0.042545605 0.028238997 0.42293623 -0.80291235 -0.42006752 0.0025077066
-0.0086667752 -0.041684672 0.029228732 0.45488513 -0.79097414 -0.40919366 0.001772373
-0.043012355 -0.040151138 0.029309373 -0.55774063 0.2022521 -0.80499655 0.005978574
-0.040552918 -0.04013006 0.027789965 -0.4562839 0.097066954 -0.88452417 0.0028830005
-0.03872342 -0.039473742 0.026973302 -0.40041149 0.058850292 -0.91444367 0.0031155637
-0.0093872081 -0.041538678 0.027615026 0.44407594 -0.79232866 -0.41834435 0.0014624776
-0.0073390207 -0.040494323 0.028305061 0.47745523 -0.7858814 -0.39297199 0.001098194
-0.0051276325 -0.039100874 0.028487027 0.5347454 -0.78072023 -0.32330081 0.0047893166
-0.04247858 -0.037934013 0.029598609 -0.61881495 0.35975012 -0.69831789 0.0056037717
-0.040506918 -0.037160266 0.028531615 -0.54678255 0.2913698 -0.78494108 0.0024867833
-0.038281009 -0.036922764 0.027278984 -0.46480441 0.23213649 -0.85444105 0.0028512026
-0.0041138045 -0.038204331 0.027795041 0.53105801 -0.7914983 -0.30250254 0.0045536412
-0.0021042374 -0.03678979 0.027912647 0.56092227 -0.78589392 -0.26026338 0.0016431047
-0.039773099 -0.03467714 0.029234521 -0.60113955 0.44480991 -0.66390914 0.0046030544
-0.037718624 -0.034076031 0.028016137 -0.53729278 0.34159654 -0.77112144 0.0023180442
-0.035715312 -0.03320431 0.027000919 -0.54406917 0.2911121 -0.78691959 0.0043680775
