# .PCD v0.7 - Point Cloud Data file format
VERSION 0.7
FIELDS x y z normal_x normal_y normal_z curvature
SIZE 4 4 4 4 4 4 4
TYPE F F F F F F F
COUNT 1 1 1 1 1 1 1
WIDTH 553
HEIGHT 1
VIEWPOINT 0 0 0 1 0 0 0
POINTS 553
DATA ascii
-0.010022233 0.045815319 -0.018735074 0.05863272 0.21881272 -0.97400367 0.0012590059
-0.0070767216 0.045860227 -0.018316802 0.1593685 0.2592935 -0.95255899 0.001014233
-0.0045045554 0.045520131 -0.017948668 0.24728352 0.30843061 -0.91854304 0.0010180034
-0.017943364 0.048237808 -0.017731447 -0.21085794 0.14734615 -0.96634781 0.0020008257
-0.015933122 0.04882456 -0.017954083 -0.12424204 0.15929753 -0.97938156 0.0017149609
-0.012994928 0.048834503 -0.018160421 0.00040703345 0.22139581 -0.97518402 0.0018758561
-0.010135179 0.048570871 -0.018006187 0.10731402 0.27019817 -0.95680541 0.00087731972
-0.0076030251 0.047933914 -0.017801601 0.20533529 0.32374418 -0.92359471 0.0011978123
-0.015289711 0.050714411 -0.017649988 -0.10186653 0.23075192 -0.96766561 0.0025599455
-0.013466793 0.050712101 -0.017669545 0.032577198 0.27880982 -0.95979363 0.0016844013
0.0056197774 0.001828247 -0.01475192 -0.21246849 -0.35283548 -0.91124326 0.0033719682
0.0080976272 0.001375339 -0.014874646 -0.041563798 -0.29381618 -0.95495784 0.0014190942
0.010808718 0.0014075502 -0.014826389 0.093339495 -0.25877577 -0.96141708 0.0016193604
0.012730974 0.001828436 -0.014683086 0.22201642 -0.25063711 -0.94227898 0.0010609914
0.0026376159 0.0044251438 -0.014968541 -0.32605568 -0.3611699 -0.87363839 0.0030901099
0.0050306064 0.0038441909 -0.015343157 -0.18574011 -0.32982466 -0.92558974 0.0016946036
0.0079759713 0.0038088714 -0.01559428 -6.9365444e-05 -0.26601765 -0.96396816 0.0010327921
0.010955526 0.0038102597 -0.015423583 0.14215808 -0.21721716 -0.96571624 0.0021906621
0.013473863 0.0040084897 -0.014959463 0.25864583 -0.19196139 -0.94670647 0.00092920632
-0.00031921221 0.0075332196 -0.015087238 -0.42646849 -0.38694084 -0.81755823 0.0032626435
0.0020242203 0.007010337 -0.015768139 -0.27644816 -0.32594621 -0.90406609 0.0028322095
0.0049931919 0.0070011411 -0.01638741 -0.098582581 -0.28508839 -0.95341808 0.0013821499
0.0079620369 0.0070000729 -0.01646452 0.039441735 -0.23499352 -0.97119635 0.0013956707
0.010939008 0.0070050778 -0.016139578 0.19914386 -0.18963243 -0.96144748 0.0020012863
0.013935179 0.0070172818 -0.015337231 0.29501796 -0.15327321 -0.9431181 0.00092040468
0.015940372 0.0074088806 -0.014734084 0.40101704 -0.12786098 -0.9071036 0.001425166
-0.0029744506 0.010564938 -0.014985032 -0.54191977 -0.39254633 -0.7431221 0.0031622904
-0.00096834672 0.009940302 -0.01581138 -0.41132799 -0.35042727 -0.84143329 0.0039629638
0.0020221686 0.0099616554 -0.016815882 -0.20653842 -0.31404552 -0.92667007 0.0018007476
0.004985895 0.0099534197 -0.017194279 -0.015613775 -0.21247563 -0.97704166 0.0014768728
0.0079515781 0.009955232 -0.017116491 0.090548158 -0.19291244 -0.97702909 0.0016392258
0.010927177 0.0099654896 -0.016654667 0.22557731 -0.14171289 -0.96386325 0.0013462116
0.013923298 0.0099858884 -0.015731815 0.3384802 -0.09266752 -0.9363994 0.001325704
0.016011659 0.0097754365 -0.0148823 0.44780454 -0.06244418 -0.8919484 0.001585126
-0.0059214872 0.014208866 -0.014852046 -0.6032604 -0.39364317 -0.69362962 0.0023760812
-0.0037756716 0.01310833 -0.015750492 -0.49487296 -0.38299444 -0.78001022 0.003533266
-0.0010280473 0.012792298 -0.016954746 -0.31779084 -0.34576654 -0.88286716 0.0022346568
0.0015922101 0.012000756 -0.017382424 -0.16328005 -0.29604453 -0.94111496 0.0025126887
0.0049825101 0.011540191 -0.017568935 -0.0089629218 -0.22109322 -0.9752115 0.0017861699
0.0084399218 0.012340879 -0.017445277 0.13628529 -0.13569614 -0.98133218 0.0023060211
0.010919608 0.012923827 -0.016986288 0.26673052 -0.087347277 -0.95980477 0.0013152837
0.013916476 0.01295371 -0.015961535 0.37651852 -0.042776328 -0.92542094 0.0010485428
0.016241618 0.012985686 -0.014865685 0.49101353 -0.0099144187 -0.87109554 0.00200034
-0.0065414975 0.016192392 -0.015460833 -0.58347994 -0.41612402 -0.69741803 0.002512716
-0.0040720161 0.015790064 -0.016828129 -0.41398787 -0.36585453 -0.83352536 0.0020224964
-0.0019289816 0.014886879 -0.017407436 -0.26843041 -0.30416623 -0.9140175 0.0038653933
0.010916049 0.015884025 -0.01714116 0.3016251 -0.038579535 -0.95264578 0.0015342651
0.013914883 0.015924551 -0.016020332 0.41492978 0.0078784591 -0.9098193 0.0014089919
0.016109256 0.015833778 -0.014902566 0.55468339 0.063708484 -0.82961887 0.00458206
-0.0089965919 0.019471247 -0.015305753 -0.63124031 -0.4186506 -0.65289158 0.0043264534
-0.0069605159 0.018781092 -0.01651671 -0.48025095 -0.36160296 -0.79912591 0.0013309754
-0.004816046 0.017926205 -0.017389841 -0.36775881 -0.3106989 -0.87648141 0.0039817863
0.010915428 0.018847551 -0.017167624 0.3531633 0.027829602 -0.9351477 0.0012128655
0.013920071 0.018904343 -0.015851744 0.46934935 0.084347159 -0.87897491 0.0033787943
0.015886936 0.018694658 -0.01480474 0.63139099 0.14418958 -0.76194149 0.0060933023
-0.011728316 0.023071699 -0.014899611 -0.63748592 -0.43264702 -0.63751733 0.0036262772
-0.0098536434 0.021954242 -0.016008805 -0.59897232 -0.40842748 -0.68878084 0.0040798984
-0.0077642165 0.021333851 -0.017256862 -0.43361816 -0.34706935 -0.83157575 0.0032163595
0.0093111526 0.022475719 -0.017559694 0.35275453 0.043764267 -0.93469185 0.0015784582
0.010888813 0.021863841 -0.01699348 0.39285415 0.06799005 -0.91708392 0.0016244502
0.013824011 0.021841194 -0.015529967 0.54623789 0.16604052 -0.82100832 0.0083166938
-0.012447728 0.025200613 -0.015584846 -0.63638633 -0.43250301 -0.63871241 0.0026363684
-0.010538079 0.024501991 -0.016846413 -0.51922226 -0.35588613 -0.77701569 0.0025670854
0.0092480937 0.025150578 -0.017454807 0.36779583 0.094294988 -0.92511338 0.0012070411
0.010956507 0.024841819 -0.016608141 0.44783637 0.12900685 -0.88475972 0.00085994066
0.013280417 0.024716903 -0.015344774 0.64354938 0.2245715 -0.73171836 0.013688194
-0.015010689 0.028414473 -0.01499391 -0.65964234 -0.41853356 -0.62426084 0.0017855357
-0.01317249 0.027856808 -0.016473077 -0.56662965 -0.34787783 -0.74693501 0.001412839
-0.011197302 0.026586629 -0.017393231 -0.50818849 -0.37110388 -0.7771914 0.0023058373
0.00877974 0.028196011 -0.017180802 0.41298652 0.14890221 -0.8984822 0.0014578558
0.010908591 0.027849752 -0.016143894 0.56779003 0.21533416 -0.79450977 0.011501836
0.012740814 0.027477089 -0.015024743 0.66768086 0.33831912 -0.6631307 0.012279318
-0.015789511 0.031027522 -0.015840929 -0.63316548 -0.39337596 -0.66660094 0.0033378613
-0.014041439 0.030483048 -0.017075453 -0.59840262 -0.32941672 -0.73034167 0.0036520541
0.0082031377 0.031036191 -0.016912699 0.4534061 0.18654555 -0.87156391 0.00073150976
0.010644557 0.030644696 -0.015576199 0.70105964 0.33848557 -0.62764877 0.015133582
-0.018070875 0.034250934 -0.01540473 -0.67132074 -0.37149951 -0.64133978 0.0030295395
-0.016279606 0.033727285 -0.016785815 -0.57409775 -0.33165404 -0.74861038 0.0036485929
0.0058051092 0.034612201 -0.0173545 0.39854962 0.20715742 -0.89344507 0.0011337395
0.007883776 0.033874739 -0.01644972 0.58023864 0.30895799 -0.75357014 0.016719926
0.0099271797 0.033012126 -0.015320144 0.7099635 0.32924852 -0.6225329 0.020945963
-0.020910513 0.038223051 -0.014663993 -0.71239966 -0.3638978 -0.60005414 0.0029702708
-0.018877545 0.036963549 -0.015973669 -0.61597365 -0.30156624 -0.72775978 0.0035388905
-0.016896773 0.036526665 -0.017352672 -0.49113712 -0.23874286 -0.83772677 0.0035072097
0.0033880533 0.037970029 -0.017528772 0.4190053 0.235587 -0.87688845 0.0024960004
0.0051429057 0.037002709 -0.016985822 0.44031557 0.26486266 -0.85788697 0.001024835
0.0073558777 0.036686908 -0.015843805 0.6641835 0.3207722 -0.67525208 0.018480973
-0.021214671 0.040336359 -0.01528169 -0.67227805 -0.28376913 -0.68375242 0.0040516029
-0.019212959 0.039744969 -0.016718894 -0.54366207 -0.20961022 -0.8127085 0.0021171293
0.0026680226 0.040240657 -0.017207682 0.38581604 0.286589 -0.87693375 0.00098551007
0.0048188991 0.039728317 -0.016254926 0.54463464 0.39015412 -0.74239665 0.019825587
0.0066059101 0.038849689 -0.015348925 0.69193435 0.35569459 -0.62825823 0.022976791
-0.02188821 0.042992644 -0.015623384 -0.61526757 -0.20523269 -0.76113433 0.0039292523
-0.019618394 0.042972635 -0.017117564 -0.47589192 -0.12120099 -0.87111259 0.0034094746
-0.00061230047 0.04348268 -0.017339244 0.33102515 0.32656163 -0.88531345 0.00071895734
0.0019906862 0.042827867 -0.016519707 0.5142526 0.45748305 -0.72543335 0.019825248
0.0041179545 0.042261492 -0.01558787 0.67847168 0.53754872 -0.50071698 0.010973461
-0.023788502 0.046274487 -0.014872738 -0.63290393 -0.16929615 -0.75549418 0.0033679206
-0.021979598 0.045867268 -0.016112026 -0.508241 -0.058403842 -0.85923225 0.0046860622
-0.019798735 0.045982186 -0.017274434 -0.39791629 -0.02142909 -0.91717136 0.0036012644
-0.0032978519 0.046354547 -0.017248303 0.28295162 0.35059777 -0.8927595 0.00096766901
-0.00089262088 0.045934793 -0.016476028 0.33455074 0.34960064 -0.87513155 0.00086004101
0.0012370389 0.045356084 -0.015666634 0.63662302 0.57031858 -0.51908374 0.015132425
-0.024072543 0.04902802 -0.01504364 -0.56861305 -0.050269175 -0.82106769 0.0043092133
-0.02194366 0.048872419 -0.01620087 -0.43245676 0.045160804 -0.90052295 0.0042067477
-0.019274199 0.049148638 -0.017240357 -0.25926745 0.14131813 -0.95541072 0.0019149344
-0.017114302 0.050265588 -0.017592788 -0.101852 0.23076427 -0.96766424 0.0025586323
-0.0096566519 0.050107982 -0.017479792 0.1475251 0.3202455 -0.93577725 0.0011584737
-0.0069059022 0.049336582 -0.017150719 0.24352862 0.35591233 -0.90223068 0.00084120198
-0.003915451 0.048808929 -0.016384967 0.34722784 0.45752978 -0.81859595 0.0077237128
-0.0014340291 0.048509244 -0.015438074 0.59946042 0.58063275 -0.55091995 0.013869653
-0.024052195 0.051821403 -0.015027068 -0.49184802 0.08134485 -0.86687285 0.0029084387
-0.022019789 0.051873013 -0.015877575 -0.35061017 0.14934938 -0.92453629 0.0029230199
-0.018976476 0.051960912 -0.016764361 -0.23130162 0.2329732 -0.94457561 0.0032763898
-0.016052449 0.052009035 -0.017222853 -0.068755575 0.28913665 -0.95481557 0.0028384649
-0.012966534 0.052066658 -0.017163783 0.079513535 0.35158804 -0.93277192 0.00088371307
-0.0099128308 0.052000832 -0.016813921 0.17537856 0.37283498 -0.91117316 0.00096513814
-0.0069450438 0.051963344 -0.016022095 0.35867375 0.44457883 -0.82079405 0.00878968
-0.0045378697 0.051283147 -0.015429438 0.5586642 0.56964064 -0.60282981 0.019995414
-0.023771223 0.054150786 -0.014775611 -0.37618202 0.20865424 -0.90274614 0.0021739875
-0.021991512 0.054856338 -0.015282097 -0.27227575 0.24184339 -0.93133116 0.0027725582
-0.019013682 0.054800712 -0.015975494 -0.15592843 0.30440265 -0.93969429 0.0020507604
-0.016029961 0.054766972 -0.016240422 -0.028303057 0.35554481 -0.93423057 0.0013637298
-0.013062336 0.054780509 -0.016135041 0.089940459 0.39641804 -0.91365391 0.00094321423
-0.0099707292 0.054777261 -0.015562546 0.24448219 0.46193808 -0.85255003 0.0015359267
-0.0074072331 0.054190688 -0.015066447 0.51126391 0.595213 -0.61994404 0.027509639
-0.021417631 0.056837425 -0.014835029 -0.25282857 0.30523348 -0.91810143 0.0028275244
-0.018921209 0.05730601 -0.015020027 -0.10108067 0.38790253 -0.91614097 0.0016530638
-0.016089993 0.057343319 -0.015158448 0.01488092 0.43601596 -0.89981592 0.0014704971
-0.013223797 0.05704423 -0.015045102 0.13569029 0.48126072 -0.86601168 0.0029333311
-0.010905633 0.056738112 -0.014805596 0.24369209 0.51021367 -0.82480073 0.0021993557
0.0084986743 -0.0071468605 -0.011819653 -0.18430586 -0.35639498 -0.91597706 0.0017179248
0.011036458 -0.007474998 -0.011919545 -0.0070651751 -0.33399114 -0.94254977 0.0018588827
0.013524116 -0.0072999159 -0.011834668 0.16484706 -0.29874828 -0.93998671 0.0015832409
0.0054178033 -0.0047804248 -0.012023052 -0.31457698 -0.3741079 -0.87240165 0.0024410512
0.0080254404 -0.0051587913 -0.012513097 -0.15555504 -0.34410805 -0.92595482 0.0018981133
0.011017083 -0.0051554423 -0.012757896 0.020592537 -0.3108789 -0.95022643 0.0012900863
0.014022416 -0.0051597264 -0.012437394 0.18269533 -0.28536889 -0.94084382 0.0013064897
0.016629394 -0.0046793111 -0.011894042 0.32473308 -0.25291148 -0.91136396 0.0019065592
0.0026598037 -0.001757721 -0.01218774 -0.46230805 -0.38500419 -0.79877603 0.0023879164
0.0050238785 -0.0021589487 -0.013001173 -0.30200666 -0.36394784 -0.88109815 0.0028752123
0.0080073494 -0.0021546977 -0.013639456 -0.10743124 -0.34353933 -0.93297327 0.0015319932
0.010994423 -0.0021539582 -0.013738866 0.057728596 -0.30751824 -0.94978946 0.0020336825
0.013996195 -0.002156626 -0.013309022 0.20889123 -0.26806203 -0.94048244 0.0012314955
0.017019788 -0.0021621711 -0.012442652 0.33724847 -0.22346397 -0.91450936 0.0011975562
0.018833051 -0.0015309835 -0.01179441 0.4589065 -0.21125551 -0.86300403 0.00099194061
-0.00017273496 0.0014769705 -0.011994708 -0.58289796 -0.41682306 -0.69748735 0.0020730488
0.0020296159 0.00083470112 -0.013060836 -0.43602124 -0.38988802 -0.81109357 0.0049330667
0.0048913793 0.00063540926 -0.014120851 -0.24027842 -0.37792552 -0.8941133 0.002126043
0.0078330943 3.8051046e-05 -0.014407012 -0.078319065 -0.33858597 -0.93767035 0.0016738352
0.011179566 0.00011736667 -0.0144143 0.072036043 -0.29908833 -0.9515025 0.0015336084
0.014068783 0.00075803511 -0.01402712 0.24466501 -0.24357136 -0.93851584 0.0016303229
0.016995342 0.00083507132 -0.013101873 0.380207 -0.1950829 -0.90409362 0.0019029693
0.019278564 0.00091966521 -0.012061216 0.50222588 -0.15515541 -0.85070318 0.0016652535
-0.0025839049 0.0049912496 -0.011927783 -0.66364163 -0.41202703 -0.62435043 0.00072013773
-0.00083343906 0.0039661657 -0.01287053 -0.54418868 -0.41660273 -0.72821766 0.0046017952
0.0015687838 0.0033612177 -0.014062341 -0.38922694 -0.38372681 -0.83741039 0.0018202378
0.0038627728 0.0024405508 -0.014580726 -0.21246906 -0.35283518 -0.9112432 0.0033716988
0.014938737 0.0034166754 -0.014386793 0.29599383 -0.17589781 -0.9388544 0.00087589683
0.016972642 0.0038232589 -0.013715475 0.39318189 -0.15877084 -0.90564883 0.0016477614
0.019531639 0.0038741459 -0.012382419 0.54935372 -0.10180863 -0.82936454 0.0030451883
-0.0032700128 0.0070581865 -0.012613462 -0.62624133 -0.42434856 -0.65402609 0.0023945668
-0.0013482596 0.006538894 -0.013933633 -0.49826446 -0.39936596 -0.76957095 0.0023244403
0.017160725 0.0066853403 -0.014009874 0.44761565 -0.1009202 -0.88851291 0.0019367079
0.019547528 0.0068276152 -0.012646621 0.60257661 -0.030728854 -0.7974692 0.004101472
-0.0059647472 0.010678198 -0.012231687 -0.68315482 -0.45891193 -0.56806636 0.0021271389
-0.0042016502 0.0096084271 -0.013378695 -0.62995923 -0.43762422 -0.64158893 0.0056125694
-0.0021033695 0.008408362 -0.014425962 -0.49081129 -0.42457303 -0.76081669 0.0020932148
0.017416252 0.0097916666 -0.014129782 0.50087982 -0.027836831 -0.86506903 0.0018682635
0.019423475 0.0097317919 -0.012767315 0.62678868 0.021517403 -0.7788921 0.0046087401
-0.0066842772 0.012985004 -0.013109034 -0.68570811 -0.45446694 -0.56856334 0.0043980689
-0.005013797 0.011933271 -0.014204228 -0.65093046 -0.45009753 -0.61131144 0.0025855901
0.017623611 0.012938758 -0.014109365 0.55416799 0.033406429 -0.83173424 0.0037257455
0.019251494 0.012734125 -0.012709597 0.69744384 0.093523182 -0.71051073 0.0045152931
-0.0090282038 0.016244434 -0.012766481 -0.7235952 -0.46123591 -0.5134896 0.0015439381
-0.0076561533 0.015285394 -0.013755603 -0.71793205 -0.46422911 -0.51871473 0.0015945683
0.017514324 0.016010288 -0.013920806 0.62471521 0.11862612 -0.77178937 0.0058080344
0.018983763 0.015567577 -0.012339414 0.74146497 0.18840809 -0.64399701 0.0029032626
-0.011816315 0.019994192 -0.011981486 -0.75004804 -0.46950775 -0.46582228 0.001383864
-0.010253096 0.018853646 -0.013333102 -0.7359376 -0.45839727 -0.49826479 0.0023924978
0.017163644 0.018892687 -0.01345049 0.7038849 0.23557031 -0.67011398 0.0055744848
0.018657546 0.017691217 -0.011850058 0.76624441 0.21455936 -0.60566807 0.0036759044
-0.012466454 0.022048961 -0.013018414 -0.74072915 -0.46430343 -0.48553336 0.0028212517
-0.011177445 0.021160107 -0.014128438 -0.68354142 -0.4380638 -0.58384174 0.001347404
0.015343401 0.022644617 -0.014295547 0.70268857 0.27111271 -0.65781957 0.0077841552
0.016522411 0.021733806 -0.01287768 0.7496013 0.29918519 -0.59041178 0.0032722363
-0.0148331 0.025624122 -0.01279554 -0.76228261 -0.47682545 -0.43767869 0.0016626895
-0.013578095 0.024431977 -0.013620987 -0.76168013 -0.48099157 -0.4341549 0.0017652736
0.014834695 0.024968401 -0.013334339 0.76469415 0.31122786 -0.56425178 0.0045298403
0.015993942 0.024027642 -0.012091949 0.76291668 0.37372085 -0.52753288 0.00055453868
-0.015977802 0.027872507 -0.013171118 -0.77288872 -0.45936128 -0.43775594 0.0019207668
0.013757493 0.027819414 -0.012741324 0.76586705 0.38682497 -0.51362848 0.0013970141
-0.018206114 0.03135173 -0.013010336 -0.75525898 -0.46430522 -0.46260625 0.0021379071
-0.016951408 0.030200772 -0.013911661 -0.73452103 -0.45927012 -0.49954966 0.0045842309
0.011915307 0.031281222 -0.012672351 0.79118907 0.40210402 -0.46079519 0.0011750895
0.012798143 0.030210827 -0.012223501 0.76957494 0.41677028 -0.48379424 0.00046925107
-0.020685703 0.034854751 -0.012321963 -0.77197182 -0.43323848 -0.46514937 0.0012347586
-0.019379597 0.033737168 -0.013345359 -0.75227565 -0.43949133 -0.49084485 0.0034263288
0.0093990257 0.035143979 -0.013026952 0.76113498 0.43696588 -0.47930619 0.0040298342
0.010715773 0.033750542 -0.012519928 0.77063757 0.43196699 -0.46853209 0.0026573492
-0.021436416 0.037022926 -0.013038984 -0.75717902 -0.42572173 -0.49542004 0.002807213
-0.020012414 0.035961609 -0.014273143 -0.71276605 -0.38612631 -0.5855518 0.0083232913
0.0087490669 0.037054498 -0.012608691 0.78714001 0.43374714 -0.43849066 0.0027962478
0.0098816771 0.035923988 -0.011945277 0.74305958 0.4661833 -0.48014131 0.002195196
-0.023965372 0.040678732 -0.01211217 -0.75990725 -0.42225891 -0.49420476 0.0020080789
-0.022524245 0.039763227 -0.013495366 -0.75851226 -0.34579533 -0.5523448 0.0030867499
0.0060604308 0.040787745 -0.013008199 0.72881234 0.53246301 -0.43048313 0.0034333218
0.0073043248 0.039584123 -0.012314649 0.73769927 0.50886589 -0.4436838 0.002389218
-0.024412241 0.043110348 -0.013061769 -0.75080472 -0.32576182 -0.57460564 0.0038458065
-0.023079798 0.042017944 -0.014163841 -0.73811734 -0.31402132 -0.59713763 0.0021146191
0.003414375 0.04439386 -0.012640833 0.67354465 0.61524016 -0.409655 0.0029919972
0.0049958164 0.042722993 -0.012559356 0.71101928 0.55249691 -0.43496972 0.004771187
-0.02674091 0.046689175 -0.012011974 -0.75984919 -0.3001779 -0.57664758 0.0033024917
-0.025197877 0.045808252 -0.013388768 -0.69722271 -0.24247825 -0.67459965 0.0037582063
0.0023951125 0.045983639 -0.012243411 0.67688632 0.58948463 -0.44083193 0.002328462
0.0038786989 0.044447519 -0.012116193 0.70968759 0.56895047 -0.41549832 0.003768509
-0.027061269 0.049085334 -0.012494376 -0.7090826 -0.19161087 -0.67859203 0.0046179751
-0.02546034 0.048750028 -0.013994286 -0.61585498 -0.11167262 -0.77990508 0.0030611404
-0.0006013012 0.04913402 -0.012643694 0.66780698 0.60366517 -0.43545631 0.0025113951
0.00080198876 0.047849953 -0.011952559 0.67217642 0.59364551 -0.44245204 0.0028437737
-0.027423343 0.051953942 -0.01263343 -0.64229894 -0.063669287 -0.76380521 0.0065653464
-0.025438711 0.05195595 -0.014148322 -0.54617953 0.018449193 -0.83746493 0.0033836975
-0.0037596365 0.052142955 -0.013360636 0.59356338 0.62316263 -0.50926501 0.0046258969
-0.0018920992 0.050712138 -0.011822133 0.65956652 0.61545044 -0.43150064 0.0028199495
-0.027426707 0.054911159 -0.012644233 -0.55553591 0.080714181 -0.82756585 0.0036655506
-0.025030691 0.055011924 -0.013957692 -0.47365507 0.13873221 -0.86971498 0.0024872927
-0.023212992 0.056134351 -0.014511465 -0.24684778 0.25260708 -0.93555105 0.0037958727
-0.0086827651 0.055994011 -0.014414707 0.4742749 0.67094058 -0.57000184 0.017677868
-0.007157607 0.055107206 -0.014172057 0.56985819 0.62157428 -0.5375008 0.012160012
-0.0051274132 0.053967141 -0.011642857 0.61865693 0.65177548 -0.43869382 0.0031793748
-0.027305542 0.057781041 -0.012203174 -0.49967396 0.20604959 -0.84134984 0.0027357358
-0.024891205 0.057898361 -0.013338124 -0.35563761 0.27817684 -0.89226651 0.0034404562
-0.022205086 0.058068544 -0.014135386 -0.25172713 0.33075342 -0.90952498 0.0023835364
-0.019338854 0.058654029 -0.014390798 -0.064639404 0.43598649 -0.89762884 0.0015733382
-0.015624803 0.058737885 -0.014387934 0.056987092 0.48252243 -0.87402773 0.0021916335
-0.01272375 0.05847973 -0.01413901 0.17706983 0.51272023 -0.84009773 0.0016285521
-0.010217258 0.057700247 -0.013726389 0.41308498 0.68015248 -0.60560173 0.01085997
-0.026783492 0.060086057 -0.011829412 -0.40636274 0.34930044 -0.84430957 0.0027012301
-0.024853777 0.060676947 -0.012290965 -0.28635895 0.36964241 -0.88394743 0.002793337
-0.021916969 0.060704555 -0.013019467 -0.16236347 0.44130993 -0.88254392 0.0022410199
-0.01890723 0.060656745 -0.013360635 -0.039547659 0.48565584 -0.87325501 0.0018603778
-0.015955387 0.060649361 -0.013214733 0.11789972 0.5820691 -0.80454654 0.006579211
-0.013255292 0.06005308 -0.012941212 0.34896809 0.71037978 -0.61121345 0.0092069022
-0.024068303 0.062510647 -0.011668085 -0.25873047 0.46440992 -0.84698403 0.0024668705
-0.021868717 0.062685505 -0.011933589 -0.096142493 0.55152166 -0.82860154 0.0054213866
-0.019057749 0.062741041 -0.012040999 0.072339967 0.64578611 -0.76008368 0.0074274857
-0.016895052 0.062468059 -0.011963228 0.28400028 0.72031832 -0.6328392 0.0095506189
0.011809983 -0.015677895 -0.0086512556 -0.099008277 -0.40490568 -0.90898234 0.0013630821
0.013436869 -0.015675936 -0.0087031266 0.10622147 -0.39004198 -0.91464984 0.0019909763
0.0062265215 -0.012884608 -0.0087120524 -0.42059484 -0.39460608 -0.81693697 0.0034641866
0.0083804131 -0.013671399 -0.0090427194 -0.22258435 -0.38803756 -0.89436179 0.0021044665
0.011097021 -0.014028168 -0.0093010673 -0.082987539 -0.37130547 -0.92479473 0.0015664052
0.014046935 -0.013981509 -0.00930495 0.11722358 -0.35327685 -0.92814547 0.0016434296
0.016685754 -0.013702958 -0.0089083631 0.27364036 -0.33262876 -0.90248489 0.0020955424
0.0034351607 -0.009626857 -0.0087809553 -0.56645113 -0.38372463 -0.72930688 0.0028599699
0.0052291681 -0.010794303 -0.0092021693 -0.40755892 -0.3745791 -0.83281827 0.0032315357
0.0080654882 -0.011221164 -0.010023162 -0.23487602 -0.37537917 -0.89661801 0.0025125935
0.011069451 -0.011208263 -0.010492172 -0.043621078 -0.37231088 -0.92708236 0.0016414559
0.014084352 -0.011211314 -0.010378843 0.12106286 -0.35093927 -0.9285394 0.0014988889
0.017121898 -0.011230136 -0.009693251 0.29201847 -0.30848709 -0.90529597 0.0016078543
0.019378137 -0.010551318 -0.0090127736 0.40618095 -0.29158348 -0.86602318 0.00065004884
0.002805037 -0.0077341432 -0.0092688045 -0.5687139 -0.37869397 -0.73017496 0.0029097414
0.0050962055 -0.0080525344 -0.0104133 -0.35856053 -0.38337919 -0.85114908 0.0018997967
0.0078634582 -0.0085944254 -0.011091921 -0.21098219 -0.38456878 -0.89866203 0.0015311503
0.011050372 -0.0091045024 -0.011317248 -0.030622473 -0.37285626 -0.92738366 0.0017586491
0.014333577 -0.0086444961 -0.01121552 0.15342638 -0.32375401 -0.93361861 0.0019595309
0.017084915 -0.008193111 -0.010688547 0.29892215 -0.2870608 -0.91007775 0.0015335401
0.019913837 -0.0079844221 -0.0095326677 0.43654755 -0.25397378 -0.86308956 0.00069245702
0.021690307 -0.0071852459 -0.0087745478 0.52912748 -0.22907127 -0.81703758 0.0013500018
0.00017962983 -0.0042778244 -0.0088292351 -0.66949397 -0.38012886 -0.63818479 0.00093071104
0.002105369 -0.0051455824 -0.010054114 -0.55735862 -0.39291504 -0.73141581 0.0049250023
0.0045008757 -0.0057152528 -0.011226675 -0.35987592 -0.38890231 -0.84808272 0.0022631178
0.017472757 -0.0056626238 -0.011305831 0.3122851 -0.27758452 -0.90852898 0.0013671104
0.019880865 -0.0051885666 -0.010289742 0.44968235 -0.22554894 -0.86424154 0.0011363351
0.021998083 -0.0051366184 -0.0090602525 0.58692557 -0.1800133 -0.78937542 0.0023959524
-0.00047674705 -0.0018709456 -0.0096406741 -0.67201942 -0.40103969 -0.62254089 0.0037271359
0.0013792522 -0.0025961911 -0.010918641 -0.55871087 -0.39781401 -0.72772676 0.0047436482
0.020265946 -0.0022433554 -0.010847796 0.49932325 -0.18992084 -0.84534395 0.0018456305
0.022512563 -0.0021640467 -0.0093357759 0.63533616 -0.13789548 -0.75982422 0.0032063546
-0.0027934592 0.0016272394 -0.009194999 -0.74396086 -0.40952736 -0.52802426 0.0015468843
-0.00124238 0.00062191626 -0.010392783 -0.70045251 -0.40957838 -0.58447576 0.0015906619
0.020913165 0.00074384594 -0.011010177 0.55314064 -0.11582826 -0.82499659 0.002895795
0.022697486 0.00083719566 -0.0095715839 0.7048009 -0.06614881 -0.7063145 0.0038625943
-0.0034786249 0.0039996831 -0.010058064 -0.73392022 -0.41728777 -0.53594029 0.0024048905
-0.0019431468 0.0028252183 -0.011149853 -0.63001424 -0.45801878 -0.62713701 0.0053708553
0.021181764 0.0037499932 -0.011198949 0.68232292 -0.05441672 -0.72902274 0.0030324773
0.022693774 0.0038542578 -0.009647863 0.76714492 0.0014872287 -0.64147204 0.0027568773
-0.0059733121 0.0076879314 -0.0093706315 -0.7766549 -0.45746326 -0.43305266 0.0022650661
-0.0047183218 0.0066515817 -0.010475584 -0.75611311 -0.43437618 -0.48950011 0.002239676
0.021227663 0.0068487749 -0.011206194 0.7335521 0.027950285 -0.67905825 0.0027985466
0.022549834 0.0067770798 -0.0097389799 0.77171701 0.077046283 -0.63128185 0.0024621799
-0.0068140896 0.010024196 -0.01018304 -0.78839457 -0.44745135 -0.42216265 0.0038765203
-0.0053651812 0.0084675346 -0.011193781 -0.76993233 -0.43884909 -0.4632664 0.0032201861
0.021086458 0.010015 -0.010931595 0.77426821 0.093389049 -0.62592912 0.0023832051
0.022326425 0.0097479671 -0.0094396276 0.7997908 0.14114086 -0.58345002 0.0018767857
-0.0088897292 0.013387017 -0.0099045495 -0.80060959 -0.45774093 -0.38664913 0.0021027003
-0.0078926291 0.012384573 -0.010751525 -0.79406893 -0.45976815 -0.39757735 0.0019182198
0.020785475 0.01287318 -0.010769333 0.79942071 0.1415363 -0.58386129 0.0018298669
0.02180909 0.012993807 -0.0092631569 0.82259268 0.17663085 -0.54050243 0.0013737408
-0.010159628 0.015922662 -0.010325743 -0.78710043 -0.47702253 -0.39105302 0.0016481725
0.020352479 0.016010247 -0.010314162 0.80272245 0.22622362 -0.5517785 0.0012947603
0.021562541 0.015015228 -0.0090164132 0.82980311 0.26488361 -0.49118584 0.0019702485
-0.012245221 0.019291788 -0.010070851 -0.82549423 -0.47783351 -0.30039027 0.002202353
-0.011273981 0.018080812 -0.010779499 -0.80011034 -0.47934434 -0.36062786 0.0019231025
0.018211912 0.019787438 -0.011444761 0.77357244 0.27360582 -0.57159907 0.00057795818
0.019443495 0.018832959 -0.010173023 0.807827 0.27951398 -0.51892906 0.00059179543
-0.014671689 0.023116633 -0.0096463254 -0.82622308 -0.47920769 -0.29616773 0.0019561166
-0.013588637 0.021691602 -0.010302227 -0.82068425 -0.48585123 -0.3007091 0.0019453226
0.017832529 0.022230387 -0.010723287 0.80283701 0.31962636 -0.503281 0.00079903391
0.018909553 0.021501239 -0.0094764195 0.81885749 0.32400864 -0.47380468 0.001087606
-0.015551355 0.024838332 -0.010118583 -0.80758417 -0.50310802 -0.30771777 0.0018346305
0.015435337 0.026021607 -0.011541962 0.77473557 0.38530642 -0.50132203 0.0001784068
0.016930966 0.024889816 -0.010236179 0.79892862 0.37970927 -0.46640527 0.00065028766
-0.018063871 0.028823409 -0.0099108312 -0.81199533 -0.49388927 -0.31102565 0.0019270867
-0.017012436 0.027375679 -0.010401089 -0.81055599 -0.49866575 -0.30713427 0.0018423895
0.014948805 0.028205927 -0.010717522 0.78007638 0.39908752 -0.48188174 0.0007029103
0.016228825 0.027282964 -0.0094200857 0.79194725 0.40165094 -0.45988703 0.0011253804
-0.019211153 0.03090734 -0.010307827 -0.81041253 -0.4852927 -0.32821104 0.0017559589
0.013812635 0.030895926 -0.010332411 0.78495967 0.4062905 -0.46772477 0.00098685629
0.015532122 0.029449992 -0.0086430898 0.80213612 0.4307161 -0.41359559 0.0029777756
-0.021248575 0.034230795 -0.010197842 -0.82041764 -0.47589496 -0.31692109 0.0015862206
-0.020018572 0.032682855 -0.011038382 -0.82118833 -0.48416704 -0.3020463 0.0015546147
0.011728441 0.034250896 -0.010713462 0.76707041 0.43871292 -0.46811736 0.0015696093
0.012975059 0.033312235 -0.0095262388 0.78687078 0.42941356 -0.44321376 0.0016414907
-0.023666158 0.037768796 -0.0092857368 -0.84884214 -0.46012858 -0.26028594 0.0017209628
-0.022683393 0.036904741 -0.010511741 -0.82031471 -0.45240739 -0.34987316 0.0024564383
0.0092786429 0.037904419 -0.011291096 0.73624617 0.46079683 -0.49558839 0.001269456
0.010685142 0.036794629 -0.01010314 0.7609551 0.43530235 -0.48110208 0.0013186625
-0.024588261 0.04001217 -0.010149687 -0.81689513 -0.46018872 -0.34771925 0.0023259236
-0.023397334 0.03875275 -0.011282056 -0.79674017 -0.4629651 -0.38841787 0.0027919186
0.0084185386 0.040031262 -0.010407668 0.73993772 0.49356717 -0.45703793 0.0012629948
0.009938743 0.038941942 -0.0091566285 0.75719255 0.47629878 -0.44698876 0.0015390639
-0.026937416 0.043882649 -0.0094660213 -0.82564843 -0.43145111 -0.36353076 0.0021826227
-0.025790228 0.042637028 -0.010484915 -0.81796831 -0.43454441 -0.37696019 0.0017833692
0.005777949 0.043465238 -0.010787114 0.70010179 0.53911436 -0.46820208 0.0010019132
0.0071792942 0.042482477 -0.009692613 0.72909284 0.52135825 -0.44340634 0.0008986193
-0.02757052 0.045909088 -0.010128801 -0.82749581 -0.35621545 -0.43400607 0.0035637268
-0.02615778 0.044510432 -0.011501371 -0.77642429 -0.35596848 -0.52004981 0.007141151
0.0029037357 0.046780895 -0.010802059 0.65545446 0.59324896 -0.46737045 0.00095815602
0.0047049019 0.04547742 -0.0099881999 0.67130309 0.58430749 -0.4560011 0.00093860645
-0.029710067 0.049777023 -0.0092197694 -0.80956227 -0.35469338 -0.4677622 0.0028562215
-0.02851966 0.048693705 -0.010413244 -0.79917032 -0.25840273 -0.54272902 0.0037720101
-0.00012405682 0.049808174 -0.010979557 0.6243822 0.6127032 -0.4845016 0.00088348717
0.001674909 0.04880023 -0.0099817887 0.66785151 0.58719885 -0.45735317 0.00072324194
-0.03026347 0.052041933 -0.009523442 -0.78865278 -0.22610447 -0.57175487 0.0043214215
-0.02904872 0.05187105 -0.011058397 -0.75871837 -0.1427018 -0.63559622 0.0041390131
-0.0031130374 0.052784376 -0.010920989 0.60932153 0.63575768 -0.47385579 0.0023968522
-0.0011479892 0.051678576 -0.010027166 0.62275046 0.61769825 -0.48024017 0.00084453076
0.00064465601 0.0508307 -0.0088176122 0.64313197 0.62317026 -0.44501704 0.0019946082
-0.030624641 0.054987822 -0.0097501893 -0.75825953 -0.086010657 -0.6462543 0.0065586674
-0.029177681 0.054937322 -0.011278383 -0.68580288 0.0010162754 -0.7277866 0.0037572605
-0.006293694 0.055669829 -0.010977121 0.6207189 0.65738028 -0.42726949 0.0032830827
-0.0041773128 0.054725345 -0.0099501396 0.60171139 0.62831867 -0.49311167 0.0012270585
-0.0021446713 0.053605042 -0.0089476099 0.60494161 0.62313151 -0.49573457 0.0010130664
-0.030854415 0.057933599 -0.0096107647 -0.66688454 0.077606477 -0.74110883 0.005525684
-0.028842643 0.058080748 -0.011112066 -0.6004054 0.13970399 -0.78739828 0.0026569143
-0.0090814736 0.058511045 -0.010495257 0.57740563 0.67779505 -0.45518857 0.001437076
-0.0072407662 0.057545055 -0.0098400312 0.56187862 0.64509845 -0.51782268 0.00062088738
-0.0051680524 0.056639813 -0.0088487556 0.58021098 0.63882953 -0.5052247 0.00064686686
-0.030434659 0.06080338 -0.0094360979 -0.57687575 0.21748057 -0.78734773 0.0038111187
-0.028096495 0.061004575 -0.010784339 -0.40970436 0.32944101 -0.85065329 0.0024354924
-0.025817502 0.061971262 -0.011401675 -0.25271738 0.44521147 -0.85902309 0.0024764375
-0.014626098 0.062159933 -0.010891317 0.33664289 0.7619493 -0.55326742 0.0030163745
-0.012855924 0.061543748 -0.010054277 0.44087684 0.73163337 -0.51994264 0.0022929518
-0.01034742 0.060214732 -0.0096356766 0.5170216 0.69951725 -0.49331972 0.00039040085
-0.029948626 0.063233256 -0.0089172861 -0.47334737 0.34132972 -0.81205684 0.0028410093
-0.027869102 0.063933641 -0.0096245985 -0.33273652 0.45001358 -0.82871836 0.0022156523
-0.02511289 0.063893676 -0.010585754 -0.17145963 0.5309335 -0.82988632 0.0026641963
-0.022078279 0.064200878 -0.010907585 -0.01460006 0.61013395 -0.79216373 0.003936192
-0.01893341 0.064367808 -0.010312448 0.15923582 0.72771877 -0.66713518 0.0055215764
-0.016154557 0.063488699 -0.010008206 0.34249988 0.74432331 -0.57330328 0.0023617351
-0.013673408 0.062899582 -0.008973198 0.450001 0.7271359 -0.51843274 0.00062727765
-0.027140785 0.065825336 -0.0088395169 -0.27364317 0.53116477 -0.80186248 0.003186458
-0.024789283 0.06607388 -0.0091788676 -0.109952 0.63206917 -0.76707178 0.0047243419
-0.022023611 0.066010587 -0.0093063023 0.068572596 0.70255721 -0.70831567 0.0060356525
-0.019803971 0.065670542 -0.0090947933 0.24733219 0.7438671 -0.62087721 0.0028994239
0.011411894 -0.02202874 -0.0058130976 -0.097835451 -0.42215618 -0.90122825 0.003309421
0.013988119 -0.02210756 -0.0057988777 0.089036427 -0.41799891 -0.90407377 0.0034261853
0.015629698 -0.021877386 -0.0057205847 0.15873376 -0.39590079 -0.90447009 0.0028093271
0.0062608668 -0.019062884 -0.0058130017 -0.43607777 -0.39516881 -0.80850339 0.0015100836
0.0082615707 -0.019899305 -0.006173138 -0.26542437 -0.39954585 -0.87744683 0.0019634559
0.010996388 -0.020244732 -0.0065706796 -0.11643812 -0.40503353 -0.90685725 0.0017658164
0.013962284 -0.020193126 -0.0066719707 0.090478934 -0.39816421 -0.91284108 0.0025486965
0.01681073 -0.020008381 -0.0062146881 0.24219783 -0.38643247 -0.88994956 0.0010084887
0.019258104 -0.019182388 -0.0057602888 0.34872088 -0.36446467 -0.86345774 0.00092065783
0.0034520235 -0.015791051 -0.0056495359 -0.56555557 -0.37012717 -0.73698896 0.0012529287
0.0053486843 -0.016881008 -0.0063652587 -0.46394974 -0.37256491 -0.80370766 0.0026435123
0.0081076976 -0.017125629 -0.0074026166 -0.24525167 -0.3972328 -0.88434035 0.0019534361
0.011074795 -0.017210953 -0.0079414519 -0.11053628 -0.40831763 -0.90612274 0.0010144551
0.013972817 -0.017249297 -0.0079710539 0.10239601 -0.4022665 -0.90977836 0.0020292129
0.016972587 -0.017124105 -0.0074387575 0.24586463 -0.3746261 -0.89398319 0.001298993
0.019973526 -0.017071676 -0.0063704681 0.36854574 -0.32938522 -0.86929816 0.00052539178
0.021980045 -0.016251717 -0.0058534858 0.45664033 -0.32310522 -0.82890445 0.0026600435
0.0029514888 -0.013809939 -0.0062438222 -0.60273552 -0.35564643 -0.71430075 0.0012248377
0.0050404714 -0.014121969 -0.0075187818 -0.44108531 -0.38281456 -0.8117246 0.0027576757
0.0074951672 -0.014793715 -0.0082876459 -0.2711038 -0.40538356 -0.87302172 0.0022567387
0.017611768 -0.01464535 -0.0082516642 0.27009544 -0.35089433 -0.89661682 0.0022219256
0.020004664 -0.014090863 -0.0074496772 0.38091552 -0.30671659 -0.87225473 0.0009773412
0.022500696 -0.014003295 -0.0063118916 0.50785786 -0.26254421 -0.82045776 0.0027077137
0.0022525582 -0.010975908 -0.0070480756 -0.64026934 -0.37729287 -0.66910779 0.0039475881
0.0043695751 -0.011969316 -0.0081988238 -0.42059663 -0.39460334 -0.81693745 0.0034666494
0.020483071 -0.01146361 -0.00812109 0.41403243 -0.2834838 -0.86499369 0.0011447113
0.022939892 -0.011010482 -0.0069169849 0.53934574 -0.2293541 -0.81024861 0.0032712261
0.024765875 -0.010403044 -0.0056726625 0.75229865 -0.15935613 -0.63925922 0.0033943986
-8.1008126e-05 -0.0077718953 -0.0063334829 -0.73608494 -0.34398139 -0.58297145 0.0023066879
0.0013422372 -0.008253891 -0.0077081425 -0.695171 -0.38445923 -0.60739475 0.0024146205
0.023165848 -0.008108912 -0.0075837523 0.57408983 -0.19933008 -0.79415894 0.0028886874
0.02504899 -0.0078873932 -0.0060003349 0.7572841 -0.13780367 -0.63838142 0.0037777799
-0.00075913314 -0.0051104426 -0.0070520774 -0.78758228 -0.36857405 -0.49382922 0.001669524
0.00064400217 -0.0061476445 -0.0082105091 -0.70451397 -0.39132094 -0.59205413 0.0029867222
0.023673469 -0.0052688979 -0.0077688228 0.62698209 -0.13217579 -0.76773888 0.0030969188
0.025225302 -0.005117883 -0.0061620604 0.75852692 -0.081818938 -0.64648479 0.0048207999
-0.002806541 -0.0015580063 -0.0064540608 -0.82330948 -0.36680064 -0.43314987 0.0018659252
-0.0016336227 -0.0025495505 -0.0076645939 -0.78858298 -0.37537852 -0.48706049 0.0012420961
0.024022499 -0.0023463215 -0.0079211835 0.76135564 -0.083660714 -0.642914 0.0041206535
0.025170099 -0.002092205 -0.0065094568 0.81074786 -0.032849934 -0.58447307 0.0031552229
-0.0034549325 0.00078653079 -0.0072268737 -0.82040972 -0.38811454 -0.41987497 0.002078322
0.024176598 0.00083819637 -0.0079417042 0.80626988 -0.00634071 -0.59151387 0.0028127797
0.025191346 0.00083917752 -0.0064510643 0.84630501 0.035588842 -0.53150839 0.0026367998
-0.0059086299 0.0050499379 -0.0061826399 -0.85004073 -0.44056958 -0.28866795 0.0034821657
-0.0048323795 0.0037157154 -0.0073573124 -0.83516616 -0.41928735 -0.35594326 0.0015896212
0.024189448 0.0038692025 -0.0077019045 0.84278947 0.052904587 -0.5356369 0.002503603
0.025072016 0.0036199063 -0.0062576653 0.86730772 0.093332447 -0.4889442 0.0020900141
-0.0064364597 0.0069058808 -0.0072356923 -0.86056763 -0.40934622 -0.30308264 0.0020589861
-0.0054072826 0.0057256608 -0.0084016016 -0.81337881 -0.433512 -0.38792044 0.00054087176
0.024025714 0.0070192115 -0.0074984813 0.86013836 0.11084661 -0.49787053 0.0017523445
0.024994679 0.0059910654 -0.0057707122 0.9248547 0.14709039 -0.3507252 0.0020285582
-0.008702524 0.011117952 -0.0067768535 -0.85877877 -0.43909585 -0.26399589 0.0012191667
-0.0076595992 0.0095140338 -0.0075381659 -0.85357797 -0.44239321 -0.27512327 0.0010267367
0.023586255 0.0099150129 -0.0072758175 0.88549501 0.18738841 -0.42518717 0.002715409
0.024532629 0.0090374146 -0.0056540659 0.91037083 0.20247427 -0.36087269 0.0029544965
-0.0094654113 0.012890455 -0.0074348571 -0.85533565 -0.45353511 -0.2504136 0.0010610083
0.022904435 0.012917303 -0.0071889097 0.88707733 0.22436199 -0.40342966 0.003064963
-0.011752108 0.016740806 -0.0063679507 -0.8534326 -0.47139251 -0.22235531 0.00049678574
-0.010779076 0.015446212 -0.0077272449 -0.85138118 -0.47193348 -0.22897354 0.00052474526
0.021132367 0.017368339 -0.0082679382 0.83077824 0.36428308 -0.42083892 0.0029282332
0.022109643 0.015771693 -0.0073268651 0.88760835 0.27599737 -0.36875054 0.0020653654
-0.012655457 0.01868603 -0.007369156 -0.84497875 -0.48697659 -0.22105336 0.00021860468
0.02078847 0.019138917 -0.0074581169 0.86680293 0.35875648 -0.34633282 0.0015216839
0.021684349 0.01790709 -0.0064459932 0.89088255 0.33501384 -0.3067475 0.00085717149
-0.014920808 0.02254954 -0.0070961011 -0.84020859 -0.49982572 -0.21029422 6.3770894e-05
-0.014152545 0.021162171 -0.0068141413 -0.8393957 -0.49616238 -0.22189593 0.0001066612
0.019772166 0.021727525 -0.0074238982 0.86014926 0.35007006 -0.37093699 0.001351586
-0.01635121 0.024975508 -0.0071297158 -0.82651103 -0.50445861 -0.2498019 0.00092915411
0.018081987 0.025509566 -0.0073939776 0.86075437 0.41647488 -0.29266107 0.0021752988
0.019019332 0.024043702 -0.0068209856 0.85377467 0.41642842 -0.3125 0.0026817827
-0.018127104 0.027872588 -0.0070938878 -0.83413893 -0.51127243 -0.20691237 3.9220427e-05
0.016819203 0.027979862 -0.0073686731 0.83867675 0.4216868 -0.34467596 0.0017336172
-0.020807095 0.032314591 -0.0076442352 -0.8360194 -0.50963724 -0.20332614 0.00031381272
-0.019805044 0.030693945 -0.0074781617 -0.83775532 -0.50616527 -0.20484832 0.0002425937
0.014767642 0.031717993 -0.0076058665 0.82734376 0.45648885 -0.32729226 0.0025240977
0.015772812 0.030211717 -0.0070317257 0.83622187 0.42637587 -0.34487179 0.0015444866
-0.021829968 0.033964455 -0.0074107838 -0.8348915 -0.50733274 -0.21347031 0.00046897959
0.01371777 0.033927832 -0.0070604589 0.82686317 0.47161549 -0.30639204 0.0025064431
-0.023864791 0.037249476 -0.0071782684 -0.84556061 -0.49666753 -0.19582796 0.00072551909
-0.022960424 0.036011372 -0.0080549708 -0.8468709 -0.48687756 -0.21391596 0.00095893181
0.011838992 0.036990643 -0.0074940138 0.8287732 0.46548837 -0.31057298 0.0018582992
0.012799408 0.035908327 -0.0064621856 0.83692205 0.4572711 -0.30077338 0.0019257548
-0.026488198 0.041300394 -0.0063015213 -0.84395915 -0.48731142 -0.22418843 0.0015151134
-0.025244689 0.03966989 -0.0075197509 -0.84387267 -0.48665211 -0.2259396 0.0014971087
0.0093422374 0.040680666 -0.0079441462 0.78713161 0.52313662 -0.32672909 0.0020209996
0.010451957 0.039582349 -0.0069159162 0.79998195 0.52440846 -0.29158989 0.0019949905
-0.027363028 0.043235675 -0.0072281584 -0.85218161 -0.45208395 -0.26345119 0.0013659594
-0.026382055 0.041842535 -0.0079718819 -0.85702527 -0.44455156 -0.26054075 0.0028862678
0.0079819504 0.042981103 -0.0073772524 0.77598917 0.5478192 -0.31262586 0.002238581
-0.029773187 0.047163248 -0.0061514964 -0.88226098 -0.38946843 -0.26444271 0.0042413729
-0.028760834 0.045877144 -0.0072609773 -0.85465568 -0.46116596 -0.23851532 0.0018073415
0.0054152813 0.046456091 -0.0071850177 0.72680324 0.61197495 -0.31183931 0.0027276189
0.0068754307 0.045017455 -0.0065490096 0.752949 0.59292012 -0.28550568 0.0018225793
-0.030341562 0.048965063 -0.0070784423 -0.86437994 -0.36022159 -0.35083881 0.0016805837
-0.029138004 0.047605462 -0.0085407486 -0.83898199 -0.39999282 -0.36893767 0.0022768739
0.0028828136 0.049220785 -0.0074209534 0.71139628 0.6223219 -0.32654375 0.0025403642
0.0040285904 0.048124798 -0.0069924584 0.70341665 0.62948275 -0.33008561 0.0023160551
-0.032618161 0.053070746 -0.0056686988 -0.86054051 -0.3537167 -0.36654413 0.0020559849
-0.031415813 0.051903974 -0.0073770117 -0.85729069 -0.28384492 -0.429517 0.003495231
-0.00042233011 0.052700009 -0.0076381895 0.66320729 0.62856615 -0.40627667 0.0024390365
0.0012433073 0.051144391 -0.0072676744 0.6694805 0.62951708 -0.3943401 0.0014829659
-0.032899581 0.055027325 -0.0065642712 -0.85209936 -0.2354334 -0.46743742 0.0028819488
-0.031969164 0.05488215 -0.0080321096 -0.83376116 -0.17040777 -0.52517003 0.0042030285
-0.0031409103 0.055608518 -0.0074105584 0.6549502 0.65049148 -0.38457891 0.0026787759
-0.001506587 0.054301254 -0.0067030718 0.65967792 0.65242153 -0.37305644 0.0015868437
-0.033390861 0.058059301 -0.0067003798 -0.8175838 -0.11008926 -0.56518769 0.0061285677
-0.032283403 0.057797145 -0.0081853494 -0.77755708 -0.016599134 -0.62859321 0.0048768921
-0.0066309618 0.058759652 -0.007607027 0.5879094 0.68908799 -0.42369846 0.0023959999
-0.0046908422 0.057406846 -0.0068415296 0.62059015 0.65279377 -0.43442845 0.0021665657
-0.033541441 0.061086174 -0.0066117207 -0.74091524 0.04403995 -0.67015308 0.0095166266
-0.032075677 0.060990904 -0.0080450764 -0.67148036 0.13715746 -0.72821838 0.0038609244
-0.0098411804 0.061484102 -0.0073722801 0.53321576 0.73431093 -0.42008144 0.0020225842
-0.0075070113 0.060045697 -0.0068051443 0.56627637 0.70410222 -0.42845204 0.0018985088
-0.033329159 0.063813746 -0.0063983146 -0.61490268 0.1920228 -0.76486725 0.0058473824
-0.031084616 0.064060859 -0.0078653274 -0.53188813 0.27174851 -0.80202729 0.0035213747
-0.029150316 0.06531506 -0.0083648553 -0.31762782 0.49292079 -0.81002581 0.0031047959
-0.017512949 0.065318905 -0.0083392253 0.36084723 0.77457261 -0.51944834 0.0011261927
-0.015575934 0.06473951 -0.0078518447 0.37551394 0.77225518 -0.51245606 0.0010327888
-0.012939893 0.063718721 -0.0071528414 0.48053253 0.75989187 -0.43778172 0.0010849243
-0.010819707 0.06282647 -0.0062380871 0.51668143 0.74056304 -0.42965883 0.0018920482
-0.032891124 0.066207461 -0.0059231101 -0.47902036 0.35647431 -0.802163 0.0032925897
-0.030901559 0.066730104 -0.006720786 -0.38307953 0.44671389 -0.80851513 0.00614643
-0.028085178 0.067125902 -0.0075932047 -0.20209008 0.59543008 -0.77757484 0.0031886625
-0.025100155 0.067660972 -0.0077278214 -0.024090055 0.72044718 -0.69309127 0.0034286659
-0.021979574 0.067541331 -0.0075186184 0.16559549 0.77805865 -0.60597271 0.0045097829
-0.019034592 0.066771463 -0.00724677 0.29126075 0.78274482 -0.54997981 0.0011078907
-0.016323859 0.06594725 -0.00664136 0.39589754 0.78220725 -0.48105815 0.0017474499
-0.030147476 0.068621673 -0.0058275675 -0.31215498 0.58207101 -0.75083464 0.0048614903
-0.027985454 0.069014102 -0.0060619204 -0.1506646 0.68629611 -0.71154612 0.00573368
-0.025089532 0.069105819 -0.0062225899 0.029220685 0.75163245 -0.65893453 0.0040196883
-0.022056798 0.068701051 -0.0060678064 0.21972823 0.79300714 -0.56820703 0.0027469844
0.00912832 -0.027695812 -0.0026599756 -0.28816721 -0.42871886 -0.85624748 0.0024473004
0.011275149 -0.028035082 -0.0028834296 -0.11628968 -0.44103917 -0.88992196 0.0031258394
0.013837846 -0.028005905 -0.002913465 0.085974768 -0.44500521 -0.89139146 0.0016167291
0.015966201 -0.027692862 -0.0027056923 0.19346443 -0.43754598 -0.87813729 0.00048087232
0.0061393189 -0.025014613 -0.0028027883 -0.42926919 -0.41507789 -0.80214602 0.0015445353
0.0081121121 -0.025835905 -0.0032652954 -0.29395565 -0.41309467 -0.86194134 0.0025132729
0.010987513 -0.025972255 -0.0038663629 -0.10178345 -0.41771114 -0.90286076 0.0014476543
0.014044117 -0.025969554 -0.0039111366 0.089014657 -0.44393563 -0.8916263 0.0014193589
0.016852209 -0.025968913 -0.0033677595 0.19541775 -0.42799139 -0.88240308 0.00033424288
0.019387098 -0.025449272 -0.0029851536 0.29917324 -0.41092977 -0.8611806 0.0022518924
0.0034682457 -0.022036828 -0.0026370874 -0.57436121 -0.35491222 -0.73766291 0.0019076163
0.0053313365 -0.023006734 -0.0033595182 -0.46979621 -0.3956176 -0.78916299 0.0024574562
0.0079194074 -0.023113977 -0.0045276093 -0.28413233 -0.41690442 -0.86339998 0.0018984128
0.010831878 -0.023359932 -0.0050961575 -0.12489144 -0.43388605 -0.89226961 0.0020627154
0.014008686 -0.0235512 -0.0051051644 0.067283578 -0.45505026 -0.88792014 0.0017723918
0.017107937 -0.023134433 -0.0046771667 0.20836252 -0.42767009 -0.87959272 0.00039861965
0.020164287 -0.023154322 -0.0037853469 0.33385903 -0.38701281 -0.85951108 0.0019060306
0.022315383 -0.022703025 -0.0030770819 0.47112623 -0.37578297 -0.79801458 0.002787367
0.0029687225 -0.019773215 -0.0032731788 -0.60372102 -0.3389073 -0.72156966 0.002510346
0.0050223889 -0.020154778 -0.0045851627 -0.44368747 -0.40431687 -0.79979324 0.0013121101
0.0072043994 -0.02096108 -0.0053107701 -0.29492977 -0.39959976 -0.86794955 0.0026701787
0.017926998 -0.02113416 -0.0053634336 0.24758784 -0.36772153 -0.89637107 0.0009485851
0.020264426 -0.020302352 -0.0049653798 0.3223334 -0.37639478 -0.86857826 0.00074639876
0.0229287 -0.020037465 -0.0037849157 0.54081553 -0.30980957 -0.78200799 0.0030976129
0.024682604 -0.018960394 -0.0028690686 0.6247685 -0.27912122 -0.72921586 0.0036323641
0.0023825965 -0.016958185 -0.0040663127 -0.64943367 -0.34340593 -0.6784603 0.0026103484
0.0041906275 -0.017679982 -0.0052940794 -0.56450051 -0.36306286 -0.74129927 0.0013834034
0.021263242 -0.018142305 -0.0054419627 0.45049366 -0.34027401 -0.82539028 0.0016889732
0.023155533 -0.017167233 -0.0047888099 0.52872092 -0.29306385 -0.7965976 0.0028728668
0.025034577 -0.016914859 -0.003333969 0.67760718 -0.25098601 -0.69127029 0.0032762333
0.00016738291 -0.013529913 -0.0031436572 -0.78694594 -0.28960806 -0.5448333 0.0028155195
0.0014881429 -0.014392403 -0.004413534 -0.7271921 -0.33763877 -0.59765518 0.0025592668
0.023849111 -0.014492051 -0.0052887104 0.56506097 -0.23676676 -0.7903465 0.0032207931
0.025379637 -0.014163534 -0.0039158226 0.72361988 -0.20957141 -0.65761244 0.003470782
-0.0003255246 -0.010895726 -0.0038852056 -0.81114656 -0.30663353 -0.49801317 0.0030278952
0.00081645657 -0.011766837 -0.0050884886 -0.77578747 -0.33691278 -0.53352004 0.0029705544
0.025686858 -0.011283585 -0.0043102754 0.76061022 -0.16803169 -0.62708652 0.0030884233
-0.001162419 -0.0080888709 -0.0042737811 -0.83651298 -0.32918575 -0.43804431 0.0031155725
0.02625555 -0.008089737 -0.0042264238 0.87086064 -0.070213556 -0.48648924 0.0021374833
-0.0027892513 -0.0043697394 -0.0037143137 -0.87722522 -0.3268829 -0.35160124 0.0018626858
-0.0019422132 -0.0055926917 -0.0046947082 -0.8375662 -0.34464112 -0.42391664 0.0026577832
0.026497345 -0.0050363839 -0.0041033602 0.90255541 -0.0072917654 -0.43051189 0.0018289122
-0.0035120067 -0.0019795685 -0.004267083 -0.88919842 -0.33319122 -0.31354401 0.0017554186
0.026393136 -0.0021209321 -0.004279118 0.90418309 0.019315619 -0.42670819 0.0037097749
-0.0045766989 0.0007456434 -0.0042880941 -0.89784408 -0.36124954 -0.25174361 0.0016480895
0.0262488 0.00084049627 -0.0043318761 0.91386622 0.082646094 -0.39751488 0.0024652458
