# .PCD v0.7 - Point Cloud Data file format
VERSION 0.7
FIELDS x y z normal_x normal_y normal_z curvature
SIZE 4 4 4 4 4 4 4
TYPE F F F F F F F
COUNT 1 1 1 1 1 1 1
WIDTH 554
HEIGHT 1
VIEWPOINT 0 0 0 1 0 0 0
POINTS 554
DATA ascii
-0.0023149941 -0.020597888 -0.0019403389 -0.69475681 0.36275616 -0.62106436 0.0013653304
0.023133654 -0.020906763 -0.00093359279 0.82550031 -0.044112582 -0.56267512 0.00078940031
-0.0032389206 -0.018990396 0.00017068372 -0.7814548 0.31829718 -0.53667063 0.0022824334
-0.001564482 -0.01778421 -0.0012768834 -0.74157733 0.33280668 -0.582497 0.0014676765
0.00020481617 -0.016408715 -0.0024437697 -0.63762999 0.33688992 -0.69277203 0.0032658593
0.023037527 -0.017780244 -0.0011830854 0.78733534 -0.003602647 -0.61651444 0.0023038634
-0.00092585612 -0.015027983 -0.00060557807 -0.7468363 0.29923165 -0.59388208 0.0021907231
0.00064488937 -0.014473295 -0.0019477597 -0.67389911 0.30226132 -0.67416471 0.0016361226
0.022913616 -0.014794967 -0.0012198817 0.76200444 0.025506906 -0.64706922 0.0024800124
-0.0004305706 -0.012224079 5.0303759e-05 -0.69960088 0.25371268 -0.6679734 0.0016554486
0.0013059531 -0.011814046 -0.0014695363 -0.60572982 0.27247745 -0.74756104 0.0012032938
0.022787435 -0.011893265 -0.0011666155 0.73265904 0.060617778 -0.67789102 0.002958677
0.0017729037 -0.0089842631 -0.00084200257 -0.62373441 0.247582 -0.74138957 0.0027991848
0.0038236408 -0.0083137527 -0.0021809405 -0.49844944 0.25760853 -0.82775956 0.0019728791
0.020850128 -0.0083899125 -0.002341205 0.6200906 0.13248348 -0.77326304 0.00086398039
0.022632459 -0.0089452509 -0.00093287393 0.67784792 0.11307479 -0.72645462 0.0023361824
0.0022687998 -0.005938122 -0.00034298981 -0.62980568 0.21266226 -0.74707407 0.0021016926
0.0044872472 -0.0056738257 -0.0018128217 -0.49829543 0.22220363 -0.83804965 0.0012958564
0.020567309 -0.0056791403 -0.0020777506 0.51198751 0.14344585 -0.84693092 0.0032660915
0.022435062 -0.0058524818 -0.00066476327 0.65341461 0.11735417 -0.74784845 0.0024660479
0.0027097068 -0.0031075096 1.3161451e-05 -0.62391245 0.1735266 -0.76198542 0.0019070065
0.0046967533 -0.0029670103 -0.0012644405 -0.47399709 0.19536997 -0.85857868 0.0013746104
0.0067804293 -0.0026644305 -0.0022868982 -0.35943395 0.20580949 -0.91019213 0.0017470289
0.020012543 -0.0028388263 -0.0019085915 0.4803187 0.16300347 -0.86181426 0.0024673352
0.022212235 -0.0030218824 -0.00040619262 0.64272463 0.14115427 -0.75298113 0.0020359235
0.0030500684 -0.00059945218 0.00025768415 -0.62368941 0.13029256 -0.77073681 0.0018689601
0.0047024512 0.0001099396 -0.00064094213 -0.49911225 0.15200575 -0.85310096 0.0021074179
0.0074655982 0.00016466808 -0.0019559697 -0.35013229 0.1796906 -0.91930342 0.0017965848
0.0093581555 0.0011418982 -0.0024055631 -0.17818329 0.18919247 -0.9656381 0.0018984653
0.01740101 0.00083797716 -0.0023851618 0.2488714 0.19546863 -0.94860691 0.0031011538
0.019586623 0.00010692328 -0.0015720305 0.4457005 0.16788946 -0.87929755 0.0020292057
0.02194134 -4.6630157e-05 -0.00010592653 0.6271373 0.14322068 -0.76562828 0.0020614457
0.0048141042 0.0031284057 -0.00022979663 -0.48178542 0.12098315 -0.86789739 0.0019552652
0.0075319335 0.0031803302 -0.0014857294 -0.32116756 0.13514629 -0.93732959 0.0020907265
0.010404262 0.0033164644 -0.0022683856 -0.1580444 0.18074538 -0.97074872 0.0017803351
0.013920574 0.0039455513 -0.0024342989 0.018338259 0.18528642 -0.98251343 0.0023361994
0.016594773 0.0033060326 -0.002171397 0.24461523 0.20105122 -0.94854724 0.003014622
0.019611351 0.0031853891 -0.00099859759 0.47467187 0.16245759 -0.86503994 0.0030981603
0.021681035 0.0029606218 0.00024121092 0.61936939 0.14495525 -0.77160203 0.0018319233
0.0051350836 0.0059934272 -6.2355539e-05 -0.46745142 0.082243152 -0.88018477 0.0019331803
0.0075378506 0.0060235388 -0.0011063234 -0.34037444 0.099788807 -0.93497986 0.0020253914
0.010595703 0.0060100448 -0.0019157953 -0.15713888 0.13090602 -0.97886205 0.0019734467
0.013659613 0.0060062367 -0.0021450263 0.031506006 0.14699484 -0.98863536 0.0023693936
0.016506778 0.006012829 -0.0017511148 0.26500544 0.15902427 -0.95104331 0.0022437181
0.019521084 0.0059780641 -0.00055317767 0.46579385 0.14522743 -0.87289464 0.0033054173
0.0053382916 0.0090230182 2.590986e-05 -0.45014656 0.053531524 -0.89134872 0.0017033991
0.0075420756 0.0091058742 -0.000835691 -0.313124 0.073672205 -0.94685042 0.0017635054
0.010603433 0.0090884008 -0.0015747845 -0.18091835 0.10151893 -0.9782446 0.0031599593
0.013671894 0.0090847546 -0.0017309464 0.050420433 0.14128843 -0.9886837 0.0019300216
0.016524155 0.0090957191 -0.0012707609 0.29749706 0.1342835 -0.94523197 0.0033891192
0.019125223 0.0089901518 -0.00026269211 0.46734622 0.14307043 -0.87242097 0.0028852469
0.0054221237 0.012213534 0.00013945578 -0.43021283 0.026262291 -0.90234542 0.0020502473
0.0075454712 0.012190313 -0.00061867223 -0.28544569 0.052904479 -0.95693362 0.0019282087
0.010610058 0.012170032 -0.0012817112 -0.15177773 0.084365927 -0.98480755 0.0033703696
0.013682839 0.012167636 -0.0013608709 0.12960266 0.11676518 -0.98466694 0.0047359373
0.016541013 0.012184771 -0.00080443174 0.3036139 0.13374224 -0.94336188 0.0030909297
0.01870618 0.012029099 3.8162339e-05 0.48649687 0.15251422 -0.86026758 0.0031100046
0.0054225004 0.015062189 0.00017326651 -0.39715332 -0.0004241523 -0.91775215 0.0020368374
0.0075468412 0.015035836 -0.00053634401 -0.24960127 0.032164916 -0.96781439 0.0017195898
0.010614742 0.015015751 -0.0010782663 -0.11698973 0.069338523 -0.9907096 0.0035599372
0.013692384 0.015017247 -0.0010397045 0.15221107 0.10186812 -0.9830842 0.0039263358
0.016557287 0.015042817 -0.00035369559 0.32291409 0.13702647 -0.93645626 0.0026659875
0.018336374 0.014449289 0.0002862839 0.50942326 0.16864096 -0.84382945 0.0023226589
0.0053400737 0.018250851 0.00018692529 -0.35144532 -0.014646794 -0.93609387 0.0017403474
0.007548199 0.018119307 -0.00045634573 -0.20924446 0.02109736 -0.97763574 0.0019316737
0.010619557 0.018101098 -0.00087131164 -0.0728212 0.06863527 -0.99498057 0.0039742151
0.013702641 0.018108869 -0.00069766084 0.18041968 0.10563766 -0.97790051 0.0034606562
0.016273016 0.017961256 -9.3977433e-06 0.36534801 0.14330433 -0.91977429 0.0031386248
0.0051845624 0.021229213 0.00011984585 -0.3057934 -0.022671785 -0.95182794 0.0017406469
0.0075486582 0.021201145 -0.00043009059 -0.16475663 0.018536963 -0.98616004 0.0022202372
0.010624059 0.021188537 -0.00067813392 0.054144666 0.068055712 -0.99621123 0.0041362913
0.013714415 0.021207737 -0.00030494644 0.23660222 0.13543031 -0.96212161 0.0023367356
0.015707841 0.020918807 0.00023492519 0.41403571 0.15971884 -0.89613861 0.0037026205
0.004979752 0.024116049 9.6022151e-05 -0.25718835 -0.0078614252 -0.96632934 0.0012632189
0.0075493064 0.02404712 -0.00039104442 -0.11545311 0.030920967 -0.99283159 0.0025854355
0.010628861 0.0240428 -0.00046777283 0.094756983 0.080053002 -0.99227643 0.0033983926
0.013591538 0.023969108 5.4371776e-05 0.25079089 0.13277726 -0.95889211 0.0040913336
0.01539827 0.022907907 0.0004424064 0.45861787 0.18905252 -0.86829072 0.0033911134
0.0030510193 0.028368594 0.00043430016 -0.24587019 -0.047982562 -0.96811444 0.0016661215
0.0047097807 0.027160069 0.00010458915 -0.19283791 -0.0071165822 -0.98120481 0.0018356208
0.0075507797 0.027133608 -0.00030659488 -0.060507827 0.048085313 -0.9970088 0.0022170444
0.010635916 0.027142888 -0.00016526529 0.13535424 0.09107621 -0.98660243 0.0025550921
0.012960418 0.026757218 0.00029605837 0.3309032 0.15496638 -0.93085361 0.0040460639
0.0030507843 0.030264981 0.00039067445 -0.183902 -0.031637315 -0.98243529 0.0019977037
0.0047095278 0.030242149 7.1525574e-05 -0.13494453 0.021095121 -0.99062854 0.0020239649
0.0075535551 0.030227598 -0.00013314933 0.034706809 0.059650701 -0.99761581 0.0032185433
0.010326512 0.030110896 0.00014457013 0.19588858 0.11943293 -0.97332597 0.0033628158
0.0028133048 0.033113483 0.00038390933 -0.22222896 -0.013360923 -0.97490299 0.0020950001
0.0047100605 0.033092372 0.0001125054 -0.085444219 0.028315516 -0.99594057 0.0016252995
0.0075574648 0.033092197 0.00010876288 0.079137675 0.083311841 -0.99337626 0.0026685053
0.0095191859 0.03245632 0.00032686279 0.28232569 0.17051232 -0.94404328 0.0043756482
0.0026258107 0.036198843 0.00037100469 -0.088828698 0.029388875 -0.99561334 0.0022855303
0.0046826722 0.036156006 0.00027474295 -0.0078846803 0.050674595 -0.99868411 0.0025411614
0.0070065251 0.035401501 0.00029910286 0.1214205 0.14019777 -0.98265028 0.0037221038
0.0026949013 0.038104661 0.00044473843 -0.053279314 0.091829568 -0.99434835 0.0031058672
0.0040534423 0.038472008 0.00042220694 0.024242589 0.10822971 -0.99383032 0.0044020764
0.007356768 -0.06238744 0.0025429337 0.80464929 -0.58158159 -0.11959232 0.0001818123
0.00879608 -0.060536075 0.0029715209 0.80956686 -0.57537484 -0.11638463 0.00011017256
0.009753448 -0.059116799 0.0030758886 0.8231982 -0.55453324 -0.12181009 0.00035239549
0.010717587 -0.057732392 0.0034596829 0.82320756 -0.5545181 -0.12181542 0.0003582529
0.017371774 -0.046627078 0.0024037568 0.88117194 -0.45631465 -0.12374593 0.00085882499
0.017780598 -0.045496959 0.00064530061 0.87517446 -0.4081879 -0.25971568 0.0018416095
0.018504282 -0.044097368 0.00091417716 0.8931374 -0.37887508 -0.24240294 0.0018956779
0.019710088 -0.041161586 0.0013103171 0.90178227 -0.33374479 -0.27459633 0.00036597869
0.02050565 -0.039066132 0.0013742256 0.90674669 -0.29587406 -0.30044791 0.00034283692
0.02117683 -0.037783254 0.00216659 0.92206448 -0.28187647 -0.2652221 0.0006194319
-0.010727664 -0.03552435 0.00070410059 -0.85081857 0.46008053 -0.25383776 0.00033148422
0.021109492 -0.036950383 0.00071259425 0.91322231 -0.27375171 -0.30180299 0.00075868185
0.021803921 -0.035543907 0.001981016 0.9202038 -0.2391571 -0.30988514 0.0011787401
-0.0096364813 -0.033043977 0.0014656892 -0.84381831 0.44767684 -0.29589882 0.0014061877
0.022470705 -0.032870222 0.00180853 0.92077827 -0.20849143 -0.32969487 0.00079900638
-0.0082107382 -0.029665485 0.0015541653 -0.8541078 0.4162797 -0.31178698 0.0014119807
0.023139168 -0.029964646 0.0016834124 0.91804594 -0.20254584 -0.34083244 0.0012505358
-0.0070767216 -0.026822314 0.0018735465 -0.86957026 0.38822868 -0.30516565 0.0010978184
0.023773465 -0.026789999 0.0016714244 0.90638208 -0.18478702 -0.37990177 0.0021687346
0.0245698 -0.025682693 0.0032013862 0.92809683 -0.17987116 -0.32601023 0.0011670541
-0.0061335997 -0.024397163 0.0021279107 -0.88142091 0.35607636 -0.31033328 0.0018574018
-0.0053511951 -0.023280442 0.0013455956 -0.87185186 0.35470757 -0.33772296 0.0015970889
0.023978699 -0.023900846 0.0010556488 0.89171356 -0.12903219 -0.43381742 0.0012736887
0.024647037 -0.023731802 0.0024178198 0.90318114 -0.16851887 -0.39479768 0.0016183525
-0.0048054638 -0.020853907 0.0020677091 -0.89045644 0.3015849 -0.34078404 0.0016420352
0.023952391 -0.022212347 0.00055717514 0.87018222 -0.11862074 -0.47823849 0.0034871539
0.024901493 -0.020691106 0.0019751515 0.88789183 -0.085017465 -0.45212847 0.002104067
-0.0037536912 -0.0178241 0.0020229078 -0.8583014 0.28933781 -0.42379516 0.0024911978
-0.0026494442 -0.016753901 0.00068073557 -0.80049032 0.2866993 -0.5263257 0.0059873592
0.024965651 -0.01774212 0.0016953971 0.866947 -0.041128263 -0.49670047 0.0017248777
-0.0032221777 -0.015314641 0.0027651151 -0.85214376 0.26032797 -0.45396072 0.0022384108
-0.0022107663 -0.014572265 0.0013494599 -0.8007592 0.29547769 -0.52103513 0.0047438364
0.025183165 -0.014838221 0.0018765668 0.85594404 -0.018247241 -0.5167464 0.0024633128
-0.0017251379 -0.011904181 0.0019330841 -0.82599503 0.24234392 -0.50892204 0.0010617954
0.025253888 -0.011904188 0.0019315656 0.82659668 0.02539422 -0.56222153 0.00149762
-0.00093729672 -0.0089366985 0.0020337461 -0.78205788 0.21323995 -0.58558875 0.0024768729
0.00029635787 -0.0080599468 0.00076512387 -0.67907423 0.22846261 -0.69761229 0.0021055618
0.023952728 -0.0077244164 0.00056355284 0.71510929 0.084523499 -0.6938836 0.0022906193
0.02518986 -0.0088280756 0.0021000931 0.81032938 0.050331328 -0.5838092 0.0023057631
-0.00066002953 -0.0059885308 0.0026380189 -0.76987302 0.17051545 -0.61499596 0.0025887322
0.00067626202 -0.0056481343 0.0011332734 -0.73750466 0.19570094 -0.64636528 0.0026913343
0.023896895 -0.0056568682 0.00079123396 0.70950991 0.09635853 -0.69807643 0.0017546277
0.025042899 -0.005903725 0.0021893431 0.80694383 0.06672129 -0.58684742 0.0019138884
-0.00039824189 -0.0032222187 0.0030239692 -0.74913216 0.14127252 -0.64718091 0.002215592
0.0010837428 -0.0029093549 0.0014440559 -0.71634847 0.16801952 -0.67721069 0.0016461705
0.023685111 -0.0028843652 0.0010340123 0.74899477 0.11674893 -0.65220904 0.0012539548
0.024949258 -0.0031006765 0.0024872089 0.78563625 0.10117167 -0.61036062 0.0014812519
-0.00027944765 -0.0010725828 0.0033498763 -0.78104198 0.094196796 -0.61733335 0.0056828395
0.0015005949 0.00018082873 0.0017144696 -0.67800039 0.1332906 -0.72287548 0.0027181976
0.023397913 0.0002349678 0.001311128 0.73950434 0.12796026 -0.66087776 0.0012524035
0.024769541 1.0807882e-05 0.0028150405 0.76854789 0.11864929 -0.6286943 0.0012715675
0.0016280377 0.0032162499 0.0020269433 -0.65197432 0.089749403 -0.75291073 0.0023247693
0.0035268993 0.0039139637 0.00058847759 -0.52209306 0.10839456 -0.84597254 0.0022918379
0.023125246 0.0032800999 0.0016219791 0.6909886 0.15043162 -0.70703965 0.0035986158
0.024566127 0.0029887632 0.0031331864 0.77872187 0.1488314 -0.60945994 0.0022622587
0.0018670309 0.0060766786 0.0020839127 -0.6268068 0.050281595 -0.77755058 0.0030552747
0.0037437382 0.0061620413 0.00072814827 -0.50776058 0.064477511 -0.85908192 0.0021649851
0.0211026 0.0067638308 0.00056377146 0.61884975 0.15750109 -0.76955724 0.0016336089
0.022800088 0.0060399068 0.0019105251 0.68435019 0.15849636 -0.71171886 0.0029207182
0.0018964378 0.0091423215 0.0021811735 -0.57648885 0.019768935 -0.8168658 0.00097893947
0.0039533679 0.0092696706 0.00080344896 -0.48948947 0.035947934 -0.87126797 0.0015888878
0.02059087 0.0093151145 0.00070600258 0.61472338 0.16160785 -0.77200913 0.0011252563
0.022313694 0.0091223298 0.0021008609 0.67422414 0.16769557 -0.71923572 0.0027815977
0.0016755552 0.01228598 0.0023122507 -0.58043128 -0.010134744 -0.81424618 0.0022542269
0.0040038414 0.012235724 0.00086435769 -0.466328 0.0047097732 -0.88459933 0.0018992253
0.020096546 0.012402377 0.00098918332 0.54505867 0.17017992 -0.82094443 0.0027731461
0.021975897 0.012124074 0.0025085977 0.69950092 0.18617477 -0.68995458 0.0014887907
-0.00027964872 0.016378993 0.003443232 -0.64208347 -0.10071839 -0.75998998 0.0014154374
0.0016288233 0.015137406 0.0022005297 -0.54026902 -0.058787368 -0.83943641 0.002398367
0.0040032682 0.015084952 0.00078741135 -0.43755484 -0.029954767 -0.89869267 0.0018164673
0.019648362 0.015203716 0.0012934511 0.56150228 0.18332548 -0.80691195 0.0018300327
0.021592189 0.015019758 0.0028812995 0.66327155 0.19590761 -0.72228187 0.0016592353
-0.00039867699 0.0182814 0.0032175763 -0.60142678 -0.12142345 -0.78964686 0.0018094667
0.0016824424 0.018060593 0.0018997171 -0.48272082 -0.075036332 -0.87255377 0.0013606481
0.0039526932 0.0180455 0.00070555625 -0.39675817 -0.048820291 -0.91662401 0.0018837726
0.017546551 0.018742274 0.00073517254 0.43353111 0.17777362 -0.88342929 0.0031128079
0.019464411 0.018028988 0.0018652177 0.60340643 0.20361276 -0.77100104 0.0030848584
0.021224502 0.017324945 0.0031959421 0.66812986 0.21280605 -0.71296293 0.0017810138
-0.00075652212 0.021328013 0.0029858139 -0.56004387 -0.11805198 -0.82000893 0.0015756411
0.0015772616 0.021130424 0.0016591672 -0.45023468 -0.084999725 -0.88885528 0.0010126755
0.0037647067 0.021255596 0.00063566957 -0.35046834 -0.058671799 -0.93473506 0.0016851482
0.01704346 0.021435104 0.0010420664 0.48140591 0.1918501 -0.85524374 0.003106223
0.019201957 0.021013565 0.0024265784 0.61961663 0.2184529 -0.75389224 0.0030421049
-0.0011275141 0.024310123 0.0027942678 -0.52608192 -0.1126103 -0.84294528 0.0018887765
0.001627363 0.024145922 0.0013265058 -0.40675691 -0.07104741 -0.91076958 0.0015294199
0.0035944595 0.023931289 0.00054426212 -0.30374157 -0.060959645 -0.95080233 0.0016307321
0.014809848 0.024935817 0.00060357735 0.41366333 0.18906559 -0.89058226 0.001809717
0.016658336 0.024190061 0.0014941592 0.51089495 0.21773535 -0.83161157 0.0021533198
0.018677825 0.024000328 0.0029366475 0.66064733 0.24544352 -0.70943826 0.002231268
-0.0031481171 0.028090881 0.0034109561 -0.58302355 -0.15325828 -0.79786932 0.0013139647
-0.0014374345 0.02711435 0.0025642875 -0.47734684 -0.12905897 -0.86918575 0.0017509356
0.0016269803 0.027034707 0.0010762054 -0.38608977 -0.087248743 -0.91832584 0.0012922139
0.014224445 0.027252845 0.00086932466 0.40291476 0.20387226 -0.89224201 0.0032243347
0.016580882 0.027003258 0.002229891 0.58766347 0.25143248 -0.76904702 0.0021517857
0.018362993 0.025934974 0.003337553 0.66078693 0.26792383 -0.70112592 0.0012539369
-0.0034069607 0.030270074 0.0031918602 -0.53317195 -0.16968159 -0.82881588 0.0019582908
-0.0014692753 0.030149695 0.0021123092 -0.43998563 -0.12415651 -0.88938051 0.0016317664
0.0013416429 0.030136317 0.00091980095 -0.3361699 -0.087035105 -0.9377712 0.0019678331
0.011814549 0.030782558 0.00061375974 0.28115052 0.19186448 -0.94028848 0.004103275
0.01381361 0.030172959 0.0014249652 0.44552639 0.23321316 -0.8643598 0.001980158
0.016004119 0.029740809 0.0026939784 0.61234081 0.272661 -0.74208814 0.0026211697
-0.0040064948 0.033253409 0.0028688607 -0.46546417 -0.18240023 -0.86606765 0.0019416792
-0.001466997 0.03321445 0.0016794347 -0.39145249 -0.12650305 -0.91146147 0.0018659938
0.0011515839 0.03314377 0.00077250297 -0.27196622 -0.070908457 -0.95969075 0.0020583307
0.010925617 0.033307035 0.00088999514 0.34621066 0.22818033 -0.90998459 0.0026242696
0.013721537 0.033206407 0.0022868153 0.53339213 0.28544515 -0.79624993 0.0026271387
0.015612093 0.032024354 0.0032666086 0.65518373 0.29979479 -0.69343877 0.0027257437
-0.0063126301 0.036859792 0.0032259619 -0.48259684 -0.22606102 -0.8461659 0.0018399727
-0.0043329224 0.036135174 0.0024300043 -0.39327088 -0.16917092 -0.90372521 0.0020439101
-0.0014651068 0.036040429 0.0013077317 -0.2883617 -0.095653884 -0.95273185 0.0028474065
0.00096153177 0.03593922 0.00067128101 -0.19510126 -0.016358659 -0.98064667 0.0029824709
0.0079618152 0.036380842 0.00064821984 0.24207494 0.20774662 -0.94775581 0.0024248394
0.010522079 0.036000911 0.0014267999 0.37947172 0.24548441 -0.89204186 0.0020066921
0.012862258 0.036023486 0.0027376732 0.53174007 0.30531687 -0.7899583 0.001943914
-0.0069472105 0.039226852 0.0028882597 -0.40225956 -0.20628279 -0.89198357 0.0021184194
-0.0042972444 0.039148506 0.0018568553 -0.32841897 -0.13139743 -0.93534786 0.0024331789
-0.0014637022 0.03910983 0.0010512089 -0.20959049 -0.055280987 -0.97622532 0.0034984564
0.0014719127 0.039222103 0.00058625871 -0.10472462 0.0081894984 -0.9944675 0.0029743155
0.0049698348 0.039515603 0.00066097779 0.13764296 0.15146366 -0.97883254 0.0047449688
0.0075448127 0.039083526 0.001137241 0.27762729 0.21795131 -0.93563896 0.004051947
0.010383751 0.038931221 0.0023108132 0.46370322 0.31888375 -0.82661504 0.0042368998
0.012266221 0.038236424 0.0032542928 0.57001531 0.35267112 -0.74209541 0.002116872
-0.0096197603 0.042740844 0.0032242772 -0.42181328 -0.22013667 -0.87955296 0.0019887874
-0.0074047223 0.042132411 0.0024761504 -0.33092707 -0.15504947 -0.93083125 0.002076172
-0.0043542855 0.042200115 0.0015004824 -0.25658533 -0.075433202 -0.96357352 0.0025085392
-0.001463021 0.04219044 0.00094353664 -0.11742391 0.032017045 -0.99256569 0.0037656301
0.0016271565 0.04217504 0.00078570354 -0.017670453 0.08695022 -0.9960559 0.0022919236
0.0047199097 0.042210512 0.0011437444 0.19452657 0.22094534 -0.95568961 0.0048581157
0.0075894352 0.042227756 0.0021237524 0.39377779 0.31239104 -0.86449462 0.0037704224
0.0097106872 0.041390751 0.0029225533 0.51698273 0.37200361 -0.77093589 0.0035375897
-0.010341352 0.045385484 0.0029930749 -0.34350827 -0.15110742 -0.9269135 0.0018801705
-0.0074267485 0.045160137 0.0020601994 -0.26778609 -0.0766415 -0.96042526 0.0023983547
-0.0043204981 0.045087721 0.0013692314 -0.12215458 0.0041183117 -0.99250251 0.0047891028
-0.0014636205 0.04505834 0.0010883047 -0.015060633 0.087634608 -0.99603885 0.0045205192
0.0016284353 0.045076411 0.001258536 0.1746161 0.20924892 -0.96214557 0.0058856774
0.0047284705 0.045159608 0.0020482505 0.30799943 0.30897176 -0.89981812 0.005105393
0.0070976522 0.044801537 0.0029367383 0.47191453 0.399129 -0.78612518 0.004598476
-0.01246755 0.048492499 0.0032976747 -0.36132967 -0.13829432 -0.92212558 0.001939812
-0.010541061 0.04809168 0.0027036483 -0.26749003 -0.069777638 -0.96103078 0.0026192495
-0.007424125 0.048005018 0.0019249937 -0.18947439 0.023356179 -0.98160785 0.0032549237
-0.0043221563 0.04796093 0.0015283383 -0.062606804 0.091196068 -0.99386305 0.0041420818
-0.0014656448 0.047963195 0.0015467752 0.079361238 0.22593798 -0.97090358 0.0039022742
0.0016305002 0.048022818 0.0020796068 0.24590234 0.31434917 -0.916906 0.0052709044
0.0043381299 0.047717236 0.0029112918 0.38820219 0.39632726 -0.83199984 0.0040590251
-0.012911021 0.051064424 0.0031847644 -0.2686066 -0.031242341 -0.96274316 0.0021202201
-0.010490369 0.051109686 0.0025923748 -0.1821453 0.051597517 -0.9819169 0.0030158837
-0.0074280095 0.05112901 0.0021491481 -0.086059906 0.14266048 -0.98602313 0.003931547
-0.0043281023 0.051119916 0.0020700751 0.030992776 0.23627307 -0.9711923 0.003731516
-0.0014693862 0.050916456 0.0023655298 0.19114609 0.3212285 -0.92751032 0.0047319112
0.0011943282 0.050550584 0.0029782474 0.34307933 0.42885709 -0.8356902 0.0056168344
-0.013108554 0.054007579 0.0032523836 -0.18545495 0.076565772 -0.97966528 0.0024001978
-0.010595818 0.054233178 0.002893266 -0.091510959 0.1450001 -0.98519069 0.0031924401
-0.0074394713 0.054308321 0.0027898585 0.011863505 0.24645931 -0.96908051 0.0040647485
-0.0044668084 0.053963639 0.0029716275 0.13585572 0.34849638 -0.92741227 0.0040439419
-0.001848971 0.053127922 0.003177372 0.27597588 0.43784535 -0.85564524 0.0033803359
-0.012709511 0.056057241 0.0033962734 -0.14100935 0.2120048 -0.96704209 0.0038643854
-0.010428507 0.056309827 0.003358701 -0.022504363 0.31695959 -0.94817203 0.0042812913
-0.008006637 0.056125436 0.0033074326 0.10238237 0.40873352 -0.90689296 0.0041812658
-0.046214294 0.066873513 0.0033601949 -0.30829135 0.030801291 -0.95079327 0.086015955
-0.045930173 0.068001024 0.0033445864 -0.52551538 0.40772614 -0.74672157 0.1152308
0.0097641647 -0.059424374 0.0036007075 0.82319832 -0.55453336 -0.12180863 0.00035254838
0.011332184 -0.05722297 0.0041620042 0.82610172 -0.54857779 -0.12891248 0.00037364595
0.012427469 -0.055748295 0.0048316028 0.83869469 -0.53234202 -0.11490557 0.00055283151
0.013537721 -0.053809699 0.0050712256 0.84146208 -0.52768946 -0.11612599 0.00044895583
0.014939876 -0.051793501 0.0059094336 0.85099298 -0.51039386 -0.12372955 0.00033656563
0.015585722 -0.050367463 0.0060568955 0.86537206 -0.48868737 -0.11097695 0.00028074169
0.022936881 -0.033145662 0.0039896574 0.93107605 -0.23891951 -0.27570781 0.00024528246
0.023814239 -0.030035341 0.0039899256 0.92440224 -0.21708086 -0.31361827 0.00055509887
0.024178602 -0.029370388 0.0048435982 0.93809301 -0.22129613 -0.26647598 0.00014831877
-0.0074618952 -0.026684573 0.0040101316 -0.89388597 0.37735641 -0.24201235 0.00068806193
0.024801943 -0.026876505 0.0049622441 0.93361568 -0.19126998 -0.30294809 0.00053782016
-0.0064135301 -0.02373152 0.0043049902 -0.91806102 0.33434239 -0.21302399 0.0016251191
0.025466872 -0.02375151 0.004714095 0.93453723 -0.17046036 -0.31238338 0.00072868838
-0.006043816 -0.021952903 0.0052122977 -0.94262618 0.2673032 -0.20001216 0.0017964005
-0.0054343762 -0.020243058 0.0045145582 -0.93301797 0.27808174 -0.22835931 0.0021983341
0.026039477 -0.020812532 0.0047596898 0.93232083 -0.13187748 -0.33672869 0.001325891
-0.0047168029 -0.017730784 0.0046187174 -0.92459124 0.28319612 -0.2548154 0.0011328328
0.026325431 -0.017851733 0.0046362216 0.92841756 -0.096047036 -0.35890916 0.0014775143
-0.0038983566 -0.014887081 0.0047912234 -0.91789043 0.23167957 -0.32218274 0.0027535711
0.026616307 -0.014893266 0.0046012178 0.91870052 -0.065729722 -0.38944709 0.0016707095
0.027134242 -0.015502785 0.006157754 0.93544841 -0.10368852 -0.33791271 0.0019520302
-0.003362884 -0.012068954 0.0051027173 -0.91863853 0.17737463 -0.35304612 0.0021536066
-0.0026746045 -0.01112551 0.0040180217 -0.88420343 0.21307519 -0.41567186 0.0011740419
0.026812378 -0.011861685 0.0047667315 0.91140014 -0.011397932 -0.41136354 0.0014252752
-0.0031707522 -0.0092465328 0.0060379859 -0.89084339 0.15853968 -0.42575005 0.0014432351
-0.0023836477 -0.0086475499 0.0044917446 -0.87503022 0.19393338 -0.44352219 0.00103373
0.026821312 -0.0087471018 0.0049192719 0.9110688 0.020002196 -0.41176885 0.0022817221
-0.0020343103 -0.005820212 0.0048417384 -0.87541562 0.13903475 -0.46294361 0.0014639298
0.026595857 -0.0057959273 0.0046747448 0.89190209 0.043218322 -0.45015869 0.0013102872
-0.001547496 -0.0029026023 0.0047226483 -0.84608978 0.12476444 -0.51823354 0.0034349971
0.026211485 -0.0028519135 0.0044406094 0.86030376 0.093315624 -0.50116825 0.0021194729
0.027136561 -0.0029951083 0.006196877 0.89361882 0.090694062 -0.43956792 0.0018031758
-0.0011764888 0.00011006661 0.0047464147 -0.83347374 0.083823994 -0.54616392 0.0038833243
0.026049836 0.0001926386 0.0047656884 0.84303147 0.10881665 -0.5267418 0.0015154202
-0.0010028662 0.0032448922 0.0048286179 -0.82171094 0.044548608 -0.56816071 0.003791891
0.025662603 0.0032102773 0.0048166877 0.83866405 0.13360408 -0.5280081 0.0016880073
-0.0010962314 0.0062003289 0.0050597582 -0.79029638 -0.018272948 -0.61245227 0.0038012797
0.0001984243 0.0061001065 0.0034910103 -0.71465194 0.014976944 -0.6993199 0.0043176604
0.024112388 0.0072974367 0.0035889654 0.77386296 0.14782798 -0.61585969 0.00365252
0.025237577 0.0060277628 0.004898102 0.82844341 0.15149038 -0.53919584 0.001525734
-0.0012447361 0.00900866 0.0051999865 -0.79801434 -0.044644389 -0.60098255 0.0023223257
0.00019833633 0.0089711007 0.0035726984 -0.7229268 -0.0092756422 -0.69086242 0.0023733722
0.02363739 0.0099296449 0.0036524592 0.73365837 0.16260046 -0.65977764 0.001637234
0.024806431 0.0089022126 0.0050341822 0.82699555 0.1670098 -0.53682965 0.0018402153
-0.0013214969 0.01218592 0.0049444232 -0.73532236 -0.095333822 -0.67097878 0.0031856704
0.00019838254 0.011121999 0.0035298078 -0.65236539 -0.040385421 -0.75682789 0.00340532
0.023405602 0.012392234 0.0041526761 0.7924788 0.18199965 -0.58211124 0.0018808984
0.024490653 0.011933907 0.0055502029 0.82526481 0.18322182 -0.53419828 0.0017402938
-0.00317304 0.01601164 0.0063034995 -0.76254779 -0.14686866 -0.63004017 0.0035016593
-0.001516843 0.01519694 0.0047276998 -0.68701845 -0.13890368 -0.71324003 0.0027826068
0.023075189 0.015332928 0.0046872534 0.79244906 0.21140881 -0.57212842 0.0013179244
0.024248175 0.014803888 0.0061619189 0.82123834 0.21573037 -0.52823097 0.00132835
-0.0034505709 0.018361436 0.0059393803 -0.71142375 -0.18471281 -0.67805415 0.0014040095
-0.0017881244 0.018023551 0.0043546287 -0.63066709 -0.15915255 -0.7595588 0.0015778383
0.022386219 0.018105153 0.004854626 0.77583212 0.22911102 -0.58787125 0.0030900175
-0.0037845001 0.021128237 0.0055262242 -0.68995702 -0.17903624 -0.70135969 0.001452861
-0.0021051567 0.020939523 0.0040413719 -0.59828681 -0.14942546 -0.78722608 0.001686161
0.020535246 0.021466112 0.0038101969 0.67828977 0.23730469 -0.69542032 0.0019083467
0.021876894 0.020848447 0.0052655721 0.77915055 0.25071236 -0.57451516 0.00158715
-0.0041776504 0.024234306 0.0051756846 -0.66549569 -0.20210542 -0.7185185 0.0021378917
-0.0025296118 0.0239066 0.0038185029 -0.6353457 -0.15383404 -0.75675029 0.001551429
0.020099595 0.024341857 0.0045398967 0.75551993 0.27156764 -0.59618849 0.0015371694
0.02148984 0.023485914 0.0059573986 0.78459191 0.28253537 -0.55189604 0.0013348073
-0.0062176851 0.027547626 0.0061063413 -0.66909236 -0.23245168 -0.70589072 0.0014071268
-0.0044288347 0.027156744 0.0046389243 -0.59869182 -0.17855649 -0.78082377 0.00074952439
-0.0026708115 0.025945866 0.0035149364 -0.5627951 -0.16055015 -0.81085473 0.00093394064
0.017899381 0.028110692 0.0037089048 0.70889878 0.2912676 -0.64235938 0.0014496259
0.019370424 0.027136208 0.0049568713 0.75045115 0.28059456 -0.59840596 0.0028462529
-0.0067277574 0.030313056 0.0056397254 -0.66264743 -0.2602239 -0.70226914 0.0015327658
-0.0047644884 0.029932883 0.0041815778 -0.5585326 -0.21851963 -0.80018157 0.0014177725
0.017386043 0.030270964 0.0041831676 0.65116405 0.3057223 -0.69463605 0.0027854231
0.018774522 0.029839227 0.0056205923 0.74344134 0.33405355 -0.57939899 0.0017834851
-0.0090651074 0.033926703 0.0061785262 -0.63441604 -0.33377963 -0.69721407 0.0017139787
-0.0071521741 0.033154499 0.0049597742 -0.58333504 -0.27045283 -0.76588213 0.0014165381
-0.0052825599 0.032615848 0.0037613662 -0.52615386 -0.22924063 -0.81890839 0.0027817027
0.015030248 0.03433333 0.0037500768 0.67240149 0.35057545 -0.65189964 0.0012875097
0.016704472 0.033040732 0.0048529161 0.70594686 0.34997115 -0.61575913 0.00289086
0.018487714 0.031903695 0.0064673331 0.75667775 0.35457799 -0.54928428 0.0018585838
-0.0097819148 0.036371749 0.0056097284 -0.55591387 -0.33644646 -0.76010764 0.001996923
-0.0075280792 0.035953816 0.0042159269 -0.50979125 -0.27541339 -0.81502175 0.0014144958
0.014386399 0.036509044 0.0042801891 0.65732569 0.35995582 -0.66208363 0.0010015648
0.016052932 0.03568729 0.0056500323 0.69702029 0.38682306 -0.60376376 0.0017251843
-0.012646995 0.039861087 0.0061059445 -0.58033961 -0.37304431 -0.72390884 0.0020967443
-0.010378473 0.039177053 0.0048377188 -0.50190204 -0.32960355 -0.79965985 0.0010028712
-0.0081143966 0.038456704 0.0037149808 -0.44172397 -0.2653614 -0.85700834 0.0015289816
0.011680162 0.040071387 0.0037136285 0.61967283 0.38702527 -0.68280089 0.0011505019
0.013446367 0.039177727 0.0048610596 0.66463739 0.38340157 -0.64129591 0.0032445523
0.015598352 0.037677463 0.0064352062 0.76185793 0.3854906 -0.52054727 0.0018529288
-0.015202094 0.043437403 0.0062733497 -0.58478314 -0.37681681 -0.71835774 0.0023499045
-0.013330448 0.042287294 0.0054679522 -0.52683985 -0.34891456 -0.77504742 0.0015436594
-0.010799364 0.041849006 0.004099464 -0.45886862 -0.27279052 -0.84559149 0.0012616904
0.010877976 0.042306274 0.0043429043 0.60406995 0.41251582 -0.68185788 0.0033735249
0.012650417 0.04165709 0.005686949 0.6736303 0.4518927 -0.58482069 0.0024480466
-0.015836699 0.04534268 0.0058601554 -0.52807158 -0.3283169 -0.78316563 0.0023638832
-0.013433145 0.045140818 0.0044970987 -0.45746261 -0.25282508 -0.85253006 0.0010544054
-0.011495758 0.044347659 0.0036873927 -0.39469835 -0.21238115 -0.89392811 0.0019662299
0.0081123188 0.045611076 0.0040706713 0.51084352 0.41661215 -0.75197953 0.0014197683
0.010139008 0.044756729 0.005260665 0.63119382 0.45227584 -0.63011181 0.0022874894
-0.018347898 0.048760761 0.0060701342 -0.52393389 -0.31997532 -0.78937256 0.0027889309
-0.016363939 0.048126917 0.0051774047 -0.46621093 -0.26547498 -0.84390187 0.00208381
-0.013843101 0.048043199 0.0039397348 -0.40621156 -0.19739103 -0.89220458 0.001539086
0.0053053419 0.048803438 0.0040742802 0.45598754 0.46576902 -0.7583763 0.003099439
0.0074682785 0.047931273 0.0051671471 0.57562995 0.49494335 -0.65090793 0.0028413779
0.0093330033 0.046779495 0.0060307588 0.63848627 0.46361244 -0.61432791 0.0023024601
-0.020981094 0.052351285 0.0063751098 -0.53316951 -0.30385697 -0.78955758 0.0029389968
-0.019160416 0.05125577 0.0057035843 -0.48013979 -0.27267799 -0.8337341 0.0013680507
-0.016333781 0.051154833 0.0043937946 -0.37698233 -0.15150893 -0.91374469 0.0022447591
-0.014336167 0.050975151 0.0036491316 -0.32993737 -0.10270772 -0.9383989 0.0025871922
0.0022199466 0.051706385 0.0041037276 0.38606369 0.48530614 -0.78449523 0.0023914063
0.0045814156 0.051074114 0.0051922798 0.50687969 0.52655989 -0.68250108 0.0031875223
0.006609011 0.050156478 0.0061215963 0.5895443 0.5469287 -0.59439588 0.00099354831
-0.021501496 0.054453641 0.006082464 -0.44649321 -0.21400277 -0.86881906 0.0043435283
-0.019240757 0.054119028 0.0051113274 -0.36560854 -0.10878613 -0.92438948 0.002887497
-0.016288035 0.054032058 0.0040471368 -0.29812768 -0.048666466 -0.95328456 0.0032481321
-0.014436341 0.054548763 0.0035661638 -0.23378928 0.024119249 -0.97198808 0.0024699974
-0.0041748295 0.055267144 0.0036276064 0.21817347 0.42199934 -0.87995279 0.0032331762
-0.0012386162 0.054479033 0.0041504083 0.32981524 0.48328981 -0.81095797 0.0015006381
0.0013372041 0.053893387 0.0050985124 0.42624989 0.54455346 -0.72233832 0.0023888103
0.0035618299 0.053026851 0.0059939232 0.54406977 0.5821923 -0.60418558 0.0019205051
-0.022186616 0.057207081 0.0058873016 -0.32962987 -0.086230084 -0.94016409 0.0047933124
-0.019198874 0.057016924 0.0049034022 -0.2679863 0.039255202 -0.9626227 0.005000955
-0.016355284 0.057154391 0.0042008413 -0.20378004 0.14393122 -0.96837878 0.0056870384
-0.013505257 0.057416886 0.0038160572 -0.055680357 0.27813137 -0.95892787 0.004432708
-0.010331208 0.057796549 0.0038906725 0.058162808 0.38972548 -0.9190926 0.0040058643
-0.0071888161 0.057406083 0.0040388294 0.16335888 0.46443921 -0.870408 0.0022417952
-0.0042915079 0.057048567 0.0046523558 0.29271424 0.53003573 -0.79585207 0.0033638543
-0.0017665669 0.056643166 0.0055012209 0.39568886 0.59745812 -0.69747692 0.0022346026
0.00043616825 0.055937547 0.0061925407 0.47605246 0.61880499 -0.62486356 0.0019672022
-0.024419576 0.060087997 0.0063882628 -0.2383513 0.026437113 -0.97081912 0.012091723
-0.022399178 0.059982188 0.0058670184 -0.18612143 0.087454423 -0.97862685 0.0079647303
-0.019227112 0.060021177 0.0052516321 -0.16033852 0.24199705 -0.95693731 0.0074032098
-0.016357167 0.060346067 0.0050189458 -0.09232071 0.34762785 -0.9330765 0.0068663531
-0.013538124 0.060213089 0.0048451833 -0.00019276439 0.4464384 -0.89481437 0.0063782628
-0.010360584 0.060115524 0.005086259 0.15947185 0.53691518 -0.82842666 0.0036343839
-0.0072870399 0.059793908 0.0055685639 0.23406407 0.59675461 -0.76752716 0.0032652591
-0.0048307939 0.059141409 0.0059510162 0.34812173 0.6264168 -0.69743329 0.002586982
-0.048250634 0.063390262 0.0056160698 -0.38704464 -0.60471869 -0.69606882 0.10626331
-0.046357363 0.063479647 0.0051305825 -0.1027276 -0.61091411 -0.78500378 0.041548591
-0.043335855 0.063575603 0.0055765007 0.14909522 -0.60055643 -0.78555876 0.018592853
-0.040434252 0.063840762 0.0059566526 0.14121406 -0.47535193 -0.86838883 0.01473717
-0.038122792 0.064170666 0.0062675327 0.12177996 -0.37227961 -0.92009646 0.022599595
-0.024353569 0.061745144 0.0064375605 -0.076237909 0.33092722 -0.94057161 0.013046661
-0.022203416 0.062142596 0.0062227705 -0.10992422 0.37553662 -0.92026561 0.0082165757
-0.019281559 0.062330611 0.0060406644 -0.068866789 0.47039458 -0.87976491 0.0078347605
-0.016394518 0.06240467 0.0059990417 0.0059906342 0.54830724 -0.83625555 0.0056867008
-0.013510054 0.062167339 0.0060203103 0.09248843 0.61978751 -0.77930051 0.0041321344
-0.011075108 0.061845727 0.0061758831 0.19148526 0.66621482 -0.72075737 0.0030352429
-0.048151396 0.06579639 0.0061717238 -0.88799703 0.17480597 -0.42532817 0.019598959
-0.046332683 0.06566783 0.0038458521 -0.0016558621 -0.27797398 -0.96058714 0.072185814
-0.043465644 0.066095136 0.0044637108 0.33513126 -0.15447144 -0.92942214 0.022139531
-0.040399101 0.066187896 0.0055773957 0.24449353 0.037639003 -0.96892017 0.041150138
-0.038015302 0.065791838 0.006223632 0.2587539 0.20525303 -0.94388437 0.024161901
-0.045934729 0.069083974 0.0041451789 -0.14970224 0.5682658 -0.80911261 0.10743698
-0.043504626 0.068863891 0.0049807755 0.41194192 0.46973011 -0.78080571 0.01509298
-0.040947199 0.068204418 0.0060152719 0.4337948 0.41986957 -0.79720235 0.033611722
-0.045574501 0.070947476 0.0055130245 -0.14938633 0.75958562 -0.63301927 0.07267008
-0.044533871 0.070832737 0.0060782935 0.14103951 0.78451341 -0.60385966 0.085391395
0.015843773 -0.05042417 0.006573936 0.86537206 -0.48868737 -0.11097695 0.00028074169
0.017269628 -0.0480019 0.0073606819 0.87722731 -0.472179 -0.08671423 0.00045308596
0.019057063 -0.044681836 0.0086103883 0.89595073 -0.43592107 -0.085118286 0.00060588622
0.025979264 -0.023963502 0.0070002284 0.93321991 -0.18313853 -0.30912909 0.00073726918
-0.0060768458 -0.021571955 0.007402828 -0.94578749 0.26794273 -0.18355568 0.0012002775
-0.0055870656 -0.019620826 0.0068749394 -0.94578141 0.2638244 -0.18945758 0.0011752652
0.026721304 -0.020604426 0.007328839 0.94925874 -0.14347918 -0.27985981 0.00055622397
-0.0051009161 -0.017681247 0.0065399911 -0.93402028 0.26828215 -0.23586169 0.0021296542
0.027220897 -0.017721986 0.0076206289 0.94195431 -0.1089703 -0.31756517 0.0013443673
-0.0046315566 -0.015546729 0.0075613465 -0.93369997 0.24076444 -0.26502246 0.0016613441
0.02772269 -0.014835672 0.0079384651 0.96071601 -0.072923057 -0.26778126 0.00069889531
-0.0040069269 -0.01191816 0.0071449056 -0.91863871 0.17737484 -0.35304537 0.0021538124
0.027671557 -0.011916858 0.0070906188 0.95858663 -0.042793524 -0.28156781 0.00099774753
-0.0035445078 -0.0085470919 0.007402027 -0.93809891 0.16263063 -0.3058131 0.0016554412
0.027938401 -0.0086865872 0.0078671072 0.94938481 0.0046698702 -0.31408045 0.00083107199
-0.0032529454 -0.0060683084 0.0075519634 -0.9392674 0.12698102 -0.31883013 0.0035810675
-0.00269395 -0.0046821879 0.0065840986 -0.91654676 0.14311436 -0.37344384 0.0065326234
0.027959004 -0.0058986908 0.0078456728 0.94077623 0.007000437 -0.3389557 0.0013947099
-0.003189035 -0.0030023849 0.0081599262 -0.95635086 0.040398642 -0.28941485 0.004663277
-0.0026970759 -0.0029980908 0.0069987336 -0.92919779 0.067341998 -0.36339593 0.0042754072
0.027895195 -0.0032445765 0.0081217559 0.92516834 0.067654811 -0.37347883 0.00077032257
-0.0031931805 0.00013960875 0.0086410763 -0.94451386 0.0058032009 -0.32842031 0.0050045527
-0.0025234031 0.0003975844 0.0071856128 -0.91834193 0.058762994 -0.39140135 0.0042832149
0.027464109 0.00013683189 0.0076456256 0.9215377 0.10156867 -0.37476936 0.00093040208
-0.0031945773 0.003285401 0.0088032046 -0.91936028 -0.031779356 -0.39213103 0.0040521096
-0.0024580352 0.0032694074 0.0072350977 -0.89290154 0.011806716 -0.4500972 0.0022417782
0.026692586 0.0037472723 0.0068350714 0.89234817 0.12317782 -0.43421432 0.001800403
0.027374182 0.0030372436 0.0081644822 0.92321867 0.10694367 -0.36909398 0.0012805831
-0.0031926092 0.0061848094 0.0085747046 -0.89636564 -0.059277568 -0.43933457 0.0021665504
-0.0025057192 0.0059686825 0.0071642036 -0.87584299 -0.032207511 -0.48152021 0.0019716986
0.026529299 0.0063574761 0.0073404666 0.90689075 0.14321533 -0.39628074 0.001697243
0.027306665 0.005709379 0.0090685319 0.95023185 0.13624266 -0.28017378 0.00099504273
-0.0034351677 0.0090876231 0.008625553 -0.88103217 -0.096500643 -0.46310893 0.0023863672
-0.0026981607 0.0090533644 0.0071425987 -0.86047846 -0.07089521 -0.50453019 0.002694977
0.026306335 0.0090884399 0.0078483569 0.9000923 0.17159985 -0.40048385 0.0010784161
-0.0036183773 0.012134469 0.008072393 -0.85726929 -0.14782675 -0.49319014 0.0026088434
-0.0026943097 0.011690306 0.0066317525 -0.77958137 -0.12794399 -0.6130932 0.0017068537
0.025653329 0.012012975 0.007769879 0.88708305 0.19093181 -0.42027208 0.0016179071
-0.0040949187 0.015201792 0.0078331921 -0.82736838 -0.18885748 -0.52895594 0.0034836526
0.025068894 0.015110204 0.0079731252 0.8922227 0.20892601 -0.40036055 0.0013830697
-0.0061053433 0.019518608 0.0092928316 -0.85079223 -0.27570421 -0.44736987 0.0037667975
-0.0048234561 0.018187035 0.0077356463 -0.81798404 -0.21600392 -0.53314579 0.0018719718
0.023738805 0.018617073 0.0071670869 0.86597627 0.25559142 -0.42983499 0.0017709304
0.024531515 0.018030612 0.0084736589 0.88239032 0.24425454 -0.40215302 0.0014523177
-0.0062889983 0.021373974 0.0086299116 -0.8174032 -0.23859681 -0.52433157 0.0018464036
-0.0052067018 0.020966448 0.0072405264 -0.79867524 -0.2042864 -0.56602561 0.0023322483
0.023307059 0.021221543 0.0078352494 0.8639816 0.26836431 -0.42604747 0.0015010218
-0.0067084827 0.024153914 0.008057056 -0.78979892 -0.24971503 -0.56023216 0.0024316644
-0.0055054165 0.023576638 0.0067746742 -0.7116791 -0.21550013 -0.66863483 0.0012928495
0.022409473 0.024042485 0.0079111122 0.8490296 0.29716963 -0.43685105 0.0017308322
-0.0090123843 0.028239766 0.0093157496 -0.77119166 -0.33641431 -0.54045254 0.0011392201
-0.0074842097 0.027062278 0.0078106252 -0.77514166 -0.27775756 -0.56745583 0.0022735801
0.020741707 0.02749088 0.0070813429 0.81419212 0.3213141 -0.48357865 0.0025038554
0.021707015 0.026632348 0.0083889868 0.85151237 0.32232463 -0.41356188 0.0013494238
-0.0095043723 0.03047676 0.0085066622 -0.74198842 -0.3531186 -0.56987756 0.0021856483
-0.0081315562 0.029933222 0.0072119199 -0.69747621 -0.31045151 -0.64586902 0.0016298834
0.02004632 0.030232456 0.0079234885 0.83532006 0.34487036 -0.42814115 0.0013736469
-0.012072335 0.034352843 0.0090221968 -0.69110352 -0.45562029 -0.56105804 0.001382741
-0.010252818 0.033162955 0.0078241387 -0.72039968 -0.36431909 -0.59016597 0.0020415448
-0.0084709637 0.031908493 0.0065316465 -0.6707623 -0.32762524 -0.66538686 0.0037747379
0.017906491 0.033991508 0.0069972631 0.78593594 0.36544174 -0.4987554 0.0033013055
0.018917458 0.033076223 0.0081500364 0.81796688 0.35706389 -0.45103836 0.0016231923
-0.012887869 0.036381982 0.0084944852 -0.7038461 -0.45050618 -0.54922211 0.0014528019
-0.011247161 0.035840727 0.007120016 -0.61775047 -0.38822183 -0.68386263 0.0012415472
0.017265586 0.036182653 0.007857522 0.79895866 0.39387402 -0.45445383 0.0018012207
0.018597137 0.035013776 0.0092132594 0.81620347 0.4159933 -0.40095064 0.0018547027
-0.01559894 0.03976991 0.0089235548 -0.64552903 -0.49549702 -0.58118415 0.001664842
-0.013770307 0.038969629 0.0076084938 -0.62829381 -0.40866268 -0.66199827 0.0009717936
-0.011841619 0.037687447 0.0065495279 -0.61343795 -0.41131073 -0.67417908 0.0015595903
0.014483296 0.040108439 0.0066965325 0.70136237 0.41738239 -0.5778259 0.0018078926
0.015907643 0.038895052 0.0080146482 0.77979499 0.42544198 -0.45925906 0.0017332931
-0.018215301 0.043011595 0.0092772152 -0.65292525 -0.46514863 -0.597767 0.0019062371
-0.016324537 0.04222291 0.0079330327 -0.60785598 -0.42819279 -0.66870177 0.0015746506
-0.014580167 0.041326493 0.0068463488 -0.60651213 -0.41676331 -0.67709047 0.00096765225
0.013708872 0.042268693 0.0076449402 0.76003492 0.46075633 -0.45831266 0.001722803
0.015194925 0.041033667 0.0088467654 0.78066558 0.46069953 -0.42227629 0.0012591636
-0.018946471 0.04536273 0.0083431732 -0.65415245 -0.42271546 -0.627213 0.0027839388
-0.017159069 0.044793259 0.0070760455 -0.58008283 -0.3746407 -0.72328985 0.001389857
0.011289165 0.045698419 0.0073905038 0.72332925 0.52271348 -0.45118228 0.0011096749
0.012765754 0.044480521 0.008478987 0.7346276 0.50491625 -0.45319071 0.0012055571
-0.021609023 0.048610698 0.0087191984 -0.6451602 -0.44621411 -0.62021065 0.003314933
-0.019634752 0.047892179 0.0074094255 -0.58801538 -0.37982318 -0.71412331 0.0034111799
0.0085520912 0.048993636 0.0071880426 0.67330879 0.55818009 -0.48486105 0.0011884909
0.010126081 0.047838427 0.0081322882 0.70213276 0.53563851 -0.46914923 0.001904765
-0.024205906 0.052035369 0.0089857429 -0.58621418 -0.47950637 -0.65301353 0.0033741423
-0.022237906 0.051122319 0.0078064362 -0.60281992 -0.34911302 -0.71744561 0.003170816
-0.02032695 0.050137199 0.0067922501 -0.56208885 -0.31611887 -0.76428068 0.0046764496
0.0058188695 0.052038852 0.0071177687 0.61975884 0.59764647 -0.50864303 0.0017790223
0.0074849641 0.050943084 0.0079544224 0.64999992 0.58242112 -0.48814523 0.0022504141
-0.026928717 0.055351924 0.0091807153 -0.65888202 -0.49324968 -0.56796062 0.011003125
-0.024956347 0.054301962 0.0082852254 -0.55573291 -0.41117066 -0.72256464 0.0042226654
-0.022853123 0.05387488 0.0070251189 -0.48447046 -0.30013934 -0.8217085 0.0028793951
0.0025438466 0.054942697 0.0068881679 0.5561952 0.58967966 -0.58559787 0.003062489
0.0046062879 0.053849544 0.0078797555 0.61137426 0.59971154 -0.51630193 0.0015941294
0.006486922 0.052918043 0.0090782847 0.66377699 0.60898882 -0.43420339 0.0014222413
-0.030330645 0.05828042 0.0093519296 -0.44758266 -0.67310745 -0.58872408 0.020493545
-0.028052887 0.057430025 0.0086956099 -0.40328741 -0.4854711 -0.7756784 0.011440633
-0.025501499 0.057113267 0.0073839724 -0.4264589 -0.2814177 -0.85961437 0.0042822016
-0.023637293 0.056704659 0.0065432768 -0.45759591 -0.21221142 -0.86346525 0.0055054841
-0.0010508993 0.05795458 0.0071936008 0.43143713 0.66208255 -0.61278772 0.0022022589
0.0014623633 0.05686371 0.0080752019 0.49973196 0.65907127 -0.56204355 0.0018392962
0.0035816522 0.055821057 0.0090614464 0.58276194 0.63769406 -0.50372082 0.0012484146
-0.042843856 0.061454684 0.0084926747 0.0090438118 -0.79716814 -0.60368961 0.0070318398
-0.040139139 0.061165586 0.0083283316 0.026531482 -0.72718221 -0.68593162 0.012830314
-0.037171882 0.060917065 0.0084047066 -0.023806348 -0.69158548 -0.72190225 0.013594613
-0.034298614 0.060686827 0.0084611811 -0.04366437 -0.67817008 -0.7336067 0.018569928
-0.031383045 0.060223833 0.0083761942 -0.13488561 -0.52595115 -0.83975071 0.015616101
-0.028582182 0.06010022 0.0076792622 -0.25668281 -0.24486946 -0.93496144 0.012703719
-0.025853716 0.060104277 0.0068188719 -0.32160133 -0.13975854 -0.93650419 0.0078292573
-0.0068279002 0.06120602 0.0070081558 0.27747989 0.71179307 -0.64525616 0.0027429555
-0.0042598518 0.060496975 0.0076939976 0.40080234 0.70645291 -0.58333677 0.0019465885
-0.0018779873 0.059528925 0.0083481129 0.46711677 0.69254762 -0.54970872 0.0018604987
0.00019218348 0.05875605 0.0092856195 0.55832607 0.68795288 -0.4636732 0.002636862
-0.048742857 0.063134871 0.0071723266 -0.82084787 -0.56814229 -0.058507599 0.13018401
-0.046147279 0.062148765 0.0072495043 -0.34003043 -0.72554892 -0.59829599 0.10974461
-0.04350654 0.062050208 0.0072879307 0.088029593 -0.7025646 -0.70615417 0.015480788
-0.040524304 0.062296599 0.0069327075 0.038604427 -0.73461062 -0.6773898 0.013631004
-0.037230458 0.062825754 0.0069756564 0.11299112 -0.36548334 -0.92393452 0.020780154
-0.034281403 0.063059136 0.0072099017 0.12976821 -0.18349746 -0.97441727 0.019874925
-0.031395007 0.063072547 0.007301447 -0.032798078 -0.16362718 -0.98597693 0.036330987
-0.028492786 0.063053772 0.0071687801 -0.12932475 0.11090637 -0.98538065 0.020031078
-0.025485087 0.063110001 0.0069406508 -0.063786425 0.32045975 -0.94511205 0.011497406
-0.022429051 0.063577607 0.0069008563 -0.03510654 0.46138889 -0.88650322 0.0082217446
-0.019443406 0.063808031 0.0069670472 0.00070227485 0.55029953 -0.83496702 0.0056620487
-0.016434243 0.063758731 0.0070417663 0.061606977 0.62824428 -0.77557325 0.003919038
-0.013379469 0.063708149 0.0074456688 0.15259695 0.74279726 -0.65189451 0.0024370954
-0.01035958 0.063158832 0.0077191992 0.22232901 0.72680974 -0.64985955 0.002612523
-0.0075118169 0.062534712 0.008223786 0.33117846 0.75045896 -0.57195479 0.001984441
-0.0049715866 0.061951175 0.0090423031 0.41496211 0.73771071 -0.53253114 0.0012085949
-0.048330858 0.066525877 0.0078133997 -0.87981308 0.23472001 -0.41332254 0.019631796
-0.036792092 0.066355951 0.0068318844 0.36201543 0.35753107 -0.86088115 0.036028348
-0.034297153 0.065984093 0.0074143354 0.230645 0.3749842 -0.89788073 0.033135422
-0.031500891 0.06599959 0.0079888655 0.097723305 0.49684745 -0.86231828 0.020066917
-0.028549235 0.065857351 0.0082851583 0.042992596 0.56060493 -0.82696658 0.012868627
-0.025368869 0.065602496 0.0082704769 0.067740947 0.70696384 -0.70399803 0.0086267404
-0.022347869 0.065446921 0.0083277505 0.036434423 0.67643559 -0.73559999 0.0088406336
-0.019392375 0.06542486 0.0085217599 0.044654436 0.73741555 -0.67396164 0.0045989505
-0.016490694 0.065182693 0.0085214358 0.088457271 0.77224666 -0.6291346 0.0030083526
-0.013776118 0.065075547 0.0089661768 0.17534471 0.77894503 -0.6020788 0.0018971176
-0.048249491 0.067959972 0.0092855897 -0.84324116 0.37468424 -0.38542977 0.026072722
-0.047434885 0.069326147 0.0077112224 -0.79612029 0.49847794 -0.34309217 0.030069912
