# .PCD v0.7 - Point Cloud Data file format
VERSION 0.7
FIELDS x y z normal_x normal_y normal_z curvature
SIZE 4 4 4 4 4 4 4
TYPE F F F F F F F
COUNT 1 1 1 1 1 1 1
WIDTH 557
HEIGHT 1
VIEWPOINT 0 0 0 1 0 0 0
POINTS 557
DATA ascii
0.027738797 -0.013505733 -0.015618801 0.96179277 0.14334522 -0.23325284 0.0031777243
0.028536171 -0.014384752 -0.014341889 0.95452619 0.16823673 -0.24612245 0.0026203918
0.027789304 -0.010615154 -0.015062263 0.96378458 0.099730372 -0.24733225 0.0015999393
0.027395468 -0.0073940055 -0.015076708 0.92974687 0.24348775 -0.27619645 0.0017661861
0.026432961 -0.004569402 -0.015177998 0.88654393 0.36269271 -0.28721738 0.0014249466
0.024599973 -0.001348326 -0.015369767 0.7865864 0.52810055 -0.31998688 0.00094219344
0.025783254 -0.0027466745 -0.014590698 0.81646025 0.48556244 -0.31244496 0.0011864223
0.0034253069 0.0020264876 -0.015981434 -0.61160219 0.7822656 -0.11833523 0.0014307353
0.021574587 0.0020314869 -0.015556618 0.62267256 0.71100616 -0.32672477 0.00043588935
0.02306732 0.00072006136 -0.015173391 0.68897724 0.6470468 -0.32655901 0.001208146
0.004346489 0.0029581678 -0.014353084 -0.61202347 0.78191262 -0.11849002 0.0016133479
0.006099374 0.0039255619 -0.015048003 -0.45702106 0.87533993 -0.15783462 0.0012640822
0.0090779122 0.0051797964 -0.015128037 -0.26107597 0.9352234 -0.23915809 0.0017705238
0.011851305 0.0056762965 -0.015343003 -0.066971622 0.95611501 -0.2852346 0.0029488497
0.015062913 0.0055125281 -0.015267638 0.20399062 0.92676133 -0.31543824 0.0027102977
0.017892217 0.0045991307 -0.015153828 0.42707747 0.84021741 -0.33412516 0.0021196043
0.020307906 0.0034107533 -0.014630578 0.54770648 0.77232766 -0.32175702 0.001671938
0.012577484 0.0061657671 -0.013757773 -0.099419206 0.96852028 -0.22821982 0.0042524724
0.01371502 0.0061619403 -0.013936269 0.083825089 0.96280962 -0.25684834 0.0073580705
0.028153013 -0.012814368 -0.013189125 0.96315151 0.13003987 -0.23543306 0.0029451393
0.028885182 -0.013351915 -0.011787271 0.96315342 0.13003674 -0.23542713 0.0029467961
0.028132139 -0.012120868 -0.013517636 0.96315128 0.13004042 -0.23543398 0.0029450422
0.028779896 -0.0094215237 -0.010570276 0.96530777 0.072658084 -0.25080219 0.00088729325
0.028153634 -0.0073880977 -0.012278697 0.95088166 0.17042844 -0.25841492 0.0024140179
0.028778594 -0.0087305419 -0.010590407 0.96214288 0.11142903 -0.24872616 0.0014895056
0.02735384 -0.0044023036 -0.012133921 0.90317547 0.32810774 -0.27680191 0.0010051731
-0.00022241485 -0.0016008124 -0.012821275 -0.72643173 0.68389285 -0.067731537 0.0011246226
0.024967115 -0.00045575504 -0.01287407 0.74224937 0.58892375 -0.31974161 0.00079223048
0.026112454 -0.0017032842 -0.011968309 0.82954299 0.47617668 -0.29174352 0.0016562032
0.0011517208 0.00023039128 -0.012947368 -0.72908497 0.67853016 -0.089621253 0.0011595679
0.0025263189 0.0016055927 -0.012869823 -0.67352331 0.72703129 -0.13338612 0.0034515695
0.022198806 0.0025155735 -0.013285446 0.65902752 0.67582285 -0.33006996 0.0012784591
0.023789274 0.0014303732 -0.012064338 0.70779985 0.63188988 -0.31580767 0.0022144674
0.0041366685 0.0032244367 -0.011741462 -0.62809527 0.76832432 -0.12318312 0.0013032389
0.0058073681 0.0043036342 -0.011955935 -0.5097878 0.84533185 -0.15978271 0.0034448584
0.008414031 0.0055876765 -0.012208126 -0.33041286 0.91997445 -0.21088937 0.0040254151
0.018293457 0.0054527866 -0.012272696 0.38507697 0.86399305 -0.32439443 0.0020713808
0.020916419 0.004053467 -0.011961394 0.55926836 0.76857227 -0.31066954 0.0017733105
0.022773294 0.0030054939 -0.01097517 0.6653145 0.67656606 -0.3156184 0.0016205974
0.0098735513 0.0062065125 -0.01186621 -0.21247461 0.94956583 -0.23060654 0.0016094967
0.011705674 0.006508613 -0.012060948 -0.14117949 0.96288234 -0.23005638 0.0031496549
0.015108377 0.0064696465 -0.012092805 0.17193154 0.94594121 -0.27501768 0.0040261783
0.017235935 0.0062157512 -0.011437285 0.31338224 0.89603466 -0.31450501 0.0033683975
0.029172087 -0.012545343 -0.0098559363 0.97467393 0.081433289 -0.20827711 0.0017713179
0.028896434 -0.01096867 -0.0099617317 0.97211796 0.062450964 -0.2260232 0.0012936164
0.028858274 -0.0071300883 -0.0093573751 0.95467758 0.15518792 -0.25398335 0.0019395585
0.028085187 -0.0045423196 -0.0099003194 0.91829729 0.28506863 -0.27471066 0.0025707721
0.028650248 -0.0048267231 -0.0082803667 0.92933738 0.27267739 -0.24895602 0.001919841
-5.0620874e-06 -0.0010114938 -0.0088859899 -0.75765902 0.64698613 -0.085800782 0.00079698925
0.02713724 -0.0015880207 -0.0089165252 0.84600788 0.45353678 -0.28031236 0.0014125037
0.0011517208 0.00072938646 -0.0081818579 -0.75858742 0.64581198 -0.086440861 0.00086047262
0.0023056304 0.0018715863 -0.0095397485 -0.74068016 0.6642679 -0.10070213 0.0013240228
0.024641989 0.0018157889 -0.0094058877 0.7432301 0.60228509 -0.29131043 0.0012077522
0.025847243 0.00063264207 -0.0087233661 0.77098733 0.5679028 -0.28821 0.0010634123
0.0036925727 0.0032615927 -0.0091853319 -0.6571061 0.74283469 -0.12809426 0.0014727932
0.005830124 0.0048806025 -0.009071107 -0.5287149 0.83217108 -0.16718794 0.0020992954
0.0076067168 0.0057853954 -0.010011661 -0.41830349 0.8808428 -0.22167122 0.0031530836
0.019120155 0.0057788836 -0.010329354 0.43916926 0.82817155 -0.34822729 0.0041323714
0.021011686 0.0050692977 -0.0092846211 0.52003407 0.79906219 -0.3017683 0.001665502
0.023102619 0.0035721874 -0.0090324758 0.65383041 0.69479924 -0.29959947 0.0011963048
0.0090046003 0.0064962292 -0.0091374954 -0.3443484 0.91671354 -0.20263374 0.0023517681
0.012036854 0.0073644714 -0.0088562518 -0.15927191 0.95363069 -0.255384 0.0034101382
0.014784537 0.0074229017 -0.0090506477 0.11371063 0.95294166 -0.28101951 0.0040895208
0.01778728 0.0067677796 -0.0090652909 0.32436371 0.90164948 -0.28603593 0.0024634488
0.019673923 0.006286134 -0.0081697283 0.47077489 0.83072519 -0.29709691 0.0017852918
0.030045202 -0.012295435 -0.0054131029 0.98145288 0.064995863 -0.18034905 0.00046111617
0.029649733 -0.01074828 -0.0063681607 0.98145372 0.064994223 -0.18034504 0.00043211246
0.029478213 -0.0076177758 -0.0069499747 0.97286099 0.11700974 -0.19962497 0.0013282977
0.029061878 -0.0044642584 -0.0062139151 0.92833072 0.28977031 -0.23288445 0.0014801875
0.00022059516 -0.00018158113 -0.0058411835 -0.80411667 0.58723742 -0.092458807 0.0019462371
0.027770182 -0.0011132702 -0.0060320436 0.868119 0.43138134 -0.24551861 0.0011107293
0.028641229 -0.0027416751 -0.005505967 0.89086354 0.39158341 -0.23027052 0.0014320432
0.00091957743 0.00074951025 -0.0059767244 -0.80411655 0.58723748 -0.092458695 0.0019462468
0.0020808293 0.0021368903 -0.0065977057 -0.75835705 0.6393677 -0.12689967 0.0006693984
0.025154298 0.0024450761 -0.0067708865 0.70059103 0.66329873 -0.26307231 0.0012467748
0.026423812 0.0011486989 -0.0058658128 0.78211975 0.56780899 -0.25667417 0.0013651638
0.0032001387 0.0034514228 -0.0057231067 -0.7039488 0.6955986 -0.14352284 0.0013258264
0.0054131337 0.0051614018 -0.0064177392 -0.55939579 0.80946058 -0.1784656 0.0017759399
0.021818563 0.0053845244 -0.0069053946 0.58539486 0.75283545 -0.30091795 0.0011558367
0.023595789 0.0041264929 -0.0064149946 0.62984926 0.72452462 -0.27991787 0.00083178718
0.0065093236 0.006110576 -0.0054985238 -0.53821611 0.8202945 -0.19349502 0.002318125
0.0089224279 0.0072162505 -0.006050372 -0.37188658 0.90337247 -0.21358486 0.0026953027
0.011696664 0.0080354176 -0.006163287 -0.15233159 0.95402479 -0.25813141 0.0029212749
0.014703061 0.0083881058 -0.0057299761 0.043623887 0.96278423 -0.26672742 0.0027698346
0.01790433 0.007656835 -0.0060432777 0.32201415 0.90132231 -0.28969827 0.0032067499
0.020749593 0.0064283814 -0.0059008179 0.46976712 0.8387239 -0.27542883 0.0019295027
0.030221963 -0.010476178 -0.0027660108 0.98657113 0.08464098 -0.13968951 0.00046501475
0.029601956 -0.0044970727 -0.0032875193 0.93487668 0.2901448 -0.20450313 0.0012034667
-0.00072286412 -0.0015698975 -0.0030519939 -0.84007746 0.53421426 -0.09426035 0.0010540751
0.02813774 -0.00063502858 -0.0036115428 0.88190001 0.41721088 -0.2195164 0.0017811069
0.029054953 -0.0022716403 -0.0026886417 0.90137702 0.38419595 -0.19978227 0.0016196313
0.00068344292 0.0010069539 -0.0032016812 -0.81104368 0.5758794 -0.10281564 0.0026450378
0.0017757728 0.0024893326 -0.0032501994 -0.75172007 0.64282006 -0.14730677 0.00096970057
0.02692762 0.0016596559 -0.0029766737 0.78838825 0.56683832 -0.23903602 0.00099739921
0.0032264518 0.0041210288 -0.0030101202 -0.68765908 0.70081812 -0.18968116 0.0023314632
0.0045846989 0.0052961456 -0.0034283279 -0.64396024 0.73732775 -0.20411479 0.0010512065
0.024182944 0.0046157632 -0.003669783 0.65845102 0.7087155 -0.25330722 0.0023659216
0.025665637 0.0032706698 -0.0031943996 0.72523218 0.64455962 -0.24203531 0.00093759171
0.0062476601 0.006573719 -0.0029774746 -0.5330717 0.81811869 -0.21567664 0.0016598625
0.0088873515 0.0080430321 -0.0028037578 -0.36902016 0.89579666 -0.24773467 0.0024231966
0.01173405 0.0086608576 -0.0037932536 -0.16369613 0.94840437 -0.2715379 0.0037250828
0.015874719 0.0087099047 -0.0041404841 0.086183965 0.95654595 -0.27855369 0.0047529372
0.017896948 0.0085591571 -0.0032215929 0.28864288 0.91123664 -0.29382482 0.0026438092
0.020907784 0.0072998814 -0.0029654773 0.48763615 0.82275409 -0.29203874 0.0018875517
0.022871619 0.0060882419 -0.0028601964 0.59814399 0.75923836 -0.25647792 0.0010942839
0.012418691 0.0092314258 -0.0022074878 -0.15441294 0.95302951 -0.26055959 0.0037398264
0.01498431 0.0092160571 -0.0027561164 0.033456888 0.96651125 -0.25443357 0.002787366
0.016892878 0.0092420029 -0.0018298207 0.17447636 0.95491403 -0.24020241 0.006594134
0.030472228 -0.0095957331 0.00098187942 0.98850602 0.075587571 -0.13092868 0.00033281723
0.030457614 -0.0079372078 0.00076303631 0.97964078 0.1253034 -0.15685312 0.0015437296
0.02989745 -0.0036815584 -0.00056864601 0.96241194 0.23406135 -0.13776296 0.0031295982
-0.00097260263 -0.0013225034 0.00018180627 -0.88872415 0.44078276 -0.12601539 0.0015063576
0.029209431 -0.0014045195 -0.00028695446 0.9225983 0.34971505 -0.16282439 0.0037647355
0.00044438522 0.0013893158 -0.00012986641 -0.83000332 0.53422254 -0.16031469 0.0023701638
0.027655693 0.0017417236 -0.00023234449 0.83112752 0.52188957 -0.19198503 0.00090459094
0.02850691 0.00032651867 -0.00019745808 0.87173945 0.45332614 -0.18591861 0.002499647
0.0028032202 0.0045286114 5.5155717e-05 -0.71444923 0.6700179 -0.20158941 0.0023522654
0.024805482 0.0051297592 -0.00061950088 0.71000659 0.67033142 -0.21574579 0.0011150844
0.026051557 0.0039107152 -0.00024691224 0.7534954 0.62088209 -0.21621768 0.001549881
0.003989174 0.0060103135 0.00097961444 -0.66957605 0.71290725 -0.20840167 0.0015637733
0.005870006 0.0071702097 -2.6021153e-06 -0.54771727 0.80184853 -0.23884024 0.0027796063
0.0086160358 0.0086544724 -0.00036526006 -0.3846533 0.87871474 -0.28266972 0.0026214493
0.019036787 0.0087915258 -0.0011088429 0.30729303 0.90717143 -0.28742117 0.0019061771
0.020783637 0.0082262913 -0.00021018367 0.45284709 0.84703654 -0.27831388 0.0013716749
0.023402566 0.0065998677 0.00012163073 0.60266584 0.76214713 -0.23648593 0.0013120099
0.0093771368 0.0093168123 0.00084099174 -0.37552238 0.88559991 -0.27330527 0.0028862401
0.011767883 0.0097644441 -3.8927421e-05 -0.1951005 0.93844295 -0.28506258 0.0024014723
0.014833903 0.0099995444 -6.5680593e-05 0.037586097 0.96404755 -0.26305813 0.0019459638
0.01790387 0.0095300404 2.3954548e-05 0.26711717 0.92646354 -0.26516736 0.0025443612
0.020549567 0.008853008 0.0011738958 0.46327531 0.85392213 -0.23705047 0.0022170341
0.03050903 -0.0062894924 0.0015330436 0.98080868 0.16035193 -0.11091252 0.0035786491
0.030529244 -0.0055809719 0.0018356862 0.97676939 0.19776861 -0.082517631 0.0040593501
-0.001698908 -0.0027371526 0.0030184509 -0.93652201 0.31619006 -0.15149388 0.0023013779
-0.0012247238 -0.00083580916 0.0031893821 -0.91928345 0.36667165 -0.14307326 0.0042213774
-0.00013679825 0.0012971824 0.0026189378 -0.88571173 0.43798271 -0.1539021 0.0034038534
0.02803731 0.002260041 0.0037161382 0.81544816 0.55862021 -0.15161677 0.00046789326
0.028916016 0.00034677656 0.0025490792 0.86872733 0.46323544 -0.17528774 0.0022712359
0.00099298265 0.0033625304 0.0032030065 -0.77903312 0.58513373 -0.2252239 0.0022565308
0.0021609357 0.0048034443 0.0029105889 -0.73336941 0.63036722 -0.25457123 0.0033659958
0.025359599 0.0055689858 0.0026094439 0.73544562 0.65293193 -0.18110685 0.0016619902
0.026617834 0.0041526183 0.0030330783 0.77591735 0.60619307 -0.17459135 0.0024490608
0.0036237414 0.0064385487 0.0033100015 -0.67918044 0.68546802 -0.26238799 0.0015390055
0.0054736575 0.0078552375 0.0029256409 -0.57465541 0.76943195 -0.27882898 0.0033735621
0.021793505 0.0084134089 0.0024714591 0.49749941 0.8362298 -0.23068179 0.0022490814
0.023485217 0.0073607294 0.0030920627 0.59016037 0.77382636 -0.23000756 0.0010439359
0.0069775106 0.0090342173 0.0034848871 -0.50196397 0.81658286 -0.28499949 0.0017585778
0.0088847941 0.0098567307 0.0031377934 -0.37247857 0.88256443 -0.28694895 0.0023615281
0.011773846 0.010670022 0.0028886534 -0.16966136 0.93610203 -0.30810386 0.0020301561
0.014674164 0.01098005 0.0031396244 0.053378765 0.95602208 -0.28839639 0.003277678
0.017870644 0.010371937 0.0028880239 0.26439893 0.92369133 -0.27728596 0.0023490866
0.020428294 0.0093782619 0.0030292561 0.44530165 0.86311018 -0.23821709 0.0018397358
-0.0022022058 -0.0034540847 0.0067580463 -0.96597761 0.22055663 -0.13506335 0.0022033707
-0.0018141243 -0.0016359107 0.0060010133 -0.94433069 0.28195986 -0.16952318 0.0020050094
-0.0017265233 -9.6733915e-05 0.0072918655 -0.92992687 0.32841909 -0.16545965 0.0045130481
-0.00066478591 0.001469512 0.0056278231 -0.87276578 0.44506809 -0.20048486 0.0024433115
0.028681202 0.0018126485 0.0064239027 0.83353895 0.54025257 -0.11549861 0.00098453672
0.0006195996 0.0040974645 0.006236718 -0.80623919 0.54017103 -0.24123354 0.0017378668
0.0017886625 0.0054676328 0.0055937385 -0.71916246 0.64034158 -0.26975542 0.0012774261
0.026996987 0.0044906931 0.0062691094 0.81196094 0.57539713 -0.098171599 0.0022792323
0.0030656967 0.0070756078 0.0062426152 -0.66877162 0.68536013 -0.28814232 0.0024562767
0.0048533725 0.0083700651 0.0054117264 -0.61419392 0.72748429 -0.30583066 0.001157849
0.024083318 0.0075361058 0.0054766769 0.65529358 0.73393977 -0.1786692 0.0025650577
0.025497032 0.0060948627 0.0051114978 0.73073858 0.66039169 -0.17292747 0.0017163942
0.0063344445 0.0096244076 0.0061218953 -0.51037592 0.80114311 -0.31254792 0.0020156419
0.0090416716 0.01089358 0.0059063388 -0.32984468 0.8810991 -0.33891997 0.0016600139
0.011650019 0.011341513 0.0049782339 -0.1481775 0.92822057 -0.34124774 0.0026080729
0.014711633 0.011636631 0.0052367626 0.054280449 0.94153666 -0.33250925 0.00294554
0.018095003 0.011099957 0.0057152556 0.29844332 0.91722423 -0.26387742 0.0029937467
0.020877268 0.0099374829 0.0059022801 0.47639537 0.84709847 -0.23552401 0.0018607116
0.022705877 0.0089995759 0.0066177072 0.58735943 0.78096753 -0.21236435 0.00086124253
0.010266112 0.0118959 0.0072895112 -0.24913436 0.91010153 -0.33113045 0.0068974285
0.012098569 0.011940593 0.0065754512 -0.11723471 0.94696605 -0.29918432 0.0023824603
0.014850862 0.01206649 0.0066524865 0.06708432 0.95536667 -0.28770512 0.0033859061
0.016724238 0.011878786 0.0067769112 0.13783608 0.95038164 -0.27888331 0.0033490718
-0.0022184765 -0.0015294269 0.0089161871 -0.96292543 0.2079417 -0.17185707 0.0031869318
-0.0018611469 0.00064012082 0.0094360011 -0.92727554 0.31268007 -0.20589155 0.0034309761
-0.0010947317 0.0022399067 0.0087918369 -0.89752775 0.36368474 -0.24935383 0.0023155757
0.029551035 0.00039445306 0.008811784 0.82882541 0.55006957 -0.10233221 0.00095790729
5.6558987e-05 0.0045995601 0.009074782 -0.8288191 0.48329234 -0.28193498 0.0030223103
0.00099074375 0.0063501345 0.0097269928 -0.73903561 0.60811406 -0.28986832 0.0014405395
0.0025515698 0.0076575372 0.0087641282 -0.70959204 0.63220048 -0.3111296 0.0012196209
0.024468072 0.0078425566 0.0082680704 0.66917825 0.72308201 -0.17132674 0.001861828
0.02596147 0.0064187022 0.0091774138 0.70959347 0.68922907 -0.14642516 0.00050723489
0.0038822789 0.0092328582 0.0093120458 -0.63239944 0.70352954 -0.32421786 0.0016229285
0.005667056 0.010390945 0.0090737799 -0.51023525 0.78925532 -0.3416667 0.0032051557
0.0079783835 0.011352426 0.0082895467 -0.33194324 0.87076479 -0.36274302 0.0024991077
0.018925617 0.011436318 0.0079123201 0.32258132 0.9161166 -0.23805846 0.0028704617
0.02088776 0.010685104 0.0088489177 0.48167157 0.85027039 -0.21220933 0.002233129
0.022851646 0.0095632374 0.0096314372 0.59050018 0.78646445 -0.18106103 0.00075067487
0.0091849985 0.012289659 0.0094493525 -0.30815101 0.88877779 -0.33928913 0.0028483951
0.011985728 0.012754948 0.0089673353 -0.13190483 0.94181734 -0.30916214 0.0040229801
0.015062138 0.012716656 0.0087946476 0.12375179 0.94938755 -0.2887021 0.0040083299
0.017638601 0.012280795 0.0091892565 0.29574281 0.91829634 -0.26318818 0.002242248
-0.0027205097 -0.003701064 0.011304331 -0.98056346 0.13018993 -0.14678526 0.0010610461
-0.0027232654 -0.0017630514 0.01162419 -0.97275805 0.12931797 -0.1924023 0.003392708
-0.0022421938 0.001387733 0.011994577 -0.94004434 0.25162572 -0.23021959 0.0026114509
-0.0017632837 0.0035839644 0.012980533 -0.87373233 0.38620621 -0.29569685 0.0028916618
-0.00078673108 0.0048219124 0.011766865 -0.84555793 0.43846086 -0.30460432 0.0016322075
0.00056951842 0.00710971 0.012050361 -0.74194437 0.57599241 -0.34314895 0.0014204666
0.0019580466 0.0083179744 0.011249534 -0.69555533 0.63345379 -0.33902672 0.0030984508
0.024659513 0.0084151598 0.011921165 0.70583147 0.70079911 -0.10335635 0.0022802816
0.025451189 0.0077167945 0.013124657 0.72094768 0.68586212 -0.09913487 0.001238766
0.0032290791 0.0099768359 0.012023895 -0.60648024 0.70924181 -0.35938531 0.0021877564
0.0050881738 0.011258933 0.011786279 -0.50828785 0.76884884 -0.3879627 0.003317883
0.021257566 0.011196659 0.011728291 0.55175519 0.81208193 -0.1899714 0.0024807977
0.023474213 0.0096426103 0.012464932 0.64528453 0.74565476 -0.16615273 0.0026709854
0.0064273123 0.012368009 0.012336181 -0.44565779 0.81292641 -0.37488648 0.0015371041
0.0088119181 0.013218562 0.012036714 -0.29453659 0.88562047 -0.35906073 0.0028213153
0.011811791 0.013783698 0.011813453 -0.078374222 0.93537462 -0.3448649 0.0028718554
0.014852289 0.013721296 0.011812174 0.13625358 0.94039863 -0.31158528 0.0028752785
0.017881626 0.013027851 0.01213605 0.33974281 0.907408 -0.24735695 0.0023119953
0.019795978 0.012036939 0.011514199 0.47664785 0.8536005 -0.21017399 0.0011214827
-0.0032407937 -0.0037072853 0.015044657 -0.97917306 0.034820162 -0.20001936 0.0024987306
-0.0033064506 -0.0016508696 0.014603333 -0.97917295 0.034820344 -0.20001963 0.0024988269
-0.0030789324 0.0014180453 0.015095237 -0.93452305 0.19659838 -0.29667467 0.0037788837
-0.0023007821 0.0041386685 0.015150429 -0.86986446 0.36489806 -0.33194157 0.002160775
-0.0012829684 0.0055466639 0.01400533 -0.85724497 0.39127469 -0.33471659 0.0028044803
0.026988862 0.005799924 0.014521015 0.72094715 0.68586212 -0.099138409 0.0012356808
-0.0017834855 0.0063198404 0.016106736 -0.8056618 0.45687577 -0.37705922 0.0021232823
-0.00031264615 0.0076493071 0.014848863 -0.75919181 0.53714341 -0.36756602 0.0032685553
0.025985667 0.0072507905 0.014007461 0.72095382 0.68585646 -0.099128798 0.0012303804
0.00082579767 0.009562809 0.015433214 -0.69582516 0.60716838 -0.3836326 0.002211744
0.0025229438 0.010771253 0.014665944 -0.61572188 0.6851837 -0.3891142 0.0028495786
0.021885652 0.011417178 0.014863518 0.55394757 0.81747013 -0.15774892 0.0011202872
0.022562778 0.010650252 0.013705504 0.64572489 0.75143301 -0.13560164 0.0024290939
0.0036933625 0.012374459 0.015762329 -0.55304146 0.72457808 -0.41125634 0.0012652265
0.0056798887 0.013240577 0.015055505 -0.42446101 0.81079376 -0.40304634 0.0033154362
0.0083861034 0.014258604 0.014740725 -0.2491048 0.88022703 -0.4039149 0.0020675892
0.011860481 0.014549258 0.013862549 -0.051990438 0.92643183 -0.37285525 0.0034808321
0.015218819 0.014503821 0.014483265 0.18057984 0.93523705 -0.3045038 0.003970392
0.017950915 0.013754462 0.014933296 0.35951346 0.89981174 -0.24716143 0.0021136722
0.02028431 0.01254594 0.01505627 0.52263379 0.83486736 -0.17277305 0.0016913323
0.0094668334 0.015122964 0.016043667 -0.2295271 0.89401579 -0.38477671 0.0025492969
0.011895269 0.015094028 0.015317469 -0.016412655 0.94397676 -0.32960349 0.0034023186
0.014599729 0.015118253 0.015925612 0.19673364 0.93880475 -0.28273934 0.0032720286
-0.0035946385 -0.003956343 0.017737191 -0.98226762 -0.064690337 -0.17597024 0.0046497528
-0.0039760815 -0.0016110527 0.017695837 -0.97819591 -0.038614642 -0.20406269 0.0036557901
-0.0039848164 0.0010895636 0.018036135 -0.96463436 0.067632943 -0.25476721 0.0033939851
-0.0032305454 0.0043905843 0.017820954 -0.89265203 0.26879415 -0.36183155 0.0016933164
-0.0023653195 0.0070077647 0.018300306 -0.81493282 0.42209193 -0.39714342 0.0031244254
-0.0011053251 0.0084077073 0.017424919 -0.72668517 0.53823203 -0.42688993 0.0013560298
-0.0018038419 0.0088473009 0.019256841 -0.73449409 0.52898568 -0.42507944 0.001345617
2.0773849e-05 0.010440781 0.018157057 -0.6700176 0.60313094 -0.43279275 0.0021091579
0.0018050966 0.011564985 0.016948495 -0.64346486 0.63908988 -0.42132777 0.001664596
0.022798525 0.011292239 0.018680286 0.57373464 0.80533922 -0.1491887 0.00051335775
0.0011517208 0.012287651 0.019023787 -0.64384151 0.63091505 -0.43291378 0.002224819
0.0030080497 0.013243265 0.018187441 -0.52454388 0.73406535 -0.43127927 0.0031188396
0.0054700421 0.014448793 0.017595872 -0.38503033 0.81727713 -0.42873046 0.0016087318
0.018086672 0.014368116 0.017633103 0.4131842 0.88473743 -0.21568137 0.0028882443
0.020535678 0.012974431 0.017536577 0.54110372 0.82578951 -0.15899171 0.0013035041
0.0064799394 0.015388184 0.018581238 -0.34750146 0.84062773 -0.4154368 0.001933131
0.0086942296 0.015759151 0.017907791 -0.17946905 0.90919602 -0.37570393 0.0026872589
0.011609507 0.015978523 0.017602406 -0.02229676 0.93055838 -0.36546385 0.0028976602
0.014731586 0.015742064 0.018119231 0.22743842 0.93162459 -0.28345597 0.0029303073
0.016895922 0.01522926 0.018711369 0.41392303 0.88414913 -0.21667504 0.0028746589
-0.0040432937 -0.0042120432 0.02126063 -0.9569658 -0.22952066 -0.17758599 0.003626287
-0.0049127317 -0.0014903519 0.021530543 -0.94761348 -0.19955523 -0.24941202 0.0046923347
-0.0042740684 -0.0027285249 0.019869473 -0.96185011 -0.16461286 -0.21851079 0.0050400225
-0.0050321021 0.0012299959 0.021191027 -0.94317955 -0.0075289295 -0.33219835 0.0026187527
-0.0042696185 0.0024463725 0.019493859 -0.9523167 0.07697916 -0.29524094 0.0023280194
-0.0049894657 0.0040080943 0.021710359 -0.90997183 0.16208656 -0.38167927 0.002438209
-0.0041529583 0.0044272961 0.020052303 -0.88486451 0.22230458 -0.40938431 0.0022372997
-0.0047995094 0.0059518861 0.022359949 -0.83110625 0.29665905 -0.47037849 0.0020261619
-0.0035730693 0.0072971256 0.02090868 -0.82655311 0.34373119 -0.44571155 0.0016929109
-0.0023779103 0.0098559363 0.021254983 -0.73064864 0.49859399 -0.46642959 0.0013624494
-0.00076174375 0.011219415 0.020298511 -0.66342604 0.59229332 -0.45722473 0.0018261004
0.022343015 0.011809682 0.019467633 0.55242503 0.82042563 -0.14740522 0.00085236231
0.00021995045 0.012942134 0.021186009 -0.61138225 0.6365127 -0.47017369 0.0022836458
0.0024532049 0.01421802 0.020364493 -0.52337152 0.72361606 -0.44995791 0.0026054387
0.018439444 0.014806692 0.020502102 0.47398436 0.85750264 -0.20007011 0.0038481613
0.02042377 0.013495455 0.020684939 0.55148298 0.82062691 -0.14979328 0.00089302444
0.0031318318 0.015482008 0.021662526 -0.47101417 0.75395328 -0.45793021 0.0016336702
0.0058095679 0.016333565 0.020933572 -0.30925989 0.84916753 -0.42810377 0.0036855589
0.0087157208 0.016981702 0.02070551 -0.12602969 0.91569734 -0.38159525 0.0027463443
0.011887533 0.017059386 0.020665031 0.074339136 0.93685037 -0.34173834 0.0027661081
0.014633471 0.016691342 0.021251339 0.32120031 0.9161849 -0.23965712 0.0020042819
0.017219963 0.015564644 0.020925064 0.43496406 0.87789345 -0.20027341 0.001749142
0.0095841344 0.017858062 0.022442114 -0.037904799 0.92821902 -0.37009817 0.0081013599
-0.0048200553 -0.0037217468 0.023949679 -0.92604959 -0.30758169 -0.21869069 0.0034588247
-0.0043211719 -0.0047166524 0.023845386 -0.9083367 -0.36919618 -0.19651622 0.0015383021
-0.0056522638 -0.0015920355 0.024111696 -0.92335886 -0.26132202 -0.28128141 0.0037087766
-0.00606497 0.001255088 0.02397592 -0.92621338 -0.064475931 -0.37144539 0.0034336629
-0.0059595425 0.0043845433 0.024046943 -0.88516998 0.12134498 -0.44916531 0.0037348967
-0.0054330071 0.007122553 0.024232119 -0.84709781 0.27591336 -0.45419949 0.0029476539
-0.0043102382 0.008197342 0.022922467 -0.82822317 0.31707045 -0.46207437 0.0023632692
-0.0050321175 0.0093926108 0.024913121 -0.76075208 0.39140102 -0.51774663 0.0017671812
-0.0036141195 0.01043082 0.023780115 -0.75325912 0.43726885 -0.49132133 0.0015990535
-0.0025016689 0.012632693 0.024372909 -0.66626692 0.54752988 -0.50626034 0.001844534
-0.00069516734 0.013785071 0.023445781 -0.60018331 0.63326395 -0.48862731 0.0029230369
0.00042315689 0.015456338 0.024399579 -0.50801414 0.7015602 -0.49973479 0.0027144786
0.0027493134 0.016671803 0.023998071 -0.39286467 0.79026788 -0.47024897 0.0013319624
0.0052244468 0.017290957 0.023080785 -0.2587752 0.85589647 -0.4477461 0.0021613971
0.015091164 0.017236128 0.02410138 0.36314434 0.90867257 -0.20601033 0.0013984784
0.017711392 0.015738133 0.023163281 0.45109436 0.87447208 -0.17836027 0.00086424645
0.0041449079 0.017977346 0.025079232 -0.34941283 0.81056952 -0.469987 0.0027064204
0.0059970925 0.018175203 0.024441153 -0.19926101 0.88429534 -0.42227566 0.0026506979
0.0087350905 0.018243324 0.02361789 -0.074429698 0.93093234 -0.35752651 0.0049672406
0.011646196 0.0181133 0.023678727 0.1771449 0.9424035 -0.28371674 0.0016545095
0.013616727 0.017966259 0.02483381 0.28554821 0.92490959 -0.25100666 0.005352098
-0.0052175084 -0.0043351604 0.027004987 -0.86939371 -0.42499062 -0.25206664 0.0006914335
-0.0043418258 -0.0054720296 0.025588702 -0.88926107 -0.39075357 -0.23775253 0.0010980015
-0.0066157598 -0.0015550359 0.027142528 -0.89872259 -0.32362753 -0.29591033 0.004042272
-0.0078859609 0.001794674 0.028077204 -0.91352701 -0.18318571 -0.36319616 0.0044043236
-0.0071048718 0.0012776922 0.02648595 -0.91346276 -0.10734094 -0.39250967 0.0030441384
-0.0078818277 0.0043021282 0.02786402 -0.89892238 0.015395591 -0.4378373 0.001880285
-0.0071017463 0.004277938 0.026312947 -0.88184112 0.064233959 -0.46715119 0.0019888815
-0.0078856945 0.0065646563 0.028063446 -0.85533524 0.18780299 -0.48283717 0.0022781603
-0.0068600597 0.0074810991 0.026781585 -0.8416723 0.21633825 -0.49475798 0.0016687047
-0.0059532095 0.010276667 0.026989475 -0.75205982 0.39844382 -0.52502257 0.0018486668
-0.0043435572 0.011512582 0.025734913 -0.7123366 0.4698239 -0.52138484 0.00026014631
-0.0051561436 0.012579502 0.027756624 -0.68125868 0.49376827 -0.54044372 0.00096086407
-0.0034799352 0.013671617 0.026725475 -0.6699937 0.52532828 -0.52453667 0.00094474875
-0.0023587684 0.015579329 0.027485702 -0.57708007 0.62829632 -0.52174932 0.0020888424
-0.00032695336 0.016647976 0.026772972 -0.46937975 0.72680938 -0.50142884 0.00087801716
0.001901407 0.017519634 0.026010852 -0.39324558 0.77135599 -0.5003677 0.0011279875
0.015697623 0.01758993 0.027603161 0.36794484 0.90645963 -0.20723791 0.0013104305
0.017139928 0.016510669 0.025791328 0.41912124 0.88972199 -0.18092038 0.00024292232
0.00077500357 0.018238906 0.028084543 -0.42217013 0.75430226 -0.5027926 0.0020947712
0.0029783591 0.018627267 0.027055182 -0.31669858 0.83829117 -0.443813 0.0030014387
0.0058934391 0.019365795 0.026967436 -0.1547031 0.89814085 -0.41159421 0.0040971432
0.0089749554 0.019312292 0.026427627 0.051942628 0.94655842 -0.31832242 0.003357331
0.011854647 0.018994119 0.026795398 0.25776806 0.93264103 -0.2524606 0.0050600879
0.014167927 0.018218335 0.026712857 0.31307581 0.92551166 -0.21310028 0.0036391933
-0.0059072366 -0.0045439587 0.030031569 -0.84466726 -0.48805431 -0.21986388 0.0010091864
-0.0080544092 -0.00083139096 0.030253682 -0.86460537 -0.36996949 -0.33997098 0.0022929099
-0.0070787864 -0.0023870822 0.029738896 -0.87473285 -0.39456806 -0.28135112 0.0037602179
-0.0086071147 0.0013462263 0.029953364 -0.89810419 -0.23354654 -0.37264571 0.0041207764
-0.0089309029 0.0043344186 0.02993479 -0.90339386 -0.034591615 -0.42741427 0.0013563486
-0.0087558376 0.0074106269 0.029991854 -0.86425877 0.14967878 -0.48026338 0.0025144434
-0.0082816156 0.010146231 0.030447409 -0.80478382 0.29447013 -0.51537406 0.0017396415
-0.00712361 0.010891807 0.029120889 -0.78400075 0.32587838 -0.52834278 0.0015065286
-0.0079483334 0.012191777 0.031294595 -0.72826678 0.41135058 -0.54810423 0.0013831079
-0.0062504187 0.013481519 0.030005742 -0.711236 0.45071891 -0.53944021 0.0013115678
-0.0043797866 0.014625271 0.028792959 -0.60666406 0.57680035 -0.5470466 0.0010766191
-0.0052444944 0.015539878 0.030726366 -0.60327566 0.57420206 -0.55348945 0.00085948705
-0.0033182907 0.016613189 0.029779978 -0.54201937 0.65885413 -0.52165723 0.0012738296
-0.0011115891 0.017645027 0.028850924 -0.48108083 0.71479797 -0.50756782 0.00054696685
-0.0022579324 0.018365413 0.030865815 -0.50416005 0.69300801 -0.51532763 0.0016860506
-8.4121479e-05 0.019141808 0.03017788 -0.40893149 0.7649464 -0.49762645 0.0020704046
0.0028842392 0.020115722 0.02985784 -0.22049884 0.87302482 -0.43498051 0.0029869184
0.0058358563 0.020496648 0.029546116 -0.020279538 0.92420578 -0.38135615 0.0049144295
0.0087567847 0.020394094 0.029508542 0.13017958 0.95149916 -0.27875206 0.0039487896
0.011738682 0.019796211 0.029987585 0.29652792 0.93043071 -0.21533632 0.0021100848
0.01476845 0.018458586 0.030144285 0.38932851 0.90652943 -0.16317965 0.00031691761
-0.0066533396 -0.0046248725 0.033218492 -0.7901054 -0.56782645 -0.23088217 0.0021511598
-0.0085824858 -0.0015911564 0.033050075 -0.84504068 -0.44950137 -0.28957704 0.0025560684
-0.007453585 -0.0029749528 0.031885009 -0.84099799 -0.47232395 -0.26387978 0.0037666745
-0.0098635191 0.0014092154 0.03286352 -0.88692421 -0.27304411 -0.37257519 0.0041116499
-0.011052998 0.0043983506 0.034053497 -0.86961663 -0.13527042 -0.47483575 0.0041696588
-0.010253741 0.0043748515 0.032537103 -0.88947618 -0.096097849 -0.44676313 0.0049781217
-0.011050443 0.0074478211 0.033954665 -0.84770888 0.05673632 -0.52741879 0.0020156798
-0.010195765 0.0075143455 0.032556314 -0.85002643 0.094428591 -0.51820689 0.0022535021
-0.011059273 0.0092360424 0.034296226 -0.83207273 0.14855449 -0.53440303 0.0018275061
-0.0097324783 0.010560037 0.032884799 -0.80001265 0.24443667 -0.54793286 0.0019133531
-0.0087208087 0.013343199 0.033145789 -0.72103339 0.4119561 -0.5571382 0.0016535347
-0.0073314235 0.014371292 0.032126274 -0.6875751 0.4724451 -0.55139488 0.00040200289
-0.0081722178 0.015503242 0.034093868 -0.65086502 0.49616978 -0.5746218 0.0012271118
-0.0062144548 0.016497418 0.032819632 -0.61232865 0.56156522 -0.55650538 0.0028997385
-0.004248159 0.01761198 0.031921625 -0.55363142 0.63305748 -0.54104567 0.00036719377
-0.0055604782 0.018279467 0.034007449 -0.55738747 0.62254298 -0.54932642 0.0013328869
-0.0031624758 0.019355271 0.033087578 -0.47001988 0.70624268 -0.52943617 0.0028667261
-0.00036846614 0.020329669 0.032281354 -0.33560517 0.80701309 -0.48590022 0.0016125385
0.0019105456 0.020803962 0.031643596 -0.20014954 0.86850971 -0.45346555 0.0027862559
0.0097549548 0.020810444 0.03177179 0.2132118 0.94654095 -0.24207644 0.0038487904
0.012338137 0.020160709 0.03400315 0.29165182 0.9346534 -0.20337707 0.0020822142
-0.0019014576 0.020941589 0.034362774 -0.40010387 0.76422918 -0.50583649 0.0023282161
-6.7858142e-05 0.021260925 0.033640642 -0.27706364 0.84626722 -0.45504674 0.0032876639
0.0029264556 0.021627456 0.03287394 -0.12331572 0.91544807 -0.38307703 0.0030111512
0.0059669986 0.021607578 0.032490715 0.01359203 0.94712311 -0.32058236 0.0044409726
0.0088603208 0.021264661 0.032729559 0.22161721 0.94395626 -0.24460654 0.0041865595
-0.0054802326 -0.0065460308 0.035557967 -0.75321621 -0.63183379 -0.18289727 0.0027626692
-0.008213615 -0.0036562041 0.036179304 -0.75883389 -0.61113274 -0.22513947 0.0014797511
-0.0067573199 -0.005270551 0.035633516 -0.75316608 -0.63000965 -0.18928485 0.0032201125
-0.0095704105 -0.0016290704 0.035939526 -0.80439067 -0.50920653 -0.30604637 0.0021592297
-0.01145338 0.0017085094 0.036348924 -0.84733379 -0.35171941 -0.39789307 0.00302958
-0.010447523 0.00046628783 0.035280298 -0.86336815 -0.36676961 -0.34651899 0.0038630902
-0.012094611 0.0045035244 0.035979014 -0.85609996 -0.16416894 -0.49004221 0.003537626
-0.01227118 0.0076024495 0.035989884 -0.84432203 0.027490852 -0.53513038 0.0013647524
-0.011917002 0.010440896 0.036011036 -0.79408312 0.20010579 -0.57392478 0.0021194497
-0.010557207 0.011788477 0.034567785 -0.77931005 0.23906493 -0.57924414 0.0012806049
-0.011592687 0.013073384 0.036659613 -0.72473139 0.32240045 -0.60895187 0.0020972069
-0.010105069 0.013676223 0.035162564 -0.72848421 0.35255331 -0.58738136 0.0017227283
-0.010878371 0.015454163 0.037200507 -0.68132013 0.42649701 -0.59489763 0.0013762075
-0.0092754317 0.016239792 0.036051415 -0.67040741 0.44645363 -0.5926491 0.0014074453
-0.0073358715 0.017225359 0.034722447 -0.60411328 0.55543494 -0.57143611 0.00039152559
-0.0083990432 0.018343486 0.036940217 -0.59385169 0.54859775 -0.58854109 0.0014128552
-0.0062944293 0.019298729 0.035935163 -0.49428779 0.66067952 -0.56496215 0.0010549742
-0.0040732883 0.020345714 0.035177078 -0.43537834 0.71845728 -0.54246187 0.00078777998
-0.0052478034 0.021086778 0.03723092 -0.44787315 0.71142763 -0.54155356 0.0026081242
-0.0030636806 0.021580148 0.036244929 -0.37076786 0.79883718 -0.4736985 0.0030002755
-0.00015675568 0.02246128 0.035999022 -0.18648724 0.89039654 -0.41523075 0.0025904607
0.0029378443 0.022798389 0.035747625 -0.038979437 0.93689728 -0.34742501 0.0036203866
0.0057468647 0.022678342 0.03589046 0.1625464 0.94928008 -0.26915771 0.0035278895
0.0086324438 0.021843757 0.035398751 0.22829472 0.94991899 -0.21339075 0.002858619
0.010827885 0.020960812 0.034742307 0.26308385 0.94432729 -0.19756736 0.0015748785
-0.0060581258 -0.0065798862 0.040050726 -0.69519913 -0.70368183 -0.14673112 0.0011586662
-0.0089250589 -0.0038999007 0.039203946 -0.70344609 -0.68145275 -0.2019548 0.0027832985
-0.0070633981 -0.0055428799 0.038647395 -0.69519901 -0.70368272 -0.14672688 0.001158803
-0.011030807 -0.0010673103 0.038864035 -0.78669524 -0.52737761 -0.32091027 0.0018196391
-0.0098845046 -0.0024619356 0.038490403 -0.74775422 -0.60524464 -0.27302477 0.0032511924
-0.013787773 0.002691735 0.040204775 -0.80450892 -0.39272395 -0.44557077 0.0016647518
-0.012528351 0.001413431 0.039109651 -0.81081587 -0.41447011 -0.41327009 0.0038180719
-0.014119893 0.0047394875 0.039427269 -0.83073866 -0.26826885 -0.48775512 0.0031487877
-0.013135369 0.0042779171 0.038081616 -0.83368373 -0.20637803 -0.51222992 0.0034698383
-0.014397413 0.0075361449 0.039125189 -0.82237726 -0.076559044 -0.56376803 0.0026102564
-0.013190459 0.0067572296 0.037480317 -0.84351951 -0.024565628 -0.53653646 0.0028076619
-0.014546474 0.010199895 0.039378237 -0.78690594 0.083123662 -0.61144871 0.0021855473
-0.013198029 0.010606271 0.037731398 -0.80771005 0.12665716 -0.5758146 0.0026883336
-0.014184461 0.013081742 0.039714098 -0.73449284 0.24019791 -0.6346851 0.0021104575
-0.012768007 0.013407215 0.038203795 -0.74300086 0.27168185 -0.61166883 0.0014073257
-0.013791097 0.015317176 0.040311214 -0.67207575 0.35115692 -0.65192258 0.001047844
-0.011996539 0.01630326 0.038982723 -0.68003416 0.38783842 -0.62220168 0.001126094
-0.010123779 0.017269794 0.037760776 -0.59810358 0.5365299 -0.59532154 0.0013819409
-0.011008919 0.018708449 0.039811116 -0.57882041 0.53683639 -0.61381882 0.0015587927
-0.0091957506 0.019481447 0.038845986 -0.52577066 0.61822331 -0.58426458 0.001336893
-0.0071552489 0.020407096 0.037983399 -0.49180791 0.67311448 -0.55230612 0.00078459282
-0.0082905684 0.02140335 0.040090919 -0.49550831 0.67652369 -0.5447818 0.0013209587
-0.0061537279 0.021971323 0.039192192 -0.40265262 0.74448866 -0.53254813 0.0026514127
-0.0032912432 0.023078598 0.038949449 -0.2627441 0.85034418 -0.45593879 0.0026538318
-0.0003882607 0.023589615 0.038502902 -0.14940083 0.90469491 -0.39900681 0.0022465424
0.0029491384 0.023721516 0.038569521 0.022892812 0.94676405 -0.32111338 0.0027391408
0.0056043416 0.023404062 0.039010786 0.13206981 0.95419306 -0.26846436 0.0029576921
0.0088397246 0.022139166 0.037770819 0.25414401 0.94698691 -0.19653656 0.00151408
0.00037875795 0.024332736 0.040283572 -0.056786224 0.95727575 -0.28354633 0.0050087115
0.001924468 0.024327565 0.040192496 0.035268061 0.95363724 -0.2988849 0.0035793532
-0.0088767493 -0.0045246081 0.041786719 -0.6787194 -0.70924431 -0.19055833 0.00099293923
-0.0071266564 -0.0060793413 0.042287957 -0.66075289 -0.73573983 -0.14863585 0.0019896422
-0.011934773 -0.0014238324 0.041987661 -0.75769985 -0.58492267 -0.28940704 0.0028504278
-0.010194271 -0.0029749826 0.040735852 -0.7219497 -0.66760665 -0.18190612 0.0018649676
-0.014410758 0.0018960331 0.042190693 -0.77371365 -0.47460055 -0.41966841 0.0030329316
-0.013096893 0.00053527486 0.041218672 -0.75925952 -0.54682416 -0.35285735 0.0018912641
-0.016993444 0.0055791186 0.043248679 -0.75749695 -0.34327459 -0.55530244 0.0015561982
-0.015572733 0.0045208409 0.041879289 -0.78446674 -0.28721154 -0.54965562 0.0024747103
-0.01720704 0.0074990066 0.042804301 -0.75431132 -0.17212979 -0.63355017 0.0030123724
-0.016020721 0.0072250012 0.041410193 -0.78003818 -0.1119132 -0.61564273 0.002038413
-0.01746257 0.010307648 0.042752277 -0.72730833 0.00060038577 -0.68631065 0.002722102
-0.016085122 0.01028994 0.04127169 -0.7453019 0.047244381 -0.6650511 0.0024248955
-0.017283682 0.013129004 0.04292582 -0.68351299 0.16706897 -0.71056175 0.0021965704
-0.01574585 0.013405775 0.041456055 -0.69439238 0.19312996 -0.69319546 0.0020084183
-0.01699386 0.015170609 0.043259721 -0.66440779 0.26333401 -0.69944084 0.00052121578
-0.015069997 0.016366091 0.042039551 -0.64226764 0.32989356 -0.69185448 0.0013169899
-0.013121535 0.01748905 0.040894985 -0.5959118 0.48068705 -0.64329553 0.0016717677
-0.014274186 0.018840007 0.042872131 -0.57927209 0.48610523 -0.65432835 0.001723543
-0.012243605 0.019577615 0.041707072 -0.5676859 0.54975444 -0.61278284 0.0026651588
-0.010022054 0.020575896 0.040720485 -0.49263874 0.6550625 -0.5728876 0.0013786358
-0.011570973 0.021491073 0.042942617 -0.49059859 0.63529915 -0.5964126 0.0013398705
-0.0090352306 0.022389401 0.042008314 -0.41792646 0.73499197 -0.5339703 0.0012103032
-0.0066638542 0.023052018 0.04109377 -0.33801284 0.78239638 -0.52307093 0.0021195624
-0.0040059313 0.023844827 0.040771376 -0.21503608 0.87101579 -0.44169098 0.0029107837
-0.0076605314 0.023980189 0.043187868 -0.33535019 0.79245269 -0.50946939 0.0011963969
-0.0059002209 0.02413176 0.042425707 -0.26481849 0.84831619 -0.4585093 0.0037204616
-0.0033443978 0.024636056 0.042103592 -0.14345609 0.91901022 -0.36720654 0.0041675507
-0.00039847521 0.024815843 0.041946989 -0.015919635 0.95789796 -0.28666732 0.0034956306
0.003219113 0.024411257 0.041659009 0.070485279 0.96298957 -0.26015943 0.0012526042
-0.011086505 -0.0034957335 0.045404088 -0.6269908 -0.75380766 -0.19661243 0.0035028434
-0.0095032109 -0.0045338674 0.044445273 -0.63073927 -0.75549883 -0.17717089 0.0029811643
-0.014118821 -0.000545691 0.045243435 -0.68749613 -0.64628702 -0.33115286 0.0023523797
-0.012485823 -0.0020506815 0.044769056 -0.66737902 -0.68459052 -0.29315698 0.0018709116
-0.017273121 0.0025871885 0.046053529 -0.70123732 -0.51232845 -0.49576783 0.0013638504
-0.015490896 0.0013689734 0.04476089 -0.70844835 -0.55249131 -0.43915182 0.0031352353
-0.017813211 0.004473893 0.045129616 -0.75147843 -0.38460034 -0.53606218 0.0021370233
-0.016325952 0.0034276834 0.043900244 -0.75435579 -0.44793347 -0.4798989 0.0031414391
-0.01985034 0.0076747015 0.045934781 -0.75100273 -0.28086025 -0.59758884 0.0030211234
-0.018499402 0.0070577553 0.044568468 -0.77689576 -0.23715667 -0.58325791 0.0040140427
-0.020212926 0.01031241 0.045705177 -0.73971683 -0.066506311 -0.66962367 0.0029512607
-0.018788245 0.010171711 0.044212934 -0.74486923 -0.030813703 -0.66649848 0.002417099
-0.020150196 0.013310834 0.045761988 -0.70415431 0.11815243 -0.70014769 0.0022165731
-0.018562732 0.013535299 0.044285387 -0.70934057 0.12964886 -0.69283992 0.0017868353
-0.019837685 0.015667841 0.046072636 -0.65358645 0.30990645 -0.6904946 0.0018463307
-0.018074522 0.016430799 0.044837181 -0.64889497 0.32220766 -0.68928766 0.0023937165
-0.016363749 0.017394941 0.043752331 -0.6431396 0.33698231 -0.68761504 0.0018463529
-0.017742284 0.018742137 0.045823693 -0.57906669 0.45102322 -0.67916101 0.0020608555
-0.015608479 0.019577742 0.044578735 -0.57251233 0.50412107 -0.64659995 0.0019773829
-0.014700541 0.021584611 0.045587577 -0.51364839 0.60815835 -0.60523438 0.0014768661
-0.012323478 0.022580821 0.044781029 -0.42613339 0.6931743 -0.58130878 0.0015107931
-0.0098807756 0.023372937 0.043931779 -0.37725312 0.75355154 -0.53836811 0.0033325772
-0.011097385 0.024129178 0.045848798 -0.39922681 0.76114583 -0.51115066 0.0029253827
-0.0089217788 0.024531137 0.045053847 -0.31499687 0.84239978 -0.43719509 0.0041313162
-0.0062615238 0.025247097 0.04489895 -0.20100997 0.90715486 -0.36968231 0.0042515337
-0.003269475 0.025629628 0.044780903 -0.11896005 0.93263 -0.34066075 0.0027357282
-0.00066995207 0.025665496 0.045386475 0.0033715691 0.9669863 -0.25480613 0.0015046187
0.0019311355 0.025076117 0.04420593 0.02313729 0.96458817 -0.26274413 0.0014586133
-0.01140525 -0.0037592382 0.047644537 -0.57525617 -0.80533439 -0.14323711 0.0017414936
-0.0087947175 -0.0053302003 0.047917452 -0.58572608 -0.80045289 -0.12727961 0.0016824884
-0.014971495 -0.00098603079 0.047917712 -0.65073299 -0.70165807 -0.29021096 0.0019867169
-0.01310746 -0.0024518773 0.04773904 -0.58697504 -0.78660774 -0.19159454 0.0034880829
-0.01781488 0.0017383383 0.048159748 -0.67917883 -0.6068812 -0.41280907 0.0024944213
-0.016090166 0.00055165286 0.04700594 -0.6805678 -0.62923616 -0.37535229 0.0027210375
-0.020289393 0.0046664029 0.048426222 -0.72417492 -0.46373162 -0.51041514 0.0027880489
-0.018907499 0.0038852976 0.047219567 -0.72662014 -0.45267436 -0.51682609 0.0033984871
-0.0229974 0.0083120586 0.04932807 -0.70117086 -0.35572669 -0.61791426 0.0035850615
-0.02127357 0.0072305705 0.047827903 -0.72530222 -0.32612073 -0.60628539 0.0033593974
-0.02321171 0.010517642 0.048839353 -0.70789915 -0.13799591 -0.69270194 0.0034191485
-0.02185837 0.010359969 0.047439698 -0.71033198 -0.092352763 -0.6977818 0.002313819
-0.023367347 0.01323983 0.048850015 -0.68204463 0.067679562 -0.72817212 0.0028450075
-0.021750208 0.013599929 0.04736216 -0.68331963 0.083989277 -0.72527248 0.0020619871
-0.023160771 0.015478051 0.049093418 -0.65734631 0.26061538 -0.70708942 0.001803559
-0.021270122 0.016487382 0.047751106 -0.63334137 0.30590478 -0.71084523 0.0023484917
-0.020595117 0.018902738 0.048423171 -0.59773135 0.4358398 -0.67287517 0.0022199112
-0.018581891 0.019731745 0.047242332 -0.58487672 0.4890444 -0.64711255 0.0029191214
-0.017684348 0.021974936 0.048439972 -0.51139134 0.60331267 -0.61195815 0.0019401304
-0.015471646 0.022832658 0.04759042 -0.46926594 0.68057001 -0.5626846 0.0022586752
-0.013211077 0.023661289 0.046819594 -0.41890979 0.72958118 -0.5405792 0.00063012546
-0.014450673 0.024427321 0.048829947 -0.41090474 0.75026309 -0.51794064 0.0024130254
-0.012120811 0.024925131 0.047951929 -0.3318536 0.812006 -0.48012444 0.0023150919
-0.009074172 0.025851328 0.047833744 -0.23850687 0.8835361 -0.40308625 0.0019696711
-0.0061762566 0.026335072 0.047854204 -0.10612833 0.95354861 -0.28192523 0.0030850216
-0.0035570846 0.02633046 0.047777634 -0.082214966 0.95743948 -0.2766774 0.0019722392
-0.012021275 -0.0037651241 0.051114243 -0.55046332 -0.82043135 -0.15453999 0.0010825399
-0.01041513 -0.0045522554 0.050057035 -0.55866331 -0.8190167 -0.13079317 0.0012303137
-0.016939204 -0.00051622652 0.051125526 -0.60979837 -0.74386162 -0.27352494 0.0016620151
-0.014911504 -0.0019221957 0.050907176 -0.58722919 -0.77504361 -0.23338687 0.0017676852
-0.013027911 -0.0029749528 0.049505126 -0.5606485 -0.81013834 -0.17131597 0.0013698244
-0.020277493 0.0024698419 0.051147975 -0.67693925 -0.61977142 -0.3970347 0.0022455161
-0.01854939 0.00101734 0.050762162 -0.65257865 -0.67596018 -0.34237263 0.0029213314
-0.023304762 0.0052944021 0.051978599 -0.69125885 -0.51469016 -0.5072034 0.0022678741
-0.021664929 0.0043258877 0.050762624 -0.68369162 -0.55718201 -0.47128978 0.0037095856
-0.025789572 0.008646776 0.052373361 -0.70721799 -0.35886645 -0.60914499 0.0018137424
-0.023985405 0.0074605988 0.051027708 -0.70376337 -0.36551127 -0.60919511 0.0024726379
-0.022324266 0.0061350409 0.049883526 -0.69356507 -0.50640154 -0.5123719 0.0027911358
-0.026113547 0.010833321 0.051862281 -0.73305297 -0.21465643 -0.64541149 0.0035806962
-0.024571126 0.010370411 0.050345115 -0.72982973 -0.16124213 -0.66434151 0.0025447642
-0.026281683 0.013379331 0.051720753 -0.72097743 0.014828428 -0.69279981 0.0034995864
-0.024698084 0.01336808 0.050171379 -0.71189332 0.037669137 -0.70127666 0.0022371933
-0.0260543 0.015978191 0.051948845 -0.66576988 0.22454526 -0.71156865 0.0023496794
-0.024328694 0.016409181 0.050514601 -0.6662783 0.28358501 -0.68967587 0.0028498722
-0.023893921 0.019038741 0.051448315 -0.59925354 0.42348009 -0.67938191 0.0024925051
-0.021858662 0.01987106 0.050220706 -0.57689255 0.48952192 -0.65388316 0.0027116884
-0.020852624 0.022059891 0.051235855 -0.52773398 0.59435713 -0.60682499 0.001875532
-0.018643579 0.022892602 0.05023016 -0.48123604 0.66644603 -0.56943965 0.002994753
-0.017830934 0.024355963 0.051463217 -0.41538683 0.75825983 -0.50248957 0.002268313
-0.015252348 0.025216229 0.050782986 -0.39525768 0.77683169 -0.490208 0.0022144692
-0.012486424 0.026197195 0.050800283 -0.25401524 0.89725703 -0.36111781 0.0013634562
-0.010150557 0.026463274 0.049979728 -0.13664964 0.93399763 -0.3301141 0.0063587329
-0.0091355648 0.027093176 0.051677398 -0.12418672 0.95082998 -0.28372529 0.0037366024
-0.0070282016 0.02710652 0.051894989 -0.11787338 0.95041853 -0.28776798 0.0037653677
-0.017662374 -0.00072296639 0.053970415 -0.59754574 -0.76733947 -0.2326571 0.0013019574
-0.015607649 -0.0019166872 0.053291123 -0.56754565 -0.79835922 -0.20128195 0.00070580223
-0.020982759 0.001851785 0.053811785 -0.63824254 -0.7066136 -0.3055222 0.0019951167
-0.019233294 0.00046660448 0.053508084 -0.6077866 -0.75660503 -0.24113125 0.0012836361
-0.023798052 0.0044106375 0.054067854 -0.67868036 -0.61148852 -0.40678591 0.0026262039
-0.022136744 0.0031115008 0.053322863 -0.64851922 -0.68204355 -0.3379932 0.0015138788
-0.026612509 0.007693327 0.054283369 -0.72295392 -0.46040523 -0.51513559 0.0040703225
-0.024999408 0.0065479185 0.053119931 -0.70543009 -0.51309437 -0.48898113 0.0016482235
-0.029127641 0.011102227 0.05511814 -0.72137141 -0.30849889 -0.62004173 0.0029113889
-0.027580097 0.010267812 0.053726893 -0.72559005 -0.3018544 -0.6183874 0.0072607305
-0.029377345 0.013218434 0.054858793 -0.70654345 -0.052970469 -0.70568442 0.0049161515
-0.027997447 0.013249745 0.053441759 -0.7026512 -0.011956275 -0.71143395 0.002983962
-0.029299475 0.016145781 0.055032175 -0.65752792 0.21181202 -0.72304404 0.0047443104
-0.02763553 0.016491629 0.053572457 -0.67876351 0.22296511 -0.6996904 0.0036492373
-0.02697316 0.019117914 0.054193575 -0.62240213 0.39795089 -0.67398119 0.0021821607
-0.024695173 0.020161413 0.052903455 -0.5675326 0.45524946 -0.68604285 0.0033567597
-0.026101433 0.021092772 0.054828156 -0.51861936 0.58408689 -0.62440097 0.0011554334
-0.023937138 0.022158027 0.054018784 -0.51963544 0.62021631 -0.58763158 0.0025639143
-0.021776995 0.023128636 0.05317283 -0.48374179 0.65498459 -0.58050752 0.0026818113
-0.022766573 0.024132434 0.055397402 -0.46728244 0.76432002 -0.44436699 0.0052435012
-0.020878172 0.024453558 0.05421694 -0.42365181 0.75926381 -0.49400166 0.0022817443
