# .PCD v0.7 - Point Cloud Data file format
VERSION 0.7
FIELDS x y z normal_x normal_y normal_z curvature
SIZE 4 4 4 4 4 4 4
TYPE F F F F F F F
COUNT 1 1 1 1 1 1 1
WIDTH 560
HEIGHT 1
VIEWPOINT 0 0 0 1 0 0 0
POINTS 560
DATA ascii
-0.028409475 -0.034688324 -0.0086027589 0.24152686 -0.92445421 -0.29504097 0.00074539863
-0.068063952 -0.032341518 -0.0082923202 -0.48599637 -0.57256943 -0.6602816 0.026407829
-0.066016346 -0.032873802 -0.0090507809 -0.30056766 -0.65820348 -0.69023716 0.018909859
-0.063274503 -0.033559326 -0.009286562 -0.22218229 -0.7911815 -0.56979543 0.0021908518
-0.060327239 -0.033980455 -0.0097493343 -0.22265218 -0.84130001 -0.49258533 0.0051179859
-0.057394609 -0.034556001 -0.010101339 -0.22914197 -0.86614919 -0.44416153 0.0026669519
-0.026522368 -0.033972479 -0.0094934311 0.26647016 -0.89983898 -0.34537452 0.00065032969
-0.024049453 -0.033361714 -0.0090026567 0.3044869 -0.90412253 -0.29975039 0.0016930681
-0.021063138 -0.032210037 -0.009410888 0.34041119 -0.89545578 -0.2868436 0.0018680256
-0.06848108 -0.029972419 -0.0086171338 -0.72249162 -0.027940059 -0.69081485 0.026547784
-0.066871509 -0.030067757 -0.0098421071 -0.59463829 -0.048527244 -0.80252743 0.013246696
-0.01799779 -0.031102126 -0.0092322361 0.35890508 -0.89637846 -0.26017857 0.0012182445
-0.015030535 -0.029835388 -0.0091480147 0.40157637 -0.86171138 -0.31014517 0.0019804828
-0.012804026 -0.02887656 -0.0090425024 0.4009845 -0.86352253 -0.30584362 0.0019917134
-0.068225481 -0.027389813 -0.0080834469 -0.70858747 0.35711667 -0.60858148 0.01120791
-0.066453874 -0.026923008 -0.0094195241 -0.61875212 0.36204699 -0.69718558 0.0094496785
-0.011279772 -0.028029956 -0.0091936048 0.43383044 -0.84196281 -0.32076439 0.0012824852
-0.0090814931 -0.026839448 -0.0090659549 0.45544997 -0.81274748 -0.36332741 0.0011333828
-0.0069770245 -0.026052082 -0.0081265699 0.46747139 -0.8067829 -0.36134717 0.0010632478
-0.065465935 -0.024621686 -0.0086889612 -0.65113211 0.49114853 -0.57861918 0.0027004704
-0.063860968 -0.023593556 -0.0097010219 -0.66881633 0.41469413 -0.61701983 0.0053368537
-0.0057952325 -0.024820138 -0.0092757354 0.49334005 -0.77788246 -0.3892487 0.00071179809
-0.0033115405 -0.023364868 -0.0088520851 0.51103348 -0.75450599 -0.41178352 0.0017635981
-0.0015040515 -0.022899462 -0.0073830993 0.5227465 -0.77515393 -0.35478505 0.00068944512
-0.062681012 -0.02144037 -0.0088933939 -0.69657803 0.58242869 -0.41899377 0.0047701243
-0.061076015 -0.020174781 -0.0098077469 -0.68825108 0.60451472 -0.40108889 0.0030731263
-0.0022965977 -0.022116404 -0.0098081138 0.51282322 -0.72169894 -0.46493328 0.003352972
-0.00015684357 -0.021036226 -0.0090013836 0.54194301 -0.71461809 -0.4422881 0.0027639712
0.0020671962 -0.019834753 -0.0082278997 0.54989171 -0.69609731 -0.46159256 0.0014557285
-0.059493966 -0.018434655 -0.0097404476 -0.6773321 0.62523377 -0.38769037 0.0033895609
-0.058108278 -0.01706288 -0.0098824706 -0.6268689 0.63729376 -0.44820976 0.0020651908
0.0010261051 -0.019321129 -0.010191074 0.55276406 -0.63144612 -0.5438084 0.0010405788
0.0030307947 -0.018292574 -0.0092792343 0.559205 -0.65066087 -0.51374143 0.00243924
0.0050224168 -0.01731992 -0.0083879689 0.56121618 -0.64468622 -0.51905298 0.0007223736
-0.056602702 -0.01549685 -0.0092656519 -0.6404177 0.69067705 -0.33590239 0.00079224579
-0.054452993 -0.013873987 -0.010001367 -0.60638708 0.70037067 -0.376531 0.0016753041
0.006227118 -0.015464408 -0.0092656026 0.56743592 -0.62287796 -0.53855324 0.00091311621
0.0082454961 -0.014318677 -0.0083800228 0.5882085 -0.60696429 -0.53442031 0.0013225861
-0.053869434 -0.013219565 -0.0092702415 -0.60638589 0.70036942 -0.37653521 0.0016812773
-0.051637873 -0.011673336 -0.010087104 -0.58851635 0.70662093 -0.39285535 0.0015906468
0.0093802325 -0.012345249 -0.0092360098 0.59638411 -0.53937918 -0.59447134 0.0022132946
0.011294948 -0.011438334 -0.008053815 0.63151056 -0.55047154 -0.5460546 0.00093203463
0.010194125 -0.010308767 -0.010105869 0.58798349 -0.49746534 -0.63781166 0.0012238503
0.012039354 -0.009246124 -0.0090917544 0.62456959 -0.42669502 -0.65409797 0.0016725422
0.013868321 -0.008301436 -0.0079033654 0.6458571 -0.4614929 -0.60818833 0.0014630664
-0.041538805 -0.0052424963 -0.0095755961 -0.44290453 0.80593348 -0.39281914 0.0023719938
0.012848726 -0.0064621801 -0.0099948402 0.63908517 -0.27583063 -0.7179746 0.0072627096
0.0146951 -0.0057890508 -0.0085971728 0.647062 -0.31102195 -0.69611502 0.00346435
-0.035747565 -0.0020713429 -0.0081846323 -0.42220142 0.86869818 -0.25905502 0.0011964745
0.013069449 -0.0036384696 -0.010271194 0.55771935 -0.057489689 -0.82803625 0.0015473646
0.014890563 -0.003010117 -0.0090691997 0.57345313 -0.086423732 -0.81466705 0.0014233713
0.016943177 -0.0027639149 -0.0076203984 0.6230821 -0.2021651 -0.75557786 0.0035360327
-0.033062957 -0.00092045916 -0.009342026 -0.38859177 0.86261976 -0.32385725 0.0037004692
-0.02983504 0.0005605598 -0.0093404707 -0.37377062 0.88229352 -0.28610075 0.002123907
-0.028166121 0.0013558497 -0.0088164266 -0.36253697 0.89911413 -0.24527688 0.0013544027
0.013068758 0.00067910599 -0.010300366 0.48768798 0.064369693 -0.87064171 0.0022100857
0.014916696 -9.2731789e-06 -0.0092625506 0.5176518 0.028097618 -0.85512996 0.0024190813
0.017193979 0.00010161474 -0.0078040492 0.58378172 -0.024943871 -0.81152731 0.0021621976
-0.026291125 0.002041169 -0.0095435586 -0.34719405 0.89630932 -0.27583674 0.0027397445
-0.023867484 0.003049368 -0.0093111098 -0.32298231 0.8938362 -0.31102952 0.0026928526
-0.021401744 0.0039192257 -0.0094763208 -0.3186489 0.88784975 -0.33194238 0.0036911329
0.012501474 0.0032027652 -0.010006517 0.39571404 0.24414541 -0.88532674 0.0025259322
0.014926217 0.0029521966 -0.008916405 0.47948751 0.16283679 -0.86230844 0.0012070386
0.016994853 0.0028487882 -0.0077355769 0.52425492 0.15736485 -0.83689487 0.0035281803
-0.020068327 0.0046619554 -0.0088703986 -0.31833059 0.89049882 -0.32508072 0.0037882882
-0.017958339 0.0052965847 -0.0090445187 -0.29109564 0.89123154 -0.34780669 0.0033665837
-0.015002828 0.0062575438 -0.0089738742 -0.27575892 0.8831746 -0.37942031 0.0041933809
-0.012111014 0.0068994141 -0.0093319695 -0.22627237 0.85389805 -0.46867791 0.005601998
-0.009208763 0.0071584708 -0.0099282544 -0.15011229 0.81037945 -0.56634927 0.0032652053
-0.0073791388 0.0072676991 -0.010338059 -0.12528557 0.75700456 -0.64128602 0.0036257873
0.0062537799 0.0071182423 -0.010148592 0.15492284 0.54819429 -0.82187706 0.0017009962
0.0091985948 0.0064701061 -0.0098008299 0.24093512 0.45709124 -0.85616457 0.0026441715
0.011956297 0.0059140134 -0.0092014689 0.31860271 0.39271575 -0.86270887 0.0024234292
0.014712755 0.0056872093 -0.0081603983 0.41579995 0.32544383 -0.84923303 0.0011060061
0.016796382 0.0045538698 -0.0074444325 0.45807904 0.2315889 -0.85821337 0.003901402
-0.011181055 0.007840259 -0.0080822911 -0.24563953 0.85843354 -0.45028102 0.0034253362
-0.0088463696 0.0082002059 -0.0085407272 -0.21550882 0.82804394 -0.51758969 0.0026542842
-0.0059587476 0.008534316 -0.0089074075 -0.16156214 0.81308383 -0.55927855 0.0034121664
-0.0030273716 0.0088109653 -0.0090693282 -0.10059853 0.76522684 -0.63585204 0.0021201884
-4.817266e-05 0.008964058 -0.0091619659 -0.081576712 0.73125809 -0.67720515 0.0027992786
0.0028438699 0.0088751372 -0.0092493212 0.048761256 0.66705465 -0.7434113 0.0014922727
0.0058073178 0.0088799018 -0.008913314 0.11321637 0.61832768 -0.77772284 0.0015986775
0.0089490432 0.0088302791 -0.0083844047 0.18362474 0.56103528 -0.80716872 0.0019449776
0.011775261 0.008381471 -0.0079655796 0.27669188 0.49729678 -0.82227582 0.0015026565
0.013743753 0.0079076048 -0.0075508268 0.33952478 0.44134641 -0.83062398 0.0030950371
9.8455232e-05 0.010499412 -0.0075485222 -0.082190149 0.76242876 -0.64183116 0.001218426
0.0028428789 0.010496959 -0.0076821307 -0.006790773 0.74440563 -0.6676932 0.0017846838
0.0058162007 0.010499867 -0.007523349 0.071892641 0.66718668 -0.74141318 0.0013636242
-0.065087587 -0.034912713 -0.0060620666 -0.23423895 -0.79036254 -0.56609118 0.0022173144
-0.06355115 -0.034822766 -0.0070804865 -0.18434435 -0.86556411 -0.46563509 0.0023257427
-0.058985792 -0.03528896 -0.0069875927 -0.18022221 -0.8558917 -0.48473644 0.0026615199
-0.067888215 -0.033442676 -0.0071559758 -0.45746717 -0.63784057 -0.61958313 0.028236058
-0.066112459 -0.034387823 -0.0068174214 -0.37650719 -0.73884922 -0.55887753 0.023656942
-0.02144276 -0.032787412 -0.0067792446 0.34197986 -0.90707731 -0.24548025 0.00090551062
-0.018708711 -0.031896017 -0.0064690621 0.3555811 -0.89903569 -0.2555325 0.0010726114
-0.069255769 -0.030693142 -0.0071904571 -0.72549045 -0.1464666 -0.6724664 0.052579895
-0.015280031 -0.030537447 -0.0062576742 0.37741616 -0.89019781 -0.2551567 0.00091130863
-0.012531783 -0.029398926 -0.0061485181 0.410119 -0.86540043 -0.2878969 0.0015907928
-0.06852632 -0.026244931 -0.0066284686 -0.70863616 0.35711202 -0.6085276 0.011181993
-0.010676077 -0.028437374 -0.0067387731 0.43008915 -0.8751601 -0.22162597 0.00051269832
-0.0088429786 -0.027520718 -0.006740571 0.45684692 -0.84961098 -0.26353768 0.0005883064
-0.0060961307 -0.026063733 -0.0066004782 0.49564698 -0.82968038 -0.25683564 0.0010186721
-0.067864515 -0.025053604 -0.0059225322 -0.7053296 0.38326585 -0.59633672 0.0091497041
-0.066363633 -0.024087619 -0.0066788853 -0.6511308 0.49113378 -0.57863307 0.0027032783
-0.0047222893 -0.025242222 -0.0065466375 0.50621659 -0.82231039 -0.25990444 0.00083509367
-0.0030965768 -0.024293713 -0.0062476108 0.51576197 -0.80454892 -0.29443285 0.0017608907
-0.00078880368 -0.023106854 -0.0054675136 0.5182054 -0.80734962 -0.28222281 0.0017390926
-0.061491869 -0.019713029 -0.0070708902 -0.70907331 0.5772438 -0.40497488 0.0044791005
0.00043552183 -0.021919996 -0.0065210001 0.54714161 -0.77837658 -0.30784062 0.0010480756
0.0026833871 -0.020512182 -0.0059872456 0.55679137 -0.75446039 -0.34752384 0.0016760289
0.0044533098 -0.019844785 -0.0045740218 0.5586288 -0.776586 -0.29128706 0.0010620162
0.0037587788 -0.019261032 -0.0069568814 0.54470253 -0.75311083 -0.36894861 0.001753109
0.0058263829 -0.018164687 -0.0059735463 0.57595295 -0.74050611 -0.34630752 0.00074407249
0.0081323683 -0.016751498 -0.005071234 0.59256095 -0.70565969 -0.38847905 0.0016163985
0.0071940534 -0.016514435 -0.0069232197 0.59943771 -0.67785501 -0.42566076 0.0011976046
0.0091452207 -0.015168989 -0.0062519168 0.61417091 -0.65609622 -0.43855664 0.002385099
0.011074947 -0.014110284 -0.0051649837 0.62376416 -0.64262158 -0.44492227 0.00098565384
0.010397824 -0.013302326 -0.0070751817 0.61285406 -0.60971236 -0.50265372 0.0026283718
0.012234792 -0.012292763 -0.0059623132 0.639072 -0.61684924 -0.45943886 0.0007131109
0.013913054 -0.011074602 -0.0051758112 0.65182596 -0.57280087 -0.49701309 0.00087026146
0.013138747 -0.010088891 -0.007346502 0.64055711 -0.5365817 -0.54933298 0.00069619867
0.015040891 -0.0089898389 -0.0060308157 0.67674834 -0.48261529 -0.55596244 0.0016444568
0.016656 -0.0083282292 -0.0046588839 0.6751464 -0.52463531 -0.51858956 0.00085441489
0.016041389 -0.006717219 -0.0067043188 0.68779129 -0.41473064 -0.59576982 0.002698703
0.017645277 -0.0057119867 -0.0055760047 0.68633455 -0.38906154 -0.61447215 0.0010277182
0.018312039 -0.0030868798 -0.006307296 0.65816152 -0.24282797 -0.7126416 0.0019824421
0.019895626 -0.0025433048 -0.0049055098 0.6990549 -0.29262355 -0.65245211 0.0022954517
0.018575158 -0.00012568384 -0.0066764178 0.63446242 -0.066038162 -0.77012753 0.0019227739
0.020264182 5.2981079e-05 -0.0052368315 0.66534632 -0.1321993 -0.7347365 0.0037563564
-0.027595555 0.001808465 -0.0072367401 -0.36253634 0.89911443 -0.24527691 0.0013550452
-0.02395167 0.0034111296 -0.0069499076 -0.36709592 0.90449393 -0.21709731 0.00092123321
0.018376984 0.0029989374 -0.0067594596 0.57749528 0.082028851 -0.81226254 0.0019208463
0.020549452 0.0029539466 -0.0051882062 0.5999617 0.040557712 -0.79899997 0.0030816142
-0.020759791 0.0047864621 -0.0066942782 -0.3323034 0.89729285 -0.29058552 0.0017730773
-0.018407986 0.0058450918 -0.0060778949 -0.31919512 0.91056454 -0.26265326 0.0010021116
-0.015293364 0.00713136 -0.005947873 -0.31418526 0.91005719 -0.27033964 0.0013260845
0.015892157 0.0068448861 -0.0070917755 0.38689274 0.33702379 -0.85832918 0.0017454949
0.018009052 0.0059691495 -0.0062966449 0.50409693 0.23533434 -0.83096576 0.0017563421
0.020320047 0.0058091101 -0.0049535842 0.54024571 0.20583779 -0.81594449 0.002315569
-0.013936091 0.0077802395 -0.0054280073 -0.32981825 0.90228397 -0.27767521 0.0013409269
-0.011950969 0.0083053429 -0.0063165957 -0.31302628 0.90294617 -0.29445326 0.0022060163
-0.0090384129 0.0093622692 -0.0060535809 -0.27680045 0.89780188 -0.34253943 0.0040817922
-0.0063463249 0.0098911989 -0.0066381441 -0.2170452 0.87428761 -0.43418023 0.0049498403
-0.0040231934 0.010047495 -0.0072318674 -0.1651426 0.84131342 -0.51470351 0.0046333498
0.010165544 0.010046713 -0.0072765709 0.17804249 0.57364017 -0.79952353 0.0012281847
0.012292428 0.0096243601 -0.0069911191 0.22534136 0.54664361 -0.80647504 0.0017392121
0.015091639 0.0089930873 -0.0063536903 0.35787922 0.43107235 -0.82831097 0.0013339657
0.017928995 0.0088428054 -0.0051895985 0.42216143 0.38222992 -0.82199764 0.0018226871
0.019837392 0.0081590638 -0.0045617493 0.47168499 0.34754002 -0.81038833 0.0014449137
-0.0056651365 0.010693816 -0.0053092716 -0.29435989 0.87193823 -0.39124936 0.002944065
-0.0030353549 0.01108107 -0.0059130983 -0.19902685 0.84922403 -0.48908773 0.0024795348
-9.4986986e-05 0.011654727 -0.0059062224 -0.15703839 0.81799716 -0.55337125 0.0027616147
0.0028790347 0.011951273 -0.005973231 -0.061479885 0.78737372 -0.61340278 0.0027933358
0.0058266316 0.012138696 -0.0058796844 -0.023899214 0.75226396 -0.65842819 0.0020982749
0.0089816526 0.01185935 -0.0059319614 0.12495136 0.65355825 -0.74649101 0.0017838343
0.011956889 0.011686785 -0.0055115744 0.20698012 0.60621756 -0.76789296 0.0014686094
0.014812816 0.011261661 -0.0050301626 0.26915604 0.55817121 -0.78485668 0.0015674934
0.017235877 0.010669727 -0.0045366422 0.36035794 0.48157266 -0.79889297 0.001533799
-0.0029297536 -0.024745738 -0.0035589249 0.51585901 -0.81976515 -0.24874607 0.00076394866
0.00030094571 -0.022912895 -0.0033224435 0.5246948 -0.82075816 -0.22594579 0.00042694079
0.0012276955 -0.022168143 -0.0042227418 0.54735732 -0.7840324 -0.29273382 0.00081880926
0.0030714916 -0.021108385 -0.0033894568 0.55183101 -0.79311162 -0.25779185 0.00070279994
0.0046894597 -0.020160442 -0.0029763491 0.56486994 -0.77898878 -0.27221015 0.0005706693
0.0065065706 -0.018875206 -0.0029245014 0.57815504 -0.77409762 -0.25789446 0.00045212058
0.0085164085 -0.017307403 -0.0030218703 0.57887268 -0.75871593 -0.29875818 0.0012487345
0.0098437518 -0.016053444 -0.0035078835 0.60410863 -0.73180562 -0.31545728 0.00071887032
0.011517037 -0.014875399 -0.002964587 0.62446183 -0.70798683 -0.32985151 0.0017858903
0.013079124 -0.013288146 -0.0033696601 0.64760113 -0.6752131 -0.35312897 0.0012852596
0.014769822 -0.011818519 -0.0029138806 0.65099335 -0.65990233 -0.37514883 0.0013229231
0.016512616 -0.010717154 -0.001882127 0.65276492 -0.65087885 -0.38762692 0.0016988297
0.015838556 -0.010043045 -0.0037677896 0.67967683 -0.56740123 -0.4648605 0.0020052686
0.017409621 -0.0089316834 -0.0027947961 0.69976896 -0.55347848 -0.45164701 0.0016524718
0.018809056 -0.0066464292 -0.0033666594 0.71093595 -0.51171368 -0.48240981 0.0011993718
0.020261258 -0.0053420477 -0.00253285 0.71347028 -0.48037478 -0.51009828 0.0018231941
0.02109628 -0.0031548557 -0.0031231898 0.71373832 -0.34819403 -0.6077323 0.0019325048
0.022660566 -0.0022603939 -0.0017345757 0.74053723 -0.3722561 -0.55949086 0.0010926079
0.021670613 -0.00018891506 -0.0038483427 0.69638228 -0.18848731 -0.69247687 0.0024384304
0.023076151 0.00012730854 -0.002451635 0.72914958 -0.25653017 -0.63445503 0.0027093214
0.021977153 0.0029543969 -0.0040852935 0.64491522 -0.013818878 -0.7641291 0.0025493558
0.023514606 0.0030130693 -0.0026891702 0.70114535 -0.073962756 -0.70917195 0.0042999745
0.021675648 0.0061989822 -0.00395199 0.58400029 0.15967442 -0.79589432 0.0018555043
0.023545768 0.0058906279 -0.0025109621 0.63572007 0.1188881 -0.76270932 0.0035059662
-0.014465978 0.0078005497 -0.003712228 -0.33610514 0.90874255 -0.24742717 0.00058226485
-0.011700153 0.0089560896 -0.0036062808 -0.33516669 0.91356182 -0.23036489 0.00075667276
-0.0096391011 0.0098881945 -0.0030744732 -0.33503872 0.91062057 -0.24190745 0.0011767269
0.01905543 0.0099473987 -0.0041222284 0.40049851 0.400334 -0.82421702 0.0026785969
0.021010425 0.0090861339 -0.0033866675 0.52014297 0.30561456 -0.79752803 0.0019727445
0.023169616 0.0087688826 -0.0020690472 0.56151754 0.27974275 -0.77874398 0.0023392639
-0.0080222087 0.010581985 -0.0030380399 -0.33845058 0.90899622 -0.24326332 0.0012146261
-0.0060118395 0.011294475 -0.0033815284 -0.32277408 0.90600473 -0.2738108 0.0021599922
-0.0029735216 0.012468334 -0.0029889233 -0.29270655 0.90285069 -0.31493413 0.0040270374
-0.00036040181 0.013083974 -0.0033551492 -0.24235626 0.87444878 -0.42024124 0.0057100053
0.0026100846 0.013330607 -0.0040402208 -0.14221802 0.85141259 -0.50484711 0.0037427638
0.01200434 0.013270129 -0.0041556642 0.12935597 0.66352665 -0.73688495 0.0015332473
0.015014717 0.012875697 -0.0037868952 0.21859904 0.61577278 -0.756993 0.0011520126
0.017974496 0.012136938 -0.003256443 0.31420988 0.54479611 -0.77747625 0.0011380655
0.02068498 0.01169757 -0.002221256 0.41394395 0.4603405 -0.78532606 0.0023951125
0.022705834 0.010763155 -0.0015886636 0.49573195 0.38165036 -0.78012359 0.00045493661
0.00066281483 0.013932692 -0.0021761567 -0.30166033 0.87576395 -0.37688002 0.0036152196
0.0029556975 0.014231915 -0.0026906566 -0.16519907 0.83620995 -0.52293611 0.0038171904
0.005923124 0.014594056 -0.0028622607 -0.12541476 0.82648331 -0.54881382 0.0017263909
0.0088514835 0.014747465 -0.0028927745 -0.048526656 0.77211314 -0.63362956 0.002974066
0.011860497 0.014751606 -0.0027374546 0.072503112 0.71085304 -0.69959366 0.001463209
0.014806001 0.014619138 -0.0023698742 0.18231587 0.65876436 -0.72992486 0.0016178861
0.017562889 0.014187083 -0.0019010259 0.28774187 0.5907222 -0.75382477 0.0013615027
0.0053926446 -0.020022795 -0.0012010843 0.56946194 -0.78209502 -0.25306228 0.00037222425
0.0092682652 -0.017415151 -0.00070942566 0.59165275 -0.75711656 -0.27698663 0.00082218996
0.012261305 -0.015248757 -0.00019410485 0.62716395 -0.7320649 -0.26598194 0.00051681482
0.014258103 -0.013821393 0.00052318862 0.64222884 -0.71817535 -0.26789215 0.00058998639
0.015346164 -0.012633936 -0.000119681 0.6401909 -0.71940523 -0.2694656 0.00060059887
0.01711853 -0.011089513 0.0001035817 0.66742814 -0.67901558 -0.30574104 0.0014299272
0.01868112 -0.0093483087 -2.6121736e-05 0.70058131 -0.61790979 -0.35689402 0.0019458508
0.020006277 -0.0081515759 0.00053622248 0.70100546 -0.60081893 -0.38419777 0.0012513635
0.021163011 -0.0062901806 -1.6447622e-05 0.71932209 -0.55523908 -0.41747493 0.00085692573
0.022814061 -0.0048932927 0.00078339269 0.73063362 -0.51795572 -0.44485548 0.00098994235
0.022110114 -0.0040093581 -0.0010741861 0.75232542 -0.41513729 -0.51153445 0.001442241
0.02349217 -0.0030740618 0.0001534 0.75988901 -0.43172151 -0.485989 0.0025301261
0.024578894 -0.00015605614 -0.00035132794 0.76170659 -0.32291532 -0.56171942 0.0030375125
0.025759725 0.0003322782 0.001005122 0.76265246 -0.36822376 -0.53176355 0.0012521452
0.025184119 0.0027701384 -0.00089581311 0.72736675 -0.13769162 -0.67229354 0.0036080091
0.026510963 0.0030564885 0.00055798935 0.74361962 -0.20740053 -0.63562167 0.0042782822
0.025192993 0.0062279054 -0.0010514846 0.66709316 0.056601264 -0.74282092 0.0029210362
0.026837653 0.0059858025 0.00043642567 0.70157415 -0.00077697507 -0.712596 0.0039430559
0.024733653 0.0092071071 -0.00079715205 0.6042586 0.22047019 -0.76567906 0.0016506604
0.026663275 0.0089716036 0.00066348398 0.63704008 0.19146176 -0.74667412 0.0025355371
-0.0080746729 0.010851758 -0.00099595496 -0.34961131 0.9108482 -0.21937943 0.00048737487
-0.0056564179 0.012034228 -9.609852e-06 -0.35287565 0.90971231 -0.21886593 0.00048965798
-0.0035606408 0.012963219 -8.9979265e-05 -0.34902379 0.90699267 -0.23568353 0.0010766059
0.021648563 0.012941383 -0.0010114047 0.38687339 0.46732685 -0.79494315 0.0029296989
0.023844032 0.011978729 -0.00026375195 0.50738353 0.39812729 -0.76423597 0.0028737348
0.026025837 0.011590712 0.0010695676 0.5728175 0.33589247 -0.74770069 0.0012104361
-0.0022930596 0.013683321 0.00080227247 -0.35579205 0.90154636 -0.24622385 0.00085573696
0.00018807966 0.014492866 -0.00033248682 -0.34049967 0.89471942 -0.28902796 0.002057964
0.0029162783 0.015510105 -1.8220395e-05 -0.27965176 0.89256048 -0.35373795 0.0049616289
0.005667014 0.016013322 -0.00054117898 -0.1829818 0.8704195 -0.4570421 0.0044902521
0.0088756792 0.016189856 -0.0010855161 -0.068740427 0.81664747 -0.57302856 0.0017864715
0.011891888 0.016186465 -0.0011941488 0.029915711 0.75152701 -0.65902364 0.001469741
0.015101593 0.016008042 -0.00096167019 0.13082875 0.69643456 -0.70559394 0.001415484
0.018136375 0.015499135 -0.00061721401 0.21992776 0.64180195 -0.73465782 0.0010122582
0.02099959 0.015064621 0.00012397394 0.32573131 0.57375115 -0.7514711 0.0007931008
0.023646114 0.014366534 0.00099581899 0.4332276 0.49450013 -0.75351411 0.0015501765
0.0063353013 0.016868522 0.00073348684 -0.25840539 0.86358112 -0.43295991 0.002902861
0.008895224 0.017168224 0.00038551493 -0.1367542 0.8356353 -0.53198862 0.0026790637
0.011923134 0.017399833 0.00033720396 -0.026511032 0.79502261 -0.60600013 0.0024237577
0.014955465 0.017404482 0.00047845813 0.082430124 0.74022073 -0.66729194 0.0021406296
0.017828001 0.017247345 0.00085497694 0.18870926 0.67911297 -0.70936197 0.001488933
0.020426821 0.016888252 0.0013393504 0.30221564 0.62076414 -0.72340691 0.0013360659
0.014068944 -0.014357828 0.0022963076 0.64621258 -0.72556132 -0.23658018 0.0014386107
0.015956052 -0.012972325 0.0028083711 0.64765966 -0.72993243 -0.21848466 0.0011106331
0.017595746 -0.011564999 0.0027719378 0.65658832 -0.72515881 -0.20745218 0.00097150297
0.01901472 -0.010405749 0.0031612008 0.67022896 -0.70557284 -0.23013094 0.0014940666
0.020921085 -0.0084941769 0.0030707722 0.69708616 -0.65375119 -0.29441515 0.0010249455
0.02211722 -0.006955042 0.0026191664 0.71832776 -0.62263149 -0.31037903 0.0016814772
0.023352915 -0.0057172859 0.0031700716 0.73424691 -0.58149946 -0.35034242 0.0018442892
0.024739819 -0.0033642794 0.0025605862 0.7741974 -0.48586243 -0.405655 0.0019762546
0.02589857 -0.0024989354 0.0036512255 0.76516867 -0.49148136 -0.41588822 0.0018921333
0.026862627 -5.0914008e-05 0.0029426129 0.76683509 -0.39220896 -0.50807089 0.00065144757
0.028464289 0.0013131951 0.0043860166 0.77464265 -0.38871756 -0.49882606 0.0008661357
0.027949406 0.0028907154 0.0024277442 0.77578247 -0.25671801 -0.57641774 0.0024781222
0.029093979 0.0032873335 0.0039027925 0.78675443 -0.31164324 -0.53281897 0.0023719892
0.028323749 0.0059972038 0.0019695801 0.74393678 -0.055894438 -0.66590834 0.0034179832
0.029529063 0.0060985521 0.0034422032 0.78383875 -0.1234084 -0.60857809 0.0050683487
0.028117212 0.0091449749 0.0020719445 0.68466896 0.13770813 -0.71572685 0.0021567445
0.029588832 0.0090599936 0.003535667 0.72878724 0.081809454 -0.67983556 0.0036063073
0.027550561 0.012051035 0.0025109691 0.6128785 0.28148067 -0.73834181 0.0014246769
0.029378517 0.011704883 0.0039456156 0.6494838 0.25457102 -0.7164945 0.0022702527
-0.0020720228 0.013946267 0.0019365042 -0.3668668 0.89994442 -0.2356033 0.00057868549
0.00016542431 0.015197692 0.0031542149 -0.37157577 0.89829248 -0.23452522 0.00076654222
0.0023683328 0.016192036 0.0027315407 -0.34725475 0.89844441 -0.26872244 0.0023640138
0.024233481 0.015696686 0.0022599674 0.39413142 0.55184674 -0.73493236 0.0010301505
0.026679398 0.014823033 0.0032506413 0.49709418 0.44967055 -0.74208748 0.0013970801
0.028612668 0.014084382 0.0042422698 0.58056217 0.37962383 -0.72030085 0.0015348574
0.0036575515 0.016913095 0.0032919659 -0.36632621 0.88207573 -0.29622206 0.0021982503
0.0059718611 0.017723517 0.0029754951 -0.32910299 0.88250601 -0.33596772 0.004193509
0.0090449397 0.018595863 0.0028011235 -0.18892302 0.86486322 -0.46510181 0.0024738
0.011964578 0.018872721 0.0023802803 -0.07922066 0.82895869 -0.55367094 0.0016889523
0.015001796 0.018864997 0.0021734354 0.025785463 0.77205354 -0.63503426 0.0015818803
0.018020216 0.018636497 0.0023154193 0.1390921 0.71846825 -0.68151063 0.00137021
0.021075064 0.018200787 0.0028092801 0.27129394 0.6579802 -0.70246828 0.0017870972
0.023789631 0.017761258 0.0035962309 0.35728055 0.58705711 -0.72643971 0.0020802079
0.025949555 0.017140295 0.0042551546 0.46921483 0.50913537 -0.72153908 0.0010390992
0.0098889247 0.019650014 0.004324147 -0.27250975 0.86698103 -0.4172318 0.0028506161
0.012189906 0.019826567 0.003826533 -0.1537571 0.84579682 -0.51086837 0.0029190977
0.015046107 0.020099271 0.0037874798 -0.033935033 0.81001729 -0.58542329 0.0022202858
0.017798372 0.02007583 0.0038947868 0.088096239 0.76580954 -0.63700461 0.0024709608
0.020510592 0.019833794 0.0042125373 0.2068027 0.70631254 -0.67701936 0.001384369
0.017222377 -0.012370318 0.0057400553 0.64706677 -0.73868364 -0.18881458 0.00037799421
0.020719208 -0.0095425006 0.0058600395 0.6747942 -0.69764441 -0.24071766 0.0015583971
0.022679714 -0.0079071149 0.006476426 0.70571691 -0.65821141 -0.26214749 0.00051259145
0.024343384 -0.0058963536 0.0057894834 0.72826153 -0.61645097 -0.29937169 0.0012327479
0.025785627 -0.0048474665 0.0071473508 0.73034704 -0.60338396 -0.32018891 0.0015911399
0.025200741 -0.0043385918 0.0049412041 0.7481066 -0.58567715 -0.31195977 0.0015791121
0.026775206 -0.0030999386 0.0061873863 0.7638312 -0.54912317 -0.3391543 0.00054603792
0.027784107 -0.0010471463 0.0054214043 0.78439593 -0.48387679 -0.38805428 0.00094082078
0.029055977 0.00036124652 0.0064285914 0.79411316 -0.4568601 -0.40082803 0.0011566366
0.030141031 0.0028902548 0.0059965006 0.79908538 -0.34822077 -0.49010688 0.0021323445
0.03147494 0.0039072339 0.0073144375 0.79811984 -0.4030441 -0.44783953 0.0010411396
0.031034159 0.0058761653 0.0055046412 0.78909504 -0.17333235 -0.5893088 0.003558465
0.032114655 0.0059872172 0.0069643497 0.80488783 -0.26415417 -0.53139269 0.0054912441
0.031098934 0.0090831202 0.005138163 0.76091391 0.021272665 -0.64850402 0.0027238738
0.032380208 0.0088690817 0.0066854223 0.79088104 -0.030278249 -0.61122054 0.0036887049
0.030805899 0.01207618 0.0053994679 0.6996361 0.20028497 -0.68585366 0.0018056225
0.032259904 0.011811633 0.0069108545 0.73190051 0.16301695 -0.66162455 0.0029605986
0.027865274 0.016219236 0.0048782318 0.48308873 0.49096808 -0.72496593 0.0013538531
0.029897222 0.015017932 0.0058312439 0.61450642 0.37186638 -0.69577098 0.0029714825
0.031670876 0.014488382 0.0072071855 0.66712809 0.30871776 -0.67796272 0.0013905568
0.0030715037 0.017123463 0.0061325221 -0.37818706 0.89066482 -0.25237027 0.0012423914
0.0060207695 0.018653234 0.0060068308 -0.37781909 0.89103705 -0.25160635 0.0019455706
0.0080148969 0.019202167 0.0049162596 -0.33003756 0.90355378 -0.2732504 0.0035026409
0.024732029 0.018935675 0.0049820249 0.37540758 0.59562147 -0.71014386 0.0011963346
0.0270682 0.01822944 0.0057867873 0.43572733 0.57450074 -0.6928857 0.001065398
0.029417368 0.017412815 0.0068925093 0.54188657 0.47145125 -0.69576758 0.0015844814
0.009081725 0.020111751 0.006259304 -0.3949523 0.87115633 -0.29171798 0.0021158175
0.011964368 0.020982623 0.0059970585 -0.22483103 0.87628013 -0.42612678 0.0035928029
0.014872743 0.021607246 0.0060876994 -0.12298451 0.84792447 -0.51565379 0.0041116448
0.017992973 0.021544008 0.0057727252 0.041038819 0.79193091 -0.60922998 0.001342271
0.021045228 0.021154677 0.0057936511 0.18498151 0.73450822 -0.65290082 0.0018454157
0.023870056 0.020777849 0.0063526728 0.26618102 0.68750423 -0.67563713 0.00071686937
0.026509469 0.020097924 0.006999997 0.42332682 0.59287375 -0.68505108 0.0013421838
0.01609136 0.022608766 0.0073695569 -0.10912953 0.84527391 -0.52307051 0.0045961756
0.01797932 0.022600934 0.0071960776 -0.014568634 0.8172375 -0.57611692 0.0024716011
0.020588843 0.02260815 0.0073557883 0.13115272 0.77213675 -0.62177473 0.0016875881
0.024685727 -0.0065398137 0.0088508222 0.71282977 -0.65491569 -0.25091684 0.00071552861
0.02609794 -0.0051098163 0.0085967574 0.72633511 -0.63903517 -0.25312319 0.00058163493
0.027639089 -0.0033840213 0.008863505 0.75178915 -0.59653008 -0.28100672 0.0013661552
0.028944908 -0.0021968479 0.0099166129 0.76918054 -0.56797951 -0.29284909 0.0012793997
0.03006644 -6.3986052e-05 0.0090419445 0.78740352 -0.50400287 -0.35493192 0.00121128
0.030945787 0.0021306132 0.0083020721 0.81586117 -0.43946311 -0.37582275 0.00079567049
0.032121114 0.0032387055 0.0093357898 0.80863762 -0.44134423 -0.38899931 0.00095673045
0.033277042 0.0059015821 0.0089953542 0.828628 -0.2697601 -0.49051517 0.0026300547
0.034543745 0.0070155715 0.010528455 0.8329109 -0.33757329 -0.43852448 0.0036335036
0.033690065 0.0088947192 0.0085330606 0.81357384 -0.066233881 -0.57767695 0.0025522185
0.034676127 0.0091744978 0.0099525303 0.83858812 -0.126055 -0.52998126 0.003940626
0.033506036 0.012097528 0.0084437151 0.76744449 0.10862408 -0.63184625 0.0021252767
0.034740061 0.012010291 0.0099380203 0.80010223 0.060299784 -0.59682524 0.0026446648
0.033049561 0.014955945 0.0088260807 0.70789146 0.26565695 -0.65445858 0.00093699904
0.034609966 0.014481463 0.010341898 0.74173874 0.23827505 -0.62693596 0.0018126548
0.0063952934 0.019342618 0.008642504 -0.41907325 0.87253731 -0.25111005 0.00098335929
0.030276341 0.018540708 0.0083386935 0.50379092 0.50983626 -0.69732475 0.001027453
0.032437794 0.01764519 0.0095806308 0.62329459 0.40029526 -0.67176449 0.0018235645
0.0071118046 0.019837962 0.0091715548 -0.42492887 0.86998606 -0.25011948 0.0012417466
0.0093161575 0.021051941 0.0089664347 -0.42006373 0.86946756 -0.25994748 0.0017640168
0.011550233 0.021988446 0.0086483546 -0.33358851 0.88424188 -0.32685623 0.0049894932
0.024802627 0.022005215 0.0080006514 0.23667674 0.70912558 -0.66417247 0.0012329427
0.02724761 0.021373836 0.0086023677 0.38466305 0.63312483 -0.67170477 0.002083655
0.029697409 0.020709503 0.0095450096 0.47385734 0.56330144 -0.67686832 0.0018222656
0.031673349 0.019885005 0.010384807 0.55392808 0.52640146 -0.64503109 0.0012807754
0.012709077 0.022832291 0.0096763764 -0.34979221 0.87287074 -0.34020898 0.0047259503
0.015044291 0.023320524 0.0090761743 -0.2353854 0.87238818 -0.42840698 0.0029334766
0.018127317 0.023807168 0.0090092793 -0.055784103 0.84674615 -0.52906436 0.00098003971
0.020942556 0.023827985 0.0090814084 0.037755746 0.81625426 -0.57645774 0.0018464467
0.023746328 0.023469919 0.0092553739 0.2065919 0.74556315 -0.63360506 0.001849469
0.02653663 0.023172501 0.00999978 0.32865453 0.68779951 -0.64723885 0.0012160251
0.027941471 -0.0039720032 0.011845786 0.72074997 -0.67408478 -0.16164558 0.00069980917
0.029688297 -0.0021589871 0.012257574 0.74033546 -0.64265609 -0.19722202 0.0023868477
0.030879004 -0.00033399975 0.01139885 0.80042994 -0.51658303 -0.3040624 0.00094071421
0.031993896 0.00090395287 0.012376705 0.79872793 -0.51860607 -0.30509266 0.00089800358
0.033145532 0.0029632514 0.012172811 0.81756151 -0.47756633 -0.32175076 0.00083764974
0.034000725 0.0049925973 0.011287527 0.84095252 -0.38991171 -0.37519026 0.0038103107
0.035019152 0.0060746488 0.01231502 0.83903772 -0.39081675 -0.37852073 0.0037867422
0.035877444 0.008943161 0.011974646 0.85788345 -0.1962464 -0.47489288 0.0044249664
0.036337174 0.012057155 0.012176035 0.85197669 -0.012279876 -0.52343565 0.0026212861
0.035932787 0.014947485 0.012183188 0.7579214 0.22083385 -0.61383027 0.0013545684
0.033682615 0.018398538 0.011237757 0.66092968 0.36193222 -0.65740174 0.0016711554
0.03528627 0.017645961 0.012543062 0.70014769 0.33666903 -0.62964052 0.0015732509
0.0092911925 0.021620011 0.01193239 -0.45352295 0.86418629 -0.21794267 0.00043543946
0.01070603 0.022287266 0.010810206 -0.41381681 0.87497348 -0.25135052 0.0020728309
0.03064326 0.021872157 0.011237301 0.45927784 0.61065149 -0.64511132 0.0012654128
0.032936066 0.020873303 0.012317156 0.5993523 0.48803723 -0.63450491 0.0011896795
0.034902222 0.019678883 0.013319919 0.63256925 0.45250431 -0.62856662 0.0013384637
0.012283217 0.023420328 0.012073526 -0.41019481 0.8733139 -0.26279858 0.0024421273
0.014796592 0.024579471 0.012133151 -0.33110428 0.87865788 -0.34399161 0.0060361233
0.017592557 0.025031487 0.011293536 -0.15640143 0.87891459 -0.45060819 0.003762828
0.020971604 0.02515859 0.010976234 0.0068462798 0.83461708 -0.55078799 0.0023141515
0.024035117 0.024976702 0.011153881 0.15779175 0.77404088 -0.61315769 0.0014213502
0.027080031 0.024446463 0.011676757 0.28488031 0.72708887 -0.62464786 0.00091114582
0.029742455 0.023722172 0.012421681 0.38928667 0.66589135 -0.63643116 0.00079924747
0.032025903 0.02304 0.013364464 0.50517815 0.58744091 -0.63222486 0.0003822599
0.018189443 0.025902685 0.012761958 -0.22992198 0.87470627 -0.42664364 0.0033201247
0.021104222 0.026166787 0.012513619 -0.05141215 0.8573764 -0.51211578 0.0022657781
0.023796087 0.026144207 0.012688756 0.10783548 0.81701016 -0.5664503 0.0022990482
0.02636796 0.025883207 0.013106955 0.25882986 0.75878191 -0.59770995 0.0016951851
0.027101191 -0.0049655582 0.014002332 0.72074997 -0.67408478 -0.16164558 0.00069980917
0.030924747 -0.0011179144 0.013663182 0.78206402 -0.56762111 -0.25725901 0.00095628446
0.032536305 0.00047667418 0.015029633 0.79413086 -0.56655926 -0.21992454 0.0010487944
0.033881359 0.002643432 0.014753619 0.81765974 -0.50269496 -0.28058931 0.00032549977
0.034750998 0.0035270252 0.015710462 0.81202495 -0.50880724 -0.28588587 0.00029983572
0.036060102 0.0059983884 0.014919711 0.83188379 -0.44702679 -0.32884106 0.0020673203
0.037086025 0.0086886529 0.014480824 0.87320453 -0.29357904 -0.38900536 0.0054140626
0.037875153 0.0095554888 0.015555248 0.86145198 -0.30921894 -0.40284488 0.0053000473
0.03823439 0.012096714 0.015346931 0.8586821 -0.079446487 -0.50631344 0.0042252978
0.037194528 0.015460225 0.014014045 0.80794877 0.1455425 -0.57099581 0.0017136974
0.038269527 0.015019169 0.015453793 0.8400594 0.083086528 -0.53609413 0.0025332852
0.03678374 0.018091559 0.014536161 0.75331897 0.29374874 -0.58840644 0.00097689021
0.038017765 0.017735645 0.015940895 0.78016657 0.26868489 -0.56493235 0.0016893935
0.033955649 0.021951241 0.014087336 0.58746511 0.51435041 -0.62476271 0.00055553473
0.035965137 0.020767899 0.01519556 0.67764568 0.4068816 -0.61257136 0.00099490839
0.011742562 0.0236782 0.015029186 -0.46861482 0.85655326 -0.2161402 0.00055785925
0.014381807 0.025225179 0.014668809 -0.39178887 0.87621987 -0.28060678 0.0037750916
0.030373225 0.024930613 0.014064765 0.3677927 0.68399215 -0.6299867 0.0014973385
0.032924891 0.024082761 0.015085578 0.47995874 0.62082803 -0.61984855 0.0010939583
0.035056725 0.023061665 0.016044999 0.59855974 0.52437109 -0.60560805 0.00046446425
0.015696265 0.026046591 0.015185311 -0.41619781 0.85581464 -0.30718189 0.0034037172
0.01796877 0.026877167 0.015011013 -0.30587593 0.8795616 -0.36443275 0.0051882197
0.021002358 0.02765529 0.015192866 -0.12698907 0.87772745 -0.46202621 0.0036407192
0.024123473 0.02767895 0.01506885 0.029647894 0.86463773 -0.50152028 0.0026297458
0.026954545 0.027201144 0.01506619 0.23860347 0.76990491 -0.59187406 0.0011801653
0.029611742 0.026532395 0.015424753 0.34738284 0.71443254 -0.60738075 0.0012994087
0.031723551 0.026064105 0.016143113 0.41876236 0.68513125 -0.5960145 0.00097465643
0.03243015 -0.0004294212 0.018329049 0.78927863 -0.58441234 -0.18841846 0.0004822491
0.034039192 0.0017561768 0.017044613 0.79466695 -0.57043594 -0.20762329 0.001103793
0.035323635 0.0033704196 0.018085379 0.80476469 -0.55721372 -0.20461376 0.0007664435
0.036738336 0.0057106991 0.017550647 0.83400339 -0.47142375 -0.28670192 0.0016805091
0.037719756 0.0066093705 0.018765647 0.83274603 -0.47720918 -0.28072339 0.0015055907
0.038699873 0.0088420324 0.018081097 0.86132431 -0.37035149 -0.34779328 0.00406422
0.039565325 0.011871275 0.017958406 0.88312864 -0.13054183 -0.4506025 0.0021716296
0.040535755 0.01342796 0.019531826 0.9169293 -0.15988494 -0.36561927 0.0054719993
0.039656848 0.015080664 0.017694857 0.86046273 0.050715733 -0.50698298 0.001899943
0.040520012 0.015125742 0.019341934 0.88775557 0.025713753 -0.45959643 0.0043061702
0.039311133 0.018036406 0.017988775 0.82428855 0.2044995 -0.52794719 0.0012504887
0.040539086 0.016835066 0.019571969 0.8633551 0.11311363 -0.49175534 0.001863083
0.037097439 0.021430377 0.016962916 0.70097387 0.39465016 -0.59404284 0.0017652853
0.038393334 0.020835306 0.018202579 0.72872454 0.37682131 -0.57180953 0.0014362416
0.013231313 0.024978625 0.016978452 -0.45890817 0.86127132 -0.21820861 0.00085752201
0.034027167 0.02497326 0.01687021 0.53801596 0.59831929 -0.59376156 0.00044485304
0.03599932 0.024036113 0.017923176 0.60475296 0.53052348 -0.59398544 0.0027397617
0.037768058 0.023036527 0.018970607 0.66652644 0.48002464 -0.57036728 0.0010733154
0.01495441 0.026328756 0.018124267 -0.47192934 0.85676891 -0.20791779 0.0011834202
0.017731659 0.027804514 0.01776625 -0.41353726 0.87456322 -0.25323159 0.0023497238
0.020004932 0.028366132 0.016994566 -0.19349767 0.9013359 -0.38749483 0.0050487672
0.027743166 0.028362883 0.016937623 0.20784499 0.79820967 -0.56538647 0.0031013545
0.030153917 0.027869342 0.017423002 0.30858803 0.75950414 -0.57264894 0.0010005741
0.032974452 0.026863279 0.018100966 0.42231625 0.68897957 -0.58902979 0.0009865046
0.035196081 0.025939932 0.018941233 0.53976715 0.61003304 -0.58009571 0.0022625816
0.018627087 0.028649839 0.019123454 -0.42648724 0.86318278 -0.27023 0.0021269245
0.021182537 0.029163765 0.018212546 -0.21506365 0.88757497 -0.40737978 0.0051026251
0.023993893 0.029417334 0.017984031 -0.038577784 0.88460803 -0.46473679 0.0029992622
0.027091091 0.029412346 0.018310687 0.12181193 0.84155679 -0.52625477 0.002350254
0.030015079 0.02900471 0.018893937 0.28038159 0.78631437 -0.5505414 0.0020991326
0.032012179 0.028502876 0.019390235 0.40005004 0.72274488 -0.56355995 0.0013366373
0.034028515 0.0010178317 0.020423124 0.79637623 -0.5761053 -0.18408586 0.00052693958
0.03581015 0.0030169343 0.021469532 0.7956937 -0.57954746 -0.17605783 0.00035147063
0.036959574 0.0049182777 0.020503679 0.80787551 -0.55298537 -0.20382421 0.00084829214
0.038216278 0.006465768 0.020994971 0.82263303 -0.52356714 -0.22170341 0.0014618743
0.039768137 0.0088629052 0.021210289 0.8505547 -0.46558523 -0.24451391 0.0028414063
0.040787205 0.010071129 0.022563914 0.86997014 -0.39615735 -0.29361764 0.0056410073
0.040080801 0.010515347 0.019917795 0.89687359 -0.30269665 -0.3224785 0.0078655966
0.04093194 0.012044294 0.021092162 0.91637683 -0.22345635 -0.33214569 0.0033047909
0.041405752 0.014931785 0.021185828 0.91489863 -0.067957491 -0.39792237 0.0023118258
0.040063448 0.01927291 0.019705871 0.80151749 0.25347334 -0.54159123 0.0036580143
0.041179135 0.018173728 0.021048982 0.85895091 0.15633182 -0.48761028 0.0015265569
0.039793819 0.021329049 0.020378862 0.7771138 0.33143869 -0.5350163 0.0011022969
0.040878132 0.020812873 0.021693958 0.81341112 0.30228782 -0.49697524 0.0019981996
0.037157878 0.024880158 0.019902686 0.6082918 0.56810993 -0.55428535 0.0010444089
0.038858429 0.023907 0.021050405 0.69378102 0.46514809 -0.54982287 0.0019855851
0.015428634 0.027113525 0.020689815 -0.5109663 0.83783561 -0.19221066 0.00034133845
0.016744897 0.028117256 0.021189818 -0.463826 0.85406047 -0.23546986 0.0022745326
0.034089252 0.027895404 0.020126373 0.50127947 0.65148777 -0.56945807 0.0010857912
0.036139488 0.027026201 0.02102603 0.55934894 0.61584425 -0.55485559 0.0024858708
0.038006581 0.026112009 0.022072813 0.62042773 0.5710085 -0.53760463 0.0010201992
0.018290784 0.029093536 0.021179894 -0.45879221 0.85261863 -0.25010231 0.0032266716
0.020890266 0.030225569 0.021052402 -0.29205784 0.8926388 -0.3433629 0.0036061893
0.02380182 0.030771839 0.020679876 -0.12746616 0.89924091 -0.41847128 0.005504963
0.02684995 0.030740516 0.020478051 0.086672753 0.85528612 -0.51085562 0.0021351082
0.030059924 0.030396266 0.020912126 0.23930466 0.81583118 -0.5264529 0.001269569
0.032888688 0.029500121 0.021287832 0.40585798 0.72741532 -0.55330485 0.0012372786
0.035040133 0.028820785 0.022100249 0.49345055 0.67479062 -0.54878432 0.0014081601
0.024602095 0.031594645 0.022118974 -0.13784166 0.91155303 -0.38738948 0.0055171335
0.026796063 0.031584516 0.021959618 0.032012213 0.88315225 -0.46799284 0.0025927329
0.029019957 0.031609666 0.022355337 0.16095547 0.8538233 -0.49505454 0.0030115503
0.038448498 0.0059666666 0.023986032 0.80988955 -0.56050992 -0.17293769 0.00055300893
0.040136039 0.0083697215 0.023588145 0.84077156 -0.49289653 -0.22395585 0.0015688681
0.041118532 0.009611642 0.02458019 0.85136718 -0.46817267 -0.23661847 0.0029452099
0.041946732 0.011842212 0.024031213 0.90190345 -0.31107244 -0.29967338 0.0041133673
0.042566426 0.015001388 0.023779474 0.92308819 -0.11418418 -0.36724678 0.0035600776
0.042602524 0.017946951 0.023724789 0.90621829 0.067304991 -0.4174189 0.0023298634
0.042168066 0.020988453 0.024061391 0.82865417 0.28121406 -0.48399478 0.0013766206
0.040003397 0.024658779 0.023250669 0.73937827 0.41784987 -0.52794051 0.0013780824
0.041345224 0.023812316 0.024541313 0.76638842 0.39976954 -0.50282514 0.0014075891
0.015813408 0.027717562 0.022803197 -0.48829487 0.84921521 -0.20100172 0.00072776648
0.036899015 0.028053479 0.022969583 0.56877762 0.62014359 -0.54029059 0.00051876775
0.038879894 0.027055154 0.024157206 0.66901731 0.53548878 -0.51542938 0.0011881968
0.040520892 0.026129896 0.025294388 0.70057166 0.50253445 -0.5066148 0.0014574731
0.018454861 0.029726861 0.023631761 -0.49262774 0.8458252 -0.20468907 0.00079358811
0.020674657 0.031053932 0.023917368 -0.35002279 0.8912577 -0.28834656 0.0035451283
0.033232756 0.030832699 0.023463484 0.34508795 0.78330261 -0.51706028 0.001153138
0.035766192 0.029921772 0.024265701 0.46418461 0.72088611 -0.51464158 0.00084445893
0.037700228 0.028982708 0.024919001 0.58773345 0.6181429 -0.52198553 0.0010331384
0.02176664 0.03175151 0.024587682 -0.36387512 0.88099718 -0.30238855 0.0034600901
0.023934698 0.032242652 0.023980124 -0.21589622 0.91554368 -0.33936486 0.0031954825
0.02698263 0.032678287 0.024144242 -0.027921176 0.91101819 -0.41141981 0.0018802958
0.029877977 0.032422949 0.02422039 0.17228833 0.86694068 -0.46768647 0.0022511366
0.032653026 0.031960238 0.02477199 0.32451093 0.80345082 -0.49915865 0.0014158953
0.038654611 0.0056891595 0.026645074 0.81325871 -0.55800647 -0.16504276 0.00072418415
0.040062271 0.0076559787 0.02571697 0.83064812 -0.52938366 -0.17255929 0.0018904936
0.041502342 0.0093222763 0.027200064 0.85258889 -0.49026281 -0.18092689 0.0031239865
0.042822853 0.011878084 0.027218441 0.895652 -0.40222523 -0.18979563 0.0023395473
0.043030687 0.013577001 0.025821993 0.919891 -0.27674788 -0.27786875 0.0039431769
0.043767989 0.015092989 0.027181445 0.93534595 -0.17010103 -0.31015086 0.0024634211
0.043844104 0.017797153 0.026643565 0.92981911 0.0078374045 -0.36793327 0.0034431969
0.043051101 0.02172664 0.026056016 0.87334597 0.21112102 -0.43897 0.0019352604
0.043903083 0.020789219 0.027308168 0.90259182 0.16812733 -0.39630955 0.0023003409
0.042583518 0.024086237 0.026761314 0.81128508 0.34629691 -0.47105739 0.0014304906
0.04372552 0.023051206 0.0281037 0.84869885 0.3048985 -0.43214253 0.002597803
0.039704643 0.02800169 0.026177643 0.62296712 0.60262644 -0.49875179 0.00091718865
0.041473925 0.026675733 0.027257668 0.71693218 0.49961907 -0.48619857 0.0013669924
0.019120088 0.030623423 0.026256541 -0.45434985 0.86218053 -0.22407809 0.0019010745
0.036518387 0.031019544 0.026392313 0.47503841 0.71868604 -0.50776863 0.0026395021
0.038775519 0.029714869 0.027133996 0.5927397 0.64010316 -0.48880222 0.0021744948
0.040761538 0.028511809 0.028234432 0.68495786 0.56780827 -0.45653751 0.0025576849
0.021457383 0.032241218 0.02710565 -0.42181039 0.87461394 -0.23901145 0.0010574678
0.024242906 0.033442598 0.027062112 -0.29609415 0.90598792 -0.302513 0.005172302
0.027158344 0.033982072 0.026993902 -0.057183422 0.91391605 -0.40185505 0.0024807593
0.030074572 0.033726387 0.026670111 0.12544869 0.88960689 -0.43916091 0.0023455143
0.032982327 0.033187818 0.027033905 0.30482313 0.82405192 -0.47751585 0.0014331987
0.035666928 0.032224543 0.027482009 0.44195959 0.75472736 -0.48482814 0.0011045717
0.037810609 0.031507701 0.028560648 0.56348658 0.68775481 -0.45768586 0.0012639064
0.026632627 0.03446947 0.028330484 -0.12459517 0.92788821 -0.35142484 0.0047374587
0.03034574 0.034460794 0.028204659 0.092912018 0.90862107 -0.40715489 0.0026716704
0.041388489 0.008695364 0.029814431 0.8507477 -0.49525607 -0.17592555 0.0027996185
0.042978622 0.010705322 0.030943284 0.8958689 -0.40266922 -0.18782005 0.0018454136
0.043723479 0.012512874 0.029961405 0.89587104 -0.40266952 -0.1878093 0.001841534
0.044611938 0.014958067 0.030084001 0.93579066 -0.25440833 -0.24407433 0.0031118202
0.045091592 0.018107997 0.030035863 0.94621223 -0.015709508 -0.32316503 0.0038995766
0.045107231 0.020703597 0.030209469 0.93284476 0.094551541 -0.34765026 0.001718409
0.043281093 0.025062533 0.028692314 0.78611982 0.40481359 -0.46705636 0.0015417769
0.044409961 0.02389143 0.030210203 0.881814 0.27775198 -0.3811273 0.0023244708
0.042671643 0.027147951 0.029783854 0.77300388 0.46315891 -0.43353069 0.0012428992
0.043722019 0.026416117 0.030888164 0.80620772 0.41870856 -0.41798583 0.0022106273
0.0397425 0.030507015 0.029451339 0.63174528 0.62224442 -0.46228755 0.0015388818
0.041292086 0.029636329 0.030501055 0.68340737 0.57701409 -0.44722375 0.001639253
0.021147626 0.032574788 0.029715696 -0.46213031 0.8636567 -0.20132735 0.00071160385
0.02322481 0.03382501 0.029809097 -0.37879661 0.89786172 -0.22440439 0.0033209838
0.033879176 0.034028139 0.029136589 0.26951289 0.85930127 -0.43470007 0.0022549902
0.036204778 0.033333767 0.029896131 0.40977854 0.79509747 -0.44710347 0.0015944913
0.038548417 0.032220129 0.030530861 0.54624349 0.70388347 -0.45405528 0.00090280408
0.02496331 0.034567289 0.029749652 -0.33662093 0.89729571 -0.2855638 0.0029967756
0.027023191 0.035141557 0.030128581 -0.19130598 0.93345326 -0.30342549 0.0063963737
0.029835528 0.035375409 0.030299136 0.050098199 0.92726487 -0.37103921 0.0033846432
0.032660112 0.0349955 0.030394765 0.22419593 0.88770229 -0.40214527 0.0023355612
0.034747891 0.034649529 0.030942777 0.37283 0.82238883 -0.42973757 0.0020955307
0.045420565 0.015504474 0.033107065 0.95211732 -0.21329719 -0.2190363 0.0039172615
0.046037942 0.018022237 0.033458851 0.96060598 -0.11915027 -0.25107646 0.0016147584
0.046048105 0.021267157 0.033117887 0.95288074 0.039175585 -0.30080476 0.0030137715
0.045629218 0.024048092 0.033144511 0.90707135 0.22248422 -0.35738251 0.0024754836
0.044423409 0.027080337 0.032946896 0.83029896 0.40234175 -0.38564846 0.0015105449
0.042365909 0.030244896 0.032967903 0.71230346 0.56298202 -0.41913596 0.0010726319
0.04373017 0.029076973 0.033840008 0.75367725 0.51642489 -0.40654147 0.001458823
0.021858869 0.033534862 0.03293664 -0.44588599 0.87736279 -0.1772574 0.00095605891
0.023059797 0.034205407 0.031748958 -0.40734512 0.89139819 -0.19869357 0.0027541851
0.036819741 0.034222081 0.031994946 0.39980838 0.80695164 -0.43472117 0.0024022951
0.038939998 0.033382945 0.032907918 0.51597345 0.75329709 -0.40781721 0.001020261
0.041042306 0.032163851 0.033703972 0.64006478 0.64283967 -0.42080209 0.0007813265
0.024352843 0.035021853 0.032711372 -0.40249363 0.89389849 -0.19734357 0.0025335276
0.026874883 0.03604899 0.033066228 -0.24454293 0.93148851 -0.26931006 0.0041547082
0.030009983 0.036545128 0.03330873 -0.0087382896 0.94338053 -0.3315973 0.002918625
0.032962248 0.036168955 0.033148441 0.2222127 0.89393157 -0.38923988 0.0017309187
0.03577143 0.035256632 0.033080611 0.34994146 0.84918147 -0.3955147 0.0017373188
0.037741497 0.034881532 0.03430865 0.47368699 0.78459847 -0.40003237 0.0012928748
0.044580936 0.012786867 0.034940653 0.93357438 -0.29685232 -0.20079228 0.0018866798
