# .PCD v0.7 - Point Cloud Data file format
VERSION 0.7
FIELDS x y z normal_x normal_y normal_z curvature
SIZE 4 4 4 4 4 4 4
TYPE F F F F F F F
COUNT 1 1 1 1 1 1 1
WIDTH 548
HEIGHT 1
VIEWPOINT 0 0 0 1 0 0 0
POINTS 548
DATA ascii
-0.012662061 -0.0044459375 -0.018266847 -0.16034681 0.41589925 -0.89516294 0.0022193086
-0.009862124 -0.0039574262 -0.018473623 -0.093796812 0.34519458 -0.93383235 0.0033900996
-0.006987487 -0.0035469122 -0.018539574 -0.017081141 0.26948342 -0.96285355 0.002993858
-0.0041155908 -0.0033337516 -0.018537931 0.018764675 0.22476862 -0.97423154 0.0045443242
-0.0010826715 -0.0034941018 -0.018305389 0.1307959 0.099509448 -0.98640263 0.0079242652
-0.035572179 -0.02613093 -0.015086714 -0.18270829 -0.33651817 -0.92378199 0.002836623
-0.033735648 -0.026270406 -0.015275732 -0.12440866 -0.37230816 -0.91973317 0.001517645
-0.030993409 -0.026563484 -0.015434042 -0.041901309 -0.46569338 -0.88395357 0.0016968373
-0.028152511 -0.026508274 -0.015408933 0.026156109 -0.51131886 -0.85899293 0.00150615
-0.025189949 -0.026322935 -0.01536564 0.081045099 -0.55363214 -0.82880831 0.0016620755
-0.02281799 -0.026121225 -0.015237078 0.14075002 -0.58493537 -0.79877412 0.001216033
-0.038757909 -0.022944212 -0.015093092 -0.26957723 -0.094356924 -0.95834488 0.010276068
-0.0367456 -0.024251137 -0.015381563 -0.21217333 -0.20140138 -0.95625299 0.0020850706
-0.033950865 -0.024456153 -0.015931033 -0.14102884 -0.29537386 -0.94491541 0.00092260411
-0.030925643 -0.024463968 -0.016308447 -0.092424862 -0.33641547 -0.93716711 0.0023188512
-0.027965659 -0.024455672 -0.016445972 -0.026090074 -0.39142895 -0.91983849 0.0021711155
-0.025018321 -0.024457786 -0.016414119 0.031305578 -0.43915522 -0.89786559 0.0017792558
-0.0220042 -0.024502372 -0.016074497 0.13422023 -0.50737995 -0.85120529 0.00089213968
-0.019195378 -0.024069306 -0.015859947 0.172143 -0.52622575 -0.8327384 0.0021293606
-0.016308066 -0.023670876 -0.015454203 0.22127146 -0.57049584 -0.79093206 0.0017926149
-0.013944802 -0.022935793 -0.015241001 0.27403709 -0.58502382 -0.76331574 0.00095044594
-0.038758188 -0.021806426 -0.015090141 -0.31686223 -0.00012499501 -0.94847155 0.0038823513
-0.037067916 -0.021480173 -0.015656156 -0.3064844 -0.016422171 -0.95173401 0.0028914285
-0.03408435 -0.021501595 -0.016529331 -0.22981144 -0.11342794 -0.96660274 0.0024474845
-0.031053631 -0.021502305 -0.017104585 -0.16380847 -0.18602444 -0.96879399 0.0029117786
-0.028089004 -0.021420943 -0.01750643 -0.12372901 -0.22148822 -0.96728182 0.0014521164
-0.024974052 -0.021633144 -0.017608374 -0.00765872 -0.32658952 -0.94513524 0.0031675275
-0.021959586 -0.021515097 -0.017547779 0.049394444 -0.38064694 -0.92340028 0.0025095006
-0.019074909 -0.0214603 -0.017309623 0.095922008 -0.42987221 -0.89778 0.0021014859
-0.015930109 -0.021492502 -0.016713819 0.18751085 -0.47091013 -0.86202276 0.00056388701
-0.013057474 -0.021230936 -0.016110035 0.24622618 -0.52681369 -0.81353551 0.0016575683
-0.010407169 -0.020709489 -0.015620099 0.30084938 -0.54839969 -0.78022265 0.0018864707
-0.0082597453 -0.020211458 -0.015126053 0.33680114 -0.58346844 -0.73900574 0.0012781325
-0.036954816 -0.018507937 -0.0155949 -0.34098008 0.10624906 -0.93404692 0.0019170447
-0.034078475 -0.018322511 -0.016599454 -0.29394189 0.046195619 -0.95470631 0.0019832477
-0.031113451 -0.018353753 -0.017392226 -0.23746219 -0.012469904 -0.9713167 0.0029556307
-0.028691607 -0.018695395 -0.017907355 -0.17509687 -0.061019611 -0.98265851 0.0025157169
-0.017684361 -0.01961346 -0.01800913 0.081272036 -0.32312381 -0.94286042 0.0021367315
-0.01556628 -0.019225735 -0.017782429 0.15722324 -0.38414595 -0.90978724 0.0023823425
-0.012860171 -0.018674949 -0.017513951 0.20764001 -0.42729574 -0.87994546 0.00095678185
-0.0099803293 -0.018466972 -0.016837625 0.26002347 -0.46605447 -0.84568375 0.001340777
-0.0070350217 -0.018101525 -0.015996629 0.31078342 -0.51583695 -0.79832691 0.0015999671
-0.0044313031 -0.017329179 -0.015466394 0.36166629 -0.53807718 -0.76136088 0.0015782807
-0.036083583 -0.015648387 -0.0154132 -0.3970325 0.2813549 -0.8736158 0.002451364
-0.033929404 -0.015421001 -0.016187944 -0.33597362 0.22383298 -0.91488814 0.0026188525
-0.031036239 -0.015434233 -0.017192725 -0.29133347 0.15323307 -0.94426924 0.0022049376
-0.028778575 -0.015416779 -0.017863035 -0.26206982 0.11444157 -0.95823938 0.0026322445
-0.0097039528 -0.016307494 -0.017794793 0.22875209 -0.3630653 -0.90324748 0.0018788463
-0.0069837393 -0.015430915 -0.017444961 0.27447379 -0.40796494 -0.8707633 0.0010148669
-0.0041437554 -0.015380379 -0.016469084 0.3450757 -0.44020164 -0.82894224 0.0018855783
-0.0015245611 -0.014900514 -0.015574424 0.38084644 -0.48833331 -0.7851665 0.0014229645
-0.033560239 -0.013065839 -0.015561368 -0.38431892 0.38061526 -0.84108913 0.0025774126
-0.031042794 -0.012372664 -0.016365096 -0.3395178 0.33993709 -0.87702364 0.0025679779
-0.028061749 -0.012428803 -0.017442076 -0.3034786 0.27321178 -0.91282868 0.0019563795
-0.025866939 -0.01166865 -0.017886551 -0.26941362 0.2233412 -0.93676835 0.0036932966
-0.0060824016 -0.013587221 -0.017981106 0.23507866 -0.28516537 -0.92920333 0.0026112716
-0.0038445089 -0.01273171 -0.017563192 0.30463427 -0.34350404 -0.88837093 0.001713344
-0.00096674624 -0.012425634 -0.016648786 0.34425029 -0.39668202 -0.85096127 0.001817853
0.0016865146 -0.01203537 -0.015687604 0.39328152 -0.43544722 -0.80976248 0.0016143271
0.0035739162 -0.011106967 -0.015177164 0.45330173 -0.46984535 -0.75747126 0.0019502175
-0.030394355 -0.010078899 -0.015573962 -0.383266 0.47220868 -0.79380482 0.0022804884
-0.027946418 -0.0095182778 -0.016265865 -0.34012821 0.45650831 -0.82213926 0.0024534885
-0.025055187 -0.0093842773 -0.017305912 -0.30535272 0.39146084 -0.86805427 0.00200592
-0.022421593 -0.008645596 -0.017815096 -0.25516647 0.35840511 -0.8980177 0.0029898507
-0.0027667896 -0.010572284 -0.01801962 0.24435584 -0.22158639 -0.9440285 0.0026563613
-0.00068649638 -0.0096232956 -0.017645558 0.31333423 -0.27239749 -0.90973687 0.0019142427
0.0019808903 -0.0094769355 -0.016667722 0.34415439 -0.30787125 -0.88700229 0.000757022
0.0045150891 -0.0092076752 -0.015655402 0.40332565 -0.36006817 -0.84123683 0.0022060596
-0.027360864 -0.0076576145 -0.01534755 -0.35888365 0.5394851 -0.76168132 0.00091243652
-0.024812538 -0.0069168964 -0.015984042 -0.32102159 0.51674229 -0.79367661 0.0016044079
-0.022048889 -0.0065254816 -0.016778016 -0.29211217 0.49762484 -0.81672513 0.0012968053
-0.019299293 -0.0061380998 -0.017489353 -0.25608891 0.45362294 -0.85360688 0.0017545962
-0.016584693 -0.0054009985 -0.017889222 -0.20877346 0.40243801 -0.89132327 0.0029461996
8.0692815e-05 -0.0072291857 -0.017925609 0.25246379 -0.12619847 -0.95934141 0.0022810497
0.0019802952 -0.0065144175 -0.017469227 0.29191574 -0.16186456 -0.94264781 0.0034064557
0.0049304515 -0.0065335189 -0.016438879 0.34938321 -0.23928569 -0.90591049 0.0025996142
0.0073408214 -0.0061608623 -0.015484622 0.41231874 -0.29398435 -0.86230296 0.001906264
-0.021440398 -0.0042766416 -0.015467595 -0.31985328 0.55659992 -0.76674014 0.00040395241
-0.018868582 -0.003630298 -0.016032882 -0.29130882 0.53452444 -0.79336172 0.00024914855
-0.015927289 -0.0033515862 -0.016806277 -0.25689241 0.49171516 -0.83199918 0.00056896976
-0.013055339 -0.002951819 -0.017372021 -0.20182891 0.45797676 -0.8657496 0.0010254205
-0.010188543 -0.0024380262 -0.017730564 -0.15450716 0.40905619 -0.89933336 0.0022535222
-0.0074393135 -0.0020594941 -0.017953807 -0.085734569 0.36504453 -0.92703402 0.0033526302
-5.450286e-05 -0.0022095363 -0.018035889 0.10043575 0.075173214 -0.99209958 0.007513463
0.0019799604 -0.0033421991 -0.017793829 0.17180854 0.037659008 -0.98441035 0.0029355162
0.0049258517 -0.0033505829 -0.017032323 0.26972926 -0.072087646 -0.96023411 0.0029509817
0.0080259927 -0.0033037434 -0.015884809 0.34594887 -0.15237774 -0.9257971 0.0024371087
0.010020392 -0.0026116243 -0.015213147 0.42168415 -0.22097844 -0.87940377 0.0021717204
-0.015646968 -0.0010691021 -0.015495729 -0.28730327 0.52885991 -0.79860133 0.0010425147
-0.012978292 -0.00044108974 -0.015937863 -0.23926643 0.50093204 -0.83175641 0.0008831789
-0.010038617 -0.00040600053 -0.016631035 -0.1768662 0.47654715 -0.86117435 0.00038658624
-0.0070787389 -0.00040394999 -0.017190631 -0.11374231 0.41703397 -0.90174568 0.0013065601
-0.0041300459 -0.00040276372 -0.017516386 -0.037532736 0.36832875 -0.92893767 0.0021063529
-0.0009613419 -0.00040261867 -0.017602392 0.021872452 0.30285823 -0.95278454 0.0035759918
0.0019799795 -0.00040328177 -0.017472055 0.11639514 0.22234213 -0.96799594 0.0048389384
0.0049259253 -0.00040522509 -0.016994869 0.2119865 0.11574184 -0.97039455 0.0043951161
0.0081109311 -0.00040864327 -0.016141554 0.26935837 0.033884075 -0.96244371 0.0034665465
0.010421716 -0.00028523884 -0.015373765 0.35823572 -0.054304339 -0.93205059 0.0030348306
-0.012124246 0.0011805672 -0.01525693 -0.26464343 0.5652163 -0.78134143 0.001901429
-0.0098416284 0.001718148 -0.01554111 -0.21899574 0.52349102 -0.82340628 0.0018520633
-0.0068577081 0.0024309596 -0.01580493 -0.16716099 0.47823903 -0.86217439 0.0011598649
-0.0040276223 0.0024829572 -0.016182141 -0.1075419 0.43420726 -0.89437062 0.0011240451
-0.0009692054 0.0025426531 -0.016408697 -0.035308212 0.39138493 -0.91954947 0.00073071109
0.0019804232 0.0025423411 -0.016506204 0.035333041 0.34488964 -0.93797797 0.0014912755
0.0049310653 0.0025429209 -0.016281895 0.1170166 0.27686125 -0.9537583 0.0032696582
0.0081148939 0.0025440194 -0.015861265 0.17199558 0.16948724 -0.9704079 0.0035416132
0.01045967 0.0023800875 -0.015315119 0.28614867 0.10402376 -0.95252192 0.0025808399
-0.003511399 0.0044955215 -0.015275316 -0.14863333 0.50975496 -0.84738308 0.001644659
-0.00090722623 0.0047964752 -0.015438084 -0.080151625 0.46725675 -0.88048106 0.0015492777
0.002078451 0.0049490039 -0.01546818 -0.013255374 0.42200908 -0.90649462 0.001295604
0.0049374467 0.0050469358 -0.015415531 0.045660391 0.36346671 -0.93048751 0.0013677431
0.0078272047 0.0048657819 -0.015310155 0.11483674 0.30438209 -0.94560254 0.0022547706
0.0097186267 0.0045941924 -0.015126605 0.19226015 0.27945006 -0.94071448 0.002723611
-0.042230505 -0.029320316 -0.012324525 -0.27633524 -0.42383718 -0.86255491 0.0025539205
-0.039909307 -0.029850665 -0.012634955 -0.18518399 -0.48973665 -0.85197705 0.0027116004
-0.03697427 -0.030000733 -0.01302203 -0.10205072 -0.53841764 -0.83647603 0.0024526748
-0.033991262 -0.030197281 -0.013047187 -0.035025705 -0.57607305 -0.81664741 0.0021453316
-0.031065887 -0.029908145 -0.013246852 0.027174786 -0.59374267 -0.804196 0.0013126389
-0.028044686 -0.02986595 -0.013064042 0.094919518 -0.6288507 -0.77171052 0.0013177164
-0.025109962 -0.029573493 -0.012810305 0.15557769 -0.68269491 -0.71394902 0.0010467662
-0.022335695 -0.029183336 -0.012500856 0.20458244 -0.6971035 -0.6871627 0.0014458261
-0.044760294 -0.026773568 -0.012233865 -0.3945969 -0.22898385 -0.88986504 0.0039389483
-0.042878997 -0.027358295 -0.012819579 -0.32395542 -0.25282037 -0.91166592 0.004142018
-0.04003004 -0.027360391 -0.013735756 -0.2447557 -0.31279707 -0.91774321 0.0031009414
-0.03703735 -0.02734584 -0.014365938 -0.19066207 -0.35058099 -0.91691929 0.0015581009
-0.034094915 -0.027630208 -0.014614716 -0.069619268 -0.46982679 -0.88000906 0.0015463849
-0.031058721 -0.027986057 -0.014591431 -0.0083813295 -0.51436055 -0.85753316 0.0015292349
-0.02787248 -0.02792795 -0.01453403 0.06198401 -0.55453497 -0.82984877 0.00131519
-0.024997624 -0.027699409 -0.014344912 0.11509275 -0.5919956 -0.79768091 0.0012661675
-0.021906769 -0.027430881 -0.013999967 0.16397479 -0.613828 -0.77222234 0.00055561104
-0.019143453 -0.027259652 -0.013331495 0.23047034 -0.66261446 -0.71261871 0.0012340404
-0.016346293 -0.026759503 -0.012801005 0.28799701 -0.68629742 -0.66787243 0.0018761562
-0.014054087 -0.026311107 -0.012298558 0.34076798 -0.6819185 -0.64719731 0.0013064962
-0.045177739 -0.024289846 -0.012258134 -0.46719399 -0.035785679 -0.8834303 0.0023949582
-0.043046154 -0.024418857 -0.013286652 -0.38498515 -0.085432522 -0.91896015 0.0020236741
-0.039984014 -0.024380084 -0.014485357 -0.28897548 -0.17399104 -0.94139272 0.0024120724
-0.037864208 -0.025231259 -0.014915911 -0.23675607 -0.19948044 -0.95087016 0.0014509667
-0.020553775 -0.02567926 -0.015031312 0.17476243 -0.60398698 -0.77759749 0.00058200094
-0.018704189 -0.025447883 -0.014763821 0.20521419 -0.60725951 -0.76754349 0.00071238732
-0.015869698 -0.025011146 -0.014276009 0.24992277 -0.60551339 -0.75557399 0.0010073669
-0.013011781 -0.024412723 -0.013599797 0.30515233 -0.64915383 -0.69676495 0.0017925313
-0.010309222 -0.02355626 -0.013151058 0.36140877 -0.66068637 -0.65793401 0.00114674
-0.0080955252 -0.023098759 -0.012385909 0.40287504 -0.67450714 -0.61865324 0.0014159565
-0.044919476 -0.021664964 -0.012274934 -0.50323933 0.14594558 -0.85173357 0.0034702008
-0.042975772 -0.021492075 -0.013304189 -0.43358958 0.10908963 -0.89448279 0.0036556951
-0.040087137 -0.021320347 -0.01460191 -0.3971332 0.067676462 -0.91526228 0.0013062665
-0.012134026 -0.02249667 -0.014956716 0.27368128 -0.58734483 -0.76165915 0.00085391902
-0.0097896475 -0.021948488 -0.014390187 0.32196155 -0.58916748 -0.74109542 0.0013995791
-0.007031111 -0.021299137 -0.013512351 0.3728064 -0.65096557 -0.66125578 0.0012079936
-0.0044516395 -0.020589814 -0.012677581 0.42769334 -0.65555584 -0.62235439 0.0014494704
-0.044538718 -0.019903019 -0.012164298 -0.53028131 0.20909345 -0.82163352 0.0025330002
-0.042680826 -0.018676436 -0.01290567 -0.47439307 0.26397735 -0.83980185 0.0031020686
-0.039980602 -0.018431414 -0.014240446 -0.43227205 0.19375627 -0.88068122 0.001785338
-0.038169265 -0.017566364 -0.014899904 -0.40533954 0.15717059 -0.90055376 0.0024418619
-0.0061954269 -0.019528048 -0.014624825 0.37097001 -0.61186916 -0.69856822 0.0008752115
-0.0037940172 -0.018773239 -0.013974041 0.41268799 -0.59219486 -0.69209391 0.0022545455
-0.0013049721 -0.017947406 -0.013138963 0.43446442 -0.61915094 -0.65413517 0.0016074529
0.00083745108 -0.017141193 -0.012438241 0.458253 -0.61141229 -0.64511955 0.0023424078
-0.042029515 -0.016227772 -0.01236976 -0.50963712 0.39050198 -0.76666701 0.0024857002
-0.040054303 -0.015452519 -0.013179674 -0.474071 0.38219982 -0.79320866 0.0024655326
-0.037573617 -0.015264517 -0.014517996 -0.43286744 0.32361344 -0.84136796 0.0015086468
-0.00052579422 -0.015888371 -0.014379947 0.42074278 -0.52775317 -0.73786992 0.0014085581
0.0018150036 -0.015334184 -0.013382717 0.44947839 -0.56784713 -0.68957865 0.001888753
0.0041008312 -0.014505853 -0.012484591 0.50316477 -0.5994572 -0.62247598 0.0011728568
-0.039089054 -0.013141093 -0.012507689 -0.49298126 0.4932633 -0.71670139 0.0019302064
-0.036896966 -0.012608147 -0.0135685 -0.46327958 0.44201967 -0.76810849 0.0010606936
-0.03440319 -0.011884024 -0.014565136 -0.41972721 0.42534143 -0.80181903 0.0014115714
0.0025134252 -0.013252915 -0.014535166 0.42798805 -0.49517655 -0.75605983 0.0025721085
0.004837417 -0.01232846 -0.013645003 0.47008514 -0.52072519 -0.7126466 0.0021996968
0.0072492315 -0.011642559 -0.012515264 0.51185864 -0.547562 -0.66194916 0.0013167078
-0.036101863 -0.010420105 -0.012546424 -0.46954203 0.57764769 -0.66772258 0.0010652485
-0.033812065 -0.0095620677 -0.013248283 -0.43661639 0.55100721 -0.71116596 0.0018689897
-0.031286895 -0.0089305975 -0.014288103 -0.40613189 0.52275717 -0.74952102 0.0014014669
-0.029065715 -0.0080803232 -0.014840558 -0.38660482 0.56626004 -0.72793281 0.00051084819
0.0057033794 -0.010060902 -0.014590073 0.45055124 -0.43106955 -0.78178167 0.002377633
0.0079202391 -0.0093252854 -0.013656715 0.49149203 -0.44031319 -0.75137204 0.0011125923
0.0099943802 -0.0086452421 -0.012650074 0.51974273 -0.48812684 -0.70114166 0.0014477512
-0.032616232 -0.0075264568 -0.012234423 -0.43554392 0.62055552 -0.6520831 0.00061740191
-0.030709073 -0.0068945531 -0.012910282 -0.4194254 0.60889065 -0.67330128 0.0008945759
-0.028147822 -0.0062154029 -0.013778755 -0.38705754 0.57622039 -0.71983081 0.00068533712
-0.025584938 -0.0056538614 -0.014671372 -0.34773439 0.56927854 -0.74498504 0.00026379796
0.0085600438 -0.0066512851 -0.01465694 0.44985071 -0.3368108 -0.82715946 0.0011627512
0.010799877 -0.0062835128 -0.013453091 0.49769643 -0.38732755 -0.77606422 0.0025516395
0.013053052 -0.0055380487 -0.012401516 0.5356344 -0.42197412 -0.73145998 0.0020379152
-0.027417555 -0.0043459991 -0.012630943 -0.41090706 0.64057577 -0.64870489 0.0019098477
-0.024844255 -0.0036102664 -0.013407308 -0.38204738 0.61649919 -0.68845373 0.0015090924
-0.022199815 -0.0030019586 -0.014222631 -0.34765035 0.59219623 -0.72694063 0.0015955702
-0.019654891 -0.002268099 -0.014803499 -0.31892002 0.57367021 -0.75444847 0.0012767806
0.011142028 -0.0035663033 -0.014384801 0.45563287 -0.2607826 -0.85111171 0.0010331835
0.013699516 -0.0032111383 -0.013013374 0.50610822 -0.317471 -0.80191439 0.0023174512
0.01550239 -0.0022567133 -0.012205247 0.54815507 -0.34548599 -0.76168597 0.0020034965
-0.021704227 -0.0010829971 -0.012865294 -0.38704303 0.6485489 -0.65542501 0.0027024453
-0.018994108 -0.00044929341 -0.013690044 -0.33523309 0.5902192 -0.73434329 0.00063204853
-0.016302967 0.00013041415 -0.014464859 -0.30887982 0.55904305 -0.76945698 0.0011397547
-0.014184553 0.00072521006 -0.014917318 -0.28265488 0.56799591 -0.7729727 0.0031761702
0.011749648 -0.00054029177 -0.014790045 0.41941813 -0.11283028 -0.90075403 0.0025095623
0.014018313 -0.00037259154 -0.013638007 0.45620096 -0.15166232 -0.87685752 0.0019722804
0.016149474 -0.0002918411 -0.012433637 0.50767243 -0.22800294 -0.83083296 0.0028631461
-0.018286493 0.0012951199 -0.012427662 -0.38192627 0.6921159 -0.61246061 0.0014044804
-0.015792627 0.0019263834 -0.013152911 -0.35872704 0.64419854 -0.67551696 0.002059377
-0.013103255 0.0025868895 -0.013797644 -0.29167497 0.60776669 -0.73861051 0.0014258751
-0.010287279 0.0032243445 -0.014383005 -0.25840628 0.55974567 -0.78734422 0.0016078046
-0.0077357832 0.0037616845 -0.014816184 -0.21242481 0.57440996 -0.79052448 0.0020644942
0.011774249 0.002729258 -0.014817627 0.33951998 0.046269108 -0.93946016 0.0027861672
0.01407892 0.0025499142 -0.013905294 0.38583624 -0.006097002 -0.9225471 0.0034922028
0.016806182 0.0026232358 -0.012656743 0.45353439 -0.083370082 -0.88733077 0.0025134513
-0.012063608 0.0045394483 -0.012459675 -0.35795823 0.69198805 -0.62691176 0.0012861369
-0.0097591747 0.0051076161 -0.012993621 -0.32287696 0.64245355 -0.69498491 0.0020760375
-0.0068898397 0.0054919426 -0.013737738 -0.23593901 0.58841109 -0.77337259 0.00088937889
-0.0040488541 0.0057569989 -0.014332907 -0.18198971 0.54787809 -0.81652266 0.0010061263
-0.0010427024 0.0061514867 -0.014665414 -0.11639598 0.50884795 -0.85295117 0.0017272227
0.0018446764 0.0062817507 -0.014844447 -0.057116002 0.46564677 -0.88312554 0.0014772037
0.0049417904 0.0064185015 -0.014830139 -0.0034586329 0.40870929 -0.91265804 0.0013390606
0.0080764722 0.0061907661 -0.014835471 0.069845945 0.35282746 -0.93307793 0.0013534675
0.010962032 0.0055863247 -0.014581352 0.19227567 0.27945077 -0.94071102 0.0027205045
0.014083522 0.0055188322 -0.013740479 0.30916944 0.14606628 -0.93972278 0.003788261
0.016860588 0.0055295648 -0.012688076 0.39310935 0.070266746 -0.91680294 0.0023535341
-0.0061086677 0.0072870734 -0.012494022 -0.29445454 0.66451275 -0.68681836 0.0014536401
-0.0038373591 0.0078062941 -0.012851857 -0.23826781 0.61727679 -0.7497986 0.0020871486
-0.00088110659 0.0082905591 -0.013189184 -0.18123645 0.58624554 -0.78960091 0.0018418148
0.001981782 0.0084921941 -0.013505267 -0.086904928 0.53201038 -0.8422662 0.0013358856
0.0049493005 0.0084865671 -0.013821837 -0.029864218 0.47990724 -0.87681079 0.00094745477
0.0079171611 0.0084864749 -0.013816767 0.037170243 0.42701817 -0.90347874 0.0018933642
0.010889645 0.0084901471 -0.013598241 0.084613658 0.39973459 -0.91271722 0.001120229
0.014043263 0.0084496969 -0.013106724 0.21179427 0.27843192 -0.93681318 0.0037675705
0.016411524 0.008395195 -0.01242551 0.31968993 0.21561371 -0.92266411 0.0027289004
0.0024080419 0.010475759 -0.012282469 -0.15470889 0.61120999 -0.77620059 0.0015729013
0.005051177 0.010615659 -0.012471392 -0.075749949 0.56647933 -0.82058704 0.0012558252
0.0079362085 0.010798407 -0.012496678 -0.013921211 0.52075893 -0.85359025 0.00099490141
0.010912592 0.010797642 -0.012527848 0.057195153 0.47417572 -0.87857056 0.0015939595
0.01362458 0.010594087 -0.012314906 0.14447543 0.4204452 -0.8957414 0.0020862224
0.015504866 0.010348127 -0.012128655 0.18670499 0.39598978 -0.8990736 0.0029833475
-0.045541495 -0.032361969 -0.009500199 -0.32275686 -0.54575527 -0.77329117 0.0020494601
-0.04294033 -0.032880884 -0.009914998 -0.20450626 -0.61402595 -0.76233149 0.0023015027
-0.039918844 -0.033266746 -0.010105334 -0.087953448 -0.66423815 -0.7423287 0.00154927
-0.037006672 -0.033394992 -0.010218207 -0.034373362 -0.71440744 -0.69888526 0.0014225035
-0.034055751 -0.033264115 -0.010401802 0.031557631 -0.71317357 -0.70027667 0.0011362191
-0.030987812 -0.033096541 -0.010224042 0.10463955 -0.76994002 -0.62947834 0.0010796898
-0.027999615 -0.03280022 -0.01001087 0.15627635 -0.78896403 -0.59423345 0.0011245584
-0.025301155 -0.032292832 -0.0098880595 0.21486653 -0.7772814 -0.59132552 0.0013293872
-0.023162931 -0.032041401 -0.0093073286 0.27778143 -0.78368849 -0.55558079 0.0011884498
-0.0481061 -0.030124333 -0.0095458021 -0.44179201 -0.37474886 -0.81509697 0.0033938503
-0.045869302 -0.030338267 -0.010513039 -0.34460539 -0.42347157 -0.83780605 0.0025137479
-0.043111667 -0.030576672 -0.011395358 -0.28020549 -0.42696589 -0.85975868 0.0024889088
-0.04023334 -0.031433169 -0.011546699 -0.14226401 -0.5985651 -0.78834051 0.0014793118
-0.037241314 -0.031697474 -0.011771382 -0.066959947 -0.64737517 -0.75922447 0.0012278607
-0.034027904 -0.031848595 -0.01179369 0.0087266611 -0.68037319 -0.73281384 0.0013778133
-0.030944796 -0.031643048 -0.011756608 0.069394551 -0.70349562 -0.70730352 0.0011125717
-0.028024124 -0.031535368 -0.01149448 0.12165348 -0.7329306 -0.66933793 0.0016170231
-0.024838317 -0.031052103 -0.011208684 0.18383031 -0.75024831 -0.63508576 0.0012671511
-0.022012496 -0.03056203 -0.010815421 0.24949974 -0.76728743 -0.59077907 0.0016860468
-0.01914316 -0.029893449 -0.010420876 0.2934123 -0.7622323 -0.57698441 0.0017138042
-0.016610608 -0.029401161 -0.0096661095 0.35160694 -0.77648121 -0.52292401 0.00092055154
-0.048881259 -0.027320523 -0.0098622441 -0.51509321 -0.15324394 -0.84332395 0.0027538142
-0.046202488 -0.027583053 -0.011320138 -0.41614786 -0.22949892 -0.87985855 0.0032419546
-0.044098753 -0.028623432 -0.01199365 -0.31891894 -0.25788134 -0.91202414 0.003957462
-0.018053779 -0.028492495 -0.011680285 0.26401839 -0.70789093 -0.65512186 0.00083004939
-0.015783014 -0.028125016 -0.010914223 0.32379225 -0.76252878 -0.5600968 0.0020159518
-0.0130768 -0.027119752 -0.010615164 0.35367802 -0.75908089 -0.54654211 0.0017052675
-0.010481983 -0.026260901 -0.0099091642 0.41122866 -0.75722158 -0.50745094 0.0012010288
-0.048888452 -0.024425969 -0.010005496 -0.57978606 0.060144756 -0.81254584 0.001292046
-0.046575375 -0.024558635 -0.011490315 -0.51672065 0.0057725813 -0.85613459 0.0018113899
-0.012011957 -0.025738683 -0.011689816 0.35994315 -0.73517048 -0.57442605 0.0011794355
-0.0097561209 -0.024953956 -0.011190625 0.39568397 -0.75098455 -0.5286364 0.0024668947
-0.0072086146 -0.024014965 -0.010534005 0.43118739 -0.74000305 -0.5162102 0.0015587161
-0.0049325069 -0.023258612 -0.0095853843 0.4689199 -0.73713738 -0.48656213 0.0011245821
-0.048524164 -0.021563336 -0.0097936727 -0.59208107 0.21519423 -0.77661538 0.0024528678
-0.04639744 -0.021286754 -0.011249941 -0.55050856 0.16499414 -0.81836253 0.0018065926
-0.0061243898 -0.022530654 -0.011619597 0.44440314 -0.68303603 -0.5796271 0.0016948984
-0.0039359513 -0.021790216 -0.010824999 0.45463267 -0.73217541 -0.50717682 0.0023772717
-0.0014176295 -0.020587772 -0.010226062 0.48535803 -0.71870255 -0.4978897 0.0014032517
-0.047751307 -0.019036265 -0.0094848815 -0.60302716 0.35821921 -0.71276724 0.0016356531
-0.045799624 -0.018442497 -0.01068333 -0.54961938 0.32378167 -0.77011949 0.0012041017
-0.04386726 -0.017631277 -0.011709481 -0.55002683 0.29712325 -0.78050506 0.0023353184
-0.00044394378 -0.019094538 -0.011270273 0.46548724 -0.71155012 -0.52632505 0.0016042389
0.0017739644 -0.018042084 -0.0105809 0.49903488 -0.68479526 -0.53105515 0.0019311539
0.0037522891 -0.017422775 -0.0094736163 0.51587582 -0.69355702 -0.50284272 0.0010921854
-0.045326021 -0.016136378 -0.0097717894 -0.57655513 0.48276472 -0.65918314 0.0019472908
-0.043216836 -0.015219198 -0.010898964 -0.54773939 0.45651844 -0.70112234 0.0031873719
-0.041223653 -0.014113753 -0.011707807 -0.52824128 0.47147265 -0.70616895 0.00073945452
0.0028244413 -0.016411686 -0.011621917 0.48074725 -0.61446512 -0.62555146 0.0012099287
0.0050475877 -0.015392085 -0.010698182 0.53919148 -0.66751713 -0.51351088 0.00072982511
0.0072838347 -0.014290304 -0.0098500587 0.55030859 -0.64844906 -0.52599829 0.0013618688
-0.042267054 -0.012890077 -0.0099149663 -0.53778893 0.55697602 -0.63289863 0.0020033517
-0.040207818 -0.012198308 -0.010933656 -0.5229823 0.55875415 -0.64364856 0.0025920765
-0.038161959 -0.011206998 -0.01173744 -0.49953076 0.58444959 -0.63944334 0.00090812694
0.0061869621 -0.013342618 -0.0118988 0.52059323 -0.56660622 -0.63870192 0.0021614914
0.0081907297 -0.012613082 -0.010841704 0.55443913 -0.62606978 -0.54830092 0.00092175801
0.010046319 -0.011719211 -0.0099760601 0.56322759 -0.58386868 -0.58469838 0.0010288963
-0.039384615 -0.010381347 -0.0098699667 -0.52207339 0.6081906 -0.59794945 0.00071805681
-0.037168141 -0.0093535054 -0.010690426 -0.505283 0.640095 -0.5787639 0.00070923299
-0.034844182 -0.008417164 -0.011519799 -0.47417361 0.6253897 -0.61971539 0.00022926953
0.0090929596 -0.010745986 -0.011816416 0.54929376 -0.5592373 -0.62091058 0.0011453223
0.011197609 -0.0095589887 -0.010958133 0.54208499 -0.52118909 -0.65917063 0.0012478764
0.01347346 -0.0085639739 -0.0098079359 0.58078367 -0.54043192 -0.60878867 0.0011294849
-0.035965864 -0.0073960833 -0.0095867077 -0.49666965 0.66457409 -0.55826575 0.0014188358
-0.033762738 -0.0066238656 -0.010494478 -0.47474235 0.66992384 -0.57080799 0.0024625135
-0.031393796 -0.0057355138 -0.011386285 -0.43730342 0.66800809 -0.60210538 0.0027945503
0.012149158 -0.0073805251 -0.011895969 0.55143708 -0.50807142 -0.66164994 0.0012556906
0.014070279 -0.0065392391 -0.010928951 0.55195701 -0.46118897 -0.69472885 0.0012020601
0.016042888 -0.0057336371 -0.0097516216 0.59147662 -0.50553018 -0.62816769 0.0012963975
-0.030662626 -0.0042173676 -0.010136791 -0.46779296 0.70460606 -0.53357285 0.0016493455
-0.028092761 -0.0031858005 -0.010883919 -0.4465704 0.70308626 -0.55339378 0.0042993929
-0.025786694 -0.0022945527 -0.011549592 -0.43341029 0.72310376 -0.53784424 0.0018116238
0.01479659 -0.0043251212 -0.011738718 0.58413094 -0.40480781 -0.70350665 0.001809177
0.016858365 -0.0033545 -0.010610407 0.56529236 -0.38577342 -0.72912508 0.00099450687
0.019004565 -0.0024173763 -0.0094563169 0.58852273 -0.45041695 -0.67139071 0.0017426355
-0.027078768 -0.0015873235 -0.0094017275 -0.45044208 0.75222701 -0.48089132 0.0016970353
-0.02472627 -0.00088944682 -0.010486004 -0.42830381 0.74754161 -0.50767851 0.0029800215
-0.022188397 0.00014125777 -0.011104001 -0.42668664 0.74576402 -0.51163918 0.0029905643
-0.020261817 0.000721902 -0.011872623 -0.38639501 0.66813165 -0.63584507 0.002278418
0.017555358 -0.00057971978 -0.011439177 0.54268193 -0.27422062 -0.79391396 0.0013150072
0.01965181 -0.0002699683 -0.010007994 0.60002059 -0.32515195 -0.73092502 0.0016249521
-0.021348801 0.001468873 -0.0097959563 -0.43965948 0.76923418 -0.46365762 0.001729693
-0.018883016 0.0023646508 -0.010574367 -0.41059881 0.77165979 -0.48574674 0.0017424837
-0.01629003 0.0033504437 -0.01120077 -0.40396133 0.75219482 -0.520594 0.0036452424
-0.014300996 0.0039327596 -0.011828247 -0.40417182 0.71319795 -0.57270747 0.0044779144
0.018163728 0.0023015384 -0.011857556 0.52365273 -0.1363555 -0.84094888 0.0019038913
0.019921202 0.0025598593 -0.01070218 0.56231487 -0.19085793 -0.8045963 0.0027527132
0.021840056 0.0030674334 -0.0094384374 0.58786243 -0.23933306 -0.77274674 0.0023498097
-0.015496816 0.0046614236 -0.0099899676 -0.42134875 0.75776589 -0.49825296 0.0019218891
-0.012966204 0.005551293 -0.01064066 -0.38579226 0.75321156 -0.53276312 0.0018786705
-0.010262632 0.0063850363 -0.011362294 -0.33514318 0.7308709 -0.59456432 0.0022468346
-0.0083327629 0.0066821878 -0.012044434 -0.32627022 0.67844486 -0.65822518 0.0023004555
0.018260678 0.0055366615 -0.011985539 0.44636703 0.022746893 -0.89456075 0.0023365866
0.019905709 0.005546052 -0.011061453 0.49677479 -0.017732901 -0.86769831 0.0022847261
0.022206133 0.005643962 -0.0096809445 0.54828089 -0.084712505 -0.83199263 0.0025040423
-0.01162589 0.0071782325 -0.0093598105 -0.39022037 0.74881577 -0.53572661 0.0019010458
-0.0096967658 0.007596551 -0.010202754 -0.38841084 0.74602413 -0.54091126 0.0017030312
-0.0069863535 0.0085416399 -0.010636948 -0.33243001 0.72120595 -0.60774356 0.00091043318
-0.0041461028 0.0093770549 -0.011209796 -0.28244212 0.71077186 -0.6442281 0.002181682
-0.0016542479 0.0097651742 -0.011813513 -0.22150348 0.67108589 -0.70751667 0.0022783107
0.017785575 0.0087723425 -0.01182017 0.36145023 0.15679517 -0.91911322 0.002405175
0.019912666 0.0085360752 -0.010894505 0.41253781 0.1070308 -0.90463084 0.0033564356
0.022268141 0.0085565764 -0.0096987216 0.50737429 0.038101267 -0.860883 0.0016021063
-0.0056324387 0.010413066 -0.0091146864 -0.36961347 0.74548066 -0.55465722 0.00080245204
-0.0036992175 0.01070327 -0.0099103563 -0.33965376 0.72608227 -0.59786278 0.0017266574
-0.00086729345 0.011369502 -0.010459514 -0.2557638 0.69842994 -0.66841638 0.0015393294
0.0018801272 0.01176695 -0.011040659 -0.21271174 0.64971286 -0.72981286 0.0025240108
0.0049158046 0.011994581 -0.011489188 -0.11884854 0.59936982 -0.79160011 0.0015277218
0.0079493225 0.012195615 -0.011595396 -0.055449769 0.55338424 -0.83107829 0.00088532909
0.010930051 0.012192637 -0.011710996 0.016131595 0.51126981 -0.85926878 0.00103235
0.014034067 0.011901035 -0.011633987 0.096359462 0.46807656 -0.87841856 0.0012576265
0.01694411 0.011543217 -0.011281298 0.26253784 0.31525132 -0.91197067 0.0031989813
0.019931303 0.011535116 -0.01045155 0.31665552 0.27059489 -0.90912467 0.0060542924
0.022137769 0.011464927 -0.0095302518 0.40247813 0.20826255 -0.89142478 0.0065235645
0.0022564249 0.013422729 -0.0095337182 -0.25393248 0.69671804 -0.67089659 0.0014529905
0.0051148022 0.013842143 -0.0099624032 -0.17741406 0.656775 -0.73291934 0.0022791531
0.0080241906 0.014237709 -0.010172296 -0.10294072 0.60919315 -0.78631222 0.0018417593
0.011022368 0.014444271 -0.010220776 -0.011060201 0.5819031 -0.81318283 0.0012499283
0.013929942 0.014504004 -0.010115231 0.054635428 0.53001601 -0.84622568 0.0015864298
0.016959179 0.014313236 -0.0099099837 0.15842898 0.47555861 -0.86530006 0.0012176263
0.019759709 0.013806978 -0.0095736384 0.23526779 0.42448536 -0.87433475 0.0020850466
0.021751564 0.013333227 -0.0092365388 0.32256663 0.29582489 -0.89913201 0.007120884
-0.047974177 -0.03506954 -0.0062165302 -0.32335553 -0.69424909 -0.64300805 0.0031905151
-0.045805849 -0.035332024 -0.0067778174 -0.23240137 -0.70973653 -0.66502911 0.0021979564
-0.042973753 -0.035824347 -0.006982429 -0.14190963 -0.75462359 -0.64062852 0.0019301147
-0.040040907 -0.035931867 -0.007270582 -0.037909746 -0.79240906 -0.60881084 0.0017869511
-0.037043065 -0.035884432 -0.0072697913 0.038385969 -0.81850016 -0.57322246 0.0016741907
-0.034100238 -0.035774991 -0.0071394448 0.095440865 -0.84200829 -0.53095478 0.0016728215
-0.030970283 -0.035433281 -0.0069890111 0.15669248 -0.85358053 -0.49683785 0.0015211895
-0.028579798 -0.035111483 -0.0066392114 0.2138079 -0.86073101 -0.46198291 0.00093901134
-0.051027611 -0.032562308 -0.0065837046 -0.47611871 -0.50494957 -0.71995622 0.0023377447
-0.048904143 -0.033224281 -0.0073279464 -0.39434984 -0.53817886 -0.74488372 0.0040666838
-0.046252448 -0.033676803 -0.0081890943 -0.28206107 -0.58737689 -0.75857097 0.0036658873
-0.043111835 -0.034382712 -0.0085494686 -0.16678041 -0.71269494 -0.68135911 0.001673302
-0.040298339 -0.034748591 -0.0086630806 -0.067868747 -0.75014949 -0.6577763 0.0015989775
-0.037065685 -0.034865882 -0.0086408043 0.0039093015 -0.78643495 -0.61766076 0.0015147355
-0.033905089 -0.034808207 -0.0085422182 0.063141815 -0.81252915 -0.57949066 0.0017314211
-0.031190915 -0.034495432 -0.008550399 0.12774917 -0.79135346 -0.59786278 0.0010681469
-0.027866194 -0.034148186 -0.0080068074 0.19598505 -0.84677708 -0.49452841 0.0019252687
-0.02498945 -0.033522215 -0.0078483168 0.24956888 -0.85222661 -0.45980996 0.0011852875
-0.022154901 -0.032714553 -0.0076049841 0.27419451 -0.84241682 -0.463844 0.0011597284
-0.01982303 -0.032229189 -0.0068855477 0.34430465 -0.84966516 -0.39940372 0.0024163034
-0.051725034 -0.030355614 -0.0071271216 -0.56958514 -0.29454881 -0.76734197 0.0040778765
-0.049490519 -0.030670874 -0.0085044587 -0.48138431 -0.3224332 -0.81504965 0.0035394116
-0.020879027 -0.031613544 -0.0088681616 0.28811273 -0.83860976 -0.46230373 0.0013936497
-0.018809648 -0.031318426 -0.0079761632 0.35871419 -0.84750795 -0.39122161 0.0020454235
-0.016120549 -0.030215243 -0.0077849072 0.37880272 -0.82579339 -0.41782033 0.0019176692
-0.013697987 -0.029336568 -0.007325564 0.40314353 -0.82478529 -0.39649031 0.0018378109
-0.053544745 -0.027165668 -0.0062661986 -0.67906368 -0.071510285 -0.73058802 0.0028958146
-0.051936433 -0.027408332 -0.0076405681 -0.62448061 -0.10281845 -0.77424306 0.0024987359
-0.050343663 -0.02771678 -0.008815988 -0.581604 -0.1144045 -0.80538708 0.0027521679
-0.012736535 -0.028340507 -0.0083294753 0.40937203 -0.81592238 -0.40827101 0.0016250721
-0.010009053 -0.02716185 -0.0077410797 0.44231555 -0.80307674 -0.3992801 0.0015206555
-0.0080951583 -0.026280828 -0.0073897359 0.44708309 -0.80642277 -0.38703874 0.0014554904
-0.053557094 -0.025545143 -0.0061698598 -0.70671052 0.15004215 -0.69140983 0.0017394299
-0.052047692 -0.024391973 -0.0074357362 -0.66570914 0.11929167 -0.73661441 0.0026612561
-0.050371755 -0.024288116 -0.0088864397 -0.62365353 0.07576175 -0.7780208 0.0019537045
-0.0066911811 -0.025157541 -0.0080751497 0.47303355 -0.80135411 -0.36615688 0.00099961401
-0.0043063099 -0.023871912 -0.0076379394 0.48434007 -0.79041755 -0.3750397 0.001580721
-0.0024203521 -0.022935241 -0.0071257395 0.5030939 -0.78118855 -0.36964989 0.0016131371
-0.051434215 -0.021519762 -0.0072116582 -0.67956346 0.2880024 -0.67472088 0.002229366
-0.049864341 -0.021320695 -0.0086145364 -0.64603418 0.24277613 -0.72367084 0.0014715219
-0.0030234768 -0.022704791 -0.0084918775 0.50310063 -0.78117925 -0.36966032 0.0016170348
-0.00087933592 -0.021592857 -0.0078515206 0.52437669 -0.77740216 -0.34738317 0.00065666216
0.0011978948 -0.020317579 -0.0075411424 0.51934338 -0.75847918 -0.39368999 0.0014784092
-0.050887875 -0.019337326 -0.0067139966 -0.65097934 0.389386 -0.65161681 0.0015732906
-0.049117092 -0.018357933 -0.007824624 -0.63164049 0.40061116 -0.66373259 0.001975056
-0.047191568 -0.017289281 -0.0090007819 -0.59594887 0.45318243 -0.66292584 0.0013170724
0.0024270376 -0.019180534 -0.0080741793 0.5308736 -0.75032812 -0.39393005 0.0015773928
0.0045338795 -0.017931452 -0.0075436104 0.56630617 -0.72714621 -0.38801512 0.0015407699
-0.048264429 -0.01617432 -0.0070538167 -0.62316275 0.53234971 -0.5729503 0.0019739904
-0.046438493 -0.015156769 -0.0079435669 -0.59981734 0.51556873 -0.61188895 0.0019789338
-0.044422269 -0.014057457 -0.0089898147 -0.5760721 0.56963038 -0.58622712 0.0014908696
0.0058603715 -0.016575171 -0.008129362 0.5726667 -0.72202414 -0.38824463 0.0012851459
0.0079278434 -0.015155555 -0.0077848327 0.56254983 -0.71722656 -0.41124651 0.0023155159
0.0098000076 -0.014293412 -0.0067080101 0.58196288 -0.70390981 -0.40722254 0.0013467554
-0.045356564 -0.013094835 -0.006946458 -0.59829855 0.5987969 -0.53242952 0.00092317915
-0.043300103 -0.01219159 -0.008162098 -0.559259 0.62458175 -0.54509366 0.0024611927
0.0091461828 -0.013604715 -0.0087277927 0.56412601 -0.67267448 -0.47882244 0.0029926659
0.011112115 -0.012480467 -0.0077713681 0.59652925 -0.6880278 -0.41324401 0.0010924872
0.013051081 -0.01150985 -0.0066486043 0.59749615 -0.66564226 -0.44712266 0.0011522361
-0.04231276 -0.010415328 -0.0070444476 -0.54838663 0.67635006 -0.49175468 0.00087037537
-0.040202692 -0.0093510114 -0.0078710821 -0.53266639 0.68875682 -0.49181357 0.0029971697
-0.038112197 -0.008179131 -0.0085714273 -0.54037589 0.70193195 -0.46398872 0.0019466196
0.012223202 -0.010674779 -0.008863274 0.59159756 -0.61972535 -0.51570618 0.00046581778
0.014107232 -0.0097212158 -0.0078485822 0.60704494 -0.64579457 -0.46308276 0.0010782894
0.016193984 -0.008388144 -0.0069706556 0.62464118 -0.59889477 -0.50114721 0.0010069322
-0.038802743 -0.0074877888 -0.0065513393 -0.54735833 0.74577659 -0.37975812 0.0049145827
-0.036871474 -0.0067444649 -0.0076626167 -0.52118492 0.74961174 -0.40798092 0.0038747881
-0.03474145 -0.0055859778 -0.0081256405 -0.47728601 0.77180922 -0.42012936 0.0051002633
0.015141993 -0.0075911875 -0.009070877 0.58607817 -0.53409171 -0.60930967 0.0012343286
0.017228426 -0.0065967408 -0.0077454182 0.6235863 -0.58609909 -0.51732779 0.0010469175
0.019121267 -0.005692428 -0.0065594655 0.63615239 -0.58193064 -0.50662297 0.00080049317
-0.033561856 -0.0045196321 -0.0074218223 -0.4890292 0.79373634 -0.36170846 0.0024380011
-0.03102603 -0.0031708435 -0.0078460379 -0.49105519 0.79175436 -0.36330405 0.0036948586
-0.028874096 -0.0021710242 -0.0084863417 -0.46049285 0.81906337 -0.34217179 0.0031234643
0.018202702 -0.004456636 -0.0087157646 0.61896664 -0.49559617 -0.60931498 0.00051609689
0.020041235 -0.0034067295 -0.0076967953 0.64079142 -0.46937719 -0.60751253 0.0012074354
0.021836814 -0.0024183723 -0.0065808264 0.64722449 -0.49125797 -0.5828945 0.00045770381
-0.027824875 -0.0011366087 -0.0074004764 -0.47440758 0.81813645 -0.32494649 0.0024071604
-0.025162643 0.00013979536 -0.0080775358 -0.46428409 0.81731832 -0.34121975 0.0018161603
0.02090973 -0.0009253649 -0.008569112 0.63571292 -0.3506003 -0.68771255 0.0017217394
0.02259952 -0.00026035367 -0.0072874981 0.64641649 -0.40039814 -0.64948219 0.0020984502
-0.023984339 0.0011805672 -0.0071480465 -0.45482391 0.82046139 -0.34637886 0.0014018664
-0.022158988 0.0020364942 -0.0075719375 -0.45775825 0.8172558 -0.35007215 0.0014531568
-0.019500816 0.0034537311 -0.0078719221 -0.46203959 0.80954444 -0.36215636 0.0017618613
0.02327849 0.0024891752 -0.0080764107 0.62444264 -0.3006956 -0.72087002 0.0022737472
0.025125012 0.0028209356 -0.0066004777 0.65982449 -0.33391133 -0.67315298 0.0014321544
-0.018068252 0.0045422059 -0.007223804 -0.47114867 0.80593055 -0.35846195 0.0016351393
-0.01604747 0.0055230223 -0.0077293538 -0.47308457 0.80402774 -0.36018097 0.0018895231
-0.013901201 0.0065787095 -0.0081265755 -0.47339129 0.80783939 -0.35113561 0.0017581729
0.023848999 0.0054792254 -0.0085408492 0.60980982 -0.13164297 -0.78153825 0.0018814863
0.025707442 0.0057076733 -0.0070478562 0.64886683 -0.18235329 -0.73872805 0.0023544962
-0.012534665 0.0076297806 -0.0074776774 -0.44732392 0.81111616 -0.376818 0.0017623371
-0.010051606 0.0088199377 -0.0078866156 -0.44039777 0.80569834 -0.39610621 0.002805904
-0.0078840358 0.009815624 -0.008220572 -0.44095781 0.79745603 -0.41184959 0.0018351147
0.023934087 0.008574117 -0.0086819548 0.58107179 0.0013538214 -0.81385112 0.00097065757
0.026013745 0.0086725112 -0.0071145091 0.62077087 -0.030601365 -0.78339458 0.0014177744
-0.0067139361 0.010883596 -0.0073655546 -0.42207798 0.7987144 -0.42884198 0.0023167222
-0.0041186907 0.011957033 -0.0078236945 -0.42030114 0.79658443 -0.43451139 0.0013321921
-0.001867607 0.012582767 -0.0085353144 -0.31948024 0.76600593 -0.55782378 0.001506177
0.023771593 0.011664136 -0.0085762776 0.5036062 0.10635453 -0.85736191 0.0022368468
0.025919061 0.01157958 -0.007055209 0.56098109 0.059311736 -0.82570112 0.0030429256
-0.0031230659 0.013255672 -0.0065119606 -0.42745095 0.81000078 -0.40147772 0.0034133256
-0.00074560812 0.013835113 -0.0074305199 -0.36750698 0.77317262 -0.51685858 0.0024632516
0.0019936615 0.014888922 -0.0076531004 -0.32789016 0.74869883 -0.5761407 0.0028755337
0.0048227925 0.015457178 -0.008248508 -0.22733325 0.72738844 -0.64747626 0.0015710272
0.0077598765 0.015850324 -0.0087297559 -0.15016656 0.68742692 -0.71055901 0.0015256989
0.010064721 0.015956074 -0.0090117101 -0.060216445 0.62211907 -0.78060353 0.0012281078
0.015142505 0.015954584 -0.0090544559 0.015543564 0.58917737 -0.80785424 0.00084609952
0.016994853 0.015959833 -0.0089024343 0.11491086 0.54061919 -0.83338255 0.00089344004
0.020215746 0.015329899 -0.0086717205 0.19382201 0.4686673 -0.86184925 0.0011834981
0.023118706 0.014680054 -0.0081167519 0.39831683 0.29295734 -0.86920637 0.0060590375
0.025935709 0.014612269 -0.0068736235 0.47731197 0.24092893 -0.84506005 0.0069621415
0.0031481578 0.016521364 -0.0060976786 -0.36350584 0.79945952 -0.47825512 0.0030973996
0.0053417366 0.016834453 -0.0068700532 -0.28980681 0.75317788 -0.59053808 0.0015961467
0.0080885552 0.01730283 -0.0073227859 -0.20117615 0.7232703 -0.66061199 0.0015821876
0.01101791 0.017626805 -0.0076184692 -0.12983596 0.68218684 -0.71955806 0.0012471195
0.014020587 0.017614985 -0.0079220571 -0.011847327 0.61098903 -0.7915504 0.0006659886
0.017035855 0.017621415 -0.0077500357 0.082944043 0.571356 -0.81650019 0.001113581
0.02006395 0.017637562 -0.0073276991 0.16732596 0.52855605 -0.83224434 0.0013216231
0.022766238 0.01740849 -0.0068182102 0.25867084 0.47946104 -0.83857399 0.0023378609
0.025039621 0.016801411 -0.0063900207 0.34255201 0.44175503 -0.82916266 0.0026727712
0.011977913 0.019305691 -0.0062146229 -0.16281804 0.72777307 -0.66621059 0.0017273205
0.014296985 0.019453738 -0.0063792444 -0.058455039 0.67864746 -0.73213428 0.001597302
0.017085601 0.019532626 -0.0063451719 0.033511013 0.6398055 -0.76780593 0.0013281892
0.019646104 0.019305371 -0.0062222746 0.12591195 0.59171337 -0.79625469 0.00083102373
-0.042913221 -0.038107172 -0.0034624331 -0.078096755 -0.88182014 -0.4650743 0.0016200125
-0.040081121 -0.038083423 -0.0037249816 0.014651642 -0.90342224 -0.42850155 0.0021145148
-0.037543077 -0.038116209 -0.0033624929 0.10058395 -0.91084075 -0.40031493 0.0016761775
-0.051352527 -0.035567105 -0.0037719388 -0.44067872 -0.65569574 -0.61307859 0.0028271638
-0.048925925 -0.036027264 -0.0045994278 -0.3318516 -0.71722507 -0.61275011 0.0024977541
-0.046079319 -0.036859963 -0.0047394945 -0.18984087 -0.81301945 -0.55041784 0.00087878946
-0.043127645 -0.037176985 -0.005056486 -0.10894574 -0.85176486 -0.51247185 0.0015562172
-0.039929993 -0.037242964 -0.0052956459 -0.013151776 -0.87112087 -0.49089244 0.0016416793
-0.036927197 -0.037267961 -0.0050147986 0.081996284 -0.89712203 -0.43410677 0.0025086664
-0.033980954 -0.036985464 -0.0048244661 0.12059575 -0.89443892 -0.43062255 0.0015745779
-0.03101317 -0.036611181 -0.0045332103 0.18444806 -0.90885049 -0.37412539 0.0021274039
-0.027982533 -0.035766102 -0.0047616153 0.24484631 -0.90374762 -0.35112768 0.0016323174
-0.025764184 -0.03519918 -0.004673217 0.26161629 -0.90399414 -0.33815902 0.0016297817
-0.054368682 -0.03274205 -0.0037898587 -0.59634352 -0.468366 -0.65192604 0.0023153175
-0.052227218 -0.033687059 -0.004886732 -0.49337867 -0.53681582 -0.68440217 0.0034169226
-0.050012395 -0.034532048 -0.0056913388 -0.40652218 -0.57399476 -0.71082324 0.0036521887
-0.024634903 -0.03459999 -0.0053396416 0.2989144 -0.89871371 -0.32087979 0.0014200116
-0.022012772 -0.033770144 -0.0050459448 0.32807338 -0.88354385 -0.33424255 0.0010978912
-0.019173218 -0.032743234 -0.0045554382 0.34775826 -0.88154882 -0.3192741 0.0013442339
-0.017157735 -0.031973064 -0.0041666967 0.38465047 -0.87855595 -0.28316689 0.00070942251
-0.054673739 -0.030282808 -0.0046283761 -0.66800559 -0.25938985 -0.69748509 0.0032962959
-0.052986704 -0.031307079 -0.0057808449 -0.57824373 -0.3159909 -0.75218618 0.0054647769
-0.017781125 -0.031842306 -0.0058766049 0.37136355 -0.85632598 -0.3588801 0.0011567203
-0.015666921 -0.031039398 -0.0049502109 0.39105713 -0.85362983 -0.3440792 0.00097206869
-0.012912104 -0.029548079 -0.0054360321 0.41146699 -0.84532362 -0.34076813 0.00085861376
-0.055145126 -0.027493719 -0.0045962022 -0.74056077 -0.035262726 -0.67106348 0.003604488
-0.01047205 -0.02827749 -0.0052932245 0.45539954 -0.82480836 -0.33511552 0.00050813373
-0.0077927802 -0.026759744 -0.0053583723 0.46178582 -0.82348216 -0.32959205 0.00058548979
-0.054754548 -0.024472114 -0.0046661268 -0.74997991 0.19009818 -0.63355571 0.0017860656
-0.005924738 -0.025576599 -0.0056650382 0.49027285 -0.80934662 -0.32340482 0.00038354433
-0.0043003373 -0.024663445 -0.0053743836 0.49372387 -0.80862892 -0.31993136 0.00043013235
-0.0019704348 -0.023181453 -0.0055008573 0.51921779 -0.80422276 -0.28920364 0.00012874647
-0.054248568 -0.02176144 -0.0041782581 -0.74175131 0.36276048 -0.56410086 0.0016306879
-0.052867241 -0.021086266 -0.0055003678 -0.71879005 0.30349138 -0.62548697 0.0016323481
-0.00026418921 -0.022102099 -0.0053726775 0.52949625 -0.79441351 -0.29755828 0.00018489533
0.0017538297 -0.020701038 -0.005453418 0.54304934 -0.78486961 -0.29845792 6.1041726e-05
-0.05392459 -0.0198742 -0.0033024591 -0.73536164 0.44941399 -0.5072183 0.00065453368
-0.052046701 -0.018566227 -0.0046156226 -0.69998831 0.45926791 -0.54689062 0.0016233294
-0.050215907 -0.01712502 -0.0056109866 -0.65018857 0.55482644 -0.51905924 0.0016646518
0.0031504866 -0.019773647 -0.0053769392 0.55492145 -0.76578552 -0.32501489 0.00038538966
0.0050726058 -0.018441264 -0.0052369912 0.57241923 -0.75988466 -0.3080771 0.00082191854
0.0070398282 -0.017166033 -0.0046502096 0.57673782 -0.76418412 -0.28878394 0.00053188577
-0.050851401 -0.016120452 -0.0035663662 -0.65685558 0.60836726 -0.44545507 0.0010986556
-0.049211562 -0.015232109 -0.0047898674 -0.63868582 0.59813952 -0.48405525 0.0022642256
0.0084749786 -0.015921984 -0.0052142185 0.57569593 -0.75527322 -0.31326738 0.0010714012
0.010384552 -0.014681875 -0.004553779 0.59147072 -0.75815678 -0.27451894 0.0016577864
-0.048076864 -0.013456774 -0.0039762994 -0.628932 0.64593434 -0.43268153 0.0014491944
-0.046106532 -0.012195036 -0.00474814 -0.60577977 0.6767022 -0.41845548 0.0024514121
-0.044319887 -0.011152013 -0.0056193513 -0.60078263 0.6781804 -0.42323938 0.0024818352
0.011774614 -0.013423515 -0.004977419 0.60324836 -0.74682873 -0.27988964 0.0014678286
0.013886464 -0.011921792 -0.0044528451 0.60796964 -0.71763676 -0.33966208 0.00098471646
-0.043120205 -0.0097457264 -0.0046846438 -0.56517792 0.7467469 -0.35063234 0.0027750968
-0.040903427 -0.008412268 -0.0053425711 -0.5424903 0.78160983 -0.30788031 0.0021030589
0.014897185 -0.010450906 -0.0057404083 0.60132647 -0.71295345 -0.36069921 0.0015668137
0.016843094 -0.0092448229 -0.0046918383 0.62794411 -0.67765224 -0.38271883 0.0019535241
0.018575348 -0.0081648817 -0.0038697761 0.61825812 -0.69002819 -0.37632149 0.0013091697
-0.039570823 -0.0073079104 -0.004665182 -0.53984225 0.78555536 -0.30244523 0.0020106735
-0.037169024 -0.0058889859 -0.004923169 -0.51100528 0.80675274 -0.29668772 0.0011006653
0.01804933 -0.0076657231 -0.0054281396 0.63626248 -0.6597476 -0.39987898 0.0017564433
0.019954449 -0.0064693182 -0.0044256877 0.64215845 -0.65428805 -0.3994242 0.00071872748
0.021882586 -0.0053730751 -0.0030852598 0.65969265 -0.65059227 -0.37621164 0.0011772542
-0.03555185 -0.0048815603 -0.0047565741 -0.50391048 0.82438248 -0.25781336 0.0003508899
-0.033667039 -0.0038528349 -0.0050010486 -0.47552219 0.82563049 -0.30366576 0.00075378077
-0.031225499 -0.0024318355 -0.0049279076 -0.48407647 0.82423896 -0.29376864 0.0010690225
0.020994654 -0.0045607807 -0.0055105081 0.64561772 -0.57298076 -0.50484729 0.00063101744
0.022804914 -0.0031598262 -0.0046391333 0.65902877 -0.54098278 -0.52251184 0.0014704951
0.024675377 -0.0020940001 -0.0033867997 0.6694361 -0.56629443 -0.48079723 0.00045733413
-0.029981185 -0.0016195622 -0.0044132513 -0.48026821 0.83609003 -0.26513389 0.00027447066
-0.02770276 -0.00040390447 -0.0049737021 -0.49281737 0.82764995 -0.26856399 0.00030527773
