# .PCD v0.7 - Point Cloud Data file format
VERSION 0.7
FIELDS x y z normal_x normal_y normal_z curvature
SIZE 4 4 4 4 4 4 4
TYPE F F F F F F F
COUNT 1 1 1 1 1 1 1
WIDTH 559
HEIGHT 1
VIEWPOINT 0 0 0 1 0 0 0
POINTS 559
DATA ascii
0.00020876992 0.0096560288 -0.013701094 0.39129692 0.67639595 -0.62399942 0.002883499
-0.043853972 0.012311714 -0.01543525 -0.29188392 0.86973667 -0.39794713 0.0020929165
-0.040934358 0.013137168 -0.015071759 -0.19862705 0.92664987 -0.3191666 0.00093424978
-0.038003366 0.01371623 -0.015479872 -0.16384861 0.92562538 -0.34113225 0.00086382159
-0.034852203 0.01424499 -0.015165646 -0.094582841 0.92758197 -0.36144951 0.00041566949
-0.031947654 0.014597788 -0.015139909 -0.061741244 0.94302142 -0.32695365 0.0017077264
-0.028766379 0.014757046 -0.015337872 -0.028126296 0.94136852 -0.33620554 0.002286654
-0.025867343 0.014751292 -0.01549986 -0.012160984 0.94644707 -0.32262987 0.0021646975
-0.022822164 0.014699457 -0.015399465 0.054473169 0.90899581 -0.41323033 0.00084165751
-0.019890927 0.014539491 -0.015217133 0.099802718 0.90194422 -0.4201619 0.00031287229
-0.016737187 0.014354745 -0.014789146 0.12608588 0.89112687 -0.43588448 0.0004157096
-0.013886197 0.013850848 -0.014748052 0.16179304 0.87128633 -0.46333909 0.0010885957
-0.010970229 0.013176819 -0.014781013 0.22321248 0.83599263 -0.50129098 0.00060092617
-0.0081359204 0.01260951 -0.01434386 0.25745136 0.8133201 -0.52175593 0.00070945919
-0.0056276452 0.012231391 -0.013628522 0.29170802 0.78875029 -0.54109097 0.00057577563
-0.027601562 0.01527928 -0.013204644 -0.028323434 0.95338762 -0.30041611 0.0011075223
-0.025767423 0.015255023 -0.01386657 -0.012156914 0.94644934 -0.3226234 0.0021666735
-0.022862766 0.01525134 -0.013967389 0.017450849 0.93863374 -0.3444739 0.00091956061
-0.02022109 0.015270493 -0.013444384 0.064284354 0.91715413 -0.39331388 0.00068480684
-0.030776545 -0.015544279 -0.012622217 -0.11994668 -0.96459031 -0.2349007 0.00048051061
-0.027657852 -0.015996484 -0.012488643 -0.086411834 -0.96902424 -0.23135491 0.00052601506
-0.027169701 -0.015975995 -0.013017157 -0.086407594 -0.96902424 -0.23135637 0.00052648544
-0.022988906 -0.016458832 -0.012108261 -0.024338268 -0.96425372 -0.26386049 0.0013870322
-0.020360272 -0.016423268 -0.013000453 0.034780007 -0.95467299 -0.29561752 0.0018820594
-0.016917156 -0.016437568 -0.012641865 0.075357608 -0.94427884 -0.32040414 0.0032827063
-0.013621068 -0.016268222 -0.01221961 0.089071311 -0.93139362 -0.35294804 0.0033025783
-0.010875538 -0.016058905 -0.01166697 0.14745072 -0.91797912 -0.36820179 0.0028859209
-0.0081564728 -0.015505643 -0.011680659 0.18987846 -0.88880408 -0.41710132 0.0038118153
-0.0055322661 -0.015290904 -0.010840387 0.26176637 -0.83677989 -0.48091337 0.0013432753
-0.0073021902 -0.014644073 -0.012795532 0.24203071 -0.81588715 -0.52511841 0.0026640091
-0.0046145823 -0.014199246 -0.012102686 0.28327832 -0.80829251 -0.51615566 0.0011385563
-0.0018828306 -0.013308489 -0.011757307 0.33953604 -0.75198394 -0.56500924 0.0019310542
0.0007251827 -0.012539562 -0.011212043 0.37419134 -0.70422643 -0.6033622 0.0011061723
0.0027389899 -0.012030257 -0.010483602 0.40171885 -0.6764797 -0.61724955 0.00096796651
0.0014085695 -0.010984225 -0.012472102 0.40478233 -0.6080513 -0.68295312 0.0014190546
0.0039106421 -0.010260222 -0.011482948 0.43867606 -0.59799433 -0.67079508 0.0016954072
0.0061838329 -0.0096332291 -0.010515456 0.45451349 -0.59080875 -0.66660517 0.00085127453
-0.056215633 -0.0064297682 -0.012302718 -0.52549797 -0.7096625 -0.46928775 0.0021979304
-0.053953577 -0.0074889786 -0.013103226 -0.51157826 -0.72763902 -0.45697832 0.002393066
0.0048211813 -0.0080394009 -0.012620316 0.48230392 -0.46725896 -0.74098039 0.002463765
0.0071054725 -0.0073967227 -0.011513274 0.5020119 -0.45101765 -0.73794794 0.001829706
0.0093288803 -0.0064879409 -0.01052394 0.54997683 -0.41758409 -0.72329044 0.0021378447
-0.063806079 -0.0030456611 -0.010215798 -0.51524192 -0.63246006 -0.57837701 0.012585711
-0.061695486 -0.0035144067 -0.011291685 -0.50387031 -0.62292904 -0.5983929 0.0048620375
-0.059190471 -0.0047593019 -0.012028269 -0.54454058 -0.62789673 -0.55607659 0.0040799081
-0.057115976 -0.0057063974 -0.012857238 -0.53912151 -0.66311419 -0.51925677 0.0049115894
0.0077735027 -0.004579151 -0.012482665 0.54047304 -0.27882749 -0.79381615 0.0011355495
0.0099731395 -0.0042059845 -0.01109036 0.5627299 -0.28795701 -0.77486515 0.0022353886
0.011730381 -0.0030458698 -0.010187725 0.57024062 -0.19417824 -0.79819828 0.0029013287
-0.064525545 -0.0012102249 -0.011089418 -0.48340157 -0.33201814 -0.80999184 0.014259369
-0.062410321 -0.0017106439 -0.012308501 -0.53279185 -0.3827652 -0.75473422 0.028584778
0.0083564529 -0.0015635104 -0.012903117 0.55026394 -0.11467303 -0.827079 0.0015973402
0.010139183 -0.0014666612 -0.01167982 0.56878346 -0.10852794 -0.8152957 0.0016624349
0.011838815 -0.0012465378 -0.010432871 0.59867913 -0.13137187 -0.7901423 0.002600315
-0.06650015 0.00032647161 -0.010237092 -0.5703432 0.18219687 -0.80094504 0.030086642
-0.064633146 0.0012734239 -0.011175208 -0.54639632 0.13447453 -0.82666057 0.028510623
-0.062532254 0.0017023146 -0.01252074 -0.65198553 0.25997454 -0.7122696 0.030408049
0.0083965873 0.00168536 -0.012959538 0.54748368 0.092859887 -0.83164823 0.0027542107
0.010137941 0.0014456677 -0.011779476 0.57976633 0.058596507 -0.81267303 0.001895518
0.011913099 0.0012625378 -0.010471634 0.60828167 0.054620616 -0.79183954 0.0045555509
-0.063736998 0.0032458475 -0.010635057 -0.56869704 0.61105388 -0.55063307 0.008428568
-0.061677393 0.004007251 -0.011611677 -0.57908285 0.52972335 -0.61972272 0.0051719616
-0.059548784 0.0052260105 -0.012360539 -0.58176136 0.5992561 -0.54995072 0.0062276376
0.0077266013 0.004804173 -0.012527103 0.54045403 0.29667696 -0.78733236 0.0023072949
0.0099724317 0.0044088275 -0.011146595 0.56022614 0.31379154 -0.76660389 0.0045023938
0.011729139 0.003248649 -0.010264615 0.57068026 0.29253879 -0.76729721 0.0028639336
-0.058179632 0.0065226927 -0.01173822 -0.52150506 0.72051907 -0.45703906 0.0041862903
-0.056171887 0.0074335835 -0.01259276 -0.51891553 0.73575288 -0.43519458 0.0032708922
-0.053611968 0.0088242162 -0.012359688 -0.48958835 0.78652972 -0.37639642 0.0013989054
0.0023067063 0.0090314616 -0.013121674 0.39908016 0.68171126 -0.61319226 0.00088335999
0.0044918563 0.0081509585 -0.012489283 0.43497509 0.60650039 -0.66554785 0.0050482214
0.0070487382 0.0073266849 -0.011427951 0.45388258 0.55163741 -0.69977623 0.0034420106
0.0091782408 0.006540271 -0.010602822 0.52255845 0.51212597 -0.6816594 0.0039965957
-0.0016469746 0.011430142 -0.012492103 0.32880446 0.75409156 -0.56853634 0.00055751676
0.0010385867 0.010727216 -0.011778002 0.35695821 0.74614102 -0.56200933 0.00014914206
0.0038967049 0.0097147189 -0.011168432 0.40910983 0.68101788 -0.60732514 0.00092435046
0.0058842748 0.0090879966 -0.010497132 0.44207391 0.65931147 -0.60817689 0.00044500903
-0.01356224 0.014850998 -0.012694552 0.16966434 0.894023 -0.41465273 0.00080311351
-0.010772538 0.014550067 -0.012180081 0.19033335 0.88787615 -0.41886666 0.0010160501
-0.0079055848 0.014025823 -0.011828421 0.21487387 0.87973613 -0.42413872 0.001608253
-0.0048057311 0.01317414 -0.011734487 0.26380643 0.82992804 -0.49155423 0.0007588219
-0.0020611831 0.012612922 -0.01106582 0.28811935 0.79988134 -0.52647614 0.0010016215
4.1690655e-05 0.012236806 -0.010372618 0.30182788 0.79098785 -0.53220123 0.0011031363
-0.028332304 0.015307063 -0.012445549 -0.028323285 0.95338684 -0.3004187 0.00110726
-0.018677771 0.015281977 -0.013130883 0.10362755 0.91126025 -0.39858025 0.00035668531
-0.016919801 0.015301836 -0.012588072 0.13323013 0.90496284 -0.40409398 0.0005002899
-0.013849607 0.015349943 -0.01127465 0.15649319 0.90529937 -0.39489621 0.00063063111
-0.011869328 0.015383566 -0.01035648 0.17859328 0.90482539 -0.38651726 0.00087222073
-0.018421281 -0.017003385 -0.0097384844 0.043508634 -0.96060812 -0.27447957 0.0013962018
-0.016847156 -0.017004468 -0.0097122481 0.06857603 -0.95882815 -0.27558291 0.00095969444
-0.013940837 -0.017022889 -0.0092620095 0.085143812 -0.95700747 -0.27728561 0.0014250797
-0.010707652 -0.016946146 -0.0083886851 0.14103322 -0.94677263 -0.28936327 0.001070738
-0.0076315319 -0.016421372 -0.0092842178 0.15127954 -0.93833923 -0.31086019 0.0020124267
-0.0048344582 -0.015982412 -0.008763656 0.19461514 -0.91966325 -0.34109291 0.0028402251
-0.0020670905 -0.015499167 -0.0082984706 0.2592077 -0.87231517 -0.41458115 0.0022438304
7.1292743e-06 -0.015286459 -0.0074552987 0.29456252 -0.8418625 -0.45221728 0.0023570801
-0.0013187481 -0.014609894 -0.0095360242 0.28246927 -0.83925056 -0.46461758 0.0020066758
0.0012335572 -0.014006207 -0.0088444278 0.33594987 -0.80044627 -0.49641052 0.0013207339
0.003954649 -0.012858967 -0.0086195739 0.39451262 -0.73117936 -0.55653983 0.0012893755
0.006418393 -0.012262737 -0.0076760994 0.42175499 -0.70126939 -0.57475567 0.0014692625
0.0049857963 -0.011344765 -0.0097369812 0.44054297 -0.62181813 -0.64750618 0.0009690306
0.007241088 -0.010563117 -0.008934034 0.45808384 -0.60211223 -0.65392667 0.0016398366
0.0095387092 -0.0099385073 -0.0077693239 0.50103772 -0.60090786 -0.6227929 0.001222653
0.0083155269 -0.0086279102 -0.0098879486 0.51317018 -0.53925979 -0.66772389 0.001899084
0.010281512 -0.007706611 -0.0089998581 0.53557783 -0.49254793 -0.68596864 0.0024384265
0.012346148 -0.0070329085 -0.0078520039 0.56134868 -0.45729604 -0.68975943 0.0016965134
-0.066939518 -0.0030648489 -0.0076731043 -0.41391161 -0.6721788 -0.61388344 0.019168127
-0.064705692 -0.0034733654 -0.0087621445 -0.43853658 -0.73117197 -0.52256399 0.005597142
-0.062162325 -0.0043298132 -0.0092543904 -0.47599843 -0.69402409 -0.54014456 0.0063506016
0.01102855 -0.0052983463 -0.0098663578 0.56479549 -0.33872756 -0.75250888 0.0026101023
0.013111041 -0.0044122771 -0.0086218547 0.59339035 -0.29537845 -0.74875873 0.0023308427
0.015033479 -0.0036098338 -0.0074442718 0.61899626 -0.27997088 -0.73379833 0.001419318
-0.070370421 -0.00096288638 -0.007682594 -0.48909092 -0.18878429 -0.85155773 0.036179155
-0.067861326 -0.0014465025 -0.0086929509 -0.47938254 -0.4593184 -0.74780947 0.02606995
-0.065697692 -0.002149675 -0.0096659549 -0.4545573 -0.55716574 -0.6949417 0.032159586
0.013390576 -0.0015288136 -0.0092260716 0.61736017 -0.10325929 -0.77987438 0.0013897716
0.015362616 -0.0014150437 -0.0077097281 0.62550044 -0.11960915 -0.77100122 0.0020846569
-0.070430525 0.0010426119 -0.0077809128 -0.42129967 0.20057996 -0.88446271 0.029340351
-0.067882657 0.0014786684 -0.0089212675 -0.5249666 0.40584317 -0.74813193 0.035964608
-0.065851972 0.0025031092 -0.009640648 -0.46426621 0.50378197 -0.72846454 0.039813779
0.013475711 0.0015145859 -0.0092613278 0.62148905 0.074356146 -0.77988619 0.0024468875
0.015364002 0.0013905867 -0.0078151394 0.6242367 0.09656319 -0.77524459 0.0035852126
-0.067391023 0.0032681345 -0.0076777628 -0.36513624 0.676566 -0.6394794 0.015873065
-0.064813241 0.0035855928 -0.0090814 -0.51445812 0.63624173 -0.57491672 0.014552224
-0.062583119 0.0046062418 -0.0094392244 -0.5595572 0.62594634 -0.54321915 0.0074203266
0.011028993 0.0055021602 -0.0098342141 0.5275858 0.45704395 -0.71607536 0.0015794713
0.013058973 0.0045644804 -0.008715203 0.59527671 0.28797245 -0.75014496 0.0027645642
0.015092426 0.0037975409 -0.0075034099 0.59858137 0.32520929 -0.73207867 0.0038081158
0.0081373388 0.0083986325 -0.0096615562 0.47500688 0.62439001 -0.62008518 0.0011177263
0.010230712 0.007602585 -0.0088178506 0.52405232 0.5354858 -0.662287 0.0020055163
0.01234441 0.0068435962 -0.0078259967 0.53242069 0.54000181 -0.65186369 0.002144627
0.001836 0.011801081 -0.0098830061 0.33434764 0.75312322 -0.56658369 0.00061548309
0.0043274174 0.011147006 -0.0091148317 0.37167683 0.73629403 -0.56544441 0.00057613646
0.006893714 0.010194973 -0.0085162213 0.41111991 0.69137585 -0.59412116 0.00057443301
0.0091127483 0.0094296169 -0.0077661145 0.46391866 0.63960588 -0.61293054 0.00031022562
-0.0076199481 0.014958917 -0.0096581494 0.20285942 0.91452575 -0.34998667 0.0010180089
-0.004876269 0.014655082 -0.0089130439 0.21889414 0.90092951 -0.37471512 0.0021627045
-0.0016574757 0.013819253 -0.0088653183 0.26376683 0.85588163 -0.44485247 0.0021059811
0.0010682438 0.012983546 -0.0087051168 0.31631914 0.80243289 -0.50600743 0.0010833463
0.003588412 0.012557757 -0.0078233089 0.34258455 0.77642196 -0.52896565 0.001176453
-0.010326098 0.015413927 -0.0095271263 0.16631213 0.93114519 -0.32451338 0.00031134463
-0.0081202872 0.015468054 -0.0080490559 0.16789204 0.93318629 -0.31776661 0.00041131911
-0.0095119774 -0.017114265 -0.0070296321 0.13366404 -0.95035446 -0.28099868 0.00077819778
-0.0079606548 -0.017161671 -0.0058710617 0.14669943 -0.94852197 -0.28068718 0.00067691063
-0.0043189307 -0.016692979 -0.0062323455 0.19536167 -0.93649334 -0.29122847 0.0017070336
-0.0017475775 -0.016297091 -0.00581396 0.22766966 -0.92351812 -0.30867577 0.001125453
0.0010688389 -0.015707584 -0.0055195345 0.23797004 -0.91174018 -0.33481365 0.0025239449
0.0031639505 -0.0153851 -0.0047622812 0.31959322 -0.86089605 -0.3958765 0.002573252
0.0020397594 -0.014854832 -0.0068660174 0.3051329 -0.85042763 -0.42856371 0.0019509238
0.0042692125 -0.014382199 -0.0060554035 0.34468582 -0.82644725 -0.4451704 0.0011262629
0.0070311287 -0.013307522 -0.0056706797 0.40447915 -0.76425916 -0.50229919 0.0021593326
0.0093316929 -0.012521558 -0.004982294 0.45390686 -0.71413249 -0.53290087 0.0010335633
0.0081571164 -0.011678083 -0.0070138071 0.45789975 -0.65716887 -0.5987128 0.00093205646
0.010382758 -0.010919151 -0.0060782386 0.47425482 -0.65890694 -0.58388704 0.0021187237
0.012772159 -0.0097842552 -0.0053119329 0.51996869 -0.60406375 -0.60393673 0.0012555908
0.013740377 -0.0076320721 -0.0063500945 0.57706064 -0.43868494 -0.68888062 0.0013874194
0.015683655 -0.0070683127 -0.0050214948 0.59338605 -0.45555371 -0.66359913 0.0021438664
-0.073385708 -0.0030878494 -0.0046203705 -0.183548 -0.74867189 -0.63702476 0.0054916022
-0.070761606 -0.0033106138 -0.0052810553 -0.23062575 -0.77097183 -0.59364486 0.0075054029
-0.067898557 -0.0036249903 -0.0057847016 -0.29195091 -0.78199798 -0.55067575 0.006838582
-0.065585248 -0.0039828247 -0.0063054655 -0.37975809 -0.78882432 -0.48325983 0.0041705477
0.014501424 -0.0057890392 -0.006953666 0.60540915 -0.33324298 -0.72279245 0.0014185503
0.016255911 -0.0045514619 -0.0059549347 0.63079387 -0.30674487 -0.7127459 0.0020244303
0.018047616 -0.0039234599 -0.0046203677 0.64357418 -0.326098 -0.6924395 0.0018610478
-0.076478481 -0.001345997 -0.0049529285 -0.40158239 -0.25593951 -0.87933302 0.0414556
-0.073864751 -0.0014898826 -0.0057155592 -0.3555319 -0.42696947 -0.83144099 0.025237264
-0.071365133 -0.0019520376 -0.0065055192 -0.23406452 -0.6563139 -0.71726274 0.030180344
-0.069324724 -0.0026169994 -0.0069726501 -0.3562659 -0.65832454 -0.6630863 0.03273866
0.01673292 -0.0015458805 -0.0064810766 0.66125536 -0.11596861 -0.74114269 0.0016452124
0.018385001 -0.0014421977 -0.0050300998 0.67247891 -0.12817372 -0.72893322 0.0021856572
-0.076566398 0.0013567468 -0.0051129828 -0.45963094 0.25843161 -0.8496778 0.033117518
-0.073812336 0.0014649481 -0.0059961523 -0.35838711 0.39932936 -0.84385705 0.046410616
-0.071454883 0.0020758724 -0.0066911443 -0.34281138 0.41770968 -0.84142679 0.057884276
-0.069292501 0.0028191677 -0.0071550999 -0.40242147 0.58386052 -0.70509851 0.037324455
0.016736399 0.0015242242 -0.0065892767 0.66739482 0.089092411 -0.73935562 0.0029499859
0.018490009 0.0013914154 -0.0050519588 0.67747897 0.10796456 -0.72757536 0.0039641466
-0.076174766 0.0032933622 -0.0043310318 -0.3633225 0.61096436 -0.70336294 0.057170559
-0.07374952 0.0034980238 -0.0046677329 -0.19932288 0.77055293 -0.60540771 0.018958045
-0.070849851 0.0034948757 -0.0054698749 -0.28609249 0.70920581 -0.6443432 0.0090653691
-0.068166301 0.0036232399 -0.0058147442 -0.31783375 0.75396472 -0.57490778 0.0078483159
-0.065492362 0.0039542341 -0.0068576131 -0.45364743 0.66865164 -0.58915961 0.017296949
0.014349106 0.0058405669 -0.0070130425 0.5515275 0.5043754 -0.66439664 0.001030341
0.016250528 0.004748031 -0.0059670117 0.64809954 0.34877795 -0.67699403 0.0051580463
0.018071964 0.0039946176 -0.004726598 0.64482379 0.34214371 -0.68347633 0.003361003
0.011331215 0.0087135006 -0.0068396721 0.49669784 0.59514892 -0.63173485 0.00063471333
0.013439785 0.0078523802 -0.0059993169 0.53848815 0.57053506 -0.62009698 0.00071962544
0.015415003 0.0070549231 -0.0049937326 0.56209159 0.52125907 -0.6421386 0.0015738986
0.0075258324 0.011576694 -0.0065646265 0.38633177 0.71549982 -0.58207178 0.00096706161
0.010058441 0.010652682 -0.0057577849 0.43018943 0.69497353 -0.57614994 0.00074942026
0.012465813 0.0097282538 -0.0049446574 0.48603716 0.6216228 -0.61429065 0.0004051904
-0.0036202259 0.015048699 -0.0071319137 0.17617118 0.93331212 -0.31287709 0.00055211654
-0.00090618618 0.014605122 -0.006860693 0.21516415 0.89324659 -0.39473403 0.0032933513
0.001352896 0.014320248 -0.006016477 0.2503351 0.89849347 -0.36061293 0.0018355999
0.0041386923 0.013548368 -0.0057846024 0.30815893 0.83493298 -0.45598802 0.0019907868
0.0068343701 0.012812119 -0.0052723624 0.34821269 0.78616893 -0.51057446 0.0023799858
0.008859857 0.012407692 -0.0044968519 0.39590782 0.73582506 -0.54937994 0.0022303071
-0.0067919903 0.01550317 -0.0070897136 0.19646919 0.91320038 -0.35702229 0.0011644982
-0.0050054286 0.015544278 -0.0059674303 0.18051666 0.93458015 -0.30655125 0.00061854406
-0.0021083225 0.015245879 -0.0054307254 0.18895964 0.93075216 -0.31304097 0.0005783519
0.00019890163 0.015145967 -0.0043954346 0.21109614 0.92505658 -0.3157669 0.00082468608
-0.0011900151 -0.016826207 -0.0028890837 0.21532485 -0.94028467 -0.26362851 0.00085586245
0.0012329482 -0.01646379 -0.0028041038 0.23632941 -0.93269372 -0.27245328 0.0016547068
0.004282115 -0.015737725 -0.0028337883 0.24278702 -0.92881393 -0.27992693 0.0016398446
0.0066471463 -0.015190981 -0.0022488218 0.30741769 -0.88808316 -0.34176415 0.0023206673
0.0076519931 -0.014371247 -0.0033291723 0.34971759 -0.84826016 -0.39768353 0.00093199289
0.010134482 -0.013476519 -0.0027474929 0.4059014 -0.78884506 -0.46148399 0.0020358856
0.012521942 -0.012526052 -0.002195036 0.4634752 -0.73069274 -0.50127721 0.0011827993
0.013534355 -0.011030123 -0.0032396214 0.50360119 -0.66491514 -0.55161005 0.0021669434
0.015858304 -0.0099428855 -0.0023027956 0.52849495 -0.6210199 -0.57881552 0.0014353116
0.017842423 -0.0090817492 -0.0013471041 0.569116 -0.57537979 -0.58740538 0.00066711515
0.016751356 -0.0078660855 -0.003448166 0.60673404 -0.45632118 -0.65087998 0.0012887479
0.018642064 -0.0072124694 -0.0022051893 0.61636078 -0.48187345 -0.622814 0.0014457793
-0.076249368 -0.0036712128 -0.0031447504 -0.27531922 -0.55035067 -0.78823429 0.027711246
-0.074109823 -0.0039062588 -0.0030591595 -0.18356262 -0.74866956 -0.63702327 0.0054895123
-0.071076319 -0.0040097735 -0.0035237465 -0.19632614 -0.79372698 -0.57572001 0.0066385902
-0.069393665 -0.0040051765 -0.0039989147 -0.21332836 -0.84608179 -0.48850447 0.0034381617
0.019482918 -0.0046122 -0.0030134562 0.64155626 -0.34016949 -0.68752468 0.0021458915
0.021148462 -0.004079679 -0.0016160104 0.67182511 -0.32183912 -0.66713607 0.0014613229
-0.077367663 -0.0024076754 -0.004058281 -0.40157741 -0.25594029 -0.87933511 0.041457821
0.020011686 -0.0015573002 -0.0035659606 0.67686695 -0.12598534 -0.72524399 0.0018125983
0.021581184 -0.0014112109 -0.0020377329 0.69739026 -0.13337649 -0.70417154 0.002462233
0.02010664 0.0015922132 -0.0035974146 0.67390305 0.098316349 -0.73224896 0.0032766962
0.021664295 0.0013887347 -0.0020795492 0.69405329 0.11083812 -0.71134019 0.0043135025
-0.076188475 0.0042163515 -0.0032633687 -0.33815926 0.6048485 -0.72097611 0.057220355
-0.074290834 0.0044321651 -0.0030245697 -0.19931969 0.77055329 -0.60540837 0.018958852
-0.072014481 0.0042144232 -0.0033865217 -0.15074015 0.81026006 -0.56635326 0.011462186
0.017301664 0.0060316049 -0.0041529331 0.58439922 0.48009366 -0.65420771 0.00063628488
0.01941888 0.0047288965 -0.0030734525 0.64466453 0.36245987 -0.67307538 0.0042812079
0.021300152 0.0039765658 -0.0016523693 0.66375756 0.34333453 -0.66449034 0.0021797237
0.016505003 0.0078911921 -0.0032744156 0.54980642 0.5456686 -0.63242286 0.001006056
0.018660095 0.0071583749 -0.0020075431 0.58693469 0.50056237 -0.63635284 0.00091233623
0.011037427 0.011862488 -0.0036147851 0.39460403 0.73124135 -0.55639356 0.0023418288
0.013340416 0.010881459 -0.0030197217 0.44717845 0.6915071 -0.56731772 0.0012752569
0.015758548 0.0099576106 -0.0020630406 0.5011642 0.62876219 -0.59455234 0.001348846
0.0045290357 0.014577325 -0.0032513402 0.23144647 0.90914619 -0.34624511 0.001612331
0.0071309535 0.014032293 -0.0027532466 0.28282365 0.87290967 -0.39754188 0.0005888681
0.0099353278 0.0130746 -0.0025747372 0.36478993 0.80593359 -0.46626109 0.0024872406
0.012213063 0.012606056 -0.0016224328 0.41484684 0.75295955 -0.51083666 0.0024053054
-0.0011815941 0.015635105 -0.0034873132 0.17300823 0.94356334 -0.28241169 0.00018383143
0.0011709016 0.015462663 -0.0026517436 0.20943037 0.92448884 -0.31852692 0.00066999794
0.0036113346 0.015226807 -0.0021206886 0.20975369 0.91998851 -0.33109608 0.0006172923
0.00039008167 -0.016901908 -0.0009892974 0.22198936 -0.94326872 -0.2469109 0.00077874627
0.004065305 -0.01649032 0.0002478268 0.21778782 -0.94890249 -0.22836928 0.00031536256
0.0072308341 -0.015731346 -3.371574e-05 0.25644407 -0.93050086 -0.2615425 0.0010022921
0.0094005382 -0.015249506 0.00052725803 0.33052674 -0.88740712 -0.32134205 0.0011144496
0.010708504 -0.014499742 -0.00020457711 0.33255929 -0.87481374 -0.35228574 0.0019293678
0.013110911 -0.013505679 0.00019100029 0.4240801 -0.80796313 -0.40908638 0.0018322563
0.015342531 -0.012613318 0.00074416772 0.47481176 -0.74884677 -0.46236604 0.0015271992
0.016501371 -0.011316695 -2.4524517e-05 0.49665073 -0.71380836 -0.49377698 0.00067051232
0.018823396 -0.009920313 0.00057029165 0.57403845 -0.62330377 -0.53101051 0.0013142026
0.020710293 -0.0091481339 0.001734456 0.60218418 -0.60821223 -0.51715755 0.0020494254
0.01975365 -0.0080565875 -0.000404411 0.63667196 -0.46994287 -0.61139387 0.0011284634
0.021463569 -0.0072627403 0.0007585967 0.63542867 -0.48818979 -0.59824848 0.0017143596
0.022463825 -0.0046171187 3.7645921e-05 0.68940949 -0.30480126 -0.65712303 0.0014483999
0.024106309 -0.0038844678 0.0013995785 0.70815897 -0.30741054 -0.63561743 0.0012575149
0.022985421 -0.0016236154 -0.00053049438 0.72522688 -0.1269915 -0.67669719 0.0020857388
0.024469551 -0.0014219941 0.00099408627 0.71990836 -0.13177107 -0.68144578 0.0025297902
0.023070104 0.0016255325 -0.00056560151 0.70689064 0.095480546 -0.70084888 0.0036090217
0.024522074 0.0013758024 0.00092923548 0.71663427 0.10298741 -0.68980348 0.003804944
-0.074562281 0.0051596188 -0.00074932911 -0.19931807 0.77055496 -0.6054067 0.018959064
0.022561364 0.0046408465 7.1914867e-05 0.68143755 0.34320945 -0.64641333 0.0026678969
0.02421955 0.0038560857 0.0013462473 0.68480682 0.32352003 -0.65297353 0.0019296139
0.019598465 0.0081275459 -0.00035819225 0.56186336 0.55850041 -0.61023504 0.0013141076
0.021527302 0.0070569622 0.00069266278 0.63105398 0.48152882 -0.60819477 0.00093362108
0.016497683 0.011056027 -0.00015718676 0.48744068 0.67962909 -0.54818422 0.0021736145
0.0188017 0.009950364 0.00060817599 0.53989244 0.62288052 -0.56615907 0.0017330936
0.020713311 0.0093532372 0.0018169191 0.54457539 0.61975777 -0.5650999 0.0015860222
0.0075159976 0.01482108 -0.00059439428 0.24817806 0.91271651 -0.3245863 0.001234572
0.010164731 0.014363854 0.00028498843 0.29455596 0.87837178 -0.37643039 0.00078527821
0.013178742 0.013185529 0.00021629967 0.37523931 0.80915767 -0.45217186 0.001648146
0.015524593 0.012409373 0.00084450934 0.43177569 0.75850165 -0.48810348 0.0019158412
0.0022280747 0.015727879 -0.00095347501 0.18513156 0.93812954 -0.29264197 0.00014124777
0.0043206643 0.015666787 0.00016737077 0.20754495 0.93367207 -0.29185888 0.00048721459
0.0070625143 0.015323373 0.00059630536 0.21272871 0.93034959 -0.29865733 0.00041680291
0.0054486981 -0.016568301 0.0022593644 0.21406522 -0.95412546 -0.20933415 0.0002534044
0.0079974262 -0.016114509 0.0025050249 0.24509156 -0.94143039 -0.23160113 0.00057930942
0.010348129 -0.015677068 0.0031999154 0.30578351 -0.91339713 -0.26870447 0.0017961011
0.012420067 -0.015230982 0.0037177112 0.32325488 -0.90355647 -0.2812331 0.001992651
0.013509483 -0.014567666 0.0029924829 0.36509988 -0.87121749 -0.32814971 0.00090779091
0.016221322 -0.01338102 0.0031938776 0.43145227 -0.81144863 -0.39420819 0.0011767935
0.018755965 -0.012273949 0.0038864519 0.48075119 -0.74815905 -0.45731416 0.0020948283
0.019494023 -0.011094064 0.0028737225 0.51495492 -0.72059375 -0.46429089 0.00069513242
0.02165721 -0.0098600127 0.0036151959 0.57765198 -0.63611382 -0.51154411 0.001291773
0.02290497 -0.0078356173 0.0028200299 0.65019524 -0.47843271 -0.59021038 0.0014913196
0.024544761 -0.0071208393 0.0040152362 0.65148962 -0.49685594 -0.57331973 0.0016410257
0.023492098 -0.0059129572 0.0018938985 0.65138948 -0.44389045 -0.6153478 0.00069861108
0.025327064 -0.0045834058 0.003122394 0.70144969 -0.33108029 -0.63115311 0.0025447637
0.026861258 -0.003622018 0.0044725444 0.7374211 -0.31754437 -0.59613401 0.0014713904
0.025896318 -0.0016361473 0.0025673993 0.75202572 -0.12368011 -0.64742613 0.0020349061
0.027174976 -0.001393182 0.0041021444 0.7732206 -0.12768281 -0.62114978 0.0023418176
0.025944095 0.0016551836 0.0025002044 0.75521451 0.084468864 -0.65001243 0.0028882136
0.027226511 0.0013415528 0.0040265424 0.77454972 0.082853094 -0.62706304 0.0029536483
0.025415301 0.0046913973 0.0030530849 0.68916637 0.32806954 -0.64608055 0.0031005435
0.027013559 0.0039024327 0.0044153286 0.72199667 0.29509526 -0.62581116 0.0021186445
0.022792377 0.0080465106 0.0027589882 0.61508507 0.51417929 -0.59773749 0.0020993284
0.024643507 0.0070731039 0.0038013216 0.63424015 0.47688955 -0.60853577 0.0018510438
0.019449241 0.011202762 0.0028940346 0.49230549 0.697703 -0.5204286 0.0016222922
0.021637801 0.010127557 0.0036810432 0.53890342 0.65582389 -0.52865684 0.00075959397
0.023615021 0.0094163436 0.0047472324 0.5825029 0.61609316 -0.5302071 0.0011707946
0.011239729 0.014925892 0.0024468657 0.23249967 0.91459793 -0.33083895 0.0016602275
0.013121693 0.014517986 0.003024023 0.3136209 0.87732744 -0.36323351 0.0013312491
0.016122889 0.013427623 0.0031908583 0.4013716 0.81463623 -0.41865104 0.0017101561
0.018669274 0.012442453 0.0037955912 0.47019044 0.73555213 -0.48773357 0.0016134806
0.007073951 0.015870877 0.0029514087 0.20367548 0.93439454 -0.29227248 0.00044050906
0.0098358644 0.01552739 0.0034263637 0.2131772 0.93401974 -0.2866402 0.00042970839
0.011971624 0.015470834 0.0047449972 0.23865287 0.93037778 -0.27828419 0.00053940207
0.01012418 -0.016246445 0.0060045831 0.24381499 -0.9466024 -0.2109457 0.00039050911
0.013158408 -0.015543896 0.005945161 0.26939726 -0.93760371 -0.2198281 0.00058223295
0.014816361 -0.015346615 0.0069710519 0.32308003 -0.90781587 -0.26737517 0.0014686474
0.016240992 -0.014469277 0.0059327744 0.37384424 -0.88360256 -0.28193447 0.0024958176
0.019227911 -0.013178985 0.0063023996 0.43535623 -0.81931925 -0.37306955 0.0013808053
0.021269806 -0.012251843 0.0067843162 0.50716841 -0.75679767 -0.41235602 0.0016625625
0.022353992 -0.010961581 0.0059515983 0.52869457 -0.72889632 -0.43496233 0.00051228283
0.02438299 -0.0097229276 0.0066851173 0.59301811 -0.6377576 -0.49152291 0.00079180574
0.025705989 -0.0077603697 0.0061173011 0.67151707 -0.53360575 -0.51413006 0.0020428745
0.027353857 -0.006504904 0.0070047844 0.69995147 -0.45252475 -0.55252999 0.00086183037
0.026422411 -0.0054905242 0.005009314 0.71901876 -0.36022884 -0.59434599 0.0019925642
0.028028086 -0.004278258 0.0062985066 0.75121158 -0.29081234 -0.59254485 0.00081832497
0.028636664 -0.0016180765 0.0059789997 0.77589643 -0.1421521 -0.61463606 0.0025401816
0.029824153 -0.0015389477 0.0074552894 0.79387212 -0.14538942 -0.5904482 0.0025167409
0.02868421 0.0016192368 0.005879458 0.77126205 0.055594601 -0.63408512 0.001955125
0.029924124 0.001247014 0.0073809233 0.79564989 0.055851724 -0.60317647 0.0023241434
0.028253552 0.0046082917 0.0062367208 0.71008074 0.29523873 -0.63923353 0.0040925778
0.029836427 0.0036183319 0.0076703336 0.76438749 0.25793576 -0.59091538 0.0032360635
0.025809675 0.0079988567 0.0059126951 0.65052354 0.51236993 -0.56062126 0.0019500399
0.027486008 0.0069676852 0.0069436934 0.68591911 0.45348546 -0.56909209 0.0017036315
0.022466045 0.011191228 0.0058361441 0.51890367 0.69047922 -0.50396162 0.0017616868
0.024363857 0.010125221 0.0066119488 0.5820272 0.62752658 -0.51716024 0.001146078
0.014074217 0.015016036 0.005062988 0.26750833 0.91465807 -0.30305094 0.0016459104
0.016600981 0.014361812 0.0056316201 0.32805794 0.88627535 -0.32694647 0.0021176075
0.019151755 0.013482053 0.0061972607 0.4152317 0.81205934 -0.41005161 0.0019694786
0.021573495 0.012529252 0.0068307165 0.49436703 0.7317102 -0.46925631 0.001416221
0.010589474 0.015976738 0.0058423374 0.20696168 0.94037998 -0.26991186 0.00035079173
0.013066894 0.015663348 0.0063956156 0.23733647 0.9288702 -0.28437924 0.00048033617
0.015754171 0.015177299 0.0070223063 0.29300952 0.89872903 -0.3262386 0.0012279283
0.013921562 -0.01588787 0.0089679565 0.25848359 -0.94429135 -0.20371565 0.00043602593
0.015814777 -0.015529753 0.0094677825 0.29127231 -0.93110371 -0.21955898 0.00065626553
0.018181376 -0.01497859 0.0098757055 0.31043255 -0.91328841 -0.26369664 0.0017868347
0.016956206 -0.014920002 0.0081755724 0.32032588 -0.91200536 -0.25619814 0.0022619169
0.01946288 -0.014166127 0.0090431515 0.37903625 -0.87204123 -0.30963808 0.0014241214
0.022161074 -0.012838854 0.009217672 0.47680381 -0.80501658 -0.3529962 0.001162409
0.024091534 -0.012163734 0.010328537 0.52789676 -0.75411439 -0.3906872 0.0018128699
0.023294158 -0.011634557 0.0081962552 0.56328845 -0.7040543 -0.43245068 0.00070099469
0.025146 -0.010746446 0.009227775 0.56051713 -0.71198964 -0.42295548 0.0009061934
0.026980564 -0.0096391169 0.0099295825 0.61552078 -0.63236153 -0.47037536 0.0018314851
0.026590686 -0.0088221561 0.0084058847 0.62290663 -0.6192258 -0.47806555 0.0011420249
0.028358262 -0.0074803578 0.0092421491 0.70006347 -0.50111544 -0.50871855 0.00077906175
0.029985931 -0.0062664649 0.010289481 0.71738368 -0.49772087 -0.48747799 0.0010622267
0.029242732 -0.0049847392 0.0082346909 0.75679505 -0.3295038 -0.56452507 0.0017954444
0.030485027 -0.0042105978 0.0094714016 0.77696562 -0.34047231 -0.52953094 0.0021496958
0.031100843 -0.0015455575 0.0091956854 0.82119405 -0.14829084 -0.55104458 0.0025384293
0.031234473 0.0015128723 0.0091802683 0.81590271 0.02860192 -0.57748139 0.0012890077
0.029390249 0.0054989331 0.0080757495 0.73778152 0.34238726 -0.58176398 0.0047000307
0.030818686 0.0045150025 0.0093982965 0.7713477 0.27322748 -0.57477772 0.0045895395
0.028562348 0.0078108199 0.008982623 0.6824882 0.49786717 -0.53510576 0.0020081936
0.030249741 0.0067041903 0.010186607 0.71951163 0.44340527 -0.53450418 0.0014911155
0.025382925 0.010961299 0.0088754073 0.55213135 0.67524284 -0.48907882 0.0013659588
0.027322143 0.0099504627 0.0098486189 0.59501648 0.61988115 -0.51156896 0.00090517395
0.019821201 0.014414813 0.0088266935 0.31946322 0.87882602 -0.35441238 0.0015164709
0.022232946 0.013445943 0.0092891883 0.43244219 0.80231881 -0.41143468 0.0022123321
0.02438926 0.012513426 0.0099428594 0.5142799 0.72911102 -0.45156759 0.0016854453
0.013680034 0.016079454 0.0086474251 0.2351141 0.93215507 -0.27533302 0.00036334744
0.016070429 0.015736222 0.0092566144 0.26075166 0.92194217 -0.28641066 0.0003539123
0.018492956 0.015257432 0.0097850673 0.32014316 0.89074713 -0.32261094 0.00098956469
0.016334765 -0.015740028 0.011386862 0.28680462 -0.93586195 -0.20470831 0.00048271407
0.019016031 -0.015255995 0.012420103 0.30638358 -0.92519963 -0.22390805 0.00049720972
0.020108834 -0.014548941 0.011121562 0.35212058 -0.90333742 -0.24493387 0.0017781345
0.022154212 -0.013949363 0.012064472 0.42498285 -0.85650849 -0.29288688 0.0011617024
0.024864849 -0.012742726 0.012646772 0.49882072 -0.79494959 -0.34530145 0.0012357611
0.025922813 -0.0116088 0.011630936 0.57758206 -0.70949382 -0.40375426 0.00066366431
0.027901474 -0.010324942 0.012346322 0.61669946 -0.67906946 -0.39817899 0.0019411326
0.029697005 -0.0094026905 0.013553163 0.64810574 -0.63638306 -0.41830066 0.0026500302
0.02910931 -0.0085308645 0.011504022 0.65854299 -0.60332388 -0.44980153 0.00098539365
0.030677162 -0.0072460985 0.012428002 0.70643753 -0.53771901 -0.46022198 0.0013981311
0.031979688 -0.0045789494 0.012022978 0.78767687 -0.35142234 -0.5060311 0.0024903596
0.033098761 -0.0037925877 0.013241192 0.78817242 -0.35313651 -0.50406241 0.0020673785
0.032400899 -0.0015531187 0.011193246 0.83360606 -0.13177264 -0.53641111 0.0021167863
0.033420406 -0.001489099 0.012764134 0.83897763 -0.13870732 -0.52619082 0.0022465016
0.032386336 0.0019914887 0.010960057 0.83431101 0.04501953 -0.54945278 0.0017322541
0.033432547 0.0015241163 0.012519725 0.84316629 0.035064217 -0.5365082 0.0016852648
0.032184377 0.004926776 0.011510508 0.79731625 0.2774891 -0.53599125 0.0045457608
0.033355143 0.0043726075 0.012898631 0.80038297 0.27689523 -0.53171068 0.0052892226
0.029550869 0.0086050201 0.010943761 0.67640334 0.51103324 -0.53039932 0.0017591524
0.031282023 0.0074455375 0.012230132 0.72617328 0.44920528 -0.52046806 0.0010524759
0.033036966 0.006282466 0.013764432 0.75975674 0.42511174 -0.49198541 0.00057904114
0.02625202 0.011916311 0.011108955 0.51385677 0.73254985 -0.44645482 0.0016406407
0.028227895 0.010736806 0.011973765 0.58660072 0.65015858 -0.48290107 0.0012792515
0.03008775 0.0097154994 0.013110621 0.63625282 0.59922636 -0.48591155 0.0012154905
0.022606224 0.014548162 0.012094483 0.4001103 0.84367853 -0.35793602 0.0017768508
0.025056135 0.013370984 0.012311602 0.50091439 0.75598192 -0.42139772 0.0011337632
0.026987933 0.012606678 0.01322805 0.55768722 0.71050465 -0.42914805 0.0017701234
0.016813692 0.016187318 0.011592995 0.26479402 0.92488986 -0.27287897 0.00050305057
0.018989999 0.015843917 0.012267875 0.30145511 0.90364379 -0.30422482 0.0013611842
0.021211855 0.015378829 0.012831023 0.32896125 0.894324 -0.30326399 0.0019493335
0.019539092 -0.015643435 0.015322661 0.32304481 -0.92142749 -0.21590157 0.00060911296
0.021194678 -0.015153302 0.014945012 0.35914046 -0.90077901 -0.24416232 0.0011274583
0.022900369 -0.014477874 0.014696637 0.35913956 -0.90077817 -0.24416706 0.0011268912
0.025251921 -0.013612749 0.015556596 0.425154 -0.85785908 -0.28865531 0.0024094663
0.027306546 -0.012431337 0.015619723 0.53263456 -0.77825022 -0.33260652 0.0016264401
0.028553315 -0.011304629 0.015118007 0.56087762 -0.74570036 -0.35964879 0.00094256125
0.030549146 -0.0097939912 0.015588788 0.6401611 -0.64786565 -0.4128727 0.0015917349
0.031703502 -0.0078152232 0.014691969 0.72995853 -0.52714652 -0.43505991 0.0016875467
0.033068877 -0.0069195889 0.015767237 0.74489278 -0.49009186 -0.45270821 0.0013017618
0.034085151 -0.0044302493 0.015233101 0.81270427 -0.344087 -0.47022963 0.0015997367
0.034921903 -0.0015254929 0.015160596 0.85549629 -0.15258978 -0.49481559 0.0024765453
0.035607245 -0.0022906491 0.016565165 0.8653301 -0.18040502 -0.46760872 0.0018680916
0.035017733 0.0015316627 0.01491979 0.84685522 0.0013869461 -0.53182173 0.0015966538
0.036092028 0.002494382 0.016655376 0.87582684 -0.0086507732 -0.48254806 0.002085072
0.03473312 0.0046956674 0.015163189 0.80554575 0.27443841 -0.52514714 0.0049055251
0.035853904 0.0041694813 0.016671648 0.83677894 0.26950121 -0.47662371 0.0053434973
0.032108795 0.008191267 0.014134696 0.72307897 0.48131853 -0.49546877 0.0017955448
0.033552997 0.0074131773 0.015548792 0.73721439 0.47968921 -0.47582898 0.0018562954
0.028916847 0.011888551 0.014498038 0.56061459 0.71842295 -0.41180053 0.0016391666
0.030983727 0.010487763 0.015422236 0.63047731 0.63895369 -0.44072276 0.00094978424
0.032716278 0.0091858376 0.016241869 0.68879122 0.56262511 -0.45718667 0.00091613689
0.025538262 0.014410668 0.015164109 0.41861734 0.83845466 -0.34893167 0.00082221359
0.027969178 0.013098866 0.015472369 0.52954769 0.74688143 -0.40217835 0.0015564268
0.030358199 0.012069853 0.016811153 0.60902107 0.67738676 -0.4126021 0.0016263826
0.019291621 0.016436176 0.015122516 0.24710754 0.93872154 -0.24029084 0.00089895038
0.022207413 0.015797162 0.015259573 0.26644012 0.93043107 -0.2516101 0.0018878264
0.024351716 0.015403124 0.016293844 0.37229297 0.86614037 -0.33346492 0.0021961958
0.022032738 -0.015504905 0.018175006 0.3173534 -0.9229328 -0.2179032 0.0006393831
0.023781553 -0.015320597 0.019799909 0.35307354 -0.90777045 -0.22647712 0.0014519291
0.025456909 -0.014366403 0.018234605 0.35984236 -0.89535344 -0.26240373 0.0019422042
0.028168995 -0.012952473 0.01822125 0.50422794 -0.81080937 -0.29722455 0.00099969388
0.029449288 -0.011890335 0.017694971 0.57851022 -0.75100976 -0.31829256 0.001354287
0.03122513 -0.010604009 0.018145112 0.63832539 -0.68508822 -0.35099113 0.0017288922
0.033042595 -0.0091972332 0.018896442 0.68277246 -0.62501496 -0.37838882 0.00072107522
0.034088161 -0.0073261913 0.018207777 0.75590914 -0.51396716 -0.40551078 0.0019065398
0.035105031 -0.0050786263 0.017628076 0.83199811 -0.36250436 -0.4199639 0.0021688316
0.036022898 -0.0041829729 0.018785777 0.84638041 -0.35821345 -0.39411095 0.0018211507
0.036542051 -0.0015194637 0.018354909 0.88764232 -0.17102654 -0.42759907 0.0017190026
0.036893059 0.0015429484 0.018283218 0.88533771 -0.013325456 -0.46475747 0.0017501913
0.036609665 0.00466508 0.018320959 0.83337831 0.29461491 -0.46763521 0.0045072036
0.0347891 0.0078630494 0.018040769 0.76306236 0.47160754 -0.44195256 0.0016734103
0.035935763 0.0069174664 0.019003093 0.7774207 0.45042163 -0.43901873 0.001222687
0.032066785 0.011140325 0.017915193 0.66531336 0.63293815 -0.39591342 0.0011215558
0.033451367 0.00997255 0.018533068 0.69298303 0.58270806 -0.42453018 0.0011128573
0.026321776 0.01496491 0.017490795 0.40211332 0.85893542 -0.31707227 0.0016950094
0.028377656 0.014130378 0.018163219 0.47361398 0.80873615 -0.34876311 0.0012530718
0.030765254 0.012685547 0.018573381 0.58436179 0.714019 -0.38561398 0.0013295525
0.019384809 0.016899478 0.0179347 0.21778786 0.95065749 -0.22094978 0.00032265252
0.022173572 0.016521998 0.018102856 0.2444315 0.94098049 -0.23411298 0.0010956659
0.024897207 0.015849357 0.018391876 0.32292944 0.911268 -0.25555271 0.0025146483
0.026649252 0.01550688 0.01930513 0.37906781 0.87797165 -0.29235819 0.00062094303
0.022879377 -0.015857004 0.021331789 0.29700235 -0.94030499 -0.16618112 0.00095802452
0.024566032 -0.015369063 0.021205416 0.32125941 -0.92661148 -0.19540639 0.00055340712
0.025993168 -0.014869032 0.020709341 0.3544575 -0.90721434 -0.22654375 0.0016109638
0.0278682 -0.014079548 0.021182356 0.42736214 -0.8699764 -0.24597295 0.0022571925
0.030505635 -0.012597846 0.021506673 0.55873603 -0.77820426 -0.28672659 0.0011445031
0.032139573 -0.011107884 0.020929964 0.64715791 -0.69276929 -0.31820968 0.001280023
0.033718165 -0.0099310419 0.021711605 0.67968178 -0.65038919 -0.3391557 0.0022571874
0.035047967 -0.0078439582 0.020909684 0.77922946 -0.49470252 -0.38479981 0.001283627
0.036242589 -0.0066755284 0.021764388 0.78719133 -0.48951238 -0.37510988 0.0013997477
0.037150566 -0.0044933883 0.021405129 0.83538145 -0.36345845 -0.41235384 0.0017654517
0.037938409 -0.0016597807 0.021311821 0.8881613 -0.18101898 -0.4223763 0.00088080205
0.038151771 0.0012873256 0.020975105 0.90143955 -0.07876303 -0.42567971 0.002239679
0.038891863 0.0022809042 0.022054492 0.91508067 -0.0079937167 -0.40319172 0.0057867076
0.037968058 0.004854145 0.021014314 0.86023068 0.26021269 -0.43851176 0.0075676623
0.038897283 0.0039774948 0.022126338 0.88216382 0.23351523 -0.40897146 0.0086934604
0.035372175 0.0087835211 0.020152291 0.73023158 0.55272913 -0.40156236 0.00041827137
0.036809377 0.0075499606 0.02136931 0.78104931 0.46831945 -0.4130846 0.0012905139
0.034478169 0.010617375 0.02121816 0.70365667 0.59934175 -0.38164988 0.00079031894
0.035990309 0.0093061943 0.022122612 0.74397916 0.54850209 -0.38162878 0.001792084
0.028616209 0.014810445 0.020087158 0.43779582 0.8424511 -0.31402382 0.0027284834
0.031201832 0.013563479 0.0211681 0.53269255 0.77026844 -0.35060686 0.0009794553
0.033084232 0.012576839 0.022134019 0.61840904 0.69338101 -0.36985534 0.0025362549
0.022381227 0.017012896 0.020943483 0.24763417 0.93853921 -0.24046086 0.001003239
0.025046814 0.016538009 0.021159103 0.29073018 0.92426217 -0.24741749 0.0010445355
0.027960394 0.015579119 0.021398416 0.38485748 0.88120705 -0.27451566 0.0029826073
0.029721599 0.015137242 0.022652587 0.49022964 0.81336766 -0.31322181 0.0011942402
0.025422052 -0.015589932 0.02408552 0.3021152 -0.93957424 -0.16101737 0.0010347151
0.027619045 -0.014987057 0.024243807 0.35674292 -0.91931719 -0.16610372 0.0029840462
0.028819978 -0.014328766 0.023948779 0.42137259 -0.87878048 -0.22403106 0.001729256
0.03121211 -0.013038893 0.024190968 0.5224973 -0.80787873 -0.27263257 0.0013559929
0.033025835 -0.012089578 0.025095632 0.60912752 -0.74184638 -0.28040609 0.00098285568
0.034233455 -0.010650763 0.02423271 0.64680815 -0.70363104 -0.2941812 0.00075791281
0.03586388 -0.00932437 0.025000693 0.71874982 -0.61892384 -0.31675225 0.0013099762
0.035579275 -0.0086393785 0.023204496 0.74135685 -0.57470661 -0.3465578 0.0040531792
0.036980439 -0.0073325136 0.024280773 0.81323308 -0.4677591 -0.34619835 0.0005024852
0.038167115 -0.0046389899 0.023725478 0.86564451 -0.34398344 -0.36377865 0.0015642331
0.038890384 -0.0042891256 0.025270542 0.88011783 -0.35025245 -0.32049313 0.0020040197
0.038471986 -0.0028101781 0.022922328 0.88687921 -0.23226851 -0.39937025 0.0030575164
0.039286088 -0.0014920363 0.024342859 0.91737986 -0.1863391 -0.35169867 0.00071559276
0.039688334 0.0017140287 0.024136452 0.91912234 -0.011905821 -0.39379239 0.0049396963
0.038478013 0.0059264028 0.02300342 0.83113635 0.38151312 -0.40454909 0.0050664563
0.039537378 0.0046144356 0.024157638 0.89099067 0.26432738 -0.3691431 0.0054193409
0.037912097 0.0077865804 0.02389464 0.79922938 0.46146265 -0.38507736 0.0010220928
0.038893733 0.0071760998 0.02531453 0.80943578 0.4666 -0.35650826 0.0014780487
0.034957577 0.01160448 0.023590783 0.65703994 0.65942168 -0.36532402 0.0014098512
0.036310866 0.010408862 0.024416683 0.73020202 0.5814293 -0.35881048 0.000749673
0.031735878 0.014414832 0.023896469 0.52781224 0.78927243 -0.3137885 0.0020189283
0.03388384 0.013049006 0.024529489 0.6095615 0.71549147 -0.3413308 0.0016959086
0.025418833 0.017032204 0.024030121 0.2981765 0.92437369 -0.23795833 0.00094308821
0.028223619 0.016283026 0.024168419 0.3524543 0.90228081 -0.2483253 0.0012908061
0.030510362 0.015396865 0.024590386 0.48376673 0.82974297 -0.27838171 0.0028101348
0.024818387 -0.016057951 0.026985636 0.27194503 -0.95322496 -0.13193998 0.00088719121
0.027998339 -0.0153218 0.026934838 0.2984069 -0.9417634 -0.15503231 0.0017106538
0.029410254 -0.014553098 0.025877615 0.44132617 -0.87172997 -0.21288036 0.002308043
0.031080574 -0.013960787 0.02701951 0.46616313 -0.85940027 -0.21005525 0.0011728924
0.033292662 -0.012642859 0.027429571 0.59278327 -0.76675355 -0.24636784 0.001261911
0.034989066 -0.011272309 0.027508328 0.68492633 -0.67778397 -0.26736638 0.0013479884
0.036385357 -0.0099563701 0.027852694 0.72290814 -0.63142377 -0.28054917 0.0021779896
0.037753727 -0.0078455107 0.027167981 0.80783236 -0.50396752 -0.3056528 0.0017006828
0.038840268 -0.0065222732 0.027878081 0.82054663 -0.47877786 -0.31220993 0.0012079102
0.039535765 -0.0045540337 0.027340105 0.88683093 -0.33659714 -0.31659636 0.0018459003
0.040419411 -0.0015472262 0.027529495 0.91854161 -0.20802143 -0.3361671 0.00080786593
0.040787354 0.0013670793 0.027156739 0.92414814 -0.12767386 -0.36006889 0.0043196823
0.041834846 0.0028039014 0.028505718 0.93133795 -0.053745449 -0.36016816 0.0090354877
0.040710513 0.0048605981 0.027141305 0.88011682 0.25980729 -0.39735949 0.0083767604
0.041851681 0.0035424849 0.0287142 0.91799104 0.11683927 -0.37900007 0.018671298
0.038228814 0.0089013297 0.026228568 0.76088834 0.53718185 -0.36398429 0.00081647671
0.039560169 0.0075869216 0.027368641 0.81296676 0.46823844 -0.34617588 0.0010073822
0.037439022 0.010655972 0.027278205 0.74952751 0.56582397 -0.34358644 0.0010425968
0.038890045 0.0094376672 0.028547904 0.78038788 0.52278799 -0.34305611 0.0015182719
0.034239542 0.013919879 0.027284032 0.57436663 0.75941712 -0.30559552 0.00062849763
0.036047488 0.012526499 0.02769343 0.66845816 0.67350018 -0.31553319 0.002267079
0.026488718 0.017206373 0.026076367 0.32817957 0.91533089 -0.23338315 0.00032076461
0.028262325 0.017007884 0.027306637 0.34392032 0.90919089 -0.23471421 0.00063561654
0.031261604 0.015842518 0.027263632 0.42297417 0.87186074 -0.24688429 0.0015408045
0.033009019 0.015342431 0.02879866 0.48784167 0.82548904 -0.28386319 0.0048378045
0.02565987 -0.016142381 0.029360732 0.24920797 -0.96036649 -0.12486615 0.00051202875
0.028792899 -0.015496635 0.02966415 0.28954732 -0.94563144 -0.14813322 0.0020980884
0.030162558 -0.015201939 0.030680617 0.35849005 -0.92112499 -0.15170245 0.0051279711
0.031808756 -0.014296822 0.030135872 0.48394656 -0.85050261 -0.206012 0.0017741085
0.034162916 -0.012866437 0.03037571 0.59481156 -0.76939303 -0.23288094 0.0018477275
0.035560545 -0.011733798 0.030196449 0.66284668 -0.70836031 -0.24261083 0.0014221115
0.037049528 -0.010258206 0.030336497 0.71460062 -0.64217192 -0.27741876 0.0019207792
0.038354121 -0.0086103166 0.030180456 0.75264311 -0.59323514 -0.28565803 0.00077740208
0.039469007 -0.0071162148 0.030525016 0.81564319 -0.49657509 -0.29688278 0.0013542583
0.04054543 -0.0046828068 0.0302462 0.87120724 -0.36793953 -0.32498994 0.0023998786
0.04136188 -0.0018714403 0.030280231 0.91935641 -0.21535879 -0.32924822 0.00063398952
0.041442618 0.00059426029 0.029749135 0.93014222 -0.17091334 -0.3249985 0.0017708681
0.042303458 0.0015825965 0.030908165 0.93738025 -0.15569933 -0.31157005 0.0019839609
0.041435115 0.0057662674 0.029654955 0.86321431 0.36488602 -0.34888282 0.00095133105
0.042288717 0.0043455861 0.030456638 0.93282342 0.1528956 -0.3262873 0.017350029
0.040645711 0.0077427737 0.030051762 0.81851834 0.45348957 -0.35266823 0.001233325
0.038172886 0.01135611 0.029950382 0.74062282 0.5940851 -0.31391183 0.0011171593
0.039366797 0.010054295 0.03053317 0.75613749 0.56531984 -0.32965046 0.0008391568
0.034808729 0.014561436 0.030005088 0.57407159 0.77031791 -0.27758256 0.0033489224
0.036558401 0.013237119 0.030367522 0.6589238 0.68631232 -0.3078877 0.0018376163
0.028886598 0.01734958 0.029875418 0.32874352 0.92710698 -0.18000081 0.0015008125
0.031125579 0.016659968 0.030261645 0.37152821 0.90844029 -0.19158015 0.0027728942
0.033618096 0.015569729 0.030676128 0.51034808 0.82800776 -0.23226687 0.0018484319
0.026269641 -0.016232563 0.031898521 0.26023406 -0.95877606 -0.11413417 0.0012752223
0.028060623 -0.016027777 0.033107005 0.26167369 -0.95676064 -0.12702736 0.001599459
0.030644961 -0.015459755 0.033438213 0.33013436 -0.93734139 -0.11136626 0.0030571022
0.032297794 -0.014795868 0.033391409 0.42884922 -0.88592476 -0.1767081 0.0043417262
0.034017298 -0.013711059 0.033092864 0.53823578 -0.81546235 -0.21289244 0.0022151873
0.035962954 -0.012488319 0.033739448 0.63213211 -0.74164474 -0.22443728 0.0012501285
0.037412625 -0.010872835 0.032859229 0.71345705 -0.65582079 -0.24673477 0.0011977039
0.038934283 -0.0095034176 0.033596396 0.73905653 -0.62082493 -0.26148 0.0012638309
0.040089369 -0.0076282872 0.033232898 0.82013053 -0.50199431 -0.2745682 0.0022696196
0.041195564 -0.005355326 0.032873042 0.88719696 -0.34910479 -0.30167434 0.0018650946
0.041900389 -0.0039542443 0.033411585 0.89565855 -0.33693981 -0.29028833 0.0019166083
0.042413745 -0.0014373668 0.03320884 0.92270738 -0.21852984 -0.31757805 0.00060250529
0.043164168 0.001449751 0.033541352 0.92225248 -0.15680094 -0.35336092 0.0021736522
0.04329855 0.004433996 0.033212684 0.9300729 0.13099347 -0.34322745 0.0096591506
0.04101254 0.0088605154 0.032643594 0.79409683 0.51335794 -0.32538268 0.00077968027
