# .PCD v0.7 - Point Cloud Data file format
VERSION 0.7
FIELDS x y z normal_x normal_y normal_z curvature
SIZE 4 4 4 4 4 4 4
TYPE F F F F F F F
COUNT 1 1 1 1 1 1 1
WIDTH 561
HEIGHT 1
VIEWPOINT 0 0 0 1 0 0 0
POINTS 561
DATA ascii
0.00076935574 -0.0048236731 0.0040973127 -0.70523244 0.18487735 -0.68444687 0.0022235441
0.023986975 -0.0045650732 0.0042326599 0.77559382 0.30498663 -0.55266392 0.0021750524
0.02510413 -0.0052483436 0.00547422 0.81312954 0.27371588 -0.51371193 0.0021659189
-0.00038685865 -0.0020696691 0.0059138909 -0.73201334 0.1265523 -0.6694333 0.0029573308
0.0013323228 -0.0018688028 0.0043515465 -0.58489573 0.17159489 -0.79274976 0.0030338918
0.023263426 -0.001803501 0.0048272093 0.73331916 0.32427213 -0.59757054 0.0015193584
0.024738336 -0.0026315392 0.0062943604 0.78241295 0.2881493 -0.55208689 0.0022144702
-0.00019959378 0.00073689356 0.0061220061 -0.67584807 0.10962827 -0.72884232 0.0026593963
0.0018474512 0.00097339047 0.0046460107 -0.53485656 0.16663791 -0.82834792 0.0026651255
0.020918032 0.0013695662 0.0041705351 0.56445891 0.34680924 -0.74907237 0.00081349933
0.022545911 0.00074165751 0.0053324974 0.6880933 0.33414769 -0.64410633 0.0034876449
-7.5394812e-05 0.0036491719 0.0063835615 -0.63304132 0.085054643 -0.76943123 0.0027967195
0.0020607279 0.0037429063 0.0050077452 -0.47246557 0.15384668 -0.8678177 0.0023545781
0.0042896499 0.0040494818 0.0039573661 -0.37022215 0.18639171 -0.91005147 0.0019718844
0.018148636 0.0047665257 0.0039865724 0.42150849 0.33790281 -0.84151781 0.00060234894
0.02010637 0.0038340078 0.0047073504 0.51708376 0.33879295 -0.78603035 0.0023212254
0.022071645 0.0034352881 0.0061082887 0.64621776 0.32088092 -0.69241458 0.002739466
0.00014266369 0.0068848822 0.006575169 -0.58283246 0.067180343 -0.80981052 0.0025181107
0.0020619421 0.0068647796 0.0054720733 -0.45236188 0.12811881 -0.88258392 0.0022324433
0.0050673475 0.0069681774 0.0042458288 -0.31911677 0.19015108 -0.92844337 0.002517716
0.0073146657 0.0077905278 0.0038571297 -0.12860884 0.23419701 -0.96364492 0.0014607281
0.014699478 0.0079217162 0.0039002122 0.18437102 0.31917998 -0.92958677 0.0022279902
0.017276188 0.0070321835 0.0044403309 0.36121768 0.32841218 -0.87273556 0.002636089
0.019799784 0.0066657006 0.0057014134 0.56823581 0.32429734 -0.75626665 0.0031421003
0.021780498 0.0054451646 0.0067373067 0.67362416 0.29701304 -0.67676717 0.0072412794
0.00014237064 0.0088105164 0.0067111999 -0.54934084 0.028808732 -0.83510154 0.0033765489
0.0020628565 0.009990246 0.005822395 -0.39451528 0.095726967 -0.91388953 0.0017855503
0.0051722196 0.0099619711 0.0047024284 -0.26909983 0.16130222 -0.94950879 0.0020975119
0.0080356449 0.0099479081 0.0041450392 -0.10927868 0.19502169 -0.97469217 0.0015433291
0.010836825 0.010053988 0.0040443027 0.034444775 0.23365587 -0.97170907 0.0027011859
0.014019182 0.0099543631 0.0043941331 0.21945818 0.29161149 -0.93102139 0.0017447723
0.01716673 0.0099812383 0.0054516131 0.41672564 0.30231202 -0.85729069 0.0033261597
0.019181298 0.0093434993 0.0063729174 0.57820493 0.30629757 -0.7562148 0.0026875592
0.002063439 0.012876224 0.0060397414 -0.3558538 0.050692808 -0.93316573 0.0022953996
0.0051763584 0.012847973 0.0051467577 -0.22282881 0.13729429 -0.96514124 0.0018141676
0.0080446117 0.012834298 0.0047128275 -0.070527054 0.18341461 -0.98050243 0.0013678652
0.010916147 0.01283339 0.0046823793 0.082107961 0.23532951 -0.96844119 0.0018893287
0.014043108 0.012850279 0.0052115074 0.26961404 0.25169334 -0.92949378 0.0034111922
0.016751826 0.012720361 0.0061644688 0.42970535 0.28259864 -0.8576079 0.0033467929
0.0020638756 0.015762677 0.0061928192 -0.28546649 0.01430147 -0.95828199 0.0024233665
0.0051791715 0.015734373 0.0054505449 -0.11976787 0.10143957 -0.98760605 0.0034016154
0.0080521535 0.015724571 0.0051924638 -0.019969502 0.17368549 -0.9845987 0.0016397344
0.010930749 0.015730238 0.0053384188 0.15184084 0.20884243 -0.96608967 0.0027959477
0.013883337 0.015669858 0.0059644915 0.29466742 0.23714688 -0.92570651 0.0034259821
0.015925594 0.015217398 0.0065993918 0.46059993 0.29439157 -0.83736569 0.0030542596
0.0020642974 0.01888868 0.0062888013 -0.22428544 0.022005197 -0.97427511 0.0023428227
0.0051822746 0.018865531 0.0057738842 -0.10954642 0.095565595 -0.98937696 0.0016940299
0.0080598211 0.0188614 0.0056793578 0.034779575 0.15045005 -0.98800564 0.0012372939
0.010945356 0.01887597 0.0059987092 0.18119158 0.18693638 -0.96551764 0.0017072255
0.013230251 0.018273499 0.0064333146 0.33471176 0.25218803 -0.90794778 0.0030154893
0.0001423246 0.020832105 0.0067325979 -0.30353913 -0.017915953 -0.95265055 0.0020627044
0.0020645638 0.02201608 0.0063848151 -0.16438743 0.033013217 -0.98584324 0.0017958278
0.005184941 0.021999056 0.0060570072 -0.014796251 0.10210067 -0.99466395 0.0028103807
0.0080673154 0.022003949 0.0061490005 0.12225869 0.16006957 -0.97950524 0.0012465975
0.010463722 0.021734869 0.0064758379 0.24827018 0.17602213 -0.952564 0.0022897869
0.0020649387 0.024904657 0.0064828517 -0.11429944 0.029900726 -0.99299628 0.0014678679
0.0051876516 0.024896666 0.0063452534 0.043090474 0.11704358 -0.99219149 0.0010546027
0.0077960375 0.024630815 0.0065402072 0.13550125 0.1527047 -0.97893852 0.0021825933
0.0097580887 0.023713959 0.0066755861 0.25027347 0.21455829 -0.94410169 0.001396108
0.0022523482 0.027650598 0.0066266311 -0.018455423 0.0918644 -0.99560046 0.001916552
0.004907866 0.027388144 0.0065990807 0.059149947 0.10535069 -0.99267441 0.0017119874
0.006873949 0.026601313 0.0067183524 0.15669662 0.1740279 -0.97219366 0.00084380765
0.0027869022 0.029486245 0.0067177266 -0.012469006 0.073299922 -0.99723202 0.0017302663
-0.047769047 0.05860674 0.0051580518 0.038597874 -0.85177666 -0.52248138 0.01639838
-0.045571767 0.05845676 0.0045954734 0.18479958 -0.75650597 -0.62733388 0.016750092
-0.042921331 0.058389753 0.0051330533 0.2966024 -0.62627441 -0.72097665 0.0082656443
-0.039989721 0.058507051 0.0059706122 0.27805284 -0.61849236 -0.73495162 0.016637661
-0.037760854 0.058962941 0.0064658225 0.20780344 -0.40725374 -0.88936049 0.045366623
-0.053541787 0.061747756 0.0053451359 -0.83997422 0.17285481 -0.51435822 0.010386403
-0.052926421 0.061828755 0.0042274743 -0.85047853 0.14540261 -0.50551397 0.01001833
-0.042432263 0.059815623 0.0040790364 0.32918406 -0.48034889 -0.81295925 0.024414262
-0.040107142 0.060863025 0.0048651178 0.40664318 -0.095899686 -0.90853983 0.017269948
-0.037151821 0.060915131 0.0062500918 0.38318819 -0.033704445 -0.92305517 0.024955204
-0.053629205 0.062808886 0.0060571283 -0.83997458 0.17285137 -0.51435888 0.010385516
-0.052613519 0.064072967 0.0049820142 -0.83565438 0.26446024 -0.48139635 0.00025810869
-0.042125039 0.06472332 0.0044004582 0.57717949 0.51131684 -0.63672519 0.042689301
-0.040111721 0.063597888 0.0052678832 0.56036544 0.49327117 -0.66533762 0.01761196
-0.037811719 0.063092768 0.0063605132 0.46444979 0.43716863 -0.77017528 0.042257253
-0.051718116 0.066636629 0.0048868507 -0.82228673 0.31393275 -0.47464797 0.0020271062
-0.044652656 0.066750072 0.0051437765 0.56210226 0.63446879 -0.53055668 0.011966937
-0.0431097 0.065860368 0.0048941555 0.54595679 0.6900534 -0.47513944 0.0089391079
-0.04117601 0.065496497 0.0063717514 0.46204433 0.71423411 -0.52572304 0.007202548
-0.050491381 0.068462618 0.003846541 -0.62535566 0.39733624 -0.67160565 0.090366341
-0.0032266115 -0.022217931 0.0070453882 -0.97589707 0.1378271 -0.16919988 0.0012590784
0.028032426 -0.022204312 0.0067522079 0.97059941 0.027543671 -0.23911926 0.0002408779
-0.0032416813 -0.020358393 0.0086000813 -0.98315609 0.11029289 -0.14573777 0.00038021416
0.028031887 -0.021482633 0.0067433268 0.97059017 0.027571447 -0.23915395 0.00025976199
-0.0027491073 -0.016458074 0.0074720532 -0.97903496 0.098933898 -0.17805214 0.0013042166
0.028059158 -0.016208071 0.007195428 0.96644235 0.075522162 -0.24553113 0.00078778487
-0.0027541502 -0.014066581 0.0080573214 -0.97808063 0.054429159 -0.20098707 0.0011821064
0.028006388 -0.013832834 0.0083144419 0.95135039 0.12879981 -0.27989838 0.00049831072
-0.0027575905 -0.011182019 0.0084565878 -0.96431392 0.013458402 -0.26441911 0.0023395766
-0.0022630868 -0.010666374 0.0068909824 -0.87992984 0.099091776 -0.46465507 0.0042644269
0.027071491 -0.0099425502 0.0067658573 0.92002302 0.16762745 -0.35420138 0.0036535016
0.027625311 -0.011171078 0.0079971896 0.93757433 0.16174288 -0.30788574 0.0017359301
-0.0027600783 -0.008290167 0.0087453276 -0.93882364 0.013171542 -0.34414637 0.0047887429
-0.0022664736 -0.0082681142 0.0073401881 -0.90600628 0.086684622 -0.4142926 0.0049817399
0.027008846 -0.0080332924 0.007757999 0.90735358 0.22523195 -0.35493678 0.00099662645
0.027693724 -0.0092635117 0.009152174 0.944287 0.17590128 -0.27817419 0.0025162129
-0.0027615223 -0.005152279 0.0089129405 -0.89754963 0.017133586 -0.44058058 0.0045939367
-0.0020269938 -0.00513975 0.0074885683 -0.86628836 0.077968642 -0.49342221 0.0037466153
0.02637721 -0.0050807707 0.0080877133 0.9017024 0.22783394 -0.3674567 0.00082751055
-0.0027624343 -0.0020116102 0.0090188188 -0.85323024 0.006967077 -0.52148783 0.0040097144
-0.0018153621 -0.0019384318 0.007592937 -0.81978679 0.060521349 -0.56946176 0.0028790373
0.025523452 -0.0019499557 0.0081271827 0.86589265 0.25643742 -0.42949936 0.0021561156
-0.0028321734 0.0010613427 0.0090867858 -0.80581373 -0.00057588558 -0.59216875 0.002927955
-0.001612365 0.00096906367 0.0076449746 -0.7757495 0.049465429 -0.62909919 0.0023706099
0.023975309 0.0012174665 0.0073401388 0.80571628 0.3038339 -0.50843507 0.0017548078
0.024960566 0.00069394248 0.0086626653 0.84209114 0.27764854 -0.46237841 0.0025098918
-0.003007096 0.0037914654 0.0093308687 -0.75956154 -0.014282466 -0.65027869 0.0026022347
-0.0014991155 0.0038215755 0.0077305539 -0.6636157 0.043525673 -0.74680632 0.0025720047
0.023420468 0.0038648355 0.0080503672 0.79820579 0.30063272 -0.52200329 0.0012356846
0.024818689 0.0025850653 0.0096384138 0.82358027 0.29545349 -0.48417225 0.0016642316
-0.0030062173 0.0066916607 0.0092367008 -0.70119047 -0.044166893 -0.71160477 0.0032858422
-0.0012773375 0.0068608932 0.0075953621 -0.61474514 0.012455752 -0.78862739 0.002834534
0.021049766 0.0076436219 0.007121644 0.66778278 0.32115421 -0.67151028 0.0012799664
0.022606194 0.0065901391 0.0084421048 0.74638653 0.32591581 -0.58024645 0.0027084381
-0.0031663836 0.0099927885 0.00911678 -0.67419875 -0.065982305 -0.73559666 0.0029279867
-0.0011317678 0.01002105 0.0075814556 -0.53025198 0.0077046971 -0.84780502 0.0035541151
0.020401739 0.010229685 0.0077956934 0.66273934 0.32385212 -0.67520094 0.0047070957
0.022073792 0.0091682654 0.0091536157 0.74385756 0.31154659 -0.59128219 0.0020478547
-0.0034214179 0.013057056 0.0089682555 -0.60629374 -0.086708948 -0.79049951 0.0029190879
-0.0010642301 0.012921423 0.007465357 -0.47300926 -0.0032244208 -0.88105154 0.0026291932
0.018110693 0.013233382 0.0071735261 0.59631753 0.31591886 -0.73797071 0.0024161409
0.019798294 0.012821962 0.0084116664 0.67163825 0.3197104 -0.6683467 0.0038228761
-0.0038601309 0.01593126 0.0088838944 -0.53919542 -0.11135713 -0.83478612 0.0033483251
-0.0010636029 0.015807841 0.0073787207 -0.43800235 -0.039101448 -0.89812309 0.0035676695
0.015050141 0.016987531 0.0067860633 0.34629658 0.27566743 -0.89670849 0.0039024064
0.01727687 0.015976777 0.0077093011 0.51161188 0.31232905 -0.80043972 0.0024325876
0.019255053 0.015590117 0.0091420375 0.6959011 0.32319957 -0.64129841 0.0022217585
-0.0057914988 0.019036699 0.0095645897 -0.58630133 -0.1567108 -0.79479074 0.0019688499
-0.0039662509 0.018749245 0.0085483948 -0.47801965 -0.10775995 -0.87171382 0.0024513798
-0.0010118638 0.018777262 0.0071899444 -0.35238338 -0.04514192 -0.93476635 0.0025167372
0.014257761 0.019154036 0.0070875688 0.39708567 0.28644231 -0.8719368 0.0023957766
0.016770629 0.018654164 0.0084127961 0.58117944 0.31210801 -0.75154448 0.0030574349
0.018526012 0.018071054 0.0096119195 0.71357882 0.31670299 -0.62490362 0.0026138802
-0.0060651642 0.021898514 0.0093130236 -0.52839661 -0.13513461 -0.83817399 0.0026410194
-0.0039618784 0.021868188 0.0081758806 -0.41748944 -0.081904963 -0.90498292 0.0019324094
-0.0011422394 0.021911882 0.0071103061 -0.294085 -0.028511014 -0.95535398 0.002337479
0.011656974 0.022449331 0.0070013432 0.31476796 0.23562044 -0.91945857 0.0025821249
0.013895914 0.021886295 0.0077954577 0.43239605 0.27912647 -0.85739261 0.0013925283
0.016141975 0.021458175 0.0090645514 0.6110459 0.31153458 -0.72771502 0.0031382847
-0.0066157179 0.024997698 0.0091024442 -0.45612592 -0.13684171 -0.87933123 0.0022201068
-0.0039589624 0.024989478 0.0079308599 -0.36451817 -0.078395806 -0.92789042 0.0023534107
-0.0010615661 0.024936743 0.0070305821 -0.20358542 0.016157039 -0.97892386 0.00089249911
0.0087999273 0.025648862 0.006869778 0.21566974 0.19889753 -0.95599496 0.0028915082
0.011011584 0.024994871 0.0074286154 0.35752171 0.25608894 -0.89810729 0.0021925687
0.013784664 0.024858255 0.0087745851 0.51238221 0.30684021 -0.80206829 0.0034061142
0.015620539 0.023633374 0.0095559806 0.63314742 0.32934389 -0.70046914 0.0023392159
-0.008711407 0.028435826 0.0095315296 -0.48003197 -0.20126766 -0.85385048 0.0023584692
-0.0068662725 0.027935069 0.0087425951 -0.37934387 -0.14078246 -0.91448265 0.0022820334
-0.003956038 0.02786601 0.0076811621 -0.26049778 -0.068906076 -0.9630124 0.0026643982
-0.0010614035 0.027822167 0.0070070066 -0.15031104 -0.015983535 -0.98850954 0.0021431472
0.0009437165 0.028687464 0.0067563904 -0.042608086 0.05010014 -0.99783492 0.0028598062
0.0056917658 0.028533336 0.0068481732 0.12173919 0.16454375 -0.97882831 0.0019113092
0.0081181871 0.027868953 0.0071924562 0.24137565 0.20166458 -0.94924664 0.0013251174
0.010995766 0.027904283 0.0082590841 0.44065234 0.27912962 -0.85317773 0.0027545369
0.013062971 0.027511463 0.0093196211 0.56456304 0.31020445 -0.76488024 0.0032418524
-0.0094615947 0.03103558 0.009193806 -0.38259551 -0.21685463 -0.89810622 0.0029627054
-0.0068582459 0.030801337 0.0082995752 -0.3117387 -0.13537677 -0.94047445 0.0024360477
-0.0039539589 0.030744988 0.0075100698 -0.20980999 -0.067282401 -0.97542447 0.0021470473
-0.0010612387 0.030708481 0.0069990065 -0.099667639 0.011813906 -0.99495065 0.0023604957
0.0020299128 0.030758142 0.0068517802 -0.0026490695 0.058780264 -0.99826741 0.001500386
0.0051949387 0.030717287 0.0071190009 0.13422829 0.13906306 -0.98114437 0.0015879216
0.0080945026 0.030771106 0.0078682601 0.31960809 0.22742908 -0.91985148 0.0015500899
0.010677779 0.030649208 0.009022804 0.48661783 0.29684785 -0.82163519 0.0042679477
-0.012353167 0.034334876 0.0094337696 -0.36663768 -0.30430347 -0.87919062 0.0028876627
-0.0099368654 0.033800062 0.0087432517 -0.29399624 -0.20518039 -0.93352413 0.0025038198
-0.0068497662 0.033900991 0.0078312354 -0.24868879 -0.15165237 -0.95663756 0.0042008618
-0.0039515458 0.03385989 0.0073068487 -0.13249493 -0.04442754 -0.99018759 0.0022020913
-0.0010615443 0.033842456 0.0070830565 -0.026273321 0.050243855 -0.99839133 0.0026927472
0.0020668427 0.033849735 0.0071728928 0.10389176 0.13209088 -0.98577809 0.0032307098
0.0051446119 0.033778355 0.0076781139 0.27539036 0.20653161 -0.93888491 0.0048986683
0.0080734137 0.03369518 0.0087148603 0.44160604 0.30462018 -0.84391391 0.0023552219
0.010006633 0.032968901 0.0095104426 0.54531783 0.33676091 -0.76760709 0.0039045014
-0.015303761 0.037575349 0.0094434619 -0.35838765 -0.3598001 -0.86145353 0.0029906984
-0.013120404 0.036918312 0.0088904183 -0.30709502 -0.29847974 -0.9036606 0.00086935906
-0.010018745 0.036842085 0.0080544669 -0.23203942 -0.18959355 -0.95405036 0.0031829674
-0.0068432577 0.037003506 0.0074723903 -0.13955498 -0.089800186 -0.98613405 0.0027777678
-0.0039504715 0.036982376 0.0072236229 -0.042327479 0.00017003826 -0.99910378 0.0023991263
-0.0010620506 0.036982317 0.0072214864 0.040114325 0.079568036 -0.99602199 0.003615021
0.0020680286 0.037016552 0.0076196073 0.20055354 0.19735925 -0.95959759 0.0044347402
0.0052140746 0.036887329 0.0084708771 0.33780211 0.24956876 -0.90752691 0.0038511367
0.0074233608 0.036273878 0.0093010478 0.47172448 0.33647346 -0.81502241 0.0041245278
-0.018242115 0.040790763 0.0093388706 -0.3639423 -0.34812224 -0.86391956 0.0029521391
-0.016014894 0.039961703 0.0088564549 -0.31275195 -0.31227419 -0.89703459 0.00096562807
-0.013123795 0.039948471 0.0080728866 -0.22458409 -0.21227473 -0.95105278 0.0027700835
-0.0099754184 0.039898571 0.007529445 -0.13545607 -0.11140931 -0.98449969 0.0028298956
-0.006839145 0.039872941 0.0072494913 -0.025769562 -0.047003314 -0.99856228 0.0030879963
-0.0039505437 0.039872497 0.007243406 0.048686951 0.067539074 -0.99652797 0.0030272442
-0.001063396 0.039898098 0.0075200163 0.19944836 0.15833782 -0.96703124 0.0057965666
0.0020341943 0.039933547 0.0082226451 0.30726954 0.21523611 -0.9269622 0.0036320253
0.0047913971 0.03971456 0.0092462758 0.42036524 0.31236097 -0.8518942 0.0042268317
-0.021356549 0.043633856 0.009441833 -0.37522888 -0.3722944 -0.84888178 0.0035363038
-0.01891 0.042949811 0.0088156098 -0.3148239 -0.31572264 -0.89510053 0.0011826901
-0.016017187 0.042841326 0.0080639897 -0.22327583 -0.20342174 -0.95329303 0.002635703
-0.013107026 0.042790726 0.0075492645 -0.16838585 -0.14542232 -0.97493517 0.003973945
-0.0099685136 0.042762231 0.0072586993 -0.052746274 -0.069832556 -0.99616325 0.0026261408
-0.0068385275 0.042758655 0.0072210487 0.037105393 0.020355029 -0.99910396 0.0028673385
-0.0039529866 0.042783249 0.0074694809 0.18736702 0.15066135 -0.97066718 0.0058624707
-0.0010657558 0.042840492 0.0080484245 0.26015875 0.21329945 -0.9417116 0.0038335086
0.0016656334 0.04279612 0.0089421924 0.37560877 0.28923634 -0.88048869 0.0048445859
0.0036848432 0.041941598 0.0095694214 0.49441871 0.38159114 -0.78098553 0.003972047
-0.024213322 0.04644483 0.0094474964 -0.3817426 -0.36614585 -0.84865177 0.0035410437
-0.02184329 0.045814171 0.0088194292 -0.28185394 -0.28185743 -0.91712308 0.0032644351
-0.018911382 0.04573632 0.0080765188 -0.20140556 -0.21253818 -0.95617115 0.0033940836
-0.015997218 0.045921512 0.0075456183 -0.14831154 -0.1529132 -0.9770472 0.0045850696
-0.013098156 0.04589304 0.0072741499 -0.067778073 -0.032647796 -0.99716604 0.0029119281
-0.0099679567 0.045889936 0.007243244 0.032941081 0.027850363 -0.99906915 0.0031784286
-0.0068753231 0.045718368 0.0074668024 0.16945875 0.1583143 -0.97273856 0.0055001732
-0.0039586946 0.045727901 0.0079896934 0.24133694 0.22335045 -0.94438928 0.0035951445
-0.0011647107 0.04572323 0.0088508325 0.3697702 0.35133904 -0.86013424 0.0020539809
0.00094282161 0.044998974 0.0094980942 0.43686208 0.3696391 -0.82007223 0.0039811451
-0.027162574 0.049440932 0.0094595533 -0.38963392 -0.39561424 -0.83166987 0.0059570055
-0.02485067 0.048908118 0.0088002468 -0.27838358 -0.27187315 -0.92118812 0.0037856137
-0.021802086 0.04886454 0.0080175893 -0.18521838 -0.19553408 -0.9630475 0.0027931524
-0.018889116 0.048815884 0.0075817276 -0.10067539 -0.10144357 -0.98973411 0.003125868
-0.015989304 0.049030017 0.0073422156 -0.058522452 -0.012515781 -0.99820769 0.003011476
-0.013099916 0.049029235 0.0073339315 0.024813905 0.083322592 -0.99621361 0.0034641477
-0.0099762492 0.049057685 0.0075853691 0.14393637 0.20778871 -0.96752584 0.0054494003
-0.0068788654 0.048795596 0.0080747483 0.21196479 0.28444844 -0.93496525 0.0038609616
-0.0040637385 0.048624221 0.0088703958 0.3523927 0.37667534 -0.85670012 0.0020238247
-0.001959509 0.047891937 0.0094068898 0.39104724 0.41292858 -0.82253999 0.0042628562
-0.03033399 0.052622508 0.0093478523 -0.34998482 -0.42912909 -0.83268166 0.0090142004
-0.02807897 0.051932272 0.0088794008 -0.24461128 -0.2996735 -0.92215031 0.0057725068
-0.025116913 0.051843129 0.0081546828 -0.20427471 -0.17226399 -0.96363735 0.005048899
-0.021912064 0.052009299 0.0076339664 -0.10501643 -0.014024616 -0.99437159 0.0057981145
-0.01888315 0.051932067 0.0074514262 -0.010993277 0.032970775 -0.99939585 0.0031620685
-0.015994977 0.051937308 0.0074942224 0.050177906 0.16700587 -0.98467827 0.005409651
-0.013112741 0.051966932 0.0077417996 0.13963901 0.24979638 -0.95817679 0.0051008645
-0.0099947695 0.052038763 0.0083437394 0.2259656 0.29798543 -0.92743963 0.0038224377
-0.0069399644 0.051588297 0.0090564461 0.28668028 0.39544669 -0.87260318 0.0048706755
-0.0048629241 0.050803591 0.0094872564 0.40560588 0.44658199 -0.79752636 0.0049529392
-0.039029382 0.056253646 0.0092292875 -0.039413691 -0.8561483 -0.51522481 0.032297913
-0.03670403 0.055891108 0.0090965284 -0.18483414 -0.76735646 -0.6140036 0.035925988
-0.033763789 0.055328153 0.0089954203 -0.13706826 -0.57980204 -0.80314499 0.020283142
-0.031037232 0.054886118 0.0086787995 -0.22536473 -0.28675702 -0.93111825 0.010425492
-0.028077472 0.054905087 0.0081176572 -0.15427843 -0.15927538 -0.97510493 0.0082682315
-0.025167022 0.054870363 0.007839364 -0.072414488 0.040048841 -0.99657029 0.0097011393
-0.022026427 0.054852854 0.0076982277 -0.0088449931 0.1490145 -0.98879546 0.0072728177
-0.018897066 0.054861445 0.0077654747 0.055234041 0.23172282 -0.97121251 0.0044502951
-0.016017336 0.054901499 0.0080834962 0.12613596 0.30389178 -0.94431967 0.0045079887
-0.01314237 0.05497662 0.0086802347 0.24615736 0.40152776 -0.88214624 0.0022132418
-0.010400353 0.05456467 0.0092543298 0.29928416 0.42482632 -0.85437202 0.0050447844
-0.0078485403 0.053396743 0.0095932931 0.36767763 0.51725322 -0.77282745 0.0037056934
-0.042304419 0.057329152 0.0071085487 0.25490654 -0.78126472 -0.56977904 0.024934046
-0.039955109 0.057089418 0.0076102214 0.032161687 -0.88713425 -0.46038952 0.027165072
-0.036837645 0.057662949 0.0075115813 0.15257102 -0.62481654 -0.76571947 0.047738854
-0.033955734 0.057871003 0.0077758301 0.11294956 -0.27673379 -0.9542855 0.017775968
-0.030958096 0.057774898 0.00793368 0.010742333 -0.17401911 -0.98468363 0.019834086
-0.028065989 0.057776581 0.0079445178 -0.0016193871 0.11072265 -0.99385005 0.012728911
-0.024937252 0.05778892 0.0080364905 0.042488344 0.23905391 -0.97007626 0.0093438672
-0.021815836 0.057823304 0.0082954364 0.075539738 0.31863225 -0.94486362 0.0072651855
-0.018939309 0.05787883 0.0087145846 0.14009644 0.3886176 -0.91068619 0.0056152432
-0.016185993 0.05755626 0.0090903388 0.20661677 0.46234381 -0.86229211 0.0049818833
-0.013892941 0.057042755 0.0094540482 0.27488017 0.52047169 -0.80842447 0.0044501126
-0.035929359 0.060996767 0.006834209 0.42354938 0.044720724 -0.90476847 0.022473807
-0.034044638 0.060826268 0.0073379828 0.25772804 0.090368353 -0.96198225 0.020733295
-0.030965285 0.060682777 0.0080383867 0.16055861 0.32553607 -0.9317978 0.026409211
-0.02806435 0.06079711 0.0086261574 0.1328541 0.37231189 -0.91854972 0.012941022
-0.025078794 0.060471915 0.0089144325 0.13729325 0.46330592 -0.87549889 0.009416922
-0.022049712 0.06012525 0.0092521356 0.15608852 0.53598428 -0.82967305 0.007351377
-0.019823229 0.059801605 0.009540379 0.20257731 0.58386713 -0.78616887 0.004002817
-0.039082993 0.065114163 0.0076794773 0.40474427 0.76475906 -0.50132388 0.0039547323
-0.036627643 0.063936792 0.0077525415 0.37828133 0.58499777 -0.71741259 0.019917322
-0.033917591 0.063326851 0.0084822197 0.31090289 0.61440939 -0.72514868 0.016620869
-0.031179758 0.062895037 0.0090086712 0.21659346 0.71535265 -0.66434765 0.02037335
-0.028886668 0.062564664 0.0094058663 0.18742403 0.70243621 -0.68662626 0.0091792746
-0.042491924 0.066396587 0.0075595081 0.46625239 0.75898671 -0.45447528 0.004401057
-0.040590167 0.06571389 0.00782381 0.43544671 0.76329869 -0.47724348 0.0061757569
-0.038084053 0.065478124 0.0094807893 0.35282946 0.7781986 -0.51953673 0.0035135485
-0.0032530881 -0.018715115 0.0097768456 -0.98390597 0.081023075 -0.15926169 0.00062525336
-0.0032608171 -0.017048141 0.010574271 -0.9838261 0.044391237 -0.17353843 0.00038059955
-0.0032677141 -0.014158662 0.011285777 -0.97413337 0.026462777 -0.22441904 0.00074686325
-0.0032679799 -0.011245361 0.01131321 -0.97511142 0.015144728 -0.22119747 0.00043724387
0.028278369 -0.011233289 0.010830025 0.95892066 0.13641867 -0.24871911 0.00106267
-0.0032637531 -0.0083239339 0.010877132 -0.9669475 0.012583537 -0.25466499 0.0019172427
0.027792769 -0.0075937416 0.010824189 0.95760477 0.17393079 -0.22965446 0.00085306523
-0.0034677489 -0.0049677333 0.011001128 -0.95819861 -0.036769852 -0.28373128 0.0019823769
0.027237559 -0.004751855 0.010810888 0.94119692 0.21667545 -0.25922987 0.0010197387
-0.00361099 -0.0018757281 0.010870392 -0.93720186 -0.059311364 -0.34370747 0.0037159254
0.026730504 -0.0020422156 0.011098691 0.93668789 0.21791661 -0.27409527 0.0015881197
-0.0038311314 0.00089757267 0.010906845 -0.90379179 -0.092457414 -0.41786605 0.0058999769
0.025904534 0.00087575713 0.010973901 0.90481925 0.2490626 -0.345355 0.00159525
-0.0042907191 0.0038770358 0.01125403 -0.88701832 -0.098698407 -0.45106226 0.003777073
0.024360197 0.0047696801 0.010131285 0.82758796 0.29424274 -0.47803703 0.0011767786
0.025215743 0.0037036478 0.011297195 0.89977348 0.25589105 -0.35345075 0.002237028
-0.0057155024 0.0079683475 0.012549356 -0.84201634 -0.18132207 -0.5080657 0.00338127
-0.0044797426 0.0067231162 0.011018717 -0.82557672 -0.12335716 -0.55064148 0.0041716374
0.024041273 0.0068851016 0.01099737 0.85566467 0.30534634 -0.41785353 0.0017325485
0.024949817 0.0057698237 0.012123153 0.87787598 0.29587185 -0.376555 0.0024484242
-0.0058843638 0.010168385 0.012007385 -0.78436911 -0.18825608 -0.59103692 0.0034039896
-0.0045948452 0.0097460765 0.010559301 -0.7683574 -0.12833315 -0.62702268 0.0031456552
0.022974672 0.0099030612 0.011017469 0.83096844 0.30623966 -0.46444443 0.0030471233
-0.0063277697 0.013158776 0.01166443 -0.74423176 -0.18357536 -0.64219868 0.0033802704
-0.0048504365 0.012871787 0.010264501 -0.71662724 -0.15187544 -0.68071961 0.0026198358
0.021220872 0.013352886 0.010350722 0.79460549 0.31691587 -0.51784801 0.0022457503
0.022276288 0.012769599 0.011710227 0.81965905 0.31880504 -0.47594371 0.0019792183
-0.0068015638 0.016023073 0.011280235 -0.69058639 -0.21422069 -0.69079655 0.0024181472
-0.0051929336 0.01518212 0.010016665 -0.65420765 -0.17434826 -0.73594493 0.0021843051
0.020407364 0.016048487 0.010839779 0.78727329 0.32815436 -0.52203023 0.0015810108
0.021544931 0.015261012 0.01215982 0.82103527 0.33606085 -0.46148047 0.0017457522
-0.0088974964 0.019202627 0.012256778 -0.69008416 -0.25355792 -0.67785859 0.0014587407
-0.0072153769 0.018781448 0.010821913 -0.62463951 -0.20966069 -0.75224191 0.0019341372
0.018058257 0.019785082 0.010041401 0.67551357 0.32854414 -0.66010624 0.0011116656
0.019426638 0.018779209 0.011184812 0.74987888 0.34027645 -0.56735671 0.0030350334
-0.0093928836 0.021975135 0.011812148 -0.66867667 -0.23344725 -0.70595598 0.0026665714
-0.0075237411 0.021638671 0.010299635 -0.56386566 -0.18971515 -0.80378085 0.0021700999
0.017544063 0.021971734 0.010687298 0.73091632 0.35143363 -0.58502632 0.0030844787
0.018798349 0.021393985 0.011928301 0.76490402 0.36746964 -0.52904433 0.0020018148
-0.011681363 0.025623305 0.0125046 -0.6739223 -0.29861104 -0.67576635 0.0023671284
-0.0097678564 0.024824336 0.011174115 -0.57785732 -0.24590309 -0.77821118 0.0019791899
-0.0079367254 0.02438225 0.0099639213 -0.49290329 -0.19178464 -0.84868431 0.0024122221
0.014959043 0.025938822 0.010070357 0.70491767 0.36662737 -0.60718656 0.0030657377
0.016645368 0.024588341 0.011184985 0.72034293 0.37094203 -0.58609557 0.0041034631
-0.012272242 0.028120751 0.011884553 -0.59392428 -0.31087711 -0.7420305 0.0031036227
-0.010109704 0.027791066 0.01049063 -0.50896502 -0.25729492 -0.82143402 0.0022035933
0.014304364 0.028225655 0.010712706 0.65244466 0.35716465 -0.66839314 0.0053418083
0.015967287 0.027142689 0.011919179 0.72425967 0.38755348 -0.5703072 0.0019624396
-0.015180063 0.031605706 0.012354534 -0.55690229 -0.47865433 -0.67878556 0.0037915614
-0.012944093 0.030968312 0.011121548 -0.53160954 -0.33910578 -0.77614325 0.0020134123
-0.010736071 0.030412119 0.010002257 -0.41900122 -0.28719091 -0.86137068 0.0022500686
0.011909902 0.031469941 0.010185519 0.59046209 0.34253594 -0.73076928 0.0011321695
0.013598068 0.030746344 0.011481821 0.69956249 0.37893698 -0.60582095 0.0035745439
-0.018216062 0.034917846 0.012502735 -0.55337799 -0.50727338 -0.66064107 0.0028350106
-0.016054237 0.034043718 0.01152477 -0.50727224 -0.45159081 -0.73398954 0.0022077993
-0.013472937 0.033570018 0.010260369 -0.42265689 -0.34988442 -0.83602756 0.0024514117
0.009337021 0.035035383 0.0099371225 0.59570312 0.39447549 -0.69966197 0.0027171627
0.011185374 0.034002911 0.010970816 0.60600275 0.37641868 -0.70076364 0.0028845889
0.012907784 0.033151072 0.012218103 0.69673365 0.41920841 -0.58208805 0.0030192803
-0.020971943 0.037995383 0.012419775 -0.55112422 -0.52141172 -0.65145367 0.0024611771
-0.018890837 0.037048418 0.011597089 -0.51722085 -0.46590516 -0.717924 0.0026321481
-0.016386559 0.036490243 0.010408654 -0.4319559 -0.37984568 -0.81800455 0.001716233
-0.0143918 0.035515826 0.0098900944 -0.43339682 -0.39776576 -0.80867153 0.0015413652
0.0086311102 0.037062455 0.010446173 0.54133016 0.37380844 -0.75314599 0.0024383678
0.01037387 0.036551625 0.011770871 0.6473555 0.43804041 -0.6237399 0.0035307661
-0.023725787 0.041070011 0.012317792 -0.53350919 -0.49470943 -0.68602508 0.0032488189
-0.021727467 0.040015358 0.01161947 -0.53926212 -0.48749685 -0.68668997 0.0032741588
-0.019239467 0.039610896 0.010331359 -0.40818831 -0.41815051 -0.81150013 0.0016418773
-0.017132748 0.038575854 0.0098130153 -0.3877092 -0.3870118 -0.83660227 0.00083942583
0.0059090145 0.040341772 0.010146101 0.47886759 0.37800643 -0.79233634 0.002922063
0.0079235137 0.039591648 0.011373973 0.61509818 0.44126785 -0.65340412 0.0043398901
0.0098745115 0.038667779 0.012681052 0.67833388 0.43976086 -0.58862001 0.0013356494
-0.026666095 0.044022392 0.012629822 -0.64503115 -0.5628165 -0.51688719 0.0048675733
-0.024589453 0.043164656 0.011514182 -0.53922701 -0.49459568 -0.68162256 0.0048657097
-0.022240633 0.042420316 0.01044464 -0.42197081 -0.41260019 -0.80728042 0.0016391628
-0.020195765 0.041796904 0.0097431391 -0.43621251 -0.40032658 -0.80588913 0.0012723913
0.0028475474 0.043850634 0.0099467784 0.44026425 0.35198146 -0.82600027 0.004274175
0.0050302586 0.042874396 0.010996473 0.58067518 0.44407111 -0.68236148 0.0050808275
0.0071405261 0.041942026 0.012271037 0.64932209 0.49834475 -0.57448536 0.0014445136
-0.027489465 0.046194233 0.01156406 -0.58498847 -0.49055874 -0.64586419 0.0043570525
-0.02529031 0.045471195 0.010472657 -0.44371021 -0.42527917 -0.7888338 0.0022284896
-2.5823945e-05 0.046974793 0.0098760678 0.44949588 0.4419907 -0.7762717 0.0012765668
0.0019537089 0.046119854 0.01073126 0.51774234 0.4731448 -0.71279514 0.0046496191
0.0042475127 0.04518735 0.011931315 0.59262705 0.51480693 -0.61948931 0.0035836324
-0.030486073 0.049163297 0.01182 -0.59627473 -0.52926528 -0.60360146 0.0050584474
-0.028225012 0.048730742 0.010378092 -0.42662507 -0.43298841 -0.79404795 0.0021582302
-0.002931521 0.049884252 0.0099118007 0.42758611 0.47248927 -0.77066463 0.0011368787
-0.00090049498 0.049103584 0.010718637 0.4536812 0.45982698 -0.7633692 0.0015981285
0.001347677 0.048421964 0.011931872 0.57422966 0.51493436 -0.63647699 0.0030700732
-0.033610314 0.052442133 0.011621415 -0.51151657 -0.69112629 -0.51058316 0.013274994
-0.031387225 0.051571015 0.010534272 -0.4783631 -0.54162079 -0.6912421 0.014822128
-0.029160125 0.050525393 0.0098726451 -0.35708168 -0.4203299 -0.83415556 0.0056855562
-0.0060646138 0.052769583 0.010011455 0.36470255 0.48830459 -0.79281187 0.002606455
-0.0038482631 0.051990647 0.010820056 0.44500363 0.51265872 -0.73427033 0.0026497622
-0.0015893932 0.051245093 0.011895309 0.51618212 0.59071177 -0.62017381 0.0023520445
-0.038911067 0.05594651 0.01061739 -0.23262043 -0.90869188 -0.34665084 0.024127731
-0.036701094 0.05483754 0.011065844 -0.38529509 -0.85318226 -0.35160741 0.015369457
-0.034354545 0.053952627 0.010445008 -0.36082116 -0.69193608 -0.62532586 0.014883004
-0.032300863 0.053419825 0.0097828656 -0.45464194 -0.60338229 -0.65515691 0.014111365
-0.011485221 0.056333255 0.0098503381 0.34144068 0.5671131 -0.74953383 0.0022398231
-0.0093563888 0.055540316 0.01028001 0.34828839 0.50585133 -0.78918284 0.0036845098
-0.0069462704 0.054772768 0.011110671 0.42726406 0.56492794 -0.70590508 0.0025454743
-0.0046796468 0.054066069 0.011981847 0.4754729 0.64344561 -0.59991938 0.0033369255
-0.040186092 0.056519445 0.011303082 -0.10895021 -0.90615118 -0.40868071 0.017193092
-0.015758159 0.059040304 0.010177592 0.26721314 0.6438002 -0.71702063 0.0036440976
-0.012721311 0.058071606 0.010701838 0.34098345 0.59737939 -0.72585678 0.0039255624
-0.0100054 0.057332762 0.01144038 0.41112357 0.66212368 -0.62655371 0.0039654039
-0.0079836659 0.056809865 0.012302175 0.45572841 0.66531038 -0.59133214 0.0026035486
-0.024572218 0.062016364 0.010092217 0.18412869 0.7443952 -0.64185083 0.0077284402
-0.021855311 0.061602253 0.010457613 0.19497398 0.73149145 -0.65337998 0.0044077453
-0.018901974 0.060953818 0.010802264 0.2411021 0.68710721 -0.68538558 0.0059705917
-0.016301762 0.060629513 0.011481487 0.30641595 0.70914835 -0.63499445 0.0042070756
-0.013571937 0.059851862 0.011996035 0.36907431 0.70140815 -0.60976285 0.0021935462
-0.035753459 0.065153725 0.010561004 0.29300207 0.78493208 -0.54592252 0.0025714717
-0.033629734 0.064546533 0.010277565 0.32586741 0.69775653 -0.6379233 0.013978818
-0.031035697 0.064276233 0.010954916 0.23907943 0.76560962 -0.59722942 0.012371663
-0.027943693 0.063465185 0.010858497 0.18712693 0.80939144 -0.55665874 0.0090321787
-0.025039425 0.063246809 0.011466339 0.19045356 0.79401022 -0.57730001 0.0054608737
-0.022005526 0.06293375 0.012000566 0.19590244 0.79251653 -0.57752901 0.0046130046
-0.019586006 0.062488336 0.012293354 0.25284785 0.77714097 -0.57629842 0.0027087994
-0.0037767817 -0.0076321987 0.013451133 -0.97221017 -0.041171558 -0.23046096 0.0007364793
0.028404219 -0.0095742978 0.012916639 0.96560508 0.14627887 -0.21496367 0.00042064511
-0.0041510109 -0.0047070524 0.014126167 -0.95968843 -0.067724593 -0.27278465 0.0011843822
0.027952051 -0.0059238477 0.013513193 0.96028644 0.17558487 -0.21684091 0.00064926757
-0.0045205341 -0.0020198482 0.014354542 -0.95451611 -0.1222109 -0.27196229 0.0017577237
0.027201897 -0.0017750442 0.013199657 0.93642032 0.21689078 -0.27581772 0.001433164
0.027553305 -0.0022663206 0.015050307 0.95931184 0.20993131 -0.18881106 0.00037681297
-0.0049465657 0.0010357413 0.014218923 -0.9492588 -0.1556776 -0.27326226 0.0017215312
0.026709609 0.00096056465 0.013982227 0.94037706 0.24674214 -0.23411381 0.001187731
-0.0057475925 0.0043408209 0.014677584 -0.921404 -0.18711917 -0.34058914 0.0022813687
-0.0052408744 0.0035932455 0.013440665 -0.9300946 -0.1713755 -0.32489145 0.0024246702
0.026033891 0.0038452595 0.014131824 0.93225777 0.25906673 -0.25254679 0.0016563672
-0.0061151022 0.0068338867 0.014082815 -0.90449202 -0.21725315 -0.36700857 0.0022643646
0.024498509 0.0079736076 0.012806758 0.87948549 0.3286081 -0.34427011 0.0034749315
0.025274912 0.0067472635 0.014309103 0.94093108 0.25911421 -0.21796452 0.001520757
-0.0068985717 0.0097694108 0.013992252 -0.86733747 -0.25333023 -0.42842692 0.0043807244
0.023947781 0.010330795 0.013481155 0.90431452 0.30156311 -0.30211741 0.0013634993
0.024586266 0.0092322975 0.014504306 0.90917188 0.29729909 -0.29158142 0.0012822904
-0.0086885169 0.013646323 0.014887549 -0.85415655 -0.32427734 -0.40652278 0.0037369344
-0.0076875039 0.012713393 0.013741342 -0.83917779 -0.26721838 -0.47368243 0.0048711044
0.023275504 0.0127976 0.01406358 0.87830114 0.32564726 -0.3500585 0.0011421746
-0.0092812628 0.016152294 0.014268896 -0.82272339 -0.31082734 -0.47593331 0.004164306
-0.0081612598 0.015293092 0.013048634 -0.73512548 -0.26649064 -0.6233564 0.0015178113
0.02108568 0.017232863 0.012781128 0.83413595 0.32687387 -0.44426423 0.0049942234
0.022162948 0.015817365 0.014023827 0.87369227 0.3369498 -0.35089397 0.0015112759
-0.011642063 0.020283578 0.015451327 -0.78401935 -0.35714647 -0.50770074 0.0033297958
-0.010244671 0.018943612 0.014085356 -0.80774212 -0.30598375 -0.50391132 0.0039174226
0.020739652 0.019179279 0.013788536 0.85431731 0.3728379 -0.36212415 0.0013835111
0.021669157 0.01805458 0.014906049 0.86811346 0.35261017 -0.3493495 0.0018420055
-0.012079049 0.022271961 0.014727248 -0.78022319 -0.34650618 -0.5207544 0.0036935541
-0.010770237 0.0215664 0.013353278 -0.69861525 -0.29533008 -0.651703 0.0021103872
0.019677315 0.021929316 0.014079392 0.84249556 0.36832029 -0.39311743 0.0021746098
-0.014587082 0.026172711 0.015556291 -0.73402697 -0.50170368 -0.45770934 0.0041877613
-0.012828279 0.024864499 0.014129741 -0.75424129 -0.35880616 -0.54988927 0.0043153097
0.017925205 0.025355926 0.013701431 0.81992322 0.39217162 -0.41704604 0.0020205609
0.01888082 0.024237083 0.014552692 0.85411048 0.38390973 -0.3508682 0.0029281822
-0.015102092 0.0281305 0.014617929 -0.70280939 -0.44418073 -0.55566388 0.0037677062
-0.013571106 0.027365481 0.013377476 -0.65879178 -0.37835175 -0.65026397 0.0056447415
0.016838193 0.027835064 0.013953827 0.79456556 0.41479832 -0.44340506 0.0022108499
-0.017864125 0.031399753 0.015188185 -0.66486347 -0.54107994 -0.51496518 0.0031374418
-0.016062742 0.030637283 0.013807174 -0.63440412 -0.46513185 -0.61740083 0.0048085121
0.014877396 0.031338744 0.013749678 0.76674587 0.43852538 -0.46882436 0.0040079146
0.015942434 0.03010248 0.014468366 0.82239741 0.4104242 -0.39397261 0.0049266741
-0.020951297 0.034982022 0.015343919 -0.67533284 -0.55357051 -0.48732454 0.0019213369
-0.019070473 0.033881202 0.014264841 -0.64050949 -0.52114207 -0.56405544 0.0045582601
-0.017238896 0.032764409 0.013229946 -0.62025696 -0.51697201 -0.58993322 0.0026239089
0.01232365 0.035299059 0.013201371 0.76589483 0.47060904 -0.43810079 0.0035343184
0.013815505 0.033667684 0.014189247 0.79715639 0.44999856 -0.40254566 0.0017710978
-0.021879807 0.037080821 0.014312845 -0.64062297 -0.56201702 -0.52320081 0.0045067384
-0.020086749 0.03600543 0.013320968 -0.63245565 -0.54125327 -0.55411619 0.0024109914
0.011559257 0.037112437 0.01387585 0.77405208 0.49569267 -0.39386821 0.0017927561
0.012979275 0.035808276 0.014954783 0.77925533 0.50919896 -0.36534587 0.0034061885
-0.024554668 0.040180121 0.014261343 -0.64675707 -0.58312017 -0.4916057 0.0029340172
-0.023018807 0.039219599 0.013407301 -0.65241355 -0.57318068 -0.49580276 0.0022764716
0.0091281198 0.040717039 0.013758993 0.74472189 0.5240047 -0.41328973 0.0026166777
0.010400433 0.039545521 0.014557255 0.75521469 0.5030874 -0.42018312 0.0029133216
-0.027428195 0.043385334 0.014413621 -0.6660195 -0.60975546 -0.42967007 0.0035366309
-0.025799686 0.04208634 0.013695003 -0.66902566 -0.58729571 -0.45550886 0.0025185233
0.0064704721 0.043840509 0.01324746 0.69481504 0.54782236 -0.46596435 0.0032597058
0.0078582093 0.04284228 0.014268713 0.74221444 0.55315304 -0.37833768 0.0010547398
-0.030090386 0.046590753 0.014403278 -0.71155596 -0.59274387 -0.37728336 0.0037779002
-0.028690049 0.045337994 0.013768138 -0.70528531 -0.58991492 -0.39315775 0.0028884304
0.0051682936 0.046036232 0.013989508 0.69740123 0.59119469 -0.40511793 0.0013703204
0.006982509 0.044761505 0.015118137 0.7160995 0.56101632 -0.41528583 0.0017743427
-0.032801453 0.049897149 0.01432313 -0.72085238 -0.61603796 -0.31759897 0.0022963143
-0.031409167 0.048478164 0.013964178 -0.71807957 -0.58419842 -0.37825125 0.0044244966
0.0023441517 0.049100801 0.013809636 0.64993107 0.5973953 -0.46979627 0.0035699219
0.0038769492 0.047968376 0.014572537 0.67200959 0.59721613 -0.43787673 0.0011943337
-0.035609324 0.053049024 0.014780477 -0.59875977 -0.69864148 -0.39164641 0.011508547
-0.033913773 0.051464528 0.01378624 -0.6730085 -0.63655972 -0.37663159 0.0050291512
-0.0027957764 0.053310346 0.012888566 0.55369604 0.62578595 -0.54937476 0.0042896527
-0.00084934977 0.052238755 0.01383906 0.60169244 0.64845991 -0.46633247 0.0040438292
0.0009412393 0.050862689 0.014211589 0.62816423 0.63952452 -0.44319072 0.0012259409
-0.036781523 0.054197509 0.014168955 -0.49399969 -0.81221849 -0.31026673 0.0073164874
-0.0058909925 0.056137864 0.013402199 0.52265894 0.71202582 -0.46887833 0.0025426087
-0.003903748 0.054994408 0.013935605 0.57415301 0.71125108 -0.40554917 0.0013773273
-0.0019950222 0.053847957 0.014638385 0.59314567 0.67692381 -0.43583527 0.0015287634
-0.0095889941 0.058747381 0.013452271 0.44886646 0.76285088 -0.46537891 0.0036824185
-0.007175311 0.05761683 0.01426615 0.50757205 0.75138551 -0.42165205 0.0022086804
-0.0050187162 0.056514349 0.015085384 0.5413307 0.72922891 -0.41855264 0.0014162014
-0.015603194 0.061854597 0.013567492 0.32053632 0.82560557 -0.46436185 0.0024475039
-0.012778889 0.060893498 0.014150759 0.39833924 0.82838041 -0.39384213 0.00092670304
-0.010364598 0.059976067 0.014809594 0.45498529 0.78130054 -0.42726791 0.0020609025
-0.030385481 0.06511011 0.013574213 0.1989878 0.85449439 -0.47983667 0.0017210727
-0.027186664 0.064562775 0.013167675 0.1804473 0.87590092 -0.44747773 0.0029341697
-0.025007144 0.064479165 0.014030432 0.17084664 0.8896057 -0.42357177 0.0023727412
-0.022024525 0.063973248 0.013965055 0.18143682 0.88782096 -0.42291212 0.0030687419
-0.019055575 0.063266836 0.014056211 0.26406986 0.85925573 -0.43811721 0.0028071057
-0.016416587 0.062730029 0.014700536 0.33135462 0.84823984 -0.41315037 0.0016880929
-0.0057781548 0.0021543771 0.016704515 -0.93729085 -0.19259344 -0.2905058 0.0017591721
-0.0052890433 0.0001877168 0.016881013 -0.95363444 -0.15482575 -0.25808981 0.0011487665
-0.0061030565 0.0038727717 0.016514456 -0.93634325 -0.20973691 -0.28155234 0.001050754
0.026457118 0.0041286247 0.017364189 0.94648165 0.25426987 -0.19879451 0.00049068884
-0.0069748722 0.0068619582 0.016861593 -0.91899669 -0.26758564 -0.28955638 0.0019490473
0.02575258 0.0070938142 0.017993346 0.94623321 0.26210666 -0.18958592 0.00032645365
-0.008759588 0.0110428 0.018186942 -0.92928427 -0.31695426 -0.1896598 0.0012763481
-0.0079154894 0.0096455645 0.017048476 -0.91794407 -0.30454487 -0.25422645 0.0024205374
0.025042079 0.0093703633 0.016974544 0.94466627 0.28133574 -0.1686888 0.00055654743
-0.0091819763 0.012837276 0.017223116 -0.89487386 -0.35246861 -0.27380028 0.002813726
-0.0082216356 0.01147471 0.015999034 -0.90236032 -0.34307536 -0.26085442 0.0022303991
0.023942163 0.012710977 0.016296342 0.91931999 0.32298923 -0.22478588 0.001684223
-0.010421995 0.015775774 0.017276913 -0.88339955 -0.36446583 -0.29456732 0.0019308504
0.022729812 0.01630909 0.016620204 0.92151868 0.32352909 -0.21478403 0.0016142693
-0.011993032 0.019293221 0.017424509 -0.86128658 -0.39517167 -0.31941324 0.0021064596
-0.011191275 0.017893476 0.01691631 -0.86068296 -0.40700513 -0.30589488 0.0018259707
0.021246208 0.02008394 0.016416505 0.89958602 0.36816016 -0.23495328 0.0018132605
0.021921419 0.018711312 0.016859308 0.91504997 0.34246176 -0.21308075 0.0020117357
-0.013234077 0.021942362 0.017345455 -0.84705263 -0.40802076 -0.34061822 0.0026034561
0.020522583 0.022064609 0.016725935 0.90001768 0.37655389 -0.21948864 0.0012595328
-0.015108243 0.025390515 0.017568134 -0.81001538 -0.46244287 -0.36058509 0.0027708798
-0.014009077 0.024147091 0.016606994 -0.81222969 -0.46513483 -0.35204032 0.0026703305
0.019306615 0.025033232 0.017053828 0.87425011 0.41946504 -0.24440904 0.00088330521
-0.017807096 0.029135207 0.018325711 -0.79773468 -0.5306977 -0.28632051 0.0017583061
-0.016339863 0.027861804 0.016929166 -0.77546173 -0.49802852 -0.38810647 0.0035061808
0.0178161 0.027959419 0.016654512 0.85434824 0.43196318 -0.28895825 0.0029718429
-0.018757878 0.031023905 0.017267862 -0.76150995 -0.56945193 -0.30955955 0.0011559158
-0.017055128 0.029632909 0.015965655 -0.76637638 -0.49530736 -0.40906957 0.0034575742
0.016344294 0.030915443 0.016744554 0.8441388 0.43381846 -0.31500992 0.004936039
-0.021259395 0.034156136 0.017340895 -0.74043822 -0.5858407 -0.3294571 0.0024000106
-0.01990205 0.032985892 0.016505353 -0.71538508 -0.59580803 -0.36501622 0.0044053704
0.014740659 0.034069534 0.017123455 0.82223511 0.48001242 -0.30580637 0.00079586235
-0.024009604 0.037473448 0.01748153 -0.74315435 -0.59037769 -0.31492189 0.0014895868
-0.02273294 0.036372747 0.016612303 -0.71719205 -0.58925527 -0.37204012 0.0031957026
0.012413485 0.037805099 0.016827896 0.80839825 0.50340503 -0.30508316 0.00085608667
0.013404395 0.036352292 0.017102763 0.81166023 0.49615523 -0.3082816 0.00094716164
-0.026983175 0.041090455 0.017794862 -0.73033339 -0.61724687 -0.29260826 0.001758087
-0.025534008 0.03965316 0.016882585 -0.74930394 -0.59356165 -0.29364631 0.0019982175
0.011294477 0.039686095 0.0170459 0.79505104 0.51429772 -0.32154587 0.0010289475
-0.02796058 0.042678408 0.016889144 -0.76435089 -0.58966851 -0.26088074 0.0029243571
0.0088082403 0.043134943 0.016859541 0.7592364 0.55314785 -0.34291041 0.00042139934
0.0099651068 0.041788477 0.01735425 0.7904824 0.53910691 -0.29069111 0.00068718113
-0.030592557 0.046081971 0.017058119 -0.75925368 -0.60597742 -0.23732936 0.001303029
-0.029394152 0.044460531 0.017003968 -0.76838374 -0.59268486 -0.24147676 0.0015521067
0.006180305 0.046366695 0.016411021 0.72783262 0.61425561 -0.30487654 0.0019638173
0.0072072423 0.045472663 0.017278209 0.73715365 0.58314091 -0.3413958 0.00076346938
-0.033019703 0.049530555 0.016150311 -0.72103029 -0.6148563 -0.31947935 0.0021611098
-0.032096617 0.048145201 0.016958579 -0.76382208 -0.6106481 -0.20900899 0.00056781026
0.0028223547 0.050016772 0.016109869 0.68606162 0.63653195 -0.35234445 0.0037541939
0.0043830858 0.048638314 0.016970316 0.70732498 0.64048219 -0.29912195 0.001101917
-0.034726981 0.051723521 0.01601018 -0.70630753 -0.63527995 -0.31232822 0.0018439606
-0.0001238932 0.05298565 0.016304404 0.63030344 0.70088899 -0.33387449 0.0014156606
0.0016452728 0.051594388 0.017012263 0.67881161 0.6787498 -0.28020284 0.0015833336
-0.0033201079 0.055983637 0.016710497 0.58811206 0.75116277 -0.29979762 0.0015629374
-0.0012558936 0.054293808 0.016970251 0.61806661 0.71281779 -0.33148837 0.0015216643
-0.0067612557 0.058490518 0.016709367 0.55277801 0.77289051 -0.31157151 0.001090792
-0.0047045131 0.057197355 0.01736016 0.55374658 0.77020252 -0.3164694 0.0013182046
-0.012339963 0.061836734 0.016972417 0.41448325 0.837538 -0.3559967 0.00064969866
-0.0099649709 0.060616568 0.017038608 0.47112155 0.81841797 -0.32899314 0.00090378715
-0.0082510114 0.059767108 0.017434552 0.51119995 0.79953659 -0.31530264 0.0010218113
-0.024430742 0.065005429 0.016212061 0.16935802 0.91516489 -0.36577472 0.00064655475
-0.02099085 0.064506881 0.016160056 0.21435623 0.91244936 -0.34855071 0.0013672704
-0.018782428 0.06402 0.016188815 0.26764721 0.88721055 -0.37579563 0.00099314458
-0.015608663 0.063106991 0.016677022 0.31067717 0.86315614 -0.39804673 0.0022805312
-0.014142206 0.062649019 0.016918197 0.37137321 0.84659708 -0.38125503 0.0015230348
-0.0077950382 0.0081067048 0.019312039 -0.93510669 -0.33384317 -0.11884532 0.002042741
-0.0088069253 0.010606419 0.020384625 -0.92259598 -0.36040843 -0.137559 0.0015317007
-0.0097856 0.012901889 0.01988489 -0.90321624 -0.39561823 -0.16639312 0.0010327625
0.023855178 0.014045592 0.019496754 0.93097216 0.3146964 -0.18508652 0.0004296898
-0.011788374 0.017060144 0.0206763 -0.88650149 -0.41881844 -0.19673906 0.00068995409
-0.011105077 0.015871529 0.019848928 -0.90132511 -0.39382857 -0.18031098 0.0010131267
0.023339529 0.015513462 0.019062236 0.92821717 0.33222979 -0.1674407 0.00075016118
-0.012516465 0.018772319 0.020124137 -0.88337928 -0.41588426 -0.21605885 0.00062737707
-0.014767852 0.023017077 0.02080141 -0.84383178 -0.48902503 -0.22091296 0.0019304703
-0.013845945 0.021484414 0.019899998 -0.8722567 -0.43797877 -0.21758391 0.0015701628
0.021411017 0.021001471 0.020148829 0.91350824 0.3621546 -0.18532903 0.00099649956
-0.015582729 0.024803594 0.019819202 -0.83280069 -0.49580199 -0.2462181 0.0018210737
0.020361891 0.023402883 0.018755093 0.89198911 0.39004722 -0.22851369 0.0013524746
-0.017879032 0.028425587 0.020072019 -0.80716777 -0.52280653 -0.27414131 0.0015419231
-0.01701544 0.027129395 0.019937161 -0.80721188 -0.52611679 -0.26760072 0.0015787825
0.017947014 0.028931616 0.020232007 0.87322187 0.42785153 -0.23329513 0.00059364812
