# .PCD v0.7 - Point Cloud Data file format
VERSION 0.7
FIELDS x y z normal_x normal_y normal_z curvature
SIZE 4 4 4 4 4 4 4
TYPE F F F F F F F
COUNT 1 1 1 1 1 1 1
WIDTH 551
HEIGHT 1
VIEWPOINT 0 0 0 1 0 0 0
POINTS 551
DATA ascii
0.016160164 0.0015025544 -0.010815181 0.3107954 -0.63881922 -0.70378703 0.0027518414
0.018397931 0.0022095761 -0.010256409 0.46738142 -0.54779804 -0.69388181 0.0013688202
0.0024079029 0.0049781376 -0.010732627 -0.55437481 -0.66884249 -0.49529615 0.0012719968
0.0043312693 0.0040120953 -0.011396882 -0.47184211 -0.69116628 -0.54740673 0.0014454868
0.0069667101 0.0032520867 -0.012298795 -0.28853774 -0.71934134 -0.63189715 0.0021753395
0.0094286874 0.0028483025 -0.012811541 -0.10439969 -0.71086115 -0.69554085 0.0027126863
0.014255915 0.0028487197 -0.01267902 0.13794972 -0.67123556 -0.72829437 0.0027008031
0.016593829 0.0034308042 -0.012239477 0.31874773 -0.61016119 -0.72532976 0.0018405395
0.019052796 0.0040960633 -0.011210854 0.49907422 -0.519638 -0.69347048 0.0018550516
0.02095429 0.0050128354 -0.010265429 0.60993987 -0.45390326 -0.64957315 0.0010392721
-0.00076190918 0.0080871712 -0.010653197 -0.70157331 -0.60418206 -0.37783477 0.0028722875
0.0012437362 0.0066840914 -0.011613464 -0.61422807 -0.65574336 -0.43900403 0.0014222669
0.0034582634 0.0056057922 -0.012653633 -0.44848511 -0.69887751 -0.5571636 0.0020390539
0.019992836 0.0065301573 -0.012161271 0.63917398 -0.41194931 -0.64942616 0.00051197933
0.021842403 0.0073633841 -0.010868819 0.66687673 -0.39586604 -0.63132042 0.0012141302
-0.0032231449 0.011163643 -0.010714888 -0.76941758 -0.57250577 -0.28325561 0.0021134228
-0.0018334843 0.0098776482 -0.011546471 -0.70657343 -0.62147164 -0.33841833 0.0022842977
0.022485359 0.0099269226 -0.011560315 0.76672304 -0.26908848 -0.5828613 0.00053348613
0.024050295 0.011180377 -0.0099757006 0.77903622 -0.25209752 -0.57406396 0.00094091328
-0.0043204795 0.013032615 -0.011554159 -0.77768058 -0.5815165 -0.23885439 0.0012348798
-0.0030536142 0.011738276 -0.01240761 -0.73509848 -0.61266255 -0.29030129 0.0036721651
0.023021664 0.012791206 -0.011994388 0.79471016 -0.20476049 -0.57140952 0.00048912753
0.024188213 0.013266362 -0.010534863 0.82379991 -0.17718869 -0.53847742 0.00093302847
-0.0066692391 0.016671075 -0.011588871 -0.83316833 -0.53969949 -0.12064391 0.00051877613
-0.0058249738 0.015289074 -0.011598567 -0.82961231 -0.5395878 -0.14348699 0.0012608183
0.023341559 0.015720768 -0.01246754 0.83443987 -0.14253701 -0.5323469 0.0013048945
0.024272194 0.016084839 -0.011131609 0.85577208 -0.097589307 -0.5080654 0.0014614498
-0.0080585415 0.01887325 -0.011232368 -0.83435136 -0.53990114 -0.11119612 0.00028416884
0.023432851 0.017542964 -0.012913941 0.84496218 -0.07462775 -0.52959383 0.0010576589
0.024452107 0.018995043 -0.011091307 0.8819918 -0.017351 -0.47094515 0.00078166317
-0.009193955 0.020800045 -0.01197347 -0.82602501 -0.5548839 -0.09892685 0.00029187082
0.024211694 0.021693293 -0.011653377 0.88923287 0.0021653457 -0.4574497 0.0003731804
0.023438513 0.024437016 -0.012806653 0.88807511 0.022273017 -0.45915839 0.00038544676
0.02394928 0.023567727 -0.011851578 0.88427389 0.012053379 -0.46681306 0.00050658203
0.0075024469 -0.0012888196 -0.0075659384 -0.39684424 -0.65663218 -0.64136487 0.0026568063
0.010320774 -0.0018327329 -0.00816279 -0.19551674 -0.69741219 -0.68948495 0.0029737735
0.013232546 -0.0020126314 -0.0082865441 0.041556969 -0.70167238 -0.71128678 0.0035679368
0.016087778 -0.0017243656 -0.0079530543 0.27962154 -0.63793194 -0.71753371 0.0024649575
0.018453741 -0.001165994 -0.007359494 0.43640321 -0.57784778 -0.68966955 0.0013274235
0.0023272373 0.0024010441 -0.0072059622 -0.63236743 -0.61290348 -0.47377297 0.0028298404
0.0044131349 0.0013146717 -0.0081697544 -0.53018016 -0.67285675 -0.51591951 0.0011833258
0.0069783796 0.00025581568 -0.0089337816 -0.32677871 -0.69688249 -0.63841242 0.001939272
0.0099286977 -0.00027788198 -0.0096359709 -0.15597507 -0.69526899 -0.70162153 0.0026625975
0.013187553 -0.00037970114 -0.0098637883 0.06320782 -0.69759786 -0.713696 0.0029444806
0.016538695 2.651941e-05 -0.0093661919 0.26767787 -0.63305813 -0.72635108 0.0022558973
0.019336393 0.0008763303 -0.008491572 0.47809955 -0.55530274 -0.68048489 0.0017872024
0.021346001 0.001808113 -0.0076114391 0.58581656 -0.51026398 -0.62964249 0.0015136881
0.0013948079 0.0041706571 -0.0082653966 -0.65503973 -0.61182135 -0.44339341 0.0013280801
0.0032465565 0.0031242678 -0.0092698755 -0.57648987 -0.63913167 -0.50908762 0.00065968744
0.020217437 0.0030131738 -0.0095236292 0.537844 -0.5214988 -0.66239172 0.0033064988
0.022168424 0.0040436136 -0.0083829761 0.66427648 -0.41341528 -0.62275553 0.0014093791
-0.0011735907 0.007164442 -0.0082470169 -0.73519796 -0.57011372 -0.36668023 0.001138674
0.00031322878 0.0059481589 -0.0091731241 -0.67712718 -0.6073674 -0.41545594 0.00097135239
0.023081768 0.0066366894 -0.0090385154 0.71328032 -0.3475135 -0.60865885 0.0012730372
0.024338329 0.0073002288 -0.0077671129 0.77033162 -0.31170642 -0.55626279 0.0011152643
-0.003555021 0.010673746 -0.0084348358 -0.83128494 -0.51368523 -0.21235062 0.001974409
-0.002469687 0.0091981888 -0.0087688006 -0.77951413 -0.56164104 -0.2773394 0.0020242191
0.023599401 0.0091034453 -0.0097580543 0.78111327 -0.25627053 -0.56937468 0.00099027879
0.024813885 0.010014227 -0.0083466349 0.8205108 -0.22848725 -0.5239805 0.0012349049
-0.0048682201 0.0129524 -0.00853734 -0.85504472 -0.49558234 -0.15263242 0.00070159807
0.025374262 0.012815861 -0.0085132709 0.85579628 -0.12893446 -0.50098765 0.00066189276
-0.006723057 0.016314795 -0.0085639497 -0.84855664 -0.51501858 -0.12127437 0.00039171867
-0.0060395342 0.014946943 -0.0078138402 -0.84768832 -0.51288205 -0.13556007 0.00067244592
0.025606155 0.015847964 -0.0086587407 0.87959993 -0.070149347 -0.47051358 0.00049427251
0.025669344 0.018632002 -0.0086265691 0.88872045 -0.030471569 -0.45743561 0.00076497567
0.02499187 0.021366691 -0.0096755913 0.89299709 0.0013541222 -0.45006037 0.00030675746
0.0075478493 -0.0041170451 -0.0045801057 -0.39063114 -0.65997642 -0.64174646 0.0016723967
0.010352809 -0.0047523933 -0.0052175489 -0.22370462 -0.67798096 -0.7002129 0.0026884961
0.013317113 -0.0050751851 -0.0053220084 0.015270673 -0.68284285 -0.73040569 0.0025821943
0.016159648 -0.0046889219 -0.0051923171 0.27598009 -0.65191728 -0.7062853 0.0020113774
0.018761152 -0.0042167217 -0.0044585178 0.41795388 -0.61166584 -0.67169899 0.0014161885
0.0048271595 -0.0016475762 -0.0051550656 -0.5398562 -0.62752146 -0.56104553 0.0019474864
0.0070207291 -0.0025531999 -0.0059161335 -0.39627206 -0.65696549 -0.64137727 0.0027359289
0.0096287047 -0.0031115762 -0.006662318 -0.20452252 -0.69584417 -0.68845594 0.0026326925
0.016871434 -0.0029575578 -0.0065408489 0.28623942 -0.6510424 -0.70300126 0.0043453528
0.019547613 -0.0022039604 -0.0057319244 0.44583398 -0.59383029 -0.66977441 0.0031660327
0.02159421 -0.001539215 -0.0046784505 0.55715817 -0.53956997 -0.63122022 0.0012886038
0.0017007948 0.0015246612 -0.0051997611 -0.66439456 -0.60399413 -0.44019413 0.0015268553
0.0035268918 0.00018634507 -0.0059075272 -0.6029731 -0.62461853 -0.49626109 0.0019731093
0.020505559 -0.00039392198 -0.00656405 0.51193607 -0.57313323 -0.63987476 0.0020323736
0.022413891 0.00075355778 -0.0056889397 0.6206075 -0.46965113 -0.62791258 0.0020834287
0.024165377 0.0018797568 -0.0045820614 0.70263463 -0.42244959 -0.5725739 0.0014009655
-0.00076396205 0.0046841106 -0.0051993234 -0.75558835 -0.56077009 -0.33856034 0.0021972035
0.00042134293 0.0034649423 -0.0057275989 -0.73901683 -0.54807311 -0.39175257 0.0010103588
0.023534272 0.0035673729 -0.0065762317 0.72942901 -0.38299555 -0.56678718 0.0013127268
0.024722282 0.0041342266 -0.0053218696 0.75822347 -0.36483082 -0.54036623 0.0011759724
-0.0019728995 0.0067431224 -0.0054695746 -0.8263855 -0.50242931 -0.25426739 0.0015039224
0.025674192 0.0068940143 -0.0054901969 0.82412887 -0.26568541 -0.50022286 0.0012824631
-0.0038762302 0.010149594 -0.0054039434 -0.860394 -0.47270077 -0.19046316 0.00056433375
-0.0027986206 0.0084636118 -0.0064133098 -0.84253335 -0.49268827 -0.2177057 0.0012709181
0.026246564 0.0097068064 -0.0059098243 0.87151295 -0.18659616 -0.45348322 0.0014136177
0.027164493 0.010604886 -0.0043401113 0.88004011 -0.16396248 -0.44569689 0.00081732025
-0.0052382927 0.012687109 -0.0053395261 -0.85760421 -0.48381102 -0.17447637 0.00032448111
0.026585056 0.012897608 -0.0062137484 0.88669747 -0.11386251 -0.44811034 0.0010938331
0.027114054 0.012924937 -0.0051764189 0.90230036 -0.093790449 -0.42078176 0.00040775203
-0.0060635498 0.014527058 -0.0063273003 -0.86059022 -0.49175173 -0.13253175 0.000519127
0.026552552 0.015911389 -0.0067624142 0.8901403 -0.073963992 -0.44964376 0.00076207326
0.027107298 0.015259655 -0.0052884361 0.8994872 -0.075236246 -0.43042099 0.00061046501
0.0077462257 -0.0073598805 -0.0015048753 -0.40314928 -0.6316312 -0.66220289 0.0019221103
0.010443903 -0.0079330131 -0.0021507354 -0.236793 -0.67896372 -0.69493699 0.002577771
0.013358181 -0.00821089 -0.0023187157 0.00043427906 -0.69642061 -0.71763378 0.0025205556
0.016136389 -0.0080092736 -0.0020805253 0.23838513 -0.67461109 -0.69862181 0.0023541716
0.01874784 -0.0074212071 -0.0015019681 0.40766338 -0.61990255 -0.67047107 0.0015322847
0.0048260894 -0.0045234156 -0.0020815451 -0.55602497 -0.59691417 -0.57838535 0.0019771431
0.0071119484 -0.0056520659 -0.0027832687 -0.42074135 -0.64769822 -0.63518792 0.0034801823
0.010035421 -0.0063672713 -0.0035403897 -0.21763133 -0.68219656 -0.69802904 0.0026074962
0.016417831 -0.0063511808 -0.0035666847 0.23030668 -0.66515207 -0.71030396 0.0021305073
0.019501863 -0.0055236691 -0.0027815262 0.42409182 -0.60358024 -0.67515707 0.0025802895
0.021835372 -0.0045560324 -0.0018425402 0.55807835 -0.55633605 -0.61566126 0.0016506427
0.0019123661 -0.001553467 -0.0018278202 -0.68926245 -0.52822536 -0.49587831 0.001957908
0.0035934329 -0.002446393 -0.0029696058 -0.59184957 -0.59057826 -0.54857218 0.0034166444
0.02272455 -0.002376026 -0.0028664568 0.6454941 -0.48571134 -0.58942497 0.002176191
0.02428345 -0.0015670201 -0.0017590611 0.69865638 -0.45593652 -0.55136311 0.0011553268
-0.00060052366 0.0020591333 -0.0017405441 -0.79710442 -0.49135745 -0.3509877 0.0023905975
0.00081856432 0.00068624783 -0.0027456968 -0.72729784 -0.54147017 -0.42172006 0.0019490197
0.023450363 -0.00040627504 -0.0036922684 0.65643692 -0.48375645 -0.57885242 0.0037767019
0.025125623 0.0009273598 -0.0024577174 0.75626826 -0.39317214 -0.52294749 0.0013908505
-0.0013488648 0.0040030829 -0.0025818269 -0.83396506 -0.46465638 -0.29765204 0.0020994127
0.025986241 0.0037405081 -0.0031098688 0.81517476 -0.32039964 -0.48252887 0.0012153982
0.027004899 0.0042970097 -0.0017802045 0.84102249 -0.29139224 -0.45581982 0.0011215709
-0.0033050082 0.0078242477 -0.0022693416 -0.88938743 -0.42422822 -0.17035401 0.00087853416
-0.0025963963 0.0064085997 -0.0025957664 -0.86890864 -0.44375044 -0.21927932 0.0011530877
0.026625808 0.0060459874 -0.003546699 0.85748297 -0.23153999 -0.45946956 0.0012399711
0.027513606 0.0069916286 -0.0021051429 0.87482125 -0.21580872 -0.43372163 0.00053030357
-0.0039267987 0.0093835471 -0.0028163879 -0.88233274 -0.43994981 -0.16713186 0.00097607885
0.027859941 0.0097728409 -0.002456978 0.94403845 -0.10406543 -0.31298861 0.0079617305
0.027761679 0.012805283 -0.0033411928 0.95115739 -0.056105025 -0.30356514 0.0059941676
0.025851954 0.02074868 -0.002714037 0.96259743 0.17838807 -0.2039215 0.0051295352
0.011388834 -0.012790198 0.0020637223 -0.1555545 -0.6646536 -0.73077929 0.0019355351
0.013049803 -0.012786977 0.0019643065 0.016700204 -0.68149751 -0.73162979 0.0046004248
0.0076639703 -0.010424342 0.0013574632 -0.41629544 -0.60209733 -0.68130541 0.0016968803
0.010228681 -0.011020999 0.00076789455 -0.22547956 -0.63810968 -0.73618948 0.0030590093
0.013243176 -0.011079922 0.00038334681 0.030377207 -0.66611463 -0.7452305 0.0037424052
0.016270587 -0.010983191 0.00077542663 0.23037754 -0.67689502 -0.69909894 0.0025831002
0.018903354 -0.010363426 0.0013730479 0.41377562 -0.62885571 -0.65827817 0.0012951354
0.0047939089 -0.0075743399 0.00094506703 -0.56116325 -0.56314981 -0.60659546 0.0020383312
0.0071200007 -0.0085998364 6.0038175e-05 -0.43005317 -0.62007272 -0.65617377 0.0032822478
0.009704371 -0.0092602912 -0.00066169165 -0.21870597 -0.66514695 -0.71396583 0.0027161103
0.016900342 -0.0093017388 -0.00062200334 0.22037132 -0.67275721 -0.70628202 0.0021909487
0.019426454 -0.008631615 4.4090208e-05 0.41941741 -0.62967384 -0.65391123 0.0023377137
0.021827744 -0.0075735259 0.00091232732 0.55687851 -0.56757706 -0.60641795 0.0018210965
0.001919125 -0.0044208081 0.001198668 -0.69578034 -0.49961746 -0.51601565 0.0021327133
0.0035801101 -0.0053199078 1.9913539e-05 -0.62676966 -0.54556817 -0.55634087 0.0026822509
0.023059737 -0.0052940338 5.1187351e-05 0.63950193 -0.51220119 -0.57331258 0.002358956
0.024519343 -0.0044810581 0.0011312887 0.72182745 -0.46486449 -0.51270467 0.0023344785
-0.00049383857 -0.00090465927 0.0017319033 -0.81144971 -0.42368987 -0.40253723 0.0025746315
0.00093037216 -0.0022242381 0.00047904951 -0.7554189 -0.47944602 -0.4466249 0.0015856152
0.025427379 -0.0021161376 0.00050147343 0.76821369 -0.41764152 -0.48520431 0.0008632848
-0.0010005676 0.0011054506 0.00057094218 -0.85598451 -0.39615452 -0.33219284 0.0019469953
0.00014302364 -0.00026320387 -0.00033392431 -0.81545973 -0.44217679 -0.37350371 0.0027344399
0.026291486 0.0003465577 -0.00019410159 0.81995946 -0.35010836 -0.4528693 0.00076478079
0.027311115 0.0013341415 0.00089145452 0.85194224 -0.31553453 -0.41789043 0.0015426222
-0.0022269839 0.0039968658 0.00046144007 -0.89639163 -0.39230257 -0.20635094 0.0011478587
0.02797145 0.0040575685 0.00057240948 0.90603101 -0.22207388 -0.36026511 0.0033350694
-0.0035199048 0.007151898 0.00035759294 -0.9179073 -0.36141947 -0.16377461 0.00047735532
-0.00285053 0.0059607527 -0.00038860645 -0.90184307 -0.386379 -0.19336598 0.0011097742
0.028288504 0.0067385552 -0.0002646097 0.9407509 -0.14582275 -0.30614284 0.0067655002
-0.0042781453 0.0092836227 0.00041240547 -0.9129588 -0.37925416 -0.15057397 0.00028674913
0.028461233 0.012387415 0.0014202902 0.97591317 -0.011462073 -0.2178583 0.0010162587
0.010736444 -0.015748942 0.0048148343 -0.18137018 -0.65976679 -0.7292549 0.0030313798
0.013023359 -0.015814096 0.0047317203 0.04480258 -0.68755502 -0.72474879 0.0027671601
0.015045592 -0.015754068 0.0049468586 0.16746286 -0.68378115 -0.71021092 0.0052461927
0.0055560488 -0.013042534 0.004936696 -0.50461721 -0.5193274 -0.68968147 0.0022727752
0.0076372535 -0.013720147 0.0042146873 -0.3810755 -0.58829504 -0.71322531 0.0027806531
0.010196161 -0.014064034 0.0034968387 -0.20673028 -0.65215659 -0.729352 0.0031072402
0.013324203 -0.014192404 0.0032807244 0.027525496 -0.67949474 -0.73316377 0.0020458086
0.016334957 -0.014002716 0.003688829 0.21768597 -0.64909494 -0.72889549 0.0017774028
0.018999202 -0.013372324 0.0043583503 0.42807183 -0.63744652 -0.64063752 0.0011073499
0.004785615 -0.01090363 0.0038836161 -0.5578509 -0.51110107 -0.65389448 0.001973175
0.0070971744 -0.011696346 0.0028307727 -0.38145232 -0.60474199 -0.69912893 0.0018570732
0.0092537319 -0.012321481 0.0022769282 -0.24135143 -0.64565116 -0.72448879 0.002246703
0.017103346 -0.012323517 0.00234148 0.22841583 -0.68086499 -0.69588 0.002110925
0.019487856 -0.011687331 0.0030204905 0.42571279 -0.62630564 -0.65307724 0.0020241481
0.021778153 -0.010783533 0.0039663184 0.56720668 -0.58109659 -0.58361244 0.0019868207
0.0019177331 -0.0075400085 0.0041014701 -0.70340836 -0.4749946 -0.52876908 0.0025444522
0.0035940784 -0.0085997395 0.0030430062 -0.62024403 -0.51909697 -0.5880779 0.0034314592
0.022751641 -0.0087406971 0.0029386701 0.59024656 -0.56945258 -0.57213002 0.0031998085
0.02442527 -0.0076003666 0.0039471183 0.71000838 -0.50263286 -0.49320212 0.0019446881
-0.0005038043 -0.0037911483 0.0048162946 -0.8273437 -0.38443357 -0.40952817 0.002768175
0.00093029789 -0.0051100883 0.0034501022 -0.79820251 -0.41501552 -0.43661749 0.00068194093
0.025729738 -0.0050472044 0.0034842184 0.76748747 -0.43135393 -0.47423285 0.0011114295
-0.00078637491 -0.001916999 0.0036100512 -0.848396 -0.38791484 -0.36020315 0.0016906133
9.7944954e-05 -0.0029334002 0.0027196789 -0.82610863 -0.41264221 -0.38375884 0.0025656621
0.026476944 -0.0027347631 0.002674208 0.82385737 -0.37387091 -0.42600423 0.00084871909
0.027440077 -0.0018276791 0.003820166 0.85789245 -0.33864781 -0.38644293 0.0013892269
-0.0018212589 0.00088334084 0.0035811011 -0.89881116 -0.35233626 -0.26076359 0.00084480044
0.028231649 0.00079448475 0.0034654718 0.87076724 -0.3083373 -0.38300458 0.0015781136
-0.0033654445 0.0052895001 0.0039656172 -0.93351907 -0.31317762 -0.17453314 0.00083442481
-0.0026892645 0.0035660826 0.002985782 -0.92169672 -0.32991931 -0.20403019 0.001268134
0.028942045 0.0038538328 0.0033888342 0.93945628 -0.15708467 -0.30454278 0.0062573394
-0.003589893 0.0064674146 0.0025636563 -0.92693371 -0.33886608 -0.1611325 0.00053134677
0.029046914 0.0069510839 0.0031675259 0.96038073 -0.083790883 -0.26579684 0.0043625422
0.029121164 0.00863727 0.0043360004 0.96719545 -0.072434627 -0.2434876 0.0035359005
0.0083972868 -0.018760668 0.0079506943 -0.28675717 -0.58341086 -0.75986981 0.0019276025
0.010427482 -0.018966913 0.0076702982 -0.12669143 -0.64809638 -0.75094628 0.0038142139
0.013096972 -0.018966472 0.0076605631 0.10689645 -0.67333478 -0.73156923 0.003001889
0.015139353 -0.018758269 0.0078976462 0.25467685 -0.68216479 -0.68541294 0.0017043458
0.0053231115 -0.01627888 0.0076155337 -0.4489314 -0.53969181 -0.71217519 0.0018495091
0.00751282 -0.016937446 0.0068977671 -0.2884742 -0.59585655 -0.74949151 0.0013687733
0.010226507 -0.017151754 0.0061663473 -0.15718956 -0.64541852 -0.74748003 0.0039563309
0.013188298 -0.017271882 0.0060993796 0.056157056 -0.68798923 -0.72354496 0.0019008896
0.016243812 -0.016964354 0.0065476792 0.22931032 -0.68289018 -0.69359767 0.0018036963
0.018841054 -0.016402805 0.0073524583 0.44754046 -0.64681959 -0.61752069 0.0009730648
0.0023757797 -0.012976104 0.0078177759 -0.65741801 -0.42918926 -0.61935306 0.0026877325
0.0043801018 -0.014076712 0.0067262165 -0.55130368 -0.46773449 -0.69086075 0.001531045
0.0068115392 -0.014864909 0.0056015672 -0.35153678 -0.60541719 -0.71406722 0.0023202351
0.017453959 -0.015291894 0.0053789774 0.27458489 -0.67635792 -0.68347871 0.0024299081
0.019667273 -0.014674857 0.0061794352 0.44334048 -0.6346966 -0.63293707 0.0019299451
0.021767383 -0.013712026 0.0069473023 0.58377904 -0.59252876 -0.55507815 0.0020746936
0.0017172089 -0.010787254 0.0069991695 -0.71721315 -0.43176046 -0.54698098 0.0021461411
0.0034470721 -0.011680879 0.0057328073 -0.66444266 -0.450591 -0.59622449 0.0018224942
0.022837404 -0.011801442 0.0060906578 0.62819862 -0.56732517 -0.53245533 0.0032886614
0.02455603 -0.010445412 0.0070607718 0.72292763 -0.49650711 -0.48047513 0.0017721195
-0.00051285035 -0.0069530704 0.0076159844 -0.83686119 -0.33149758 -0.4356291 0.0029667548
0.00074739917 -0.0081297308 0.0063746385 -0.80267781 -0.37196809 -0.46620607 0.00067210302
0.025512051 -0.0081541035 0.0062650172 0.76797754 -0.46702951 -0.43828526 0.0019908575
0.0269247 -0.0067128488 0.0076462338 0.81974953 -0.42166033 -0.38757357 0.0017937293
-0.00087067892 -0.0048547038 0.0067178169 -0.87249124 -0.30407378 -0.38248935 0.0019069845
9.2733855e-05 -0.0058350661 0.0054830024 -0.82951707 -0.35812098 -0.42854509 0.002313785
0.026320443 -0.0061943927 0.0054932842 0.82178468 -0.40437174 -0.40143916 0.00098575163
0.02734245 -0.0049037919 0.0065675741 0.84963882 -0.38025978 -0.36539909 0.00059193483
-0.0016298466 -0.0021299594 0.0064454013 -0.91608328 -0.29835394 -0.2679114 0.0026185499
0.028343868 -0.0022262651 0.0064517362 0.89379323 -0.31576452 -0.31847522 0.00072643324
-0.0025501244 0.00081028743 0.0065052593 -0.93138176 -0.28821781 -0.22239256 0.0013915615
0.029123057 0.00086968159 0.0062512243 0.90113991 -0.29020992 -0.32206365 0.00070654874
-0.0033794413 0.0048229746 0.0054095695 -0.93351871 -0.31317854 -0.17453386 0.0008343216
-0.0028987417 0.0029065213 0.0052069733 -0.92456907 -0.30826244 -0.22393385 0.0010324286
0.0078241108 -0.022009628 0.010722975 -0.22701693 -0.60825187 -0.76058728 0.0027100802
0.010378932 -0.022270728 0.010563933 -0.035297889 -0.65273964 -0.75675958 0.0026055756
0.013175962 -0.022005945 0.010557967 0.14851238 -0.69552672 -0.70298415 0.0020627268
0.015236826 -0.021806652 0.010965214 0.3081927 -0.68830007 -0.65670413 0.0013347424
0.0049249926 -0.019590767 0.01023893 -0.44742733 -0.53577566 -0.71606791 0.0026191571
0.0073514329 -0.020140909 0.0094383778 -0.24132514 -0.60361856 -0.75987291 0.0020914932
0.010297318 -0.020449281 0.0089773769 -0.05770563 -0.66780668 -0.74209446 0.0019254969
0.013294245 -0.020455305 0.009099205 0.10558946 -0.67793596 -0.72749823 0.0015527729
0.016119914 -0.020019438 0.0095511163 0.2707164 -0.68812692 -0.67319685 0.0014769875
0.018587066 -0.019351671 0.010303578 0.47464532 -0.65040702 -0.59302831 0.0011096916
0.0020452358 -0.016648933 0.010526274 -0.63413334 -0.41372219 -0.65322948 0.0023939556
0.004070268 -0.017314309 0.0092586866 -0.53538251 -0.45925951 -0.70883435 0.0026578675
0.0063946694 -0.018134264 0.0083112726 -0.38366374 -0.55393124 -0.73889261 0.0054023801
0.017077254 -0.018290522 0.0082119564 0.3086915 -0.68348122 -0.66148537 0.0020004846
0.019619275 -0.017490938 0.0091120033 0.48596647 -0.64823753 -0.58619511 0.0025465386
0.021648325 -0.016563965 0.0099422866 0.59856373 -0.61528832 -0.51297343 0.0021863536
0.0013470015 -0.01405634 0.0097601647 -0.70636708 -0.3662357 -0.60573673 0.0025435996
0.0031814801 -0.015086995 0.0084704813 -0.60316491 -0.48656482 -0.63201809 0.0024347834
0.02288552 -0.014579609 0.0092512546 0.66716945 -0.5660249 -0.48425272 0.0023365794
0.024487443 -0.013292693 0.010122324 0.7298187 -0.51971811 -0.44413701 0.0020178978
-0.00066010072 -0.010429418 0.010347146 -0.82332766 -0.30960461 -0.47568542 0.0030315095
0.00050453481 -0.011314332 0.0091325538 -0.78805292 -0.34609464 -0.50910813 0.0014882201
0.025467329 -0.01118103 0.0094602751 0.78056347 -0.47553703 -0.40569115 0.001651121
-0.0010350855 -0.0080038421 0.0095009534 -0.85964334 -0.29165325 -0.41946599 0.0016964818
-3.3093645e-05 -0.009136254 0.0083462903 -0.82227755 -0.35280409 -0.44652992 0.0035435613
0.026505591 -0.0086633898 0.0087368796 0.83685869 -0.41903234 -0.35224921 0.0010362086
0.027336529 -0.0077672363 0.009733458 0.86408627 -0.38165 -0.32817397 0.0010775741
-0.0018217928 -0.0051499405 0.0096433042 -0.9275955 -0.23163678 -0.29310575 0.0033404175
0.028297881 -0.0051536416 0.0096331956 0.89004213 -0.33701274 -0.30699754 0.00051934668
-0.0023101624 -0.0025987918 0.0089075612 -0.93377453 -0.24133997 -0.26423505 0.0023622662
0.029210642 -0.0021550809 0.0095440308 0.90422618 -0.31009105 -0.29363012 0.00033556027
-0.0029390019 0.00025993353 0.0098796049 -0.94075358 -0.24826276 -0.2309725 0.0016242573
0.029380925 -0.00045850361 0.0084238956 0.9155913 -0.2794565 -0.28913099 0.00031509076
0.0051610814 -0.02504831 0.013876013 -0.32853889 -0.536057 -0.77762789 0.002201638
0.0073984535 -0.025298513 0.013470185 -0.14398591 -0.63895166 -0.7556513 0.003633498
0.010438177 -0.025344213 0.013373333 0.03847155 -0.68375325 -0.72869837 0.0027000271
0.013174147 -0.025063859 0.013585565 0.23007581 -0.70049685 -0.67555112 0.0019568638
0.0021996873 -0.022340562 0.013739598 -0.52693248 -0.43919048 -0.7276358 0.0027911435
0.0041924808 -0.023032272 0.012957596 -0.39476717 -0.49000642 -0.77720821 0.0040774918
0.0070875264 -0.023348536 0.012000178 -0.16400687 -0.62173522 -0.7658636 0.0026224863
0.010407778 -0.023800865 0.011931767 0.0043329122 -0.66276115 -0.74881828 0.0020860052
0.01337756 -0.02351998 0.012117277 0.16291317 -0.69206953 -0.7032063 0.0013103135
0.016196419 -0.022975445 0.01270341 0.35875952 -0.69349992 -0.62477946 0.0025682235
0.01848265 -0.022210034 0.013376604 0.49314708 -0.65607685 -0.57128721 0.0031242694
0.001511201 -0.020003041 0.013038865 -0.61825657 -0.38829914 -0.68336129 0.0027626846
0.0036829293 -0.020547468 0.011654234 -0.47756916 -0.47358188 -0.74003237 0.0042648022
0.017273428 -0.021182436 0.01140844 0.34722883 -0.68687117 -0.63846707 0.0014924069
0.019414963 -0.020551164 0.012326282 0.54139876 -0.64159465 -0.54336339 0.0024244983
0.021399612 -0.01948541 0.013191483 0.61861157 -0.59636784 -0.51153213 0.0015230116
-0.00065429875 -0.016579013 0.013632485 -0.7491011 -0.2835252 -0.59871614 0.0020130074
0.0008041861 -0.017389614 0.012278293 -0.69737744 -0.3551119 -0.62254333 0.0027025589
0.022376621 -0.017544122 0.012097293 0.62902242 -0.60703415 -0.48563397 0.0013043128
0.024165519 -0.016158657 0.013280408 0.73855764 -0.54139292 -0.40177879 0.0011934638
-0.0010943452 -0.013703527 0.01286837 -0.8098374 -0.25285837 -0.52936369 0.0027052071
0.00016804587 -0.014622476 0.01153786 -0.74549502 -0.31538361 -0.58717155 0.0020540114
0.023749072 -0.015521774 0.011476905 0.73740757 -0.53867841 -0.40749919 0.0013557479
0.025179755 -0.013909254 0.012377945 0.79498821 -0.47662088 -0.37526822 0.0011575539
-0.0016051509 -0.011001166 0.012489754 -0.86700779 -0.2183513 -0.44790649 0.0029088657
0.026515966 -0.011468306 0.012325163 0.84294796 -0.41586718 -0.34131101 0.00054672471
0.027320627 -0.010576565 0.013256925 0.849536 -0.41476279 -0.32597619 0.00036646682
-0.002175309 -0.0081102122 0.012398128 -0.91115195 -0.18996222 -0.36567271 0.0019656008
0.02817175 -0.0080153141 0.012356729 0.89337379 -0.34756288 -0.28475147 0.00082971668
-0.0027698118 -0.0052977107 0.012790571 -0.95781946 -0.15211082 -0.24381199 0.0034990413
0.029013081 -0.0052157701 0.012198278 0.89914489 -0.32759875 -0.29020265 0.00065502932
-0.0029622123 -0.0021806811 0.012573413 -0.94619036 -0.18465912 -0.26575333 0.0022406641
0.0043679243 -0.028376155 0.016602669 -0.26005849 -0.57998919 -0.7719987 0.002846482
0.0071868924 -0.028644398 0.016276997 -0.068144523 -0.62824392 -0.77502632 0.0025233875
0.01021044 -0.028576192 0.016344324 0.11319236 -0.67101508 -0.7327525 0.0021382419
0.012996791 -0.028131921 0.016624231 0.2798419 -0.69484943 -0.66247475 0.0022435621
0.0014999562 -0.025934163 0.016371865 -0.50050145 -0.45134753 -0.73877174 0.0034564575
0.0040162816 -0.026286114 0.015240495 -0.28086853 -0.5644111 -0.77624279 0.0022181117
0.0071817469 -0.026807278 0.014741891 -0.090616882 -0.64611572 -0.75784099 0.0021501917
0.010468669 -0.026897315 0.014822532 0.075723477 -0.66703439 -0.74116874 0.0016554594
0.013490595 -0.026585851 0.015253757 0.27306819 -0.68346685 -0.67698354 0.0028484971
0.016105292 -0.025835127 0.015790209 0.39702812 -0.68498254 -0.61087435 0.0013464687
0.018615138 -0.024891634 0.01679663 0.5855844 -0.64759845 -0.48755217 0.001933438
-0.00086903269 -0.022503326 0.016520876 -0.65752858 -0.32584694 -0.67932308 0.0016532294
0.0010445339 -0.023352057 0.015281803 -0.52989876 -0.41805115 -0.73786217 0.002030337
0.003048409 -0.024263177 0.014375568 -0.42616022 -0.47911501 -0.76735669 0.0067415829
0.016982144 -0.024276031 0.014601887 0.38045427 -0.68586624 -0.62035644 0.0020301272
0.019300964 -0.023267483 0.015524109 0.55268264 -0.66425455 -0.50329685 0.00081914617
0.021220846 -0.022092292 0.016485047 0.64762604 -0.61978328 -0.44322583 0.0012313449
-0.0012954203 -0.01974575 0.015725859 -0.70395899 -0.28221905 -0.65176243 0.0015792005
0.00029542073 -0.020823166 0.014632707 -0.65420133 -0.36324817 -0.66337883 0.0020528347
0.020484094 -0.021504411 0.01457432 0.58763701 -0.64158928 -0.49299699 0.0010984965
0.022330066 -0.020081263 0.015486191 0.71515465 -0.57030708 -0.40410843 0.00031016994
0.024010316 -0.018662596 0.016637832 0.75209576 -0.53531832 -0.38442999 0.00081286737
-0.0020092342 -0.016900146 0.015551451 -0.81443161 -0.18279873 -0.55071384 0.0026779894
0.023415454 -0.018081272 0.014542432 0.71297431 -0.5766167 -0.39897466 0.000326971
0.024835151 -0.01689129 0.015794963 0.77692252 -0.51088995 -0.36794421 0.00057576346
-0.0024975184 -0.014142549 0.015392988 -0.8572374 -0.15313464 -0.49162376 0.001957682
0.026067471 -0.014370205 0.0149869 0.83481723 -0.44790995 -0.32008892 0.0012283024
0.027087485 -0.013324812 0.016063541 0.843647 -0.43728673 -0.31151241 0.00094435317
-0.0034888152 -0.011053259 0.016693279 -0.9409073 -0.055664282 -0.33405825 0.0029285224
-0.0027883241 -0.011204524 0.015081045 -0.90754908 -0.12313773 -0.40148693 0.0024433946
0.027881639 -0.011129471 0.015668418 0.87260067 -0.39476651 -0.28762376 0.00026719517
-0.0034872298 -0.0081026088 0.016529694 -0.95817333 -0.04587486 -0.28248781 0.0063739712
-0.0029795712 -0.0080623757 0.014588119 -0.94720244 -0.087683246 -0.30841389 0.0079034986
0.028539343 -0.0085468311 0.014404328 0.8995356 -0.34528741 -0.26760474 0.00062497047
0.029264223 -0.0058572092 0.014274926 0.90051156 -0.33471385 -0.27757072 0.00070323143
0.0016310188 -0.031063676 0.019551545 -0.37294891 -0.50180626 -0.78044826 0.0030442954
0.0041676685 -0.03157362 0.019127794 -0.17767301 -0.61519504 -0.76809335 0.0031282017
0.0071021272 -0.03185343 0.019079383 0.0067254556 -0.65050757 -0.75947005 0.0023790041
0.010020518 -0.031544115 0.019146264 0.17480439 -0.69659346 -0.69584548 0.0027988809
0.01249203 -0.030988771 0.019423481 0.34814471 -0.69946587 -0.62413371 0.0020555381
-0.0010456304 -0.028406378 0.019509323 -0.52679026 -0.41832286 -0.73993105 0.0023216377
0.0011096274 -0.028961461 0.018444017 -0.3977707 -0.50580639 -0.76546603 0.0019975395
0.003999779 -0.029623218 0.017676786 -0.19616398 -0.59982532 -0.77571207 0.0022042112
0.0069885347 -0.030217007 0.017666224 -0.028869893 -0.64200538 -0.76615632 0.0019200979
0.010249236 -0.029961903 0.017663144 0.13644244 -0.69060534 -0.71024483 0.0017526234
0.013584472 -0.029300492 0.018155508 0.34589958 -0.71075404 -0.61252111 0.0034260752
0.016123734 -0.028503623 0.019021939 0.48078284 -0.69117719 -0.5395571 0.0021364742
-0.0016448029 -0.025804389 0.018798567 -0.63953114 -0.30662954 -0.70496684 0.0013638529
0.00038436832 -0.02662741 0.01750559 -0.49878806 -0.42730519 -0.75406951 0.0032226087
0.016991595 -0.026896391 0.017766949 0.44195729 -0.69491565 -0.56724417 0.0019660308
0.019151524 -0.025690224 0.018695135 0.59912205 -0.65412956 -0.46170047 0.00151704
-0.0036416543 -0.022752961 0.019703228 -0.76309073 -0.20013869 -0.6145218 0.0022651479
-0.0022309034 -0.023081359 0.018145576 -0.68798089 -0.27639893 -0.67103344 0.0023190316
0.020473661 -0.023984188 0.018141232 0.66713774 -0.60959214 -0.42816409 0.0003160146
0.021932799 -0.02273857 0.01875354 0.69010943 -0.60386533 -0.39886788 0.00063748384
-0.0039084312 -0.019861672 0.019187562 -0.8229301 -0.13606745 -0.55160832 0.0021760061
-0.0027193059 -0.020144144 0.017676584 -0.75707525 -0.21110933 -0.61827976 0.001997334
0.023314932 -0.020702658 0.018192343 0.73800242 -0.5618605 -0.37371817 0.00081886788
0.024499699 -0.019522583 0.018722486 0.77523392 -0.53540897 -0.3351858 0.0013005063
-0.0040027932 -0.017029593 0.018752504 -0.87668502 -0.079340503 -0.47447717 0.002101643
-0.0030029248 -0.017954173 0.017298579 -0.83880258 -0.14504966 -0.5247578 0.0017378976
0.025823459 -0.017161816 0.018368628 0.8213985 -0.48431781 -0.3012321 0.001330491
-0.0039980784 -0.014054559 0.018310558 -0.92097443 -0.070579283 -0.38317713 0.0041668536
0.026494443 -0.015244151 0.017153889 0.83672678 -0.46779451 -0.28470457 0.0016171325
0.027311523 -0.014308089 0.018533021 0.85466921 -0.4388985 -0.27732405 0.0010749174
-0.0041670226 -0.011356775 0.018764079 -0.95896405 0.062701628 -0.27650747 0.010702948
0.028026309 -0.012323597 0.01811707 0.87769306 -0.39938423 -0.26485297 0.00046795365
-0.0040040561 -0.0088934042 0.018934201 -0.97924304 0.07967528 -0.18637283 0.0050895014
-0.0035051969 -0.0061693736 0.018383309 -0.98245239 0.049307372 -0.17987794 0.0050695473
-0.0011217218 -0.034172062 0.022744514 -0.41321477 -0.45717484 -0.78755617 0.0031432766
0.0013132284 -0.03468059 0.022205163 -0.25688252 -0.54577744 -0.79758275 0.0021126159
0.0042180954 -0.034964867 0.021881044 -0.079902977 -0.62450242 -0.77692497 0.0028278136
0.0071382378 -0.03477896 0.021748263 0.092809826 -0.69140434 -0.71648186 0.0028937513
0.0099536218 -0.034383297 0.022045344 0.27316713 -0.720581 -0.63729334 0.0034568228
0.01204355 -0.034023147 0.022695284 0.42826739 -0.71677721 -0.55028862 0.0015281334
-0.0036723716 -0.031251747 0.022790097 -0.56513435 -0.33056349 -0.75587761 0.0024545067
-0.0017285263 -0.031999659 0.02189377 -0.45080978 -0.39897037 -0.79849428 0.0038917344
0.00095155335 -0.032388866 0.020766146 -0.3247146 -0.52510756 -0.78665268 0.0055314396
0.0039014043 -0.033060137 0.020364098 -0.12303846 -0.62840116 -0.76809728 0.0021619198
0.0071179606 -0.033175305 0.020250537 0.046747141 -0.67799544 -0.73357815 0.0021509423
0.010388447 -0.032935683 0.020653944 0.20840299 -0.70707816 -0.6757282 0.0020791485
0.013184097 -0.032269046 0.021379676 0.40069547 -0.69462854 -0.59743983 0.0020103641
0.015393705 -0.031207822 0.021971367 0.50939202 -0.69082481 -0.51310909 0.001154614
-0.0041200034 -0.028939079 0.022372801 -0.65224445 -0.26431581 -0.71043253 0.0028216408
-0.0022154432 -0.02930076 0.020873759 -0.55321109 -0.36368236 -0.74946165 0.0044390997
0.016635912 -0.029649582 0.021171115 0.53602433 -0.68679041 -0.4909144 0.0015972521
0.018594312 -0.028580118 0.022173751 0.61644316 -0.6451208 -0.45146084 0.00069795898
-0.0044202209 -0.025998525 0.021627292 -0.71181011 -0.21397662 -0.66898453 0.0017688733
-0.0029057916 -0.026873153 0.02038426 -0.6673401 -0.28302947 -0.68887699 0.0012886825
0.019942584 -0.026592504 0.02118627 0.65317851 -0.63288033 -0.41571662 0.00055732898
0.021410607 -0.02563422 0.021988235 0.70077038 -0.59415442 -0.39484343 0.0011150418
-0.0050273887 -0.023103599 0.021650702 -0.79112107 -0.1602516 -0.59029388 0.0019479002
0.022873713 -0.023282824 0.02112253 0.74862283 -0.55292249 -0.36584213 0.0012632502
0.024048353 -0.022393094 0.022302955 0.76255643 -0.54950261 -0.34140101 0.00078839675
-0.005383289 -0.020236066 0.021754671 -0.87210292 -0.013272599 -0.48914239 0.002863429
0.025104271 -0.02015027 0.021435518 0.78682512 -0.52260953 -0.32830691 0.0012929001
-0.0054609729 -0.017270006 0.021627009 -0.9172439 0.013615975 -0.39809337 0.0031946618
0.026465645 -0.017370211 0.02106303 0.82211816 -0.48595065 -0.29660347 0.0010801435
-0.0052500339 -0.014274398 0.02148135 -0.94812626 0.10973669 -0.29835284 0.0059311856
0.02715693 -0.015353793 0.020147562 0.848472 -0.45218408 -0.27499965 0.0010240774
-0.0047746431 -0.011181517 0.021354552 -0.96343017 0.16940542 -0.20761526 0.0039186738
-0.0040423204 -0.0079792682 0.022487015 -0.97568619 0.17518692 -0.13170427 0.00086488324
0.0019333963 -0.039622523 0.026002515 -0.088066608 -0.65228432 -0.75284082 0.0025720438
0.0034367379 -0.039621539 0.025991321 0.11181865 -0.70373559 -0.70160729 0.0030862109
-0.0039098044 -0.036922984 0.025676135 -0.42759973 -0.42728078 -0.79661131 0.0020603945
-0.001654788 -0.037856467 0.025360223 -0.2748507 -0.53320694 -0.80009216 0.0040720822
0.0011807272 -0.038014371 0.02476041 -0.15779547 -0.61067462 -0.7760008 0.0021440422
0.0041782055 -0.037994564 0.024525769 0.0079295691 -0.66923487 -0.74300861 0.0020228236
0.007050022 -0.037842259 0.024852414 0.23742281 -0.74160349 -0.62741911 0.0021774019
0.0098411441 -0.037222032 0.025458027 0.37224007 -0.73760462 -0.56336212 0.0017125044
-0.0065859691 -0.033860136 0.02601026 -0.57522035 -0.28688508 -0.7660408 0.0021426801
-0.0047018426 -0.034898486 0.025164507 -0.52203828 -0.33266091 -0.78537422 0.0021917007
-0.0020095715 -0.035471503 0.023990229 -0.33133534 -0.5042358 -0.79747301 0.0023077368
0.00083135138 -0.036153432 0.023397297 -0.18689409 -0.59464067 -0.78196746 0.0021088587
0.0031722337 -0.036379512 0.02311638 -0.044410698 -0.64310342 -0.76449043 0.0012088615
0.0071596736 -0.036397036 0.023330674 0.14014198 -0.71589404 -0.68399996 0.0029772958
0.010244344 -0.035881408 0.023935203 0.30707687 -0.73804909 -0.60082215 0.0022112916
0.013042323 -0.034774333 0.024688318 0.46940613 -0.71607322 -0.51662076 0.0014599303
0.015199758 -0.033825945 0.025559664 0.54083806 -0.69529867 -0.47334343 0.00052645884
-0.0068035237 -0.031749632 0.025694977 -0.65999383 -0.19448538 -0.7256608 0.0034999854
-0.0049155974 -0.032300361 0.024235226 -0.60728037 -0.25372672 -0.75288332 0.0022890177
-0.0030543094 -0.033153344 0.023262382 -0.52080536 -0.33340114 -0.78587884 0.002468633
0.014229173 -0.033270776 0.023720097 0.51885152 -0.70054114 -0.48993391 0.00023493965
0.016259352 -0.032235533 0.024517227 0.57270294 -0.68916869 -0.443912 0.00082870456
0.018322816 -0.031060673 0.025393263 0.65210301 -0.64984989 -0.39045727 0.0014479632
-0.0070760911 -0.029055677 0.025346637 -0.73420519 -0.11253355 -0.66953635 0.0033340708
-0.0055535194 -0.029396392 0.023831237 -0.68992519 -0.18890533 -0.69879752 0.0020819374
0.017367303 -0.03040589 0.023155242 0.57573903 -0.67466187 -0.46190467 0.00020288613
0.01941422 -0.029393572 0.024514083 0.66556227 -0.63621724 -0.39019814 0.0010906904
0.021191709 -0.027794737 0.02519165 0.73910326 -0.60222954 -0.30173838 0.0037714196
-0.0070701856 -0.026115861 0.0250009 -0.81199443 -0.035737865 -0.58257002 0.0034261264
-0.0058815512 -0.026444681 0.023540847 -0.75919098 -0.12833244 -0.63809073 0.0027299088
0.022070855 -0.026216358 0.024353169 0.73978102 -0.59203666 -0.31971332 0.0014653034
-0.007068526 -0.023109494 0.02489144 -0.87112993 0.011436038 -0.4909195 0.0030957372
-0.0060430104 -0.024184616 0.023236871 -0.80375946 -0.098536007 -0.58673799 0.004332006
0.023373881 -0.024214456 0.0237699 0.75268197 -0.57919461 -0.31305507 0.0021193312
0.024120282 -0.022965835 0.023737937 0.76639479 -0.56150728 -0.31200734 0.0016549509
-0.0068858345 -0.02019451 0.024661176 -0.91971761 0.060033444 -0.38796321 0.003992686
0.024841979 -0.021444255 0.023226649 0.78987265 -0.51416552 -0.33426771 0.0013146586
-0.0066309781 -0.017152593 0.024920676 -0.93965441 0.16593757 -0.29918948 0.0068316902
-0.0060424726 -0.016212711 0.023201168 -0.95971608 0.11854193 -0.25474083 0.0064193998
-0.0059581911 -0.014404617 0.02422319 -0.96515071 0.18355875 -0.18652157 0.0027368858
-0.0052348655 -0.011361415 0.024900358 -0.96208233 0.22293955 -0.15714812 0.00049728627
-0.0045507713 -0.0094935093 0.023424357 -0.96583945 0.21415749 -0.14591385 0.00094818143
-0.0068004588 -0.040044915 0.028881598 -0.37871251 -0.4751505 -0.79423475 0.0021280493
-0.0046929494 -0.040624022 0.028308138 -0.33219594 -0.51189977 -0.79221493 0.001900438
-0.0017994939 -0.040995151 0.0276995 -0.19271328 -0.5905152 -0.78367937 0.0020797264
0.0011141186 -0.041122537 0.027447671 -0.015211365 -0.70910394 -0.7049399 0.0047401427
0.0041633574 -0.040947299 0.027567808 0.18043944 -0.75331759 -0.63241935 0.0022931676
0.0070004081 -0.040256433 0.027834192 0.30400884 -0.76667869 -0.56549317 0.0028963969
0.0092496853 -0.039869677 0.02880092 0.42196152 -0.76464182 -0.48710513 0.00054284651
-0.007555414 -0.037882574 0.028259251 -0.49895433 -0.3476145 -0.79385692 0.0034273362
-0.0050281715 -0.038133014 0.026945379 -0.42737567 -0.40823379 -0.8066569 0.0027044965
-0.0024962316 -0.038987994 0.02638917 -0.22428542 -0.56233609 -0.79591089 0.0019466555
0.0078570712 -0.039079681 0.026674289 0.26681605 -0.75446504 -0.5996598 0.0024351731
0.010344474 -0.038361777 0.027533527 0.42854598 -0.74055374 -0.51761806 0.0023201485
0.012705792 -0.037122499 0.02788746 0.51474762 -0.73088092 -0.4481605 0.0013707504
-0.0096575432 -0.034833957 0.028872281 -0.6420908 -0.172969 -0.74686074 0.0022187454
-0.0079417713 -0.035037365 0.027489796 -0.61555439 -0.21502942 -0.75819194 0.0015554595
-0.0059640608 -0.035763737 0.026313767 -0.55911475 -0.29222101 -0.77588505 0.0030178241
0.013789115 -0.035846375 0.027030535 0.51701212 -0.73253071 -0.44282871 0.0013455991
0.015800027 -0.034508504 0.027371917 0.5773989 -0.6976347 -0.42416549 0.00097533537
-0.0099060498 -0.032048963 0.02871019 -0.71799362 -0.05138037 -0.69415069 0.0023462393
-0.0082654944 -0.032009598 0.027081016 -0.70197785 -0.10709361 -0.70410079 0.0014303649
0.017343448 -0.033028942 0.027192842 0.63939011 -0.68083334 -0.35727611 0.0016509602
0.018777775 -0.031709343 0.027474988 0.66255718 -0.66468894 -0.34526289 0.0018515758
-0.0098199882 -0.02927094 0.028621841 -0.78377503 0.045372199 -0.61938518 0.0024973459
-0.008614894 -0.028924949 0.027178768 -0.77187079 -0.027835635 -0.63516974 0.0027414067
0.020273916 -0.029930118 0.027186945 0.75416577 -0.60677898 -0.25110403 0.0018015611
0.021194128 -0.028673768 0.02717194 0.76037771 -0.60047156 -0.24750687 0.0016116584
-0.0096581271 -0.0262633 0.028898127 -0.83970726 0.13467349 -0.52607495 0.0021849046
-0.0086162835 -0.025913786 0.027239669 -0.84892243 0.059378885 -0.52517128 0.0039844499
0.022546843 -0.026680376 0.027449697 0.77407795 -0.57799494 -0.25831226 0.001384935
-0.0085628722 -0.023048948 0.027701531 -0.89884746 0.1217754 -0.42100355 0.0051245582
-0.0079343151 -0.020006631 0.027411953 -0.93167335 0.20223373 -0.3018049 0.0053536771
-0.0072823949 -0.017218696 0.027603421 -0.94778663 0.23849028 -0.21171433 0.0029248979
-0.0066109439 -0.015122289 0.027556211 -0.95483613 0.24747387 -0.16445231 0.00060219137
-0.0061014262 -0.01359948 0.027111053 -0.95483601 0.24747291 -0.16445498 0.00060223613
-0.005588389 -0.012070263 0.026345998 -0.9636814 0.21898867 -0.1528469 0.00052966445
-0.0097257243 -0.042679574 0.031886846 -0.45231178 -0.44850618 -0.77088022 0.0019872081
-0.0077628274 -0.043367043 0.031376056 -0.36132208 -0.50200278 -0.78577322 0.0023468812
-0.0048199925 -0.044031113 0.030861646 -0.2319088 -0.60374385 -0.7627002 0.0026315458
-0.0018514112 -0.044061821 0.030428506 -0.034826819 -0.69247049 -0.72060508 0.0050656782
0.0011063402 -0.043905351 0.030420352 0.084640041 -0.75973123 -0.64470494 0.004583294
0.0039694658 -0.043484181 0.030820359 0.29380473 -0.79866785 -0.52517474 0.0010686909
0.0065930858 -0.042808764 0.031460982 0.39654469 -0.79707932 -0.45543036 0.0011059515
-0.01056055 -0.040729068 0.03142228 -0.5101496 -0.35501298 -0.78339839 0.0028664346
-0.0079891318 -0.041142289 0.030120812 -0.43314829 -0.41205049 -0.8016215 0.0020888769
-0.0052122902 -0.042121004 0.029517092 -0.25562772 -0.5722636 -0.77921045 0.0023617067
-0.0031044665 -0.042416912 0.029083699 -0.1576324 -0.63114721 -0.75947684 0.005883676
0.0048708958 -0.042369723 0.02965764 0.25337526 -0.78229558 -0.56904703 0.0042549772
0.0074266335 -0.041583732 0.03015013 0.3446511 -0.78595024 -0.51332039 0.0011718323
0.010001151 -0.040587746 0.030718368 0.47248906 -0.77616727 -0.41751462 0.0012375738
0.012081724 -0.039584111 0.031306654 0.54389036 -0.75587165 -0.36447415 0.0016959679
-0.012387287 -0.037597049 0.031791005 -0.64278251 -0.18075918 -0.74441707 0.0022265993
-0.010650867 -0.038108405 0.030497883 -0.58643329 -0.24485996 -0.77210075 0.0025628039
-0.0088851713 -0.038692344 0.029440641 -0.55455679 -0.28722778 -0.78100377 0.0020164533
0.011160475 -0.03931975 0.029722869 0.4844158 -0.76787162 -0.41918316 0.0011395917
0.013345682 -0.038106594 0.030426942 0.59415162 -0.72423935 -0.3499445 0.0015974093
0.015125181 -0.037056353 0.031385839 0.60902292 -0.71635193 -0.3404865 0.0010591908
-0.012506965 -0.035040427 0.031536974 -0.7149291 -0.039892726 -0.69805795 0.0028166859
-0.010897944 -0.035228159 0.03004523 -0.66521174 -0.12414138 -0.73626232 0.0028038884
0.016467178 -0.035301365 0.030156448 0.631661 -0.69982487 -0.33354098 0.0017584699
-0.01248481 -0.032368816 0.031568099 -0.76657665 0.074748389 -0.6377874 0.0028018672
-0.011203323 -0.032151099 0.030137185 -0.74140251 0.0074360189 -0.67101938 0.0018705479
0.019003287 -0.032399155 0.030070081 0.70725453 -0.63740522 -0.30578679 0.0036968431
-0.012261241 -0.029734548 0.031821407 -0.80635947 0.17704195 -0.56430537 0.0019842174
-0.011063661 -0.029020403 0.030310582 -0.79884303 0.099665441 -0.5932256 0.0011436377
0.02212061 -0.027791347 0.029139906 0.76038259 -0.60047054 -0.24749428 0.0016244912
-0.01070997 -0.026258677 0.030612528 -0.85221457 0.23472047 -0.46758604 0.0035988465
-0.0099758357 -0.023379713 0.030719966 -0.88525891 0.26170197 -0.38448489 0.0051506506
-0.009168393 -0.022010976 0.02957204 -0.92176706 0.23232736 -0.31043446 0.0064834752
-0.0087530073 -0.020137595 0.030411597 -0.92013359 0.30123073 -0.25022835 0.0029251305
-0.0076724365 -0.01708647 0.030588049 -0.93680811 0.32734403 -0.12343623 0.0023644574
-0.0066360435 -0.014673004 0.029109865 -0.95426786 0.25882256 -0.14961149 0.00038243434
-0.010062944 -0.046355434 0.034480516 -0.30780268 -0.61457044 -0.72633374 0.0048025101
-0.0077343923 -0.046698671 0.033973858 -0.20241235 -0.67185706 -0.71248674 0.0045062895
-0.0049247751 -0.046747483 0.033487014 -0.03715571 -0.7440455 -0.66709507 0.0040087551
-0.0019237954 -0.046602055 0.03334742 0.085368909 -0.80116171 -0.59232765 0.0039210008
0.0010336074 -0.046333224 0.033890352 0.26231757 -0.82958412 -0.49292973 0.0015098372
0.0032278025 -0.045991708 0.034555823 0.35553712 -0.82412422 -0.44092253 0.00099329278
-0.01298729 -0.043827828 0.034456756 -0.51415348 -0.38365275 -0.76710939 0.0037656655
-0.010621755 -0.044184171 0.033286005 -0.3911235 -0.50004035 -0.77264607 0.0017638708
-0.0079390686 -0.044912547 0.032543603 -0.27017549 -0.60477519 -0.74916768 0.0025648535
-0.005923728 -0.045244042 0.032160923 -0.10814912 -0.6769399 -0.72804952 0.0026738464
0.001693686 -0.045277447 0.032497838 0.20660128 -0.81621736 -0.53954154 0.0035449693
0.0043481914 -0.044803217 0.033209585 0.34621888 -0.82724881 -0.44248372 0.0009094362
0.0072961636 -0.043591462 0.033465605 0.42447519 -0.80634522 -0.41185951 0.00049208506
0.0090897419 -0.04289211 0.034155279 0.51743382 -0.78332198 -0.34448355 0.0017455558
-0.015414669 -0.040160444 0.03498508 -0.65298289 -0.18540852 -0.73432767 0.00148942
-0.013551996 -0.041029807 0.033691648 -0.60628957 -0.23623739 -0.759345 0.0010427997
-0.011480449 -0.041716047 0.032447189 -0.49729028 -0.3413851 -0.7975955 0.0024311433
0.0085466905 -0.042192202 0.032103986 0.42016855 -0.78702033 -0.45172724 0.0011495079
0.010347783 -0.041642945 0.033313204 0.53314787 -0.78383195 -0.31837219 0.00066731567
0.012641146 -0.0400226 0.033413559 0.58970648 -0.74483609 -0.31219453 0.0016091627
-0.015403956 -0.038091417 0.034674231 -0.70792717 -0.05449497 -0.70417988 0.0023331444
-0.013901437 -0.038044482 0.033241581 -0.68267208 -0.093234003 -0.72475255 0.0014121472
0.013909915 -0.038863782 0.033261731 0.6000526 -0.74147087 -0.30026281 0.0011760929
0.015204426 -0.03778125 0.034013659 0.60593086 -0.73628682 -0.30121356 0.0009873464
-0.015405448 -0.035031572 0.03471753 -0.76004118 0.094866648 -0.64291346 0.0024456207
-0.014082454 -0.034916617 0.033223074 -0.73184848 0.004838658 -0.68145013 0.0011066369
-0.014009753 -0.031910807 0.03359966 -0.79758489 0.16417839 -0.58043414 0.0036615706
-0.013201705 -0.029034059 0.033550717 -0.82442814 0.2719633 -0.49634087 0.0038512619
-0.012461777 -0.026624773 0.033777654 -0.84691048 0.37376982 -0.3782047 0.004121772
-0.011642471 -0.025420098 0.033075728 -0.87952507 0.33606994 -0.33688658 0.0036466189
-0.010838656 -0.023256747 0.033552181 -0.87722826 0.40681845 -0.2548908 0.0047036787
-0.0096551403 -0.020821121 0.033240039 -0.89720154 0.40924802 -0.16596794 0.0039273743
-0.0087321978 -0.018873567 0.032933235 -0.90601724 0.39221823 -0.15905234 0.0029200383
-0.012683193 -0.048876781 0.037714362 -0.33817598 -0.62949336 -0.69955349 0.0039767101
-0.010471104 -0.049197178 0.037273344 -0.19554688 -0.72741276 -0.65774775 0.004708671
-0.0075290529 -0.049290325 0.036769085 -0.058864478 -0.80337536 -0.5925563 0.0044066738
-0.004827294 -0.049211822 0.036772516 0.092586912 -0.84653002 -0.52422756 0.0024056444
-0.0021472739 -0.048945926 0.037152577 0.21172519 -0.86441302 -0.45602921 0.0012880304
-0.015905777 -0.046357784 0.037638791 -0.47762036 -0.45275518 -0.752922 0.0021225261
-0.013656556 -0.046936493 0.03668984 -0.3727597 -0.53864384 -0.75558782 0.0021054058
-0.010864245 -0.047514923 0.035778172 -0.28840518 -0.59935886 -0.74672043 0.0048586214
-0.0075034411 -0.048113249 0.035323203 -0.12760681 -0.72295439 -0.67900908 0.0028524033
-0.0045190584 -0.048093155 0.035130788 0.019374475 -0.78477478 -0.61947811 0.0036793447
-0.0016994324 -0.048078597 0.035690159 0.17031282 -0.85361224 -0.49227989 0.0031318103
