# .PCD v0.7 - Point Cloud Data file format
VERSION 0.7
FIELDS x y z normal_x normal_y normal_z curvature
SIZE 4 4 4 4 4 4 4
TYPE F F F F F F F
COUNT 1 1 1 1 1 1 1
WIDTH 550
HEIGHT 1
VIEWPOINT 0 0 0 1 0 0 0
POINTS 550
DATA ascii
-0.015429987 0.037244372 -0.0073113022 -0.78242129 -0.59479022 -0.18450353 0.00014378405
-0.014184106 0.035761736 -0.0083321445 -0.78423017 -0.58740228 -0.19985418 0.00041506416
0.019522386 0.035895661 -0.0083639678 0.87298608 0.28480539 -0.39595607 0.0020182456
-0.016305819 0.038698468 -0.0087591819 -0.76942068 -0.60551298 -0.203337 0.00055377459
0.017571246 0.04008951 -0.0092798201 0.85358083 0.375301 -0.36131567 0.0013376661
0.018492188 0.038649954 -0.0085257171 0.86393183 0.33515528 -0.37588903 0.0015300794
-0.019529404 0.043098383 -0.0093362806 -0.77413428 -0.5974654 -0.20916809 0.00047032753
-0.018139023 0.041245274 -0.0093175052 -0.7636587 -0.61262125 -0.20376609 0.00051129749
0.01699779 0.041972321 -0.0085211359 0.85159796 0.37933055 -0.36178625 0.0012761574
0.018113639 0.040501259 -0.0073592244 0.85356539 0.37533849 -0.36131299 0.0013310011
0.014307656 0.046293743 -0.0098076044 0.80786121 0.45082545 -0.37962693 0.00062255684
0.015592366 0.044895343 -0.0084097534 0.83823824 0.41964063 -0.34822172 0.0009271499
0.013558342 0.047997046 -0.0090702455 0.8152647 0.47132999 -0.33643946 0.00017953494
0.01482761 0.046476729 -0.0081084548 0.82329649 0.4623431 -0.32927468 0.00042517786
0.011528693 0.050927661 -0.0097932396 0.79352623 0.53965628 -0.28122455 0.0016766038
0.012240754 0.050075062 -0.0091608493 0.80362922 0.5303899 -0.26993796 0.0015920469
0.01064949 0.052560173 -0.007798153 0.7819159 0.56090844 -0.27200958 0.0011976891
0.0064506815 0.057116307 -0.0085358797 0.70922703 0.66244859 -0.24116175 0.0016180798
0.010816018 -0.00832141 -0.0040654219 -0.18611622 -0.32583523 -0.92692614 0.0031596359
0.013256622 -0.0085265059 -0.0041113296 0.030288905 -0.34684902 -0.93743181 0.0027880282
0.015339289 -0.0081968382 -0.0040328978 0.24075015 -0.36745498 -0.89834076 0.0026023141
0.0077879746 -0.0055551031 -0.004239812 -0.38319513 -0.32736588 -0.86370891 0.0028424843
0.010251689 -0.0061214133 -0.0047911862 -0.19847879 -0.34448835 -0.91756958 0.0027352422
0.013289982 -0.0061175306 -0.0050709611 0.06728714 -0.36825788 -0.92728555 0.0031731969
0.016256344 -0.0060087745 -0.004644176 0.26166716 -0.35966453 -0.89564043 0.0028979303
0.018537994 -0.0052496833 -0.0041591777 0.41310653 -0.3693071 -0.8324393 0.0018856942
0.0053124051 -0.0025837449 -0.0041710148 -0.52636135 -0.32519564 -0.78561538 0.0013840845
0.0072026923 -0.0030740006 -0.0049603768 -0.39853483 -0.34429604 -0.85007656 0.0022448238
0.010190129 -0.0030951616 -0.0060026343 -0.22633047 -0.37487429 -0.89902389 0.0026540537
0.013308789 -0.0031333254 -0.0062884362 0.044341262 -0.37252417 -0.92696255 0.0046226638
0.016306575 -0.0030678622 -0.0058366684 0.23226747 -0.36463296 -0.9017176 0.0028528124
0.019264136 -0.0029732604 -0.0046757972 0.45341992 -0.3202132 -0.83178955 0.0019840233
0.021070933 -0.0021415153 -0.0039377687 0.56462991 -0.31382766 -0.76335132 0.0013137192
0.0027589686 0.0013802699 -0.003889042 -0.64976686 -0.33718726 -0.68125457 0.0033697747
0.0046418072 0.00016980479 -0.0048243348 -0.5701682 -0.3320815 -0.75141877 0.0018452929
0.0070423521 -0.00021079136 -0.0061005335 -0.39891621 -0.36874428 -0.83957934 0.0023413019
0.0094841402 -0.0011691907 -0.0066483961 -0.20694278 -0.39767066 -0.89388633 0.0034083601
0.016902922 -0.00093100267 -0.0065344013 0.26342389 -0.37768286 -0.88767308 0.0024197148
0.019407809 -8.7663997e-05 -0.005746427 0.45364049 -0.31697014 -0.83291066 0.0023481839
0.021538222 0.00031669624 -0.0044990294 0.5978958 -0.2920073 -0.74649334 0.0014570976
0.0023872592 0.0032540432 -0.0044503007 -0.64577848 -0.33311102 -0.68702775 0.0012706185
0.0042257281 0.0028817388 -0.0058172559 -0.54781032 -0.36390319 -0.75331163 0.001860845
0.006165504 0.0019933383 -0.0066853445 -0.50030816 -0.39222705 -0.77191305 0.0010689027
0.020051749 0.0026389337 -0.0064484421 0.49675927 -0.28312355 -0.82040918 0.0021425916
0.022082767 0.0030791289 -0.0050688372 0.62687361 -0.24540381 -0.73946363 0.0016860081
0.0017832315 0.0059481775 -0.0052016368 -0.68079001 -0.3707709 -0.63170719 0.0027100693
0.0035041899 0.0051657814 -0.0063777035 -0.59784812 -0.38958243 -0.70057344 0.00065470871
0.022288088 0.0057142801 -0.0057216287 0.64102149 -0.22337395 -0.73429942 0.0012789384
0.023995908 0.0060728262 -0.0041175773 0.72794265 -0.17741232 -0.66228718 0.0012867507
-0.00070289965 0.0095263626 -0.0044700606 -0.75473338 -0.37328255 -0.53947902 0.001905888
0.00074418215 0.0085562514 -0.0056693838 -0.71630442 -0.39315659 -0.57648581 0.0013392427
0.022792958 0.0086257989 -0.0061058151 0.67851919 -0.17617527 -0.71314371 0.0013348605
0.024209363 0.0090437755 -0.0046366821 0.76257193 -0.14219721 -0.63108146 0.0014882764
-0.0013342263 0.011990979 -0.0053425268 -0.77193516 -0.40558484 -0.48950705 0.0027454623
6.0866339e-05 0.011056935 -0.0065215928 -0.68131125 -0.41678119 -0.60175449 0.0014885219
0.023249628 0.011857834 -0.0063399849 0.72305036 -0.11848154 -0.6805588 0.0012382047
0.024360467 0.011799669 -0.0049621807 0.79761535 -0.086668633 -0.5969072 0.0016443998
-0.0035128337 0.015607132 -0.0049046753 -0.81883156 -0.40355021 -0.40824267 0.0019247513
-0.0023944832 0.014490841 -0.0058330088 -0.78391165 -0.42406523 -0.45348781 0.00073120807
0.023563884 0.014719196 -0.0063503683 0.79823118 -0.068536282 -0.59843951 0.0015232756
0.024532145 0.014959117 -0.0050297324 0.82896036 -0.031322811 -0.55842954 0.0018187948
-0.0044264821 0.017836256 -0.0052975425 -0.83821791 -0.4016515 -0.3688724 0.0019300986
0.023757713 0.017948419 -0.0063608866 0.82904273 -0.010671163 -0.5590834 0.0018407496
0.02452777 0.018000426 -0.005109658 0.85871857 0.026709771 -0.511751 0.0017879063
-0.0066217259 0.022007322 -0.0045848368 -0.85936379 -0.41833559 -0.29409048 0.0012934168
-0.0056697493 0.020717796 -0.0056269281 -0.85520846 -0.41774344 -0.30677181 0.0012177876
0.023646729 0.021105174 -0.0062560691 0.85554314 0.048105627 -0.51549172 0.0017427184
0.02452494 0.020719636 -0.0047764387 0.88093978 0.088886596 -0.46480563 0.0015808563
-0.0072472631 0.023795629 -0.0054022442 -0.85462499 -0.44421062 -0.26887369 0.00067815761
0.023358122 0.023785664 -0.0063503603 0.87631208 0.10717619 -0.46967053 0.0015413918
0.024045184 0.023775879 -0.0049812132 0.89686424 0.14703754 -0.4171505 0.0016229093
-0.0094243214 0.027837826 -0.0050485758 -0.83661157 -0.49208534 -0.24069294 0.00056305208
-0.0086146779 0.02651261 -0.0053787492 -0.85111874 -0.46935323 -0.2351689 0.00073452696
0.023137456 0.027047049 -0.005726513 0.89639199 0.18683355 -0.40196347 0.0023871374
0.023867393 0.0264776 -0.0043241037 0.92859882 0.2050579 -0.30928212 0.0013711599
-0.010424218 0.029748838 -0.005631519 -0.8090055 -0.54369283 -0.22340128 0.00095076446
0.02252968 0.029774264 -0.0055976966 0.90869099 0.23059057 -0.34800673 0.0017520839
-0.011969848 0.032208554 -0.0061031459 -0.79617745 -0.56782204 -0.20899682 0.00054136082
0.02161796 0.033080991 -0.0055638794 0.90238827 0.27246493 -0.33385375 0.00086897885
0.020402526 0.036213607 -0.0057094498 0.89355314 0.30967277 -0.32506227 0.00050910265
0.021015191 0.035092983 -0.0051140366 0.89356339 0.3096101 -0.32509372 0.00052638503
0.019346833 0.038777575 -0.0057932911 0.88122523 0.36617759 -0.29892477 0.00029964113
0.01745218 0.04245773 -0.0064097969 0.86130136 0.4152787 -0.29275176 0.00019302098
0.018154353 0.041061379 -0.0063644229 0.86776847 0.37828872 -0.32229725 0.00061916356
0.011001146 -0.017143035 -0.00093686557 -0.048808735 -0.32945824 -0.94290775 0.003881637
0.012468266 -0.017050536 -0.00088322442 0.077992134 -0.31193626 -0.94689649 0.0044210185
0.0077969013 -0.014577044 -0.0011844467 -0.2917369 -0.28392315 -0.91338778 0.0026990161
0.010354795 -0.015107596 -0.001543968 -0.13521285 -0.3038232 -0.94308478 0.0031473772
0.013365766 -0.015102759 -0.0015404874 0.13141935 -0.35319561 -0.92627311 0.0022795713
0.015883842 -0.014438385 -0.0012422784 0.28575319 -0.37128502 -0.88345492 0.0025008805
0.0054071196 -0.011506351 -0.0010899396 -0.48074654 -0.25760642 -0.8381657 0.0013705033
0.0072530359 -0.012062673 -0.0017410039 -0.34056887 -0.28214931 -0.89688611 0.0023342329
0.010301268 -0.012039114 -0.00260117 -0.14200333 -0.33932331 -0.92988968 0.002873675
0.013359463 -0.012035742 -0.0027260552 0.064749986 -0.3630048 -0.92953485 0.002503881
0.016205655 -0.012051573 -0.0021522776 0.29351515 -0.35637799 -0.88704199 0.0023565677
0.0184901 -0.011731559 -0.0013717308 0.44087428 -0.36928263 -0.81808323 0.0018626561
0.0049066069 -0.0091029648 -0.0014856143 -0.52768224 -0.25999001 -0.80867583 0.0021873375
0.0072385664 -0.0092118606 -0.0026657558 -0.34975472 -0.30374125 -0.88623524 0.0024010902
0.010062749 -0.0095397234 -0.0034561891 -0.17984277 -0.34764189 -0.92021829 0.003438808
0.013404232 -0.0099255573 -0.0035464624 0.044851273 -0.3941921 -0.91793293 0.0025694391
0.01629491 -0.0093588382 -0.0032473393 0.25290915 -0.39109337 -0.88491982 0.0022299399
0.019240744 -0.0091961157 -0.0020487406 0.43276557 -0.34430665 -0.83316672 0.0010842733
0.021325508 -0.0084180105 -0.0010599894 0.59453505 -0.32730654 -0.73443747 0.0013911308
0.0026794209 -0.005321736 -0.0011000333 -0.64618355 -0.241644 -0.72391641 0.0010168389
0.0044461293 -0.0061235973 -0.0021579843 -0.55178982 -0.25533852 -0.79393345 0.0026027069
0.0067965449 -0.006571312 -0.0034020857 -0.396869 -0.3245675 -0.85857499 0.0022208074
0.017087411 -0.0075446316 -0.0037399856 0.26191023 -0.37827066 -0.88787067 0.0033024231
0.019570908 -0.0064066728 -0.003062126 0.46077326 -0.34459001 -0.817891 0.002159476
0.021885585 -0.0059103002 -0.0016961538 0.59618187 -0.30977204 -0.74068117 0.0019494832
0.0022990357 -0.0029169396 -0.0015632056 -0.66022921 -0.25993893 -0.70464826 0.0012761862
0.0041053831 -0.003253228 -0.0029639702 -0.56277698 -0.30224332 -0.76937056 0.0017537344
0.020499367 -0.0039052949 -0.0036044149 0.53827077 -0.31741878 -0.78071117 0.00056620507
0.022389676 -0.0031468486 -0.0024512 0.63081723 -0.28381237 -0.7221635 0.0020005158
0.02403529 -0.0023910655 -0.0012063163 0.69193703 -0.26732725 -0.67064101 0.00088711688
0.0017686989 6.8234745e-05 -0.0021987525 -0.68900269 -0.30452842 -0.65767604 0.0017592486
0.0034920129 -0.00075980974 -0.0035145294 -0.57288611 -0.33421943 -0.74839753 0.0017596484
0.022846771 -0.00031514606 -0.0031565267 0.63332349 -0.26062572 -0.72868073 0.001678198
0.024457753 0.0001946995 -0.001671335 0.72205651 -0.23496079 -0.65071338 0.0013290604
-0.00053411693 0.0039880998 -0.0011460958 -0.78558713 -0.26961792 -0.55691916 0.0018292614
0.00086359994 0.0029545086 -0.0025426634 -0.75825363 -0.30756301 -0.57485336 0.00085688941
0.023437204 0.0023209851 -0.0035862701 0.67778111 -0.22272617 -0.7007181 0.0014618449
0.024774253 0.0031071019 -0.0023136223 0.76688951 -0.21157673 -0.60590088 0.0016996008
-0.00085975981 0.0061053596 -0.0017824671 -0.80725479 -0.30785239 -0.50355399 0.0026281024
0.00025401008 0.0055372529 -0.0031654416 -0.77604264 -0.34274644 -0.52941728 0.0017102032
0.025350943 0.0058717811 -0.0023490761 0.81758416 -0.14038557 -0.55843353 0.0016553124
-0.0016515712 0.0089444369 -0.0023766523 -0.81400537 -0.34723943 -0.46563941 0.0011298611
0.025703536 0.0088103078 -0.0024413655 0.85057145 -0.082420669 -0.51936013 0.0012409318
-0.003480921 0.012825808 -0.0019153459 -0.85990566 -0.36870575 -0.35301319 0.0013932728
-0.0025708776 0.011661806 -0.002794758 -0.84133428 -0.37877262 -0.38560069 0.001394993
0.025836973 0.011977736 -0.0027356027 0.86781204 -0.038199022 -0.49542207 0.0019042769
-0.0040828004 0.014755517 -0.002527853 -0.87164414 -0.37463906 -0.31604111 0.0010589599
0.025835985 0.014802404 -0.0027533467 0.89500982 0.01696212 -0.4457238 0.0023604587
-0.0054827309 0.017886944 -0.0021570576 -0.88009906 -0.38798499 -0.27366635 0.00031175948
0.025763839 0.017709799 -0.0026453366 0.90983284 0.04547989 -0.41247523 0.00097122911
-0.006769842 0.021395745 -0.0027062697 -0.87957054 -0.40149322 -0.25526226 0.00019972444
-0.0061808829 0.019982314 -0.002727556 -0.87708259 -0.4036459 -0.26037687 0.00020943691
0.025506407 0.020869555 -0.0025249356 0.92608583 0.13508685 -0.35230184 0.0020886173
-0.0075833579 0.023484137 -0.0032853363 -0.85503018 -0.4356758 -0.28126499 0.00053041242
0.024944402 0.023818927 -0.0026203678 0.93521154 0.17086351 -0.31013724 0.0012689342
0.024382167 0.02683717 -0.0022744797 0.9353528 0.21731681 -0.2790851 0.00060726452
0.023289012 0.030098837 -0.0028292832 0.9268797 0.26453239 -0.26630166 0.00035567567
0.024017261 0.028771153 -0.0015410958 0.93436128 0.24376814 -0.25989634 0.00045411167
0.022359172 0.032737542 -0.0032176056 0.91071963 0.26551837 -0.31636953 0.00077746448
0.021553168 0.034738638 -0.0036759255 0.90308964 0.30589727 -0.30142328 0.0004324262
0.0082661798 -0.025736483 0.0021247687 -0.080957644 -0.32139722 -0.94347745 0.0040337848
0.0092185503 -0.025737027 0.002134067 -0.020105748 -0.25535175 -0.9666391 0.0035469534
0.0054876148 -0.023428783 0.0019969069 -0.27070469 -0.24328142 -0.93141454 0.0017859548
0.007411534 -0.023914458 0.0017138636 -0.18193513 -0.26079637 -0.94809538 0.0028061857
0.010124391 -0.02400667 0.0015705801 0.067206316 -0.35186887 -0.93363351 0.0048445947
0.012822648 -0.023532592 0.0017774389 0.2404961 -0.38638124 -0.89043313 0.0030401184
0.0048436485 -0.021032942 0.0017215898 -0.39729774 -0.21584226 -0.89194542 0.0027061
0.0072949557 -0.021156594 0.00092227897 -0.22263835 -0.2687341 -0.93713081 0.0034644748
0.010179925 -0.02110547 0.00052213995 -0.014443753 -0.33892253 -0.94070345 0.0029261548
0.013264915 -0.02118526 0.00091276132 0.2158026 -0.36702231 -0.90483361 0.0032558287
0.015946371 -0.02079515 0.0016527935 0.39439088 -0.39994654 -0.8273443 0.001956929
0.0043378868 -0.018020635 0.0012534056 -0.44596514 -0.20167248 -0.87203401 0.0023709342
0.0072498783 -0.018228713 9.3819574e-05 -0.2398362 -0.29508725 -0.92487949 0.0020854096
0.010261886 -0.01840033 -0.00039638137 -0.037542198 -0.35966203 -0.93232709 0.0027443906
0.013488602 -0.018329129 -0.0002484594 0.17655058 -0.3924455 -0.90267181 0.0026604983
0.016354868 -0.018207425 0.00059807347 0.39042899 -0.39291239 -0.83257741 0.0014239218
0.018681228 -0.017597107 0.0015242109 0.5043171 -0.39449772 -0.76813787 0.00098124985
0.0023502598 -0.014702711 0.0017920029 -0.61374986 -0.16265976 -0.7725625 0.0013634651
0.0043546595 -0.015021592 0.00054293685 -0.49851879 -0.2423493 -0.83231354 0.0026418208
0.0068641575 -0.015602766 -0.00050015887 -0.3415212 -0.25832909 -0.9036755 0.0022732876
0.0089233899 -0.016580412 -0.00081141572 -0.12435307 -0.28612655 -0.95008844 0.0021303743
0.014598958 -0.016581142 -0.0007918654 0.14188591 -0.36953551 -0.91832012 0.0037012985
0.016526749 -0.015741998 -0.00045760395 0.31537938 -0.39833829 -0.86131442 0.0026490078
0.019149939 -0.014972202 0.00055166893 0.47313377 -0.37632129 -0.79657185 0.0011881827
0.021160148 -0.014356792 0.0017056661 0.61554396 -0.37010938 -0.69579071 0.00091663748
0.0021386559 -0.012060899 0.0013496173 -0.61445302 -0.17626593 -0.7690109 0.0011945444
0.0041997544 -0.012246355 -9.7174197e-05 -0.51920146 -0.2289046 -0.82342732 0.0021521947
0.019845665 -0.012293648 -0.00030149519 0.49136823 -0.36619446 -0.79022706 0.002342972
0.021916691 -0.012032792 0.0011715172 0.60746795 -0.36341676 -0.70633626 0.0022418431
0.0017367789 -0.0090231169 0.0010055522 -0.64804387 -0.19064774 -0.73735511 0.0011977302
0.0035785357 -0.0094953347 -0.0004231832 -0.56625628 -0.2186722 -0.79469264 0.0023997903
0.020754054 -0.010436589 -0.00064127427 0.57452923 -0.35119426 -0.73930961 0.0011030971
0.022648174 -0.0092777163 0.00047462294 0.6785 -0.31758115 -0.66240472 0.00061212742
0.024352448 -0.0081940964 0.0017374479 0.70946866 -0.30581215 -0.63492769 0.00095675181
0.0013197248 -0.0060802572 0.00058027217 -0.7409007 -0.1904694 -0.64404005 0.0015070655
0.0032485647 -0.0075953999 -0.00079418998 -0.61800838 -0.23113665 -0.75142628 0.0030505108
0.023169417 -0.0064537642 -0.00033417414 0.64028853 -0.30093491 -0.70673114 0.00165476
0.024708679 -0.005803186 0.0010765647 0.73126507 -0.28214413 -0.62100405 0.0010724578
-0.00054059975 -0.0026456066 0.0018635364 -0.79831964 -0.17662552 -0.57575101 0.0019140441
0.00071357796 -0.003233925 0.00032910984 -0.77015829 -0.20975767 -0.602377 0.0014877277
0.025200102 -0.0031029815 0.00050227484 0.77074879 -0.24916148 -0.58639997 0.0017548474
-0.00081687869 -6.8348367e-05 0.0013135741 -0.83455372 -0.18741861 -0.5180679 0.0025522085
0.00026501052 -0.00050230185 -0.00020440435 -0.79923916 -0.24714464 -0.54784697 0.0017960618
0.025881728 -0.00036746589 0.0003615655 0.81376487 -0.1991491 -0.54600942 0.00070309773
0.027058758 0.00044722855 0.0019199075 0.83966851 -0.17744665 -0.51329279 0.0011887919
-0.0011855976 0.0028394707 0.00062734541 -0.86508262 -0.233338 -0.44405574 0.0020236191
-6.2116582e-05 0.001627279 -0.00063486677 -0.78048742 -0.2684108 -0.56461942 0.0020427415
0.02626753 0.0026159165 -7.4744457e-05 0.83858109 -0.16888544 -0.51793778 0.0014278304
0.02716822 0.0031080565 0.0013676914 0.87554449 -0.12355353 -0.4670721 0.0022726045
-0.0019314827 0.0057814131 0.00046193507 -0.88226992 -0.25756285 -0.39403197 0.0025999283
0.026429988 0.0051751933 -0.00066154986 0.86208719 -0.11011041 -0.49465278 0.0029146979
0.027225176 0.0059034294 0.00073992927 0.89980477 -0.07295502 -0.43014994 0.0012616548
-0.0033929872 0.009481078 0.0015888731 -0.93581694 -0.2346348 -0.26304594 0.0037804216
-0.002671368 0.0084108524 0.00033901073 -0.89736575 -0.29576978 -0.32749793 0.001351778
0.027176622 0.0088686068 0.00024151849 0.91527563 -0.035955269 -0.40122029 0.0023603332
-0.0037716131 0.011785114 0.00045887055 -0.92844284 -0.29328653 -0.22798453 0.0024100423
0.027209701 0.011930229 0.00018375274 0.93465042 0.026047502 -0.35461256 0.0019450968
-0.0047990466 0.014891038 -0.00013535749 -0.89782465 -0.37349075 -0.23327133 0.0016895506
0.027155222 0.014718529 0.00036781747 0.94760549 0.063263476 -0.3131161 0.0017426601
-0.0057411627 0.017481437 -0.0005043922 -0.89347333 -0.38135001 -0.23722896 0.0013061471
0.026432101 0.018896043 -0.00062589627 0.95008057 0.12062701 -0.28774297 0.0016135984
0.02699282 0.017297799 0.00082666893 0.95118237 0.095438294 -0.29350218 0.0010425897
0.026305329 0.021027511 0.0004312098 0.94486338 0.1648376 -0.28295171 0.0011868398
0.025787255 0.023449441 0.00049447734 0.94771481 0.19422561 -0.25320557 0.00057303347
0.025040409 0.026021829 -0.00013234001 0.94048244 0.20939939 -0.26766527 0.00044863569
0.0023278983 -0.03189721 0.0050538303 -0.36336291 -0.1875477 -0.91257507 0.0032346349
0.0043816417 -0.032644637 0.0048083086 -0.13647327 -0.28403947 -0.94905037 0.0037790746
0.0072752587 -0.032773655 0.0047499873 0.049756348 -0.35710344 -0.93273872 0.0034991289
0.0097118728 -0.032082282 0.004849866 0.27367127 -0.41722593 -0.86661792 0.0029084568
0.0017945925 -0.029752748 0.0048341379 -0.38595274 -0.19042838 -0.9026503 0.0027771257
0.0042902655 -0.029990649 0.0040713213 -0.21609959 -0.23766822 -0.94700307 0.0045082304
0.0073098429 -0.03009527 0.0037215292 -0.024004275 -0.32230696 -0.94633085 0.0027319228
0.010212268 -0.029910082 0.0040004393 0.21041992 -0.38263792 -0.89961743 0.0032939394
0.012740236 -0.029474726 0.0046521546 0.376544 -0.4281418 -0.82152855 0.0020638781
0.0014361198 -0.027002418 0.0044908663 -0.44513753 -0.16245785 -0.88060212 0.002561918
0.0042292261 -0.027000243 0.0033278 -0.30015233 -0.24011104 -0.92317677 0.0041446593
0.0072666258 -0.027031442 0.002687545 -0.14614812 -0.29408568 -0.94453925 0.0040393365
0.010241081 -0.027036944 0.0027757417 0.16222316 -0.40002581 -0.90203273 0.0024727201
0.0132741 -0.026988855 0.003613234 0.33144486 -0.42316768 -0.84325171 0.00087507151
0.015665453 -0.026707027 0.0046908101 0.47958153 -0.45862931 -0.74810481 0.0015282263
0.0011617269 -0.024150949 0.0042342814 -0.51458883 -0.12850691 -0.84775251 0.0028126908
0.0040126294 -0.024211435 0.0027695261 -0.33305749 -0.2359578 -0.91290557 0.0024178762
0.0064823339 -0.025147354 0.0022293078 -0.14036018 -0.30337909 -0.94247556 0.0045931358
0.01136244 -0.025264451 0.0021957876 0.11703622 -0.37790895 -0.91841567 0.0047684624
0.013756471 -0.024669606 0.0026257471 0.30715492 -0.41492203 -0.85644352 0.002153239
0.016379813 -0.024117695 0.0036100992 0.43411651 -0.43392861 -0.78946108 0.0012628038
0.018425845 -0.023549626 0.0046533542 0.58367974 -0.43969208 -0.6826337 0.0015195583
-0.00054753962 -0.020636858 0.0050853314 -0.65703714 -0.073371328 -0.75027919 0.0011015771
0.0010717668 -0.02116891 0.0038712476 -0.56678659 -0.13835342 -0.81216455 0.0027098702
0.0032977788 -0.021470694 0.0025124652 -0.44137096 -0.16881855 -0.88130128 0.0023403598
0.016936053 -0.021796901 0.0026840013 0.43100137 -0.41564426 -0.80092305 0.001395583
0.019196628 -0.02107319 0.0038638907 0.56669974 -0.42014366 -0.70875299 0.002341761
0.021166995 -0.019826485 0.0048260614 0.67131764 -0.40721038 -0.6192838 0.0010361528
-0.00054706563 -0.017992131 0.0048653008 -0.67478138 -0.074735634 -0.73422384 0.0022521766
0.0011809706 -0.018059077 0.0033408068 -0.59976864 -0.12597203 -0.79019529 0.0014744551
0.0027924124 -0.018841909 0.0023214119 -0.56676948 -0.16082133 -0.8080278 0.0016476627
0.019707244 -0.018546853 0.0027552308 0.53581864 -0.39964336 -0.74376309 0.0012091151
0.021687813 -0.017719293 0.0040221373 0.65906984 -0.39148995 -0.64215463 0.0016980489
-0.00078631623 -0.015113028 0.0047188867 -0.72578293 -0.080309629 -0.68321997 0.001935981
0.00078136392 -0.015141137 0.0032074098 -0.63965136 -0.13303834 -0.7570647 0.0015218653
0.022388432 -0.015253799 0.0033350643 0.6653685 -0.37208408 -0.64717704 0.0021870376
0.024037831 -0.014476178 0.0047684582 0.72863072 -0.35076606 -0.58826905 0.0011071609
-0.00078540196 -0.012230059 0.0043616835 -0.76665258 -0.085073523 -0.636401 0.0021346335
0.00050592667 -0.012287108 0.0029684589 -0.73633093 -0.12937823 -0.66413701 0.0019480059
0.023244468 -0.012470128 0.0026945295 0.72007746 -0.33827588 -0.60585302 0.0011310551
0.024497215 -0.012161383 0.0040356079 0.76580197 -0.317332 -0.55932784 0.002437178
-0.0010244919 -0.0091170296 0.0042156503 -0.80761558 -0.09389919 -0.58218557 0.0025640815
0.00019084242 -0.0093781874 0.0026540351 -0.71822107 -0.14728092 -0.68004918 0.0019509019
0.025421189 -0.0091040283 0.0036004507 0.77840388 -0.29879463 -0.55209529 0.001387585
-0.0011973071 -0.0059152558 0.0038025919 -0.84144926 -0.11493289 -0.52797127 0.0023678683
-6.5331595e-05 -0.0069351369 0.0023502233 -0.74949026 -0.16925244 -0.64001411 0.0019763643
0.026188757 -0.0061782445 0.003314672 0.8283757 -0.24591899 -0.50330657 0.00089348119
0.027229581 -0.0052966424 0.0047522308 0.86761266 -0.23468813 -0.43837169 0.0022746189
-0.001404311 -0.0032278746 0.0034478903 -0.86989665 -0.13574062 -0.47418797 0.0017485593
0.026545698 -0.0035240599 0.0026320042 0.85011858 -0.22055878 -0.47817597 0.0016462366
0.027370544 -0.0029447251 0.0039150715 0.88566357 -0.18358736 -0.42649245 0.002177797
-0.0019216435 -0.00033740886 0.0035328777 -0.8869549 -0.16214827 -0.43245679 0.0013227757
0.027735202 -0.00041076308 0.0036206027 0.90768093 -0.14489564 -0.39385363 0.0013903761
-0.0024857726 0.0028079541 0.0036462946 -0.92778337 -0.1575847 -0.33820859 0.0024821355
0.027977739 0.0027167005 0.0032991986 0.90926063 -0.12824324 -0.39597821 0.0015061776
-0.00341768 0.0069107837 0.004454744 -0.95613903 -0.19531165 -0.21829227 0.001678595
-0.0028597726 0.005762714 0.0029593231 -0.94415545 -0.2171234 -0.24784663 0.0027165455
0.02836068 0.0059431698 0.0036933394 0.93676442 -0.054723959 -0.34565553 0.0025742946
-0.0035262641 0.0085617807 0.0031974586 -0.94780105 -0.23459916 -0.21595474 0.0018731216
0.028203305 0.0085588098 0.0030908333 0.94688946 -0.028890332 -0.3202588 0.0014472642
-0.0042055664 0.011592591 0.0034755985 -0.94571584 -0.26586834 -0.18691061 0.001743222
0.028105035 0.011910204 0.0034338911 0.95218766 0.036949433 -0.30327111 0.0010274318
-0.0048308526 0.01426742 0.0025490941 -0.93299538 -0.30829018 -0.18567915 0.0017344848
0.02759189 0.015946439 0.0028530033 0.95307976 0.091569953 -0.28853774 0.0010200706
0.027089737 0.01855134 0.0024336101 0.95007944 0.12064216 -0.28774026 0.001611497
0.0013273846 -0.041222472 0.0079657976 -0.10231154 -0.32995901 -0.93843454 0.0050684167
0.0037879655 -0.041154683 0.0080155628 0.14014706 -0.43822804 -0.88787103 0.0036967183
-0.0012568926 -0.038908668 0.0078426711 -0.29744023 -0.24894136 -0.92171443 0.002748704
0.0011332814 -0.039288107 0.0073552914 -0.15542625 -0.26169273 -0.95255423 0.003881745
0.00426368 -0.039276388 0.007219444 0.059527319 -0.37024143 -0.92702627 0.0047914172
0.0071581709 -0.038823579 0.0075553153 0.24801436 -0.45276421 -0.85644233 0.0035219712
0.0094776126 -0.037837956 0.0078714136 0.41291517 -0.48938793 -0.76811486 0.0024641901
-0.0016910589 -0.035939671 0.0074853636 -0.40401709 -0.14586194 -0.90304732 0.0032330516
0.0010763302 -0.036198419 0.0064951759 -0.24822387 -0.24319525 -0.93767846 0.0048185261
0.0042531486 -0.036290243 0.0060306797 -0.033041216 -0.33891642 -0.94023609 0.0048476406
0.0073800054 -0.036314528 0.006326708 0.15000242 -0.42446002 -0.89293504 0.0031259314
0.010219309 -0.035830956 0.0070411079 0.37644169 -0.46857414 -0.7992059 0.0026763103
0.01230343 -0.035062782 0.0077402666 0.49223667 -0.48768115 -0.72102028 0.0019028962
-0.0034491937 -0.032116242 0.0081122937 -0.61285686 -0.038217958 -0.78926921 0.0027655654
-0.0017564516 -0.033007905 0.007115378 -0.48003596 -0.11055764 -0.87025428 0.0026184411
0.0011240286 -0.033097465 0.0057788137 -0.35521111 -0.1767768 -0.91791886 0.0031787427
0.0038276394 -0.034136318 0.0053491546 -0.081163257 -0.32785287 -0.9412359 0.003505897
0.007604938 -0.034227189 0.0053914031 0.11495142 -0.40831095 -0.90557623 0.0037985088
0.010452919 -0.033341095 0.0057732575 0.31873783 -0.44392708 -0.83745742 0.0015743915
0.01306786 -0.032894246 0.0068510352 0.46802923 -0.47033155 -0.74815559 0.0030960904
0.01499425 -0.032208264 0.0077117058 0.57997364 -0.4830898 -0.65593815 0.0014845984
-0.003448558 -0.030181179 0.0080385134 -0.64753163 -0.014893333 -0.76189303 0.0016032031
-0.0017551885 -0.030100511 0.0068381233 -0.56119311 -0.058799479 -0.82559377 0.0021605205
0.0004641065 -0.030224411 0.0055120047 -0.43487993 -0.13347647 -0.89054108 0.0025689804
0.013580238 -0.030626083 0.005732025 0.41527951 -0.46373701 -0.78261799 0.0014023815
0.015890768 -0.029896026 0.0068922304 0.55786377 -0.47149125 -0.68299633 0.0022220996
-0.0034488467 -0.027288588 0.0080720056 -0.66174811 0.0017354131 -0.74972421 0.0019606987
-0.0017542517 -0.02719946 0.0066058626 -0.59136283 -0.048683833 -0.80493474 0.0014835872
5.1281924e-05 -0.0273629 0.0053523267 -0.56620455 -0.10141003 -0.81800264 0.0016953399
0.016908795 -0.027447993 0.0060495958 0.55117875 -0.4655028 -0.69246596 0.003352463
0.018681807 -0.026937416 0.0073033078 0.63660222 -0.47437879 -0.60803151 0.0017386237
-0.0034484861 -0.024150189 0.0080301715 -0.74842453 0.01339977 -0.66308445 0.0017949028
-0.0018093454 -0.024178149 0.0064907987 -0.64573765 -0.049342848 -0.76196337 0.0012549314
-6.8409325e-05 -0.025436396 0.0052078785 -0.59733927 -0.11244777 -0.79406631 0.0017805451
0.017670551 -0.025438407 0.0052433135 0.51833272 -0.44184732 -0.73218995 0.0023723517
0.019621912 -0.024455557 0.0064172214 0.66313779 -0.4480623 -0.59957361 0.0011033792
0.021435224 -0.023221439 0.007558641 0.69791305 -0.44415376 -0.56182283 0.00078913837
-0.0034493946 -0.022225672 0.0081355991 -0.77535081 0.049876563 -0.62955809 0.0017800652
-0.0018663723 -0.021121377 0.0063970368 -0.6923244 -0.058604814 -0.71920252 0.0029343639
0.020370807 -0.022195475 0.0055860225 0.61976218 -0.40683448 -0.67110401 0.0014523137
0.022075843 -0.020891003 0.0066757649 0.7173155 -0.42124754 -0.55498552 0.0022290184
-0.0019937877 -0.018054904 0.0064230002 -0.76887935 -0.0027891661 -0.63938785 0.0032765088
0.023019684 -0.018417552 0.0060475376 0.75129348 -0.39027277 -0.53220797 0.0009791078
0.024275575 -0.01757942 0.0072258469 0.77930063 -0.38219959 -0.49660248 0.0010582126
-0.0022347996 -0.015176512 0.0065931128 -0.8108477 -0.01966626 -0.58492666 0.0029485438
0.024963215 -0.015214909 0.006609926 0.79326946 -0.35018492 -0.49809048 0.0013435673
-0.0022630889 -0.012220673 0.0064825406 -0.84601682 -0.027101561 -0.53246701 0.0027531777
0.025852194 -0.012403756 0.0063078804 0.83694392 -0.3061077 -0.45367721 0.00086694816
0.026919868 -0.011114363 0.0076084659 0.87782717 -0.28843281 -0.38239512 0.0031579193
-0.0024503078 -0.0090911295 0.0064905258 -0.8763088 -0.045622982 -0.47958463 0.0025491524
0.026319478 -0.010104278 0.0055724801 0.86755794 -0.26532954 -0.42064655 0.0018923648
0.027275175 -0.008929966 0.0068310918 0.88908345 -0.24576586 -0.38617322 0.0011188405
-0.002612178 -0.0061765132 0.0065747406 -0.90262467 -0.05846883 -0.42643878 0.0029982086
0.027819838 -0.0060387379 0.0065562967 0.923002 -0.1870769 -0.33625814 0.0019535997
-0.0027128693 -0.0031523309 0.0062749982 -0.93917239 -0.083814278 -0.33306211 0.0034269837
0.02829076 -0.0031524603 0.006397984 0.92308015 -0.17815377 -0.34085834 0.0020471106
-0.0028821775 -0.00044034095 0.0059903637 -0.96052587 -0.082608499 -0.26564237 0.0030666071
0.028786974 -0.00026986469 0.0066514285 0.933411 -0.15262955 -0.32472786 0.0012107043
-0.0034477462 0.0038300755 0.0079443175 -0.96976429 -0.12627329 -0.20883544 0.0016831267
-0.0029461957 0.001650048 0.0053963484 -0.97353756 -0.094456643 -0.20809247 0.0017594509
0.028720878 0.0026101447 0.0056112381 0.92932755 -0.11042769 -0.3523578 0.00023797274
-0.0034329607 0.0054963692 0.0062282654 -0.96165621 -0.15811607 -0.22409068 0.0019717333
-0.0039039867 0.0095603224 0.0052515687 -0.95386362 -0.22808175 -0.19525065 0.0011588925
0.028729403 0.0088511314 0.005745423 0.95343161 -0.021570515 -0.30083695 0.00084880047
-0.0042423513 -0.047168218 0.010931362 -0.25795957 -0.28917894 -0.92186356 0.0040493542
-0.0017732265 -0.04759635 0.010769707 -0.045185853 -0.40963539 -0.91112959 0.004974308
0.00093382713 -0.047380861 0.010851453 0.15898544 -0.50002706 -0.85129112 0.0041484665
0.003081731 -0.046644308 0.010952425 0.31492507 -0.55747205 -0.76814514 0.002760561
-0.0065096817 -0.044102062 0.011024547 -0.43128842 -0.18467487 -0.8831113 0.002258051
-0.0046822568 -0.044974376 0.010434966 -0.3109023 -0.24458569 -0.91843212 0.0031259379
-0.0017689255 -0.045317668 0.0098277498 -0.14053486 -0.33032134 -0.93334758 0.0048277169
0.0011028941 -0.045275178 0.0097475732 0.057395536 -0.42189884 -0.9048245 0.0034910853
0.004231289 -0.044927217 0.01025445 0.27831993 -0.49778518 -0.82143044 0.0048186611
0.0067808721 -0.044009581 0.010698074 0.40051621 -0.5572654 -0.72735274 0.0025547475
-0.0066277864 -0.042018048 0.010809158 -0.52117771 -0.090836123 -0.84860033 0.002005758
-0.0046425732 -0.041970108 0.0098014325 -0.40014815 -0.17446664 -0.89969039 0.0042039892
-0.0017969067 -0.042272769 0.008842811 -0.23282766 -0.26615912 -0.93538797 0.0050846781
0.0010612702 -0.04268273 0.0085693039 -0.0078663044 -0.37443355 -0.92722028 0.0064543947
0.0043227146 -0.042512175 0.0088140965 0.19637515 -0.47242469 -0.8592158 0.0021648421
0.007461587 -0.041981667 0.0095993867 0.3658438 -0.52879471 -0.76585543 0.0039500576
0.0097920084 -0.041433491 0.010608319 0.49892122 -0.54256082 -0.67579985 0.0014844576
-0.0068092044 -0.038979933 0.010762363 -0.58569711 -0.030081715 -0.80997151 0.0019241709
-0.0046709641 -0.038983386 0.0094004003 -0.50087976 -0.072031967 -0.86251426 0.0018742628
-0.0025164008 -0.039411381 0.0084200157 -0.32990745 -0.17553772 -0.92754918 0.0044672047
0.0076983599 -0.040020235 0.0084495181 0.30694062 -0.49763662 -0.81126148 0.0024407636
0.010464154 -0.039146245 0.0093807457 0.43947563 -0.50444472 -0.74323398 0.00096361979
0.012532631 -0.038332243 0.010277755 0.53800958 -0.51821965 -0.66482645 0.0008982821
-0.0066246944 -0.036176674 0.010609105 -0.64579386 0.024721069 -0.76311153 0.0019123015
-0.0046687005 -0.036062997 0.0091903536 -0.54460543 -0.050281148 -0.83718383 0.0021131765
-0.0029674696 -0.037191503 0.0082181813 -0.47459844 -0.089957222 -0.87559348 0.003046548
0.011355752 -0.037047498 0.0084218308 0.45288816 -0.50138021 -0.73723137 0.0047826446
0.013376015 -0.036218785 0.0093575362 0.53562957 -0.49213803 -0.68622231 0.0012022207
0.015241634 -0.035441898 0.010515924 0.62014616 -0.50626743 -0.59925956 0.0016003323
-0.0066276118 -0.03327914 0.010795494 -0.70186979 0.056270756 -0.71007913 0.0020461057
-0.0047397893 -0.033216536 0.0091761276 -0.59756756 -0.018219016 -0.80161154 0.0030045065
0.014255961 -0.034157865 0.0085205156 0.58778149 -0.50583738 -0.63138062 0.0014925874
0.016118603 -0.033163998 0.0095903771 0.63657469 -0.49043837 -0.59518307 0.0028740363
0.017881839 -0.03205841 0.010692698 0.68748069 -0.4935284 -0.53272879 0.0012010245
-0.0064470069 -0.030312603 0.010894638 -0.74517781 0.089119494 -0.66088414 0.0024503004
-0.0049443147 -0.030218342 0.0094047561 -0.68859214 0.030788414 -0.72449499 0.0019677861
0.017045414 -0.03095066 0.0086993482 0.63675058 -0.48481095 -0.59958911 0.00034254498
0.018737433 -0.029981757 0.0099211251 0.69840169 -0.47989869 -0.53097308 0.001711206
-0.0048863851 -0.027092976 0.0095419111 -0.73620582 0.054088924 -0.67459273 0.0019324808
0.019983776 -0.027253991 0.0091338595 0.70483631 -0.4784607 -0.52371854 0.0019560838
0.021342011 -0.0263745 0.010308233 0.74271584 -0.46354353 -0.48321897 0.0011042233
-0.0048094322 -0.024080135 0.009724699 -0.78920317 0.054039598 -0.61175001 0.0022408247
0.022359785 -0.023993593 0.0096197464 0.76948929 -0.44060057 -0.46233901 0.0016808739
-0.0043944498 -0.02110965 0.0094850231 -0.82196552 0.086167499 -0.56298119 0.0021551284
0.023355864 -0.021576492 0.0091224303 0.80067915 -0.40871227 -0.43802646 0.00084124517
0.024295276 -0.0206597 0.010048095 0.81879926 -0.40378702 -0.40807319 0.0014694646
-0.0041875993 -0.018176368 0.0094356611 -0.84579337 0.054421715 -0.53072762 0.0027311426
0.025135074 -0.018285822 0.0095726624 0.84786642 -0.36637619 -0.38326368 0.0015049566
-0.0040189419 -0.015251642 0.0095285494 -0.90188527 0.064446531 -0.42714125 0.005033189
0.0262486 -0.015463484 0.0093397172 0.88488513 -0.32267246 -0.33594751 0.0018132479
0.027102152 -0.01434488 0.010685709 0.90978533 -0.30741131 -0.27890673 0.0010938903
-0.0038654981 -0.012183564 0.0095329192 -0.93345702 0.048813228 -0.35535225 0.0043777567
0.026482889 -0.013547281 0.0083821835 0.89500409 -0.28460449 -0.34346464 0.0015692279
0.027261402 -0.012123739 0.0092891539 0.91188234 -0.26321647 -0.31494081 0.00089411449
-0.0037028177 -0.0089809988 0.0094196247 -0.94646066 0.0080302218 -0.3227194 0.0022653642
0.028102215 -0.0091302879 0.0095873717 0.91021764 -0.25282568 -0.32799861 0.00072869816
-0.0035803511 -0.0063179466 0.0092458921 -0.94622207 0.010338605 -0.32335269 0.0031266543
0.028444465 -0.0067954664 0.0088676736 0.93224269 -0.194993 -0.30479717 0.0012258377
-0.0034573495 -0.0031713368 0.0090588406 -0.95351034 -0.016352937 -0.30091622 0.0020542627
0.028964339 -0.003174732 0.0094426395 0.94158179 -0.16075431 -0.29594225 0.00050745357
-0.0034588699 -0.00027057715 0.0092353495 -0.9683848 -0.031628471 -0.24744792 0.0011663222
-0.0034530275 0.002144774 0.0085572423 -0.96935636 -0.070500486 -0.23532505 0.0016791093
-0.0072053093 -0.053219683 0.013884029 -0.21610478 -0.39715329 -0.8919462 0.0044175568
-0.004719127 -0.053284183 0.013738896 0.003844833 -0.50780809 -0.86146164 0.0048014824
-0.0022155987 -0.052991029 0.013844715 0.20189564 -0.56639129 -0.79902387 0.0035019272
-0.0097302524 -0.050734311 0.013875333 -0.40059346 -0.2574276 -0.87934965 0.0030672238
-0.0076410039 -0.051021941 0.013170619 -0.28566208 -0.31718016 -0.90431964 0.003786786
-0.0047056042 -0.050950084 0.012530151 -0.10505544 -0.4063462 -0.90765965 0.0049574496
-0.0017817935 -0.050955802 0.012578708 0.12068131 -0.51187724 -0.85053968 0.0070820758
0.00095145963 -0.050759368 0.013158214 0.29552945 -0.57998246 -0.75913274 0.0030300615
0.0032446987 -0.050055888 0.013706935 0.42739025 -0.60072148 -0.67562652 0.0021485141
-0.010057542 -0.048080333 0.013544627 -0.50114888 -0.13466996 -0.85481799 0.0023481695
-0.0076260953 -0.048003562 0.012318865 -0.36742815 -0.21800902 -0.90413976 0.0040193321
-0.0049795015 -0.048330277 0.011514142 -0.20071977 -0.32463962 -0.92429465 0.0070993355
-0.0017762129 -0.048877552 0.011396453 0.033375051 -0.46813896 -0.88302433 0.0042589125
0.0013571235 -0.048620585 0.011766972 0.21899882 -0.54005593 -0.81263715 0.0026891816
0.0042705378 -0.048007578 0.012536961 0.38744298 -0.59198999 -0.70670778 0.0034593248
0.0068204748 -0.047211945 0.013489914 0.51339316 -0.60137093 -0.61219329 0.0016878204
-0.010133795 -0.045153972 0.013346213 -0.57430136 -0.046062317 -0.81734705 0.0024455644
-0.0077545764 -0.04514065 0.011849661 -0.46088079 -0.1247575 -0.87864923 0.0040721348
0.0053950758 -0.046099573 0.011562211 0.42701411 -0.5886054 -0.68644208 0.0017610254
0.0076280497 -0.045312759 0.012374786 0.47629124 -0.59904993 -0.64365035 0.0033638736
0.0096835187 -0.044438224 0.013212162 0.52909118 -0.59035361 -0.60954517 0.00090571918
-0.010113355 -0.042181876 0.013304533 -0.64020759 0.023183791 -0.76785201 0.0023458221
-0.0081029218 -0.042109355 0.011789693 -0.56106442 -0.029317113 -0.82725286 0.0017127565
0.0086716488 -0.043275528 0.01126824 0.49371344 -0.54974705 -0.67381388 0.0017330626
0.010762 -0.042526785 0.012345259 0.58557492 -0.57487869 -0.57150376 0.0013784411
0.012504313 -0.041568305 0.013255139 0.64177096 -0.55322206 -0.53110766 0.0023640695
-0.0099107679 -0.039198343 0.013358285 -0.68344051 0.084770963 -0.7250675 0.0019449139
-0.0082502561 -0.039293922 0.011864171 -0.6202749 0.026507879 -0.78393644 0.0016904178
0.013497027 -0.039412014 0.0122651 0.61461174 -0.5461604 -0.56917578 0.0016457192
0.015387954 -0.038366195 0.013546831 0.70033747 -0.53667629 -0.47064433 0.00061213656
-0.0096353944 -0.036131527 0.013527838 -0.72825027 0.12488689 -0.67383593 0.0015302942
-0.0081360461 -0.036218978 0.011987778 -0.67455834 0.078174926 -0.7340706 0.0016292082
0.014506496 -0.037454508 0.011389625 0.61895919 -0.52561074 -0.58362901 0.0017273204
0.016283307 -0.036180295 0.012532837 0.72684383 -0.49749994 -0.47348896 0.0010643373
0.017998178 -0.034714364 0.013693255 0.78283519 -0.48496684 -0.38984126 0.0012599407
-0.0093639381 -0.033263002 0.013891102 -0.77143395 0.16058896 -0.61571163 0.0013990977
-0.0080867605 -0.033095863 0.012351207 -0.75876474 0.11720942 -0.64073241 0.0017160226
0.017192261 -0.034077439 0.011723918 0.68472493 -0.49312013 -0.53664166 0.0009971367
0.018660335 -0.032809742 0.012684955 0.74713141 -0.48985362 -0.44926393 0.0014720289
-0.0077668489 -0.0300819 0.012598271 -0.78385317 0.15156385 -0.60216498 0.0018727246
0.020003017 -0.030444806 0.012351419 0.77766347 -0.47590539 -0.41079625 0.00094735995
0.021012479 -0.029163307 0.012833637 0.79680669 -0.45956957 -0.39229438 0.0013057505
-0.0072370544 -0.027148394 0.012546473 -0.83274794 0.14540517 -0.53421748 0.0021055799
0.021955542 -0.027176088 0.01251308 0.8045522 -0.46117187 -0.3741875 0.00095271989
-0.0068420162 -0.024284359 0.012789759 -0.85232103 0.14744125 -0.50180668 0.0037585169
-0.0059066392 -0.02335502 0.011314394 -0.8197903 0.10361875 -0.56321132 0.0012693516
0.023212381 -0.024696685 0.012139675 0.84117782 -0.43272531 -0.32429725 0.0011157993
0.024072299 -0.023690159 0.013070715 0.86249453 -0.40887704 -0.29819906 0.0013108866
-0.0066175042 -0.021454904 0.013267088 -0.89175057 0.17007428 -0.41935155 0.0026290657
-0.005791727 -0.020946987 0.011783269 -0.88417995 0.11176311 -0.45357993 0.00215175
0.024889641 -0.021341287 0.012395647 0.87328768 -0.38264325 -0.30158374 0.0016190073
-0.0064278836 -0.019079385 0.013653788 -0.92305773 0.18883225 -0.33512202 0.0030913136
-0.0056963367 -0.018161288 0.012326422 -0.91080147 0.14150007 -0.38783816 0.0033502821
0.025976356 -0.018533727 0.012234089 0.90006769 -0.35294703 -0.25555131 0.00047886503
0.026802262 -0.017133975 0.013873619 0.90487659 -0.34835178 -0.24464111 0.00037601878
-0.0051903524 -0.015126219 0.012308455 -0.93149275 0.14456956 -0.33379772 0.0023611824
0.026711989 -0.016588399 0.012321454 0.91120052 -0.32241035 -0.25644723 0.00099442946
0.027440922 -0.014395097 0.012290624 0.92080963 -0.30602905 -0.2417766 0.00079754292
-0.0048128567 -0.011868769 0.012756883 -0.95494789 0.12012444 -0.27137539 0.001325009
0.027796539 -0.01218229 0.011466754 0.91139132 -0.27152175 -0.30926004 0.0011289628
-0.0044651423 -0.0090484116 0.012838635 -0.95341891 0.082520932 -0.29014251 0.0014651194
-0.003965233 -0.0056200535 0.011570101 -0.95587212 0.006329922 -0.2937147 0.0011978869
-0.012934823 -0.056240402 0.016919371 -0.42533717 -0.29210123 -0.85660088 0.0027575551
-0.010537829 -0.057026062 0.01644754 -0.20418766 -0.46913302 -0.85919815 0.0086949263
-0.0077608456 -0.057141814 0.01616301 -0.030381199 -0.55189687 -0.83335871 0.0045554852
-0.004874568 -0.056834836 0.016195554 0.13686153 -0.62174696 -0.77116776 0.0046830908
-0.0023197732 -0.056342438 0.016527031 0.31270471 -0.66120243 -0.68192899 0.0029646999
-8.1144666e-05 -0.05563917 0.017032545 0.37650132 -0.64610815 -0.66392082 0.0020575074
-0.0133348 -0.053991362 0.016474608 -0.43575805 -0.25700167 -0.86259204 0.0029067555
-0.010620045 -0.05420085 0.015280216 -0.32979238 -0.3195048 -0.88834333 0.0061519449
-0.0078920219 -0.054539241 0.0146965 -0.12800089 -0.43573278 -0.89092797 0.0058268053
-0.0047299969 -0.054867867 0.014716196 0.080366924 -0.57733756 -0.81254077 0.0029994289
-0.0016717865 -0.054488 0.015189926 0.25479734 -0.61682355 -0.74471939 0.0018708623
0.00092362578 -0.053806372 0.015819538 0.37335879 -0.64718682 -0.6646446 0.00175953
0.0032395278 -0.053155221 0.016831782 0.51370072 -0.66572368 -0.54122406 0.0012153953
-0.013588787 -0.051111456 0.016153846 -0.54971826 -0.088547356 -0.83064389 0.0033306079
-0.011033797 -0.051375359 0.014683387 -0.43579966 -0.18276171 -0.8812927 0.004737915
0.0018188753 -0.052112438 0.014706486 0.34401473 -0.6311968 -0.69515789 0.0026864843
0.0040996484 -0.051231042 0.015462996 0.46070173 -0.64789671 -0.60661662 0.0018547978
0.0063709137 -0.050287656 0.016475957 0.5665046 -0.64161849 -0.5171057 0.002810346
-0.013542712 -0.048146088 0.015981901 -0.62473857 -0.027899092 -0.78033537 0.0021096778
-0.011522915 -0.048328303 0.014495962 -0.54412371 -0.066419385 -0.83637184 0.0021836758
0.0053047836 -0.049455874 0.0144795 0.48208994 -0.62519282 -0.61377788 0.00073660753
0.0074095521 -0.048388951 0.015323087 0.56390375 -0.62328702 -0.54178029 0.0033647711
0.009650006 -0.047107734 0.016384222 0.60910112 -0.6305083 -0.48109797 0.0010666128
-0.013290553 -0.045057248 0.015935071 -0.67028403 0.06920971 -0.73887032 0.0022282959
-0.011599666 -0.045357175 0.014422649 -0.6438753 0.015281186 -0.76497781 0.0014800503
0.0087316828 -0.046526529 0.014547211 0.52997261 -0.6264652 -0.57155091 0.0014635699
0.010625884 -0.045353007 0.015320529 0.61611021 -0.62382549 -0.48088461 0.0031417927
0.012529015 -0.044078242 0.016223926 0.66805279 -0.60320342 -0.43571904 0.0013642387
-0.013028488 -0.042108435 0.016095243 -0.72605044 0.13788417 -0.67367548 0.0021688538
-0.01158285 -0.042128671 0.01462745 -0.70409948 0.080600187 -0.70551229 0.0015673472
0.011661665 -0.043563746 0.014275295 0.61208075 -0.57349747 -0.54447943 0.0012501819
0.013651619 -0.042027608 0.015400455 0.71504909 -0.55351824 -0.42699218 0.001003203
0.015156559 -0.040824585 0.016465764 0.76305038 -0.55012041 -0.3392958 0.00076004281
-0.012720397 -0.039246071 0.016484246 -0.76679718 0.18675251 -0.61412174 0.0017086371
-0.011375058 -0.038900707 0.014932861 -0.72169375 0.129471 -0.67999655 0.0012045287
0.014604156 -0.040160917 0.014516455 0.70886725 -0.55479217 -0.43556046 0.0010618304
0.016113786 -0.039039776 0.015707429 0.75905788 -0.53562289 -0.37005308 0.00060532725
-0.012377384 -0.03691788 0.016782593 -0.80357009 0.23411988 -0.54723215 0.0011312064
-0.011146577 -0.036020365 0.015440601 -0.79505688 0.19119139 -0.57561308 0.0021837295
0.017369879 -0.036886979 0.015180827 0.7825979 -0.51527375 -0.3493329 0.0010202514
0.018388255 -0.035676531 0.015836999 0.79019934 -0.49255213 -0.36466068 0.0010941135
-0.010469437 -0.03317963 0.015491237 -0.83096188 0.20931165 -0.51545238 0.0020961552
0.019755805 -0.033104222 0.015443644 0.812204 -0.48384982 -0.325905 0.00031275756
-0.0099253096 -0.030353175 0.015864834 -0.8568716 0.23617528 -0.45824924 0.0025835645
-0.0088864118 -0.02938856 0.014439377 -0.81428975 0.17952278 -0.55199987 0.0010672832
0.020477029 -0.031351112 0.01451273 0.79065448 -0.49043229 -0.36652651 0.0010409
0.021439523 -0.030130973 0.015481406 0.84067023 -0.46099049 -0.28418538 0.0013190501
-0.0095578572 -0.027758127 0.016369894 -0.88045663 0.27433485 -0.38669938 0.0020409629
-0.008703283 -0.027027419 0.015059494 -0.88439184 0.22524053 -0.40880042 0.0035105296
0.022945143 -0.026971715 0.014938596 0.85276842 -0.4435938 -0.27570027 0.0014132025
-0.0081416564 -0.024274344 0.01546191 -0.90514362 0.23752829 -0.35255548 0.0030707479
0.024210885 -0.024564104 0.015721004 0.87266612 -0.43045858 -0.23056282 0.0006169136
-0.0073396931 -0.021071834 0.015540826 -0.92854285 0.22586335 -0.29460812 0.0032872476
0.025633598 -0.020843664 0.014833641 0.89706862 -0.37310234 -0.23677543 0.00057126529
-0.0066683153 -0.017971553 0.01563742 -0.95086247 0.20830081 -0.22906621 0.0012527184
0.026335763 -0.01861606 0.014263016 0.8993324 -0.35502329 -0.25526392 0.00050137064
-0.0064762221 -0.016262645 0.016859632 -0.95329016 0.20536606 -0.2215011 0.0010321026
-0.0058590779 -0.015115418 0.014908976 -0.95076835 0.17008133 -0.25905949 0.0024001582
-0.005218857 -0.012023108 0.014622015 -0.95132059 0.11499554 -0.2859461 0.001325122
-0.013208501 -0.06193449 0.019927774 -0.18282938 -0.56782979 -0.80258507 0.0045546298
-0.01072917 -0.06191865 0.019810237 0.018602096 -0.66988796 -0.74222916 0.0043413634
-0.0087541658 -0.061955471 0.020083766 0.15609235 -0.71614265 -0.68027562 0.005485469
-0.016077591 -0.059671398 0.019660387 -0.37063938 -0.41644704 -0.83017975 0.0037869283
-0.013672709 -0.060068313 0.01890574 -0.2754288 -0.46786633 -0.83978575 0.0058497316
-0.010728855 -0.060029406 0.018337298 -0.086233959 -0.56382471 -0.8213802 0.0060120909
-0.0077041071 -0.060090531 0.018483065 0.15114331 -0.6787861 -0.71861345 0.0021806085
-0.0049407994 -0.059602346 0.018806327 0.3062076 -0.71741045 -0.62574685 0.0020809704
-0.0024748978 -0.059072245 0.019492608 0.42222983 -0.71796817 -0.55339289 0.001395287
-0.016571768 -0.057066232 0.019079633 -0.5017004 -0.22938329 -0.83407438 0.0036523072
-0.013920803 -0.057240624 0.01772834 -0.41630954 -0.28011256 -0.86499912 0.0029595781
-0.011651804 -0.058126699 0.017244216 -0.17641939 -0.44613677 -0.87740427 0.0087892665
-0.0041210367 -0.058060452 0.017497845 0.21371883 -0.6758374 -0.70538509 0.0024261314
-0.0015856897 -0.057572708 0.0182411 0.38297278 -0.71105826 -0.58968461 0.0035363261
0.00084753311 -0.056537181 0.018914044 0.49148509 -0.70037043 -0.51761341 0.0022392583
-0.01841238 -0.054269619 0.020024274 -0.65726936 -0.039562937 -0.75261652 0.0021306498
-0.016627386 -0.054103151 0.018612377 -0.57549524 -0.12534045 -0.80814296 0.0031283277
-0.014715012 -0.054411773 0.017351769 -0.52091199 -0.14385556 -0.84140134 0.0024169297
0.0018902584 -0.054962125 0.017833665 0.51967776 -0.67626137 -0.52211648 0.0017742385
0.0040607844 -0.053891893 0.018679611 0.58225626 -0.67709416 -0.4500235 0.0014193109
0.0058567282 -0.053000756 0.019760471 0.61629438 -0.66923976 -0.41508958 0.00099250977
-0.018414995 -0.052047607 0.02008817 -0.71977991 0.088278733 -0.68856645 0.001830489
-0.016623877 -0.051128786 0.018512089 -0.63102019 0.034441199 -0.77500147 0.0034764288
0.0050923391 -0.052260436 0.01761223 0.53747141 -0.65739864 -0.52815861 0.0014374168
0.0070788553 -0.051147893 0.018678922 0.63825208 -0.66578984 -0.38646892 0.00061299518
0.0088260276 -0.050023757 0.019700032 0.67229259 -0.65883178 -0.33758461 0.0019409878
-0.016517542 -0.048250623 0.018672127 -0.72978419 0.13119613 -0.67097139 0.001465869
-0.014850684 -0.046798147 0.017201882 -0.68402928 0.02427257 -0.72905058 0.0014824773
0.0085402597 -0.049050465 0.017546471 0.63947123 -0.64235634 -0.42243922 0.00089824758
