# .PCD v0.7 - Point Cloud Data file format
VERSION 0.7
FIELDS x y z normal_x normal_y normal_z curvature
SIZE 4 4 4 4 4 4 4
TYPE F F F F F F F
COUNT 1 1 1 1 1 1 1
WIDTH 571
HEIGHT 1
VIEWPOINT 0 0 0 1 0 0 0
POINTS 571
DATA ascii
0.011855406 0.021256553 0.0096113579 0.6658712 -0.18875302 -0.7217949 0.0080106892
0.014125854 0.021982957 0.011243853 0.8578583 -0.17119648 -0.48453164 0.0077283466
0.015024341 0.023677031 0.011985013 0.97683871 -0.01887219 -0.21314313 0.0053186468
0.014433001 0.026050162 0.011389872 0.87030643 0.069740281 -0.4875479 0.0065535046
0.01503637 0.024626596 0.011971704 0.97022504 0.037149228 -0.2393392 0.0071682297
0.011294748 0.02900172 0.0094771795 0.69460303 0.23932572 -0.67841721 0.0059701293
0.014091799 0.028062215 0.011280048 0.87653619 0.20347439 -0.43621382 0.0073689194
0.010980221 0.031585112 0.0098870397 0.59251088 0.29549631 -0.7494083 0.010775936
0.013203168 0.031295191 0.011418698 0.80668944 0.34031481 -0.48315424 0.0068319058
0.007742459 0.035460461 0.0094220955 0.72371775 -0.21720733 -0.65502191 0.039756835
0.010836071 0.034698129 0.011134977 0.76521659 0.32547283 -0.55543768 0.034749828
0.012200519 0.033522807 0.011570126 0.79635274 0.39336964 -0.45943731 0.012734661
0.008625472 0.036556054 0.0091714077 0.53030431 -0.80415589 -0.26853433 0.0173405
0.010496825 0.037973315 0.010700852 0.79841936 -0.59822869 -0.06818334 0.040004138
-0.05038717 0.039261539 0.011722184 -0.74120325 -0.63683069 0.21228385 0.022173142
0.011576079 0.039367504 0.010816506 0.71114159 -0.6791029 0.18192562 0.036534943
0.013506045 0.040671587 0.010631502 0.57501572 -0.74348474 0.34144899 0.0053635533
0.015657937 0.041623563 0.0098114349 0.50791591 -0.75694889 0.41115665 0.0033768413
0.014722201 0.042195797 0.011801639 0.56030756 -0.67198431 0.4842442 0.0036321974
0.0168448 0.043138552 0.010838758 0.53467822 -0.69289714 0.4837487 0.0027307312
0.019025674 0.044242989 0.0099901715 0.54743421 -0.63115036 0.5495134 0.0022320312
0.021159397 0.044933259 0.0090094386 0.5121882 -0.64467335 0.56750298 0.0012772852
0.017976152 0.045131125 0.011944801 0.56499523 -0.55330431 0.61207408 0.001537157
0.019931337 0.046164859 0.011036283 0.5635637 -0.48122633 0.67142922 0.0026866712
0.022048585 0.046959598 0.0098596113 0.56322795 -0.51819158 0.64362395 0.0029099702
0.024042185 0.047732413 0.0090199942 0.53065968 -0.5502395 0.64469904 0.0022158518
0.020757435 0.048342038 0.011780065 0.5663833 -0.34138718 0.75010985 0.0046293456
0.022631714 0.049388181 0.01086693 0.55232477 -0.31188497 0.7730881 0.0027126267
0.024771454 0.049938843 0.0095476499 0.55117214 -0.37736428 0.74418104 0.0032646724
0.023098141 0.052434742 0.011418835 0.54218298 -0.11860596 0.83184743 0.0023429792
0.025387352 0.052574825 0.0099774105 0.52894759 -0.17066288 0.83131737 0.0036234108
0.027245391 0.053696491 0.0090519208 0.54625535 -0.15349048 0.82343531 0.0035249088
0.023122922 0.055621605 0.011490305 0.50660378 0.018521048 0.86198002 0.00051562191
0.025527842 0.055454779 0.010095877 0.5053091 -0.006614489 0.86291307 0.001051482
0.027286978 0.055629931 0.0090706088 0.52666789 -0.045763776 0.84883833 0.0021399432
0.022905031 0.058523893 0.011385016 0.48776802 0.084043771 0.8689183 9.9753524e-05
0.025495922 0.058465231 0.0099333236 0.49607769 0.08178167 0.86441815 0.00010370931
0.027297568 0.057418771 0.0090386951 0.5101459 0.055518098 0.85829419 0.00036042559
0.02073051 0.062547706 0.011917075 0.46245304 0.13084891 0.87693548 0.00016061768
0.022600548 0.061541576 0.011200204 0.47782424 0.12445784 0.86959434 8.8237786e-05
0.025247827 0.0613763 0.0097237304 0.4908655 0.11811846 0.86319125 7.0195165e-05
-0.038097434 0.065230466 0.010954178 -0.31301093 0.93665683 -0.1571565 0.0045158542
0.02051943 0.064866409 0.011749286 0.4612309 0.16465092 0.87186933 7.915873e-05
0.022500759 0.064510711 0.010765602 0.47104186 0.15899298 0.86766404 8.7201399e-05
0.024882933 0.064278372 0.0094800806 0.48162371 0.15345672 0.86283815 6.7924346e-05
-0.03059425 0.067172609 0.010560891 -0.24985625 0.95823079 -0.13916062 0.0030591909
-0.027899053 0.068389058 0.011692991 -0.21027595 0.97727293 0.026863862 0.00037743984
-0.025683524 0.068985201 0.011662618 -0.20993187 0.97733545 0.027278494 0.00061080849
0.019941298 0.067594968 0.011469142 0.44192874 0.23151457 0.8666603 0.00078228326
0.022495255 0.067534961 0.010140455 0.45780912 0.21472551 0.86273038 0.00035033011
0.024421595 0.066978954 0.0092280023 0.46542224 0.20494455 0.86103415 0.00030372519
-0.02450864 0.069238789 0.011891092 -0.18089616 0.98082411 0.072530985 0.00029180528
-0.022567166 0.069778435 0.011385024 -0.18771029 0.97589636 0.11131548 0.0019758833
-0.01938216 0.070578575 0.011233034 -0.18502456 0.95192403 0.24414448 0.0020869509
-0.016434707 0.071302235 0.010803649 -0.19154072 0.93626684 0.29447687 0.0039181528
-0.01437039 0.071810417 0.011374994 -0.18975168 0.91188639 0.36394706 0.0032439167
0.017094513 0.071091138 0.011603381 0.36905602 0.41604206 0.83108765 0.0046286182
0.019517807 0.070468582 0.010765319 0.39933306 0.35691085 0.84448075 0.002805229
0.02215383 0.070205115 0.0095818928 0.42487559 0.32400104 0.84528345 0.0021749528
0.024301015 0.069014348 0.009017962 0.4447163 0.23755074 0.86359543 0.0014579477
-0.012762988 0.07224977 0.010847695 -0.21502781 0.93932873 0.26725364 0.0061819181
-0.010370418 0.072825097 0.010761098 -0.1817234 0.92049861 0.34591743 0.0048519108
-0.0076521351 0.073358424 0.011072318 -0.18235186 0.89065564 0.41650963 0.0034527937
-0.0041441917 0.074123681 0.011036645 -0.18370323 0.90424603 0.3854768 0.0016302289
-0.0016902576 0.07450366 0.011453845 -0.14437063 0.86205173 0.48582295 0.0025136003
0.0010837545 0.074917085 0.011608459 -0.10075787 0.88070023 0.46283367 0.0029948568
0.0056495657 0.074949324 0.011886911 0.02485653 0.85133815 0.52402818 0.0040834104
0.0081248712 0.074758731 0.011580504 0.15060879 0.81183523 0.5641281 0.0028063182
0.010783265 0.074386202 0.011335178 0.21570145 0.7533161 0.62127912 0.0027068604
0.013758673 0.073659666 0.011077796 0.28503054 0.65126181 0.70328915 0.0037209422
0.016475692 0.073286645 0.010357944 0.29340178 0.59440947 0.74872738 0.0033227112
0.019263491 0.072755449 0.0096322717 0.34218228 0.54062301 0.76852983 0.0029674508
0.02127732 0.072164722 0.0091277482 0.38656667 0.4767741 0.78946352 0.006290691
-0.0012055907 0.07515455 0.0096954992 -0.18155394 0.92705321 0.32804045 0.0035672709
0.0013901477 0.075375117 0.010718484 -0.071320139 0.88831484 0.45366308 0.0026484001
0.0046753869 0.075590335 0.010746028 0.03318157 0.88109493 0.47177407 0.0026939274
0.0074897637 0.075520143 0.010457432 0.11052602 0.85819846 0.50127769 0.0034522095
0.010476352 0.075421616 0.0099569578 0.1611082 0.80521464 0.57067817 0.0031127213
0.013543201 0.075175397 0.0094543202 0.20846833 0.74277276 0.63626224 0.0025607643
0.015046366 0.075082228 0.009037314 0.23390424 0.78286183 0.57655537 0.0048037129
-0.0097194901 -0.072113909 0.012148307 -0.1892978 -0.889808 0.41522053 0.0035895358
-0.0071858452 -0.072348617 0.012770767 -0.18447927 -0.84825701 0.49641463 0.0031655296
-0.004176504 -0.072684467 0.013205284 -0.13960122 -0.80936962 0.57046676 0.0027507159
-0.0012687726 -0.072817698 0.013828819 -0.11627095 -0.79727548 0.59231156 0.0025285098
0.0015654871 -0.073257394 0.013686538 -0.06282188 -0.80591816 0.58868444 0.0036182711
0.004709038 -0.073249869 0.01383967 0.097284175 -0.77284783 0.62709016 0.0028572702
0.0075534503 -0.072989263 0.013472056 0.20681165 -0.72099584 0.6613577 0.0028287014
0.010420498 -0.072701164 0.012792763 0.25748113 -0.66207451 0.70381868 0.0031499153
0.012646969 -0.072459623 0.012209791 0.29851675 -0.62817109 0.71853244 0.0031790235
-0.022036694 -0.0692195 0.013317032 -0.16158637 -0.97084385 0.17706546 0.003209359
-0.018985968 -0.069558762 0.013940978 -0.079953931 -0.94478017 0.3178013 0.0042463946
-0.016160158 -0.069895089 0.014040142 -0.092294864 -0.89476353 0.43689802 0.003298121
-0.013483644 -0.070282198 0.014030604 -0.10236392 -0.84136921 0.53067833 0.0026368615
-0.01038811 -0.070831574 0.014077242 -0.14135914 -0.79417145 0.59102392 0.0019736993
-0.0075928029 -0.071363166 0.014176998 -0.15503938 -0.77075386 0.61798161 0.0020177595
-0.0046871393 -0.071694523 0.014598357 -0.14311102 -0.75976694 0.63425022 0.002285992
-0.0027107019 -0.071788304 0.014929657 -0.13551939 -0.72113967 0.67940569 0.0023157632
0.0081674308 -0.07161665 0.014712307 0.24115409 -0.63571429 0.73328847 0.0040724794
0.010758684 -0.07079313 0.01424682 0.33419269 -0.5128625 0.79075104 0.0039362926
0.013428184 -0.07043907 0.013308656 0.34545782 -0.49086589 0.79981846 0.0032855656
0.016005436 -0.069890119 0.012460355 0.38252425 -0.42192897 0.82197994 0.0029290731
-0.034503505 -0.066529758 0.014533573 -0.25513008 -0.96662766 0.023229031 0.001657813
-0.031277027 -0.067208782 0.014004358 -0.2133062 -0.97616535 0.040020276 0.00037552399
-0.028196219 -0.067866109 0.01350427 -0.20221843 -0.9788233 0.03182226 0.0001812671
-0.025184415 -0.06855002 0.013721523 -0.15949585 -0.98401731 0.079189509 0.0011238944
-0.023551676 -0.068848386 0.01416111 -0.16314867 -0.97812909 0.12901945 0.002323003
0.011764209 -0.068741865 0.014909711 0.44003972 -0.37716615 0.8149299 0.0055815647
0.01385643 -0.067632191 0.014378976 0.42141166 -0.29308233 0.85820448 0.0020192508
0.016505247 -0.067474015 0.013108093 0.42636681 -0.27223036 0.86261344 0.001445674
0.018486215 -0.067047268 0.01222079 0.4275375 -0.26032582 0.86570323 0.0011939193
-0.043456849 -0.063491419 0.013891068 -0.35284719 -0.92354459 0.15021391 0.0014610679
-0.040562574 -0.064442135 0.013074074 -0.33620855 -0.93882036 0.074700519 0.0025423646
-0.037786104 -0.065284222 0.012664236 -0.3033829 -0.95254731 0.024748182 0.0015768113
0.01444465 -0.064949125 0.014756713 0.44788 -0.18718642 0.8742795 0.00019541323
0.016487727 -0.064494453 0.013808023 0.45034853 -0.18085636 0.87434387 0.00013292013
0.019017732 -0.064344153 0.012525246 0.45214418 -0.17544842 0.87451899 8.3984924e-05
-0.048809789 -0.061370585 0.01438531 -0.44850516 -0.87705594 0.17209314 0.0032896767
-0.046195023 -0.062499192 0.013974667 -0.41334903 -0.89516932 0.16677645 0.003344696
-0.044813126 -0.06297081 0.014030555 -0.35361147 -0.93196166 0.080040634 0.00082869502
0.014817794 -0.062738888 0.014951465 0.44878793 -0.15492178 0.88010716 0.0002186574
0.016632179 -0.061569393 0.014268168 0.45805463 -0.1446756 0.8770718 8.0785736e-05
0.01944332 -0.061453253 0.012816414 0.46480945 -0.13587494 0.87492299 8.2541177e-05
0.021187542 -0.060599647 0.012112741 0.47278476 -0.12948786 0.87161201 8.8622946e-05
-0.051281121 -0.059950858 0.014742157 -0.5033946 -0.79636872 0.33524743 0.012058362
-0.050481483 -0.059925452 0.014732434 -0.52652442 -0.78505093 0.32629305 0.0085435156
0.017023807 -0.05855665 0.014497559 0.46927294 -0.1072579 0.87651509 6.1629013e-05
0.019484488 -0.058523729 0.013186692 0.47190633 -0.10139029 0.87579936 7.9581856e-05
0.02137471 -0.058140893 0.012203696 0.47709846 -0.098470986 0.87331575 8.9128327e-05
0.017386818 -0.055573914 0.014622368 0.47972912 -0.073504061 0.87433243 9.6251286e-05
0.019520054 -0.055499122 0.013458323 0.48237747 -0.063627534 0.87364954 0.00014245899
0.021581767 -0.055377081 0.012320136 0.48910168 -0.05051868 0.87076253 0.00023655735
0.017553819 -0.052608263 0.014725924 0.50269753 0.00061160664 0.86446214 0.00093577191
0.01954381 -0.052493814 0.013593282 0.50401884 0.01971511 0.86346757 0.00094219745
0.021655822 -0.052541435 0.012365368 0.51300144 0.064817749 0.855937 0.0023722393
0.01742739 -0.049292535 0.014608994 0.54105705 0.14962378 0.82756871 0.0027725671
0.01949946 -0.049469993 0.013269607 0.52925521 0.20973842 0.82213056 0.004383368
0.02133107 -0.050169062 0.012233931 0.54509187 0.24580856 0.80153167 0.0035522589
0.014801481 -0.045116339 0.014932792 0.5546568 0.4115836 0.72315609 0.0035575514
0.016779786 -0.046311278 0.014043458 0.558846 0.347491 0.75295496 0.0025332004
0.018903511 -0.046861049 0.012688898 0.56479186 0.4009499 0.7212832 0.0031583065
0.014089289 -0.04310796 0.014105571 0.57845682 0.49244061 0.65029997 0.0043298695
0.016138906 -0.043955352 0.012988511 0.56942862 0.53477222 0.62431538 0.0037870004
0.01813714 -0.044991419 0.01217673 0.5564993 0.5076831 0.6576978 0.0021939012
0.011406466 -0.039891869 0.013875888 0.82622796 0.46363536 0.31998384 0.0312334
0.012978115 -0.041233677 0.013246506 0.65578651 0.58468014 0.47759107 0.0116244
-0.051313117 -0.038486753 0.013790678 -0.65517724 0.73022121 0.19370028 0.035745781
-0.049490407 -0.038235843 0.01409253 -0.41659617 0.90697885 0.061943315 0.010284373
0.010674839 -0.037792601 0.01351544 0.9828105 1.1189363e-05 0.18461727 0.067502916
0.011662278 -0.035510115 0.013823982 0.92971838 -0.36674887 0.033450998 0.034629155
0.012827683 -0.034095511 0.014005176 0.86116165 -0.49437204 -0.11830866 0.0087537216
0.014171666 -0.03164224 0.013894439 0.89435124 -0.42721361 -0.13275704 0.0086601079
0.015112465 -0.030158598 0.014604972 0.92712581 -0.29956973 -0.22515693 0.017940981
0.014809562 -0.029345665 0.01305938 0.94516057 -0.27456695 -0.17687394 0.0089546144
0.015356316 -0.028351782 0.014000562 0.97103471 -0.20634393 -0.12047336 0.0085723782
0.014986144 -0.026322212 0.012120732 0.96184742 -0.099901393 -0.25469461 0.0073705995
0.015759816 -0.025581047 0.013888185 0.98934788 -0.083568007 -0.11919409 0.0055595674
0.014851341 -0.021388993 0.012107352 0.93868458 0.19272506 -0.28588164 0.0095450897
0.015739847 -0.022449799 0.013983951 0.98716688 0.1151922 -0.11059996 0.0065688118
0.014708302 -0.018898508 0.013015474 0.93380123 0.30753601 -0.1828572 0.009319949
0.015304551 -0.019730723 0.014076766 0.95609212 0.27997169 -0.086623766 0.0090055633
0.013937587 -0.016391717 0.013835529 0.87665641 0.45633119 -0.15243146 0.0072042774
0.015034016 -0.017940134 0.014651236 0.89133966 0.37128171 -0.26012206 0.019694446
0.011372109 -0.012624273 0.013882702 0.87227803 0.4683648 -0.14058949 0.01931956
0.012585355 -0.014059456 0.013990706 0.84459883 0.51725692 -0.13819544 0.009749569
0.010439943 -0.010461775 0.013899312 0.96719038 0.25120491 -0.037931755 0.022258073
0.010398977 -0.0074882526 0.013814699 0.99227357 0.098764785 0.075091317 0.023434475
0.010384324 -0.0045014094 0.013779334 0.99190813 0.022516401 0.12494525 0.030904397
0.010376285 -0.0015182706 0.013733982 0.99051434 0.019042619 0.1360836 0.031383313
0.010378182 0.001473396 0.013740077 0.99634111 -0.025012467 0.08172375 0.025480829
0.010398476 0.0044855005 0.013792911 0.98582751 0.07205949 0.15149778 0.045136053
0.010418166 0.0074654878 0.01382218 0.99142325 -0.058208741 0.11701126 0.042943049
0.010444704 0.010445842 0.013834457 0.97327 -0.22888008 -0.018958732 0.019961398
0.011177517 0.012975524 0.013709022 0.87124985 -0.46964273 -0.14268622 0.014637227
0.012530586 0.014372905 0.014219604 0.85988873 -0.49394539 -0.12887728 0.013533657
0.013736254 0.016508358 0.013894221 0.87549084 -0.46950668 -0.11436429 0.0061561181
0.014664719 0.018933697 0.013372718 0.93498164 -0.33157843 -0.12595697 0.0077519547
0.01526422 0.01995305 0.014235548 0.95656049 -0.27032983 -0.10915066 0.0081478171
0.01485095 0.021392107 0.012111148 0.93003303 -0.22665516 -0.28925088 0.010564428
0.015670888 0.022387246 0.013905143 0.98255777 -0.14704719 -0.11382965 0.0064273761
0.015795907 0.025446014 0.01380421 0.98274678 0.037125994 -0.18119143 0.0070259324
0.014719388 0.029335063 0.012474766 0.9251259 0.22707282 -0.30426955 0.0095755849
0.01548123 0.028381402 0.014042928 0.98052609 0.17892832 -0.08095181 0.0058111255
0.014471698 0.03147893 0.013888272 0.91510832 0.39665473 -0.072400592 0.0055356808
0.015132004 0.030293798 0.014471477 0.94115192 0.3045243 -0.14662211 0.012422575
0.011626374 0.035613697 0.01287442 0.94868141 0.26352146 -0.17481433 0.049332596
0.013004692 0.034270428 0.013921978 0.85896677 0.50592458 -0.078844264 0.0055137994
0.010692266 0.037927978 0.013553056 0.99369055 0.016455757 0.11094292 0.072478585
-0.051446896 0.039042756 0.013988059 -0.74809504 -0.5794031 0.32349011 0.0167148
-0.050370514 0.039033994 0.013917658 -0.74120325 -0.63683069 0.21228385 0.022173142
0.011287428 0.040139128 0.013789471 0.83284324 -0.48602864 0.26485506 0.032990277
0.012737666 0.041299906 0.012924763 0.67855662 -0.58692586 0.44167736 0.01669937
0.011939715 0.042053696 0.01489614 0.65558982 -0.50743318 0.55920798 0.0046891649
0.013825357 0.04313314 0.013884485 0.59894884 -0.5516876 0.58043176 0.0081026778
0.015948949 0.044083927 0.012827948 0.56706476 -0.56279683 0.60141271 0.004322018
0.014823502 0.045300916 0.014762268 0.56638473 -0.45532611 0.6869399 0.0043588108
0.016674699 0.046335965 0.013859048 0.56239569 -0.37807474 0.73537105 0.0028934674
0.018755967 0.047016401 0.01262005 0.56474203 -0.43189877 0.70322824 0.0030659605
0.017378172 0.049352173 0.014557715 0.54304093 -0.18449859 0.81918669 0.0029431439
0.019462124 0.049510848 0.013166615 0.53441066 -0.25202236 0.80677754 0.0047655003
0.021296799 0.05037434 0.012219162 0.54973429 -0.27148134 0.78999376 0.0034739261
0.017597741 0.052439839 0.014725655 0.50639683 -0.020004366 0.86206847 0.0013206322
0.019544745 0.05247036 0.013593871 0.50975215 -0.042747173 0.85925865 0.0013499041
0.021613339 0.052629907 0.012364266 0.51988757 -0.095499463 0.84887969 0.0028664395
0.017426426 0.055528164 0.0146507 0.48203337 0.06690371 0.87359476 0.00013233023
0.019520489 0.05549258 0.013503961 0.48544988 0.052809887 0.87266809 0.0001991834
0.021630308 0.055440247 0.01233761 0.49139041 0.038217612 0.8701005 0.0003818362
0.017108247 0.058608681 0.014504374 0.47079587 0.10198023 0.87632829 5.5217639e-05
0.01951623 0.058519676 0.013230643 0.47083408 0.095690891 0.87701678 7.4700125e-05
0.021384291 0.058304816 0.012241653 0.47738838 0.089713745 0.87410051 7.0466798e-05
-0.05143021 0.060460486 0.014215464 -0.48228341 0.83126265 0.27641484 0.0064929398
-0.049238294 0.061575666 0.013662951 -0.45054862 0.87263036 0.18847328 0.0037039476
-0.046924923 0.062735155 0.013662167 -0.42231619 0.89683479 0.13166806 0.0011897783
0.01477656 0.062765576 0.014977813 0.44918138 0.14753744 0.88117462 0.00012998925
0.016688446 0.061578855 0.014316636 0.4595286 0.13726519 0.87749171 7.3703552e-05
0.019471662 0.061485421 0.012873479 0.46321177 0.12968208 0.87670827 7.6865268e-05
0.021264667 0.060676746 0.012099457 0.47101793 0.12260193 0.87356216 0.00010223738
-0.045208298 0.063379124 0.014148911 -0.36840773 0.90950704 0.19254269 0.001189224
-0.043438446 0.063956402 0.013433957 -0.35086 0.9311381 0.099394187 0.0013350059
-0.04042938 0.065030523 0.01355869 -0.33300903 0.94138688 -0.053811878 0.0023910627
-0.038692556 0.065861009 0.014691103 -0.33369362 0.93941385 0.078423128 0.0025468126
0.014529116 0.065091819 0.014797692 0.45028555 0.17585614 0.87539566 0.00010832434
0.016482344 0.064488895 0.013922304 0.4518154 0.17247708 0.87527966 0.00011533482
0.019106671 0.064368151 0.012580822 0.45460877 0.16586314 0.87511164 8.4647159e-05
-0.037093751 0.066338323 0.014722821 -0.3098802 0.9498499 -0.041945498 0.003928849
-0.034437519 0.066986345 0.013882264 -0.24984463 0.96440023 -0.086659893 0.0034926725
-0.031873465 0.067593656 0.013947562 -0.22432476 0.97303581 -0.053663582 0.0015936776
-0.028856229 0.0682754 0.013890874 -0.21550402 0.97641659 -0.01298583 0.0013943535
-0.026318965 0.068816468 0.013715269 -0.18200389 0.98206317 0.049259674 0.00057275582
0.011822778 0.068902314 0.014885462 0.39722225 0.35738641 0.84527475 0.0047925315
0.013940416 0.067678981 0.014484293 0.43042251 0.26590496 0.86257231 0.0011822864
0.016536344 0.067489259 0.01323196 0.42894697 0.25881851 0.86545795 0.00094641355
0.01861224 0.067077622 0.012270248 0.43259263 0.24368486 0.86803305 0.00077415636
-0.024662901 0.069170028 0.013462181 -0.18409927 0.98107654 0.059969928 0.00080386613
-0.022248238 0.069574125 0.013993438 -0.1340449 0.97975427 0.1487066 0.003185909
-0.019276127 0.069992229 0.014073613 -0.049956378 0.95605302 0.2889066 0.0057623982
-0.016398927 0.070401162 0.013973607 -0.084978469 0.90364683 0.41976315 0.0050280946
-0.013178892 0.070842512 0.01404245 -0.094874673 0.82781219 0.55292463 0.0023085196
-0.010524875 0.071297169 0.014127567 -0.14514714 0.80519187 0.57497686 0.0022229969
-0.0077450769 0.071595177 0.014527058 -0.15533938 0.76365131 0.62666291 0.0020140405
-0.004849954 0.071887113 0.014929508 -0.14338467 0.73155081 0.66653907 0.0018107919
0.0085118553 0.071778446 0.014838177 0.2531822 0.60618258 0.75395054 0.0026006403
0.01079974 0.071016245 0.014446489 0.340942 0.49192959 0.80110162 0.0044219727
0.013500237 0.070458993 0.013576311 0.37315449 0.43626237 0.81879842 0.0032774264
0.01609811 0.070120752 0.012542482 0.38490322 0.40634555 0.82869345 0.0036694584
0.018258572 0.069073044 0.012113288 0.43242672 0.32958281 0.83927482 0.0048259255
-0.012240031 0.072016098 0.012146481 -0.23010668 0.95137072 0.20480439 0.011190234
-0.010208599 0.072275564 0.012638194 -0.16062526 0.8279472 0.53731084 0.0019884033
-0.0071782977 0.072472252 0.013431317 -0.16045125 0.79278892 0.58799762 0.0022258374
-0.0046218759 0.072699614 0.013861608 -0.14414769 0.78221405 0.60610449 0.0021350526
-0.0013562428 0.073251508 0.013911716 -0.11875489 0.79138291 0.59967512 0.0024246348
0.0015831087 0.073774494 0.013681508 -0.052458987 0.79959249 0.59824729 0.002936865
0.0046386113 0.073871918 0.013700444 0.051400777 0.79886991 0.59930366 0.0026796772
0.007618071 0.073205397 0.013793103 0.22540653 0.688299 0.68951893 0.0027378716
0.010419812 0.073008023 0.012979454 0.2685214 0.65640676 0.70500094 0.0031113958
0.012889412 0.072487697 0.012510118 0.30609667 0.60828876 0.73231804 0.0033993463
0.0045057815 0.075012334 0.012182696 0.072178602 0.8430565 0.5329597 0.003325769
-0.00068984617 -0.072049372 0.01506153 -0.096862189 -0.77767515 0.62115937 0.0026066611
0.0019567853 -0.072180621 0.015139035 -0.03566375 -0.71328026 0.6999709 0.0027055917
0.0040435451 -0.072178796 0.015178923 0.093166135 -0.71585631 0.6920042 0.0033625667
0.0065417262 -0.07201951 0.015095178 0.20228748 -0.64291269 0.73874426 0.0034539336
-0.021712488 -0.069047987 0.015245207 -0.12721804 -0.98081726 0.14769301 0.0026251939
-0.019387119 -0.069088437 0.015303952 -0.036526363 -0.9703185 0.23905611 0.0051149121
-0.016257741 -0.069152556 0.015420079 -0.03496239 -0.92343533 0.38215828 0.004674661
-0.01311473 -0.069384784 0.015421814 -0.081627905 -0.83510548 0.54399979 0.0027567022
-0.010427631 -0.069573067 0.015681619 -0.11239482 -0.77849239 0.61750871 0.0016279694
-0.0074937856 -0.069785081 0.016053692 -0.13029313 -0.72620797 0.67501533 0.0013588315
-0.0041746702 -0.070223905 0.016277811 -0.11312611 -0.67226928 0.73161232 0.0020919791
-0.0013811758 -0.070310511 0.016637513 -0.079023816 -0.65871894 0.7482276 0.0022656417
0.0016195457 -0.070387989 0.016751844 0.021256326 -0.60317427 0.79732621 0.0024467672
0.0046813949 -0.070367642 0.016570514 0.14433649 -0.56499475 0.81237185 0.0031552187
0.0074515794 -0.070282482 0.015978383 0.26678526 -0.5359171 0.80101091 0.0031437029
0.0098927738 -0.06962157 0.015401307 0.3641277 -0.47288805 0.80236393 0.0028473197
-0.036129758 -0.066074461 0.016625602 -0.28057361 -0.95485497 0.097624354 0.0016002994
-0.034428306 -0.066504106 0.01692256 -0.26588476 -0.95803088 0.10715458 0.0021922803
-0.031541646 -0.067195997 0.016709898 -0.22837403 -0.97207612 0.05397436 0.0011054215
-0.028561302 -0.0677955 0.016604513 -0.19959916 -0.97909456 0.039166745 0.00025312975
-0.025557443 -0.068325497 0.016844939 -0.13342364 -0.98891753 0.065117233 0.00072731037
-0.022137247 -0.06880071 0.016611783 -0.059899703 -0.99161136 0.11453834 0.0024905058
-0.019153815 -0.068696193 0.0167292 -0.012826645 -0.96458095 0.26347509 0.0047080778
-0.016414167 -0.068445414 0.017031295 0.017402144 -0.93225235 0.36139002 0.0053402698
-0.013517558 -0.06843105 0.016852261 0.0074053532 -0.8914817 0.45299622 0.0059160027
-0.01048346 -0.068327039 0.017125214 -0.023144433 -0.80060393 0.59874684 0.0059669046
-0.0076978314 -0.06830515 0.017434366 -0.057689086 -0.70777375 0.70407987 0.0035018085
-0.004751002 -0.06859915 0.017576901 -0.076598547 -0.64092606 0.76377112 0.0017360903
-0.0016497761 -0.068769857 0.017823553 -0.050674945 -0.58122903 0.81216061 0.0022603981
0.0012334945 -0.068807609 0.017887982 0.037527967 -0.54800898 0.83563018 0.0021299806
0.0047833123 -0.068511479 0.017745839 0.16663243 -0.44542322 0.87967712 0.0034063554
0.0076991166 -0.067634545 0.017294491 0.34021187 -0.34240553 0.87579352 0.0019111183
0.010522641 -0.067447744 0.016085746 0.40335107 -0.32647872 0.85482132 0.0022143435
0.01257201 -0.066868879 0.015262668 0.41150022 -0.30957085 0.85722435 0.002129657
-0.042966869 -0.06353727 0.01641608 -0.37097344 -0.90777594 0.19575886 0.0029710256
-0.040436834 -0.064501435 0.016755842 -0.36591902 -0.91035134 0.19329678 0.0025866665
-0.037676577 -0.065536946 0.016628824 -0.34528139 -0.92630953 0.1507695 0.0012582452
0.008535563 -0.064956039 0.017774021 0.37781286 -0.20961621 0.90184164 0.001175569
0.010473703 -0.064507693 0.016884642 0.43350327 -0.20030273 0.878609 0.00038689873
0.013094435 -0.064355165 0.015574356 0.44243813 -0.19397406 0.87556982 0.00020220205
-0.048474077 -0.061150122 0.016941898 -0.48280832 -0.82254344 0.30053023 0.007508269
-0.046539135 -0.061977245 0.016850371 -0.38113424 -0.89275324 0.24026738 0.0027508978
-0.044498254 -0.062807359 0.01690137 -0.37043789 -0.89639479 0.24341771 0.0028266592
0.0087686414 -0.062602818 0.017903842 0.38477004 -0.14619488 0.9113611 0.00072900055
0.010738562 -0.06160168 0.017321205 0.44327971 -0.15291934 0.88324326 0.00014080884
0.01347737 -0.061459009 0.015924288 0.45496655 -0.1511171 0.8775928 7.0474787e-05
0.015259227 -0.060686987 0.015167867 0.45563102 -0.14799991 0.87777925 7.6135075e-05
-0.051223472 -0.059228923 0.017176026 -0.56481171 -0.6468817 0.51237857 0.010663506
-0.050660044 -0.059513021 0.016614966 -0.57000321 -0.73854733 0.36006132 0.011957563
0.011141977 -0.058639448 0.017585125 0.44207922 -0.11845616 0.8891198 0.00020690764
0.01349688 -0.058519542 0.016366372 0.46017441 -0.11699171 0.8800866 5.3910495e-05
0.015583818 -0.058322255 0.015288696 0.4635317 -0.11341606 0.87879193 5.8269259e-05
0.011462846 -0.055899519 0.017751379 0.4409422 -0.092896245 0.8927151 0.00019488639
0.01352528 -0.055491775 0.016711116 0.46655047 -0.087583244 0.88014758 6.0483871e-05
0.015875835 -0.05541021 0.015453047 0.47278586 -0.082182653 0.87733662 6.6599721e-05
0.011676852 -0.052644163 0.017869458 0.45134631 -0.046205014 0.89115185 0.00030500253
0.013458726 -0.052516837 0.017000953 0.4744367 -0.04085679 0.87934101 0.00027652303
0.016021496 -0.052445024 0.015593321 0.48834479 -0.024218539 0.87231469 0.0005706696
0.011677786 -0.049081743 0.017884746 0.47375545 0.069119304 0.87793976 0.001500629
0.013509537 -0.049455065 0.017036136 0.48747867 0.078703076 0.86958057 0.0014121108
0.015928535 -0.049621474 0.015614498 0.51420355 0.11047728 0.85052305 0.0025851505
0.011308119 -0.04619341 0.017606704 0.49226764 0.19872381 0.84745586 0.001100601
0.013515398 -0.046466429 0.016425967 0.5224492 0.27629727 0.80666387 0.0033569706
0.015522118 -0.04706499 0.015316352 0.54427618 0.30624592 0.78101015 0.0036035664
-0.052376378 -0.042568263 0.01787143 -0.70361429 0.54768628 0.45273247 0.017721228
0.0089747282 -0.042463489 0.017958738 0.65302777 0.14170612 0.74395841 0.016055049
0.010805811 -0.043337852 0.017146036 0.56181377 0.25602549 0.78664863 0.0057289624
0.01293086 -0.04387432 0.01575058 0.58838356 0.39560017 0.70519871 0.0070006959
-0.051265169 -0.039514881 0.017532565 -0.71115834 0.56335706 0.42057416 0.018282901
-0.05061296 -0.039332487 0.017425084 -0.66458845 0.59320378 0.4543471 0.011578972
0.0088469274 -0.040375661 0.017932188 0.65684515 -0.046234287 0.75260669 0.0258059
0.010287966 -0.040621426 0.016564565 0.76175457 0.25341848 0.59624571 0.026276968
0.012104785 -0.041863393 0.015140345 0.61235207 0.4763276 0.63098097 0.0098004499
-0.051423013 -0.038742255 0.015555128 -0.64319402 0.73713923 0.20718879 0.034820814
-0.050263688 -0.038577307 0.016053297 -0.66475886 0.64764816 0.37235397 0.016485874
-0.047668722 -0.037758473 0.017104238 -0.55852497 0.79298609 0.24335772 0.025908867
0.0088726226 -0.038781472 0.016659049 0.87164253 -0.16197062 0.46260664 0.050564803
0.010154989 -0.037750188 0.016581966 0.8766095 -0.36293128 0.31596938 0.041100878
0.01163266 -0.035696056 0.016743673 0.84904575 -0.49988645 0.17098173 0.017499724
0.012904686 -0.034062464 0.016517006 0.83851707 -0.53712624 0.091567427 0.0030004166
0.014308053 -0.031517435 0.016605154 0.90151113 -0.42224365 0.094805129 0.0030363428
0.015069497 -0.030230165 0.016029369 0.94192618 -0.3353337 0.018067142 0.009971872
0.014936713 -0.029701997 0.017320426 0.95210838 -0.29066682 0.094881102 0.0037375821
0.015436349 -0.028335549 0.016484933 0.97228754 -0.22270273 0.07113646 0.003865174
0.015863264 -0.025447154 0.016611222 0.99440455 -0.063520052 0.084407561 0.0028625627
0.015817868 -0.022515349 0.016616257 0.99186856 0.094368421 0.085390203 0.0026428539
0.014902007 -0.01853082 0.017117426 0.94179463 0.32283846 0.093798883 0.0039092577
0.015348141 -0.019753804 0.01643811 0.96451896 0.25447232 0.070334762 0.0040345248
0.014104743 -0.016527968 0.016579347 0.89701641 0.43195963 0.093661316 0.003144904
0.015088688 -0.017984997 0.01550321 0.94948369 0.31314334 0.020542944 0.0093770456
0.011458279 -0.012576881 0.016663508 0.8350845 0.54052007 0.10233261 0.0043164277
0.012709618 -0.014155419 0.016623206 0.84502268 0.52588707 0.096847787 0.0032010542
0.010430012 -0.010565151 0.016616134 0.93840855 0.30717784 0.15821265 0.022527823
0.0082268072 -0.0062454208 0.01684068 0.90482074 0.39207321 0.16606684 0.076531239
0.010346227 -0.0075037344 0.016698722 0.97794396 0.099341474 0.18373069 0.027626676
0.0051360126 -0.0042839362 0.016354661 0.62563747 0.72392184 0.29071462 0.14850014
0.0082695223 -0.0044257212 0.016215144 0.92278111 0.23003711 0.3091245 0.06841559
0.010069143 -0.004499753 0.015968913 0.9652757 0.099952511 0.24135506 0.043334886
0.0051071523 -0.0014816066 0.016352985 0.8351112 0.038238186 -0.54875052 0.236507
0.0082909716 -0.001545582 0.016198615 0.89771366 -0.042292636 0.43854472 0.077581517
0.010065089 -0.001530304 0.015929649 0.9584676 -0.034571864 0.28309834 0.051639799
0.00525345 0.00078054011 0.016371053 0.92025995 -0.14987072 0.36146984 0.079553947
0.0083446261 0.00096214964 0.016299155 0.89134187 -0.12739384 0.4350639 0.071817577
0.010204342 0.0015590489 0.016268348 0.97421026 -0.08008638 0.21095164 0.035929557
0.0025464292 0.005421883 0.016028272 0.94530696 0.25867778 0.19869721 0.15852666
0.0047878008 0.005276341 0.015850544 0.75568891 0.53443736 0.37856427 0.12777108
0.0079496261 0.0050981301 0.015828919 0.91168094 0.048245281 0.40805674 0.098373078
0.010140847 0.0043047327 0.016157141 0.97399443 0.032511462 0.22422689 0.06341628
0.0025572653 0.0067020101 0.016251337 0.97104269 -0.23887208 0.0040280805 0.21850716
0.0045718839 0.0065769181 0.015940342 0.17192262 -0.44483584 0.87895602 0.10028891
0.0080000358 0.0067007993 0.015921904 0.92335731 -0.3548004 0.14672412 0.097299382
0.010158381 0.0075786798 0.01629257 0.97003007 -0.12891361 0.20596798 0.047717031
0.010366595 0.010473513 0.016633706 0.95007277 -0.24620102 0.1916948 0.019099714
0.011227775 0.012840546 0.0166646 0.84850895 -0.51581383 0.1181892 0.0062045078
0.012514885 0.014313788 0.01641844 0.84918129 -0.5191918 0.096596636 0.0056335288
0.013808015 0.01645709 0.016597968 0.88746452 -0.45337236 0.082826354 0.0028165551
0.014790475 0.018627454 0.01684976 0.931256 -0.35456151 0.083954424 0.0036941261
0.015300967 0.020061716 0.016413314 0.96033722 -0.26990852 0.070012562 0.0041051204
0.015779527 0.022590892 0.016600976 0.99019843 -0.11295931 0.082140908 0.0027764041
0.015885755 0.025485205 0.016656397 0.99511826 0.047618691 0.086441249 0.0027362274
0.014959459 0.029827045 0.017715398 0.95892191 0.25898954 0.11572921 0.0037036329
0.015517 0.02848071 0.016557697 0.97852004 0.18729722 0.086129166 0.0031197574
0.01444437 0.031744782 0.016710101 0.90614343 0.40938917 0.1063228 0.003089959
0.015093132 0.030401731 0.015883336 0.94362891 0.32063976 0.082187101 0.0059926067
0.011789536 0.035895869 0.01718015 0.81942481 0.55678916 0.13612051 0.0111698
0.013005066 0.034419183 0.016588362 0.84709483 0.52444279 0.085965216 0.0026794241
-0.04882592 0.038256537 0.01722105 -0.66179121 -0.66116267 0.35340685 0.015483585
0.010441184 0.037719905 0.016617239 0.84785175 0.44121343 0.29407167 0.034521375
-0.051263288 0.039724756 0.016925372 -0.7199955 -0.53361982 0.44368497 0.014124364
-0.050548878 0.039793793 0.017099226 -0.72859806 -0.54765791 0.41135818 0.017584611
0.0088571971 0.040704396 0.01792975 0.72180384 0.11588934 0.68232608 0.030938366
0.010132703 0.040594481 0.016552303 0.84145731 -0.1419948 0.52133197 0.03223544
0.0088965055 0.042230219 0.017972812 0.64171612 0.020413276 0.76667058 0.019003505
0.010753837 0.043306503 0.016992442 0.59771931 -0.24632326 0.76292628 0.00707595
0.012758995 0.044016525 0.015674444 0.59318018 -0.42535603 0.68352729 0.0089846868
0.011239957 0.04629403 0.017562376 0.49692097 -0.21561852 0.84058207 0.0013244059
0.013503366 0.046497513 0.016282249 0.52172083 -0.30124655 0.79815912 0.0036213466
0.015428922 0.047298312 0.015294444 0.55176944 -0.32323635 0.76880991 0.0035281486
0.011627254 0.048973035 0.017868051 0.47702569 -0.093755178 0.87387437 0.0015194425
0.013502911 0.049487997 0.016995478 0.49061581 -0.099063724 0.86572659 0.0013940487
0.015892141 0.049660876 0.015580758 0.52057832 -0.14582822 0.84126824 0.0031554264
0.011722964 0.052920252 0.017889315 0.45562664 0.029595684 0.88967878 0.00048151225
0.013482563 0.052521545 0.01702995 0.47800401 0.024076074 0.87802762 0.00044978887
0.016052226 0.052476287 0.015606005 0.4906356 0.0087528871 0.8713209 0.00077873672
0.011550892 0.055823851 0.017780064 0.43976623 0.08897306 0.89369428 0.0002347211
0.013503861 0.055526052 0.016775364 0.46891722 0.083415918 0.87929422 6.8445246e-05
0.015921563 0.055402581 0.015476904 0.475299 0.076832585 0.87646312 8.6390435e-05
-0.051097807 0.059601132 0.017510833 -0.57710391 0.64834535 0.49658772 0.010665829
-0.050333429 0.059656505 0.017299399 -0.49412179 0.78988039 0.3632254 0.009675323
0.011225696 0.05862416 0.017619187 0.44307131 0.11415106 0.88918912 0.00020527742
0.013516313 0.05848543 0.016431363 0.46284083 0.11290582 0.87922162 6.3800988e-05
0.015647223 0.058354765 0.015311827 0.46549764 0.10938996 0.87826294 6.9032692e-05
-0.051315874 0.060165226 0.015986999 -0.5073269 0.76185918 0.40272823 0.0074276119
-0.048610654 0.061482508 0.016928481 -0.46189502 0.82111019 0.33530745 0.0030874535
-0.046634346 0.062389843 0.016915454 -0.39214358 0.88111806 0.26429999 0.0036726587
-0.044784293 0.062897116 0.017811434 -0.42451897 0.82927036 0.36344793 0.0039329506
0.010789152 0.061588828 0.017389813 0.443966 0.1478616 0.88375968 0.00013844622
0.013483784 0.061497834 0.015999382 0.4573026 0.14452818 0.87748843 6.5562752e-05
0.015255183 0.06082128 0.015186887 0.45714006 0.14164858 0.87804252 7.1711271e-05
-0.045632832 0.063088909 0.015842665 -0.38996843 0.88916868 0.23938213 0.0036110531
-0.043559216 0.063751206 0.016652443 -0.39504492 0.88521922 0.24561428 0.0032263005
-0.040655255 0.064929061 0.016727734 -0.36487392 0.91083598 0.19298925 0.0023654108
-0.038488418 0.065692849 0.017157506 -0.35996014 0.91404068 0.18697158 0.0025379332
0.0086083701 0.065253183 0.017791426 0.38337603 0.20378423 0.90083009 0.0010833289
0.010507683 0.064514518 0.01698013 0.43447033 0.19178765 0.88003016 0.00027029763
0.013175067 0.064397253 0.015636371 0.4469009 0.18010493 0.87626582 0.00013562027
-0.036975786 0.066285521 0.016627746 -0.29303104 0.94853568 0.120054 0.0020662369
-0.034409519 0.067030638 0.016615175 -0.26167023 0.96143472 0.084687792 0.00090582483
-0.031636216 0.067666143 0.016714731 -0.22787672 0.97231346 0.05175627 0.00049925107
-0.028576862 0.068289481 0.016591921 -0.19741723 0.97918576 0.047135964 0.00016954198
-0.025791517 0.068792813 0.016796988 -0.13170412 0.98870319 0.071553901 0.00052372465
-0.018398326 0.068965733 0.017580137 0.060838141 0.97376865 0.2192564 0.001961339
-0.015871109 0.068880536 0.017176945 0.028791163 0.93030053 0.36566648 0.0049186526
-0.013542147 0.068757638 0.017114324 0.021233497 0.88551688 0.46412173 0.006896893
-0.010431361 0.068554379 0.017439019 -0.0028880283 0.80271763 0.59635234 0.006163856
-0.0074125952 0.068593264 0.01765593 -0.045151666 0.70115787 0.71157491 0.0042236815
-0.0047394442 0.068797112 0.017795563 -0.065855518 0.64442003 0.76183063 0.0020281654
-0.0019289231 0.068910129 0.017907545 -0.030280532 0.54124296 0.84032089 0.0033042561
0.0029862216 0.068908505 0.017994598 0.13127464 0.52525723 0.84075671 0.0042891731
0.0053750426 0.068599716 0.017844006 0.18700242 0.40277958 0.89599037 0.0039590094
0.0078226952 0.067746878 0.017420391 0.33253121 0.33678025 0.8809098 0.0023570387
0.010527171 0.067503966 0.016241891 0.40903836 0.31046546 0.85807854 0.0018686219
0.012641153 0.067039572 0.01532093 0.41524428 0.28511295 0.86387664 0.0015314814
-0.024313057 0.069060721 0.016454231 -0.12323862 0.98883563 0.083763726 0.00080691464
-0.022056079 0.069239631 0.01706576 -0.036563061 0.99023175 0.1345522 0.0024320122
-0.019338736 0.069343179 0.01619399 0.017521204 0.96395445 0.2654897 0.0069147083
-0.016369792 0.06943734 0.015857635 -0.021414287 0.92408752 0.38158047 0.0064930613
-0.013275306 0.069671512 0.015699649 -0.067834549 0.84662157 0.52785456 0.0041641425
-0.010438421 0.069830701 0.015960071 -0.089176923 0.78116846 0.61791855 0.0024477129
-0.0073142541 0.069982335 0.016368516 -0.1158631 0.72056538 0.68363833 0.0014653222
-0.0044382811 0.070374943 0.01654057 -0.11472999 0.66732419 0.73587734 0.0016926654
-0.0013170621 0.070382349 0.016999805 -0.06944795 0.62785804 0.77522343 0.0027940108
0.0015663356 0.070531853 0.017033178 0.028574344 0.58089882 0.81347406 0.0025216094
0.0045109335 0.070414253 0.016932797 0.14900355 0.51601869 0.84351796 0.0037908228
0.0074725715 0.070427276 0.016215278 0.26329264 0.52769333 0.80759937 0.0024414372
0.01008451 0.069833711 0.015491341 0.37102368 0.45015079 0.81222272 0.0030072161
-0.0011137018 0.072231457 0.015318847 -0.09157528 0.72734547 0.68013424 0.0024555793
0.0017100463 0.072483823 0.015319399 -0.020991525 0.71099013 0.70288855 0.0020227598
0.0044173328 0.0724971 0.015280048 0.10286014 0.67239714 0.7330088 0.0032179877
0.0063225101 0.072341137 0.015184831 0.21549055 0.63930154 0.73814458 0.0037208232
-0.033834863 -0.066314206 0.019438868 -0.29576024 -0.94345611 0.14972113 0.00089662359
-0.03154359 -0.066961229 0.019528814 -0.25312057 -0.9613539 0.10829926 0.0010125416
-0.028431792 -0.067657903 0.019501854 -0.21323365 -0.97344381 0.083298229 0.00050142512
-0.02551787 -0.068161808 0.019501776 -0.14864646 -0.98581588 0.07791844 0.00018656257
-0.02221833 -0.068526126 0.019392857 0.0041390448 -0.9934029 0.11460219 0.0016564542
-0.019074854 -0.068275049 0.019597277 0.11935756 -0.97652966 0.17928629 0.0027052704
-0.016136911 -0.067687511 0.019965896 0.19242421 -0.94697565 0.25731325 0.0049078315
-0.013336846 -0.067164108 0.019764621 0.18251619 -0.90846372 0.37600723 0.0080700498
-0.010402367 -0.066794164 0.019340491 0.12896247 -0.81899583 0.55911934 0.0098174345
-0.0075109638 -0.066866972 0.018865537 0.047275361 -0.68014771 0.73154914 0.0059348862
-0.0044187037 -0.067092128 0.018725727 0.010003312 -0.56249946 0.82673705 0.0042769802
-0.0014513995 -0.067218043 0.018761495 0.016436376 -0.48263916 0.87566507 0.0028351105
0.001597904 -0.067343391 0.018667012 0.074831873 -0.42276296 0.90314543 0.0021534022
0.0044691348 -0.067013748 0.018473068 0.17992318 -0.37373656 0.90991676 0.0031885421
0.0065954328 -0.06651099 0.018181074 0.31981343 -0.34206736 0.88357753 0.0029135693
-0.04243812 -0.063186288 0.018537207 -0.4077563 -0.80803794 0.42521703 0.0033419353
-0.04041272 -0.063673265 0.019586409 -0.4035224 -0.82066131 0.40457973 0.0033978156
-0.03754025 -0.064922825 0.019639555 -0.37953734 -0.88700688 0.26300222 0.00145927
-0.035228893 -0.065777183 0.019793766 -0.34638688 -0.91541332 0.20502366 0.0012042108
-0.0096599814 -0.065682776 0.020621946 0.25741738 -0.77369541 0.5789057 0.0094660148
-0.0072417543 -0.065187745 0.02041547 0.18393628 -0.63829893 0.74749035 0.010116846
-0.0043916358 -0.064694457 0.02027653 0.13061486 -0.50219363 0.85483402 0.0057879374
-0.0014515859 -0.064423859 0.020098349 0.11576023 -0.38628033 0.91508859 0.0036336135
0.0014628655 -0.064519189 0.019748017 0.13285454 -0.31226638 0.94065899 0.0023425159
0.0045057177 -0.064502478 0.01922814 0.22670388 -0.24899924 0.94159698 0.0020419136
0.0071803029 -0.064352833 0.018466845 0.3352809 -0.20835103 0.91879082 0.0013696811
-0.048615832 -0.060306355 0.018765917 -0.46884215 -0.75542498 0.45773375 0.0043989057
-0.046453599 -0.060813647 0.019492878 -0.3888894 -0.77197599 0.50281018 0.0044619325
-0.043826383 -0.061922792 0.019764746 -0.41090462 -0.79603332 0.44439647 0.0031872212
-0.041579228 -0.062642492 0.02058474 -0.42889205 -0.79445839 0.42998546 0.0045079184
-0.0034732493 -0.062945113 0.020899663 0.23219882 -0.4343909 0.87028056 0.0043400247
-0.00098318257 -0.062304448 0.020817975 0.17743324 -0.32343304 0.92946678 0.0021407099
0.0016285433 -0.061581001 0.02051015 0.21686873 -0.24229573 0.94565368 0.0014669975
0.0044765193 -0.061481539 0.019840067 0.268318 -0.18038699 0.94629061 0.00096221658
0.0075024166 -0.061492845 0.018837301 0.35145804 -0.14949909 0.9241901 0.0005915488
0.0093832873 -0.060957529 0.018158983 0.42501113 -0.14914614 0.89281636 0.00023893481
-0.051117759 -0.057844881 0.019361438 -0.56448066 -0.54993159 0.61557847 0.0092030205
-0.049662765 -0.058362015 0.019825216 -0.5191412 -0.62175065 0.58644569 0.0063434709
-0.047022428 -0.059699304 0.020633666 -0.43550131 -0.64840335 0.62442917 0.0030279921
0.0025117898 -0.059035588 0.02081494 0.28305677 -0.18125202 0.94182086 0.00064517395
0.0045626145 -0.058499057 0.020277666 0.30934873 -0.15568878 0.93811744 0.00051161472
0.0075146588 -0.058483586 0.01923985 0.36611354 -0.12248178 0.92247444 0.00039175045
0.0097106472 -0.058361743 0.018313343 0.42238504 -0.11540688 0.89903951 0.00021088008
-0.051735699 -0.056328189 0.019512637 -0.74450397 -0.3920905 0.54035074 0.014156099
-0.050432995 -0.056598261 0.02069659 -0.55593097 -0.50853097 0.65752333 0.0083744023
0.0028821332 -0.05683586 0.020941956 0.2998046 -0.17393725 0.93801016 0.00059857813
0.0049236552 -0.055611115 0.020586716 0.34905452 -0.13377111 0.92750543 0.00031579038
0.0075336169 -0.055485997 0.019583497 0.38220298 -0.10735592 0.91782117 0.00023069842
0.01004658 -0.055366695 0.018496277 0.42531791 -0.093602635 0.90019065 0.00016452221
-0.052097507 -0.05270547 0.020317085 -0.68367243 -0.18233398 0.70664442 0.01150002
0.0054142694 -0.052733988 0.020765597 0.38423952 -0.089566849 0.91887856 0.0002775703
0.0074874628 -0.052490186 0.019923437 0.40201092 -0.073344581 0.91269261 0.00031783772
0.010315412 -0.052486319 0.01864014 0.43517882 -0.053945158 0.89872652 0.00032940463
-0.052198905 -0.049401645 0.020600269 -0.75585282 -0.011799398 0.65463525 0.0077454494
0.0056911339 -0.049436785 0.020875493 0.41367885 0.0091160256 0.9103772 0.0011526276
0.007567212 -0.049478095 0.020038497 0.42881 0.02762704 0.90297222 0.0012514958
0.010379815 -0.049581457 0.018674014 0.44680411 0.054545507 0.8929674 0.0014115139
-0.052516218 -0.047571901 0.019722108 -0.76057023 0.049027983 0.64740187 0.0085618794
0.0054322318 -0.046251476 0.020724529 0.44483843 0.10132267 0.88986093 0.00053081522
0.0074791443 -0.046483085 0.019719876 0.45686164 0.12758875 0.88033998 0.00032073379
0.0098995259 -0.046666536 0.018482976 0.46497235 0.16125405 0.87051582 0.00045414432
-0.051625218 -0.043312877 0.020437256 -0.72917235 0.31172982 0.6092062 0.010083003
-0.050592862 -0.042430852 0.020962175 -0.68613607 0.3669658 0.62813491 0.010760051
0.0051318845 -0.043451726 0.020499358 0.49461338 0.013586359 0.86900687 0.0063741119
0.0074927951 -0.043538678 0.019166922 0.50477684 0.098872364 0.85756898 0.0018842079
0.009375371 -0.043909181 0.018188549 0.54589891 0.16197726 0.82204479 0.0034298096
-0.051179573 -0.041026715 0.019869503 -0.66788286 0.34628302 0.65880245 0.0050772531
-0.050352979 -0.040792685 0.019762922 -0.71883476 0.47883102 0.50398153 0.0079658143
0.0053194971 -0.041129354 0.020496462 0.52328044 -0.27885064 0.80524522 0.024970351
0.0074523059 -0.040517207 0.019174092 0.60512781 -0.18737079 0.77376509 0.025079364
0.0090234969 -0.041052431 0.018125493 0.68026704 -0.023326971 0.73259306 0.020169307
-0.04876148 -0.038597532 0.019741783 -0.68833148 0.61220139 0.3891134 0.013092026
-0.04770869 -0.037055694 0.0196971 -0.77902633 0.47975037 0.40368 0.013799
0.00826493 -0.038366947 0.019623607 0.68599337 -0.55998915 0.46457005 0.024283936
0.0098353168 -0.036938388 0.019242024 0.7620616 -0.57621968 0.29535225 0.0095135951
0.011430517 -0.035073485 0.019695727 0.77526259 -0.59806651 0.20318554 0.0013877911
0.012473173 -0.033849262 0.019144602 0.81117541 -0.55498737 0.18434598 0.0016708946
0.013728723 -0.031509724 0.01949046 0.89208126 -0.40868464 0.19278979 0.0016670935
0.014669468 -0.028833335 0.019798314 0.94040376 -0.26706678 0.21051392 0.0017766707
0.015205332 -0.027674282 0.018728098 0.96017879 -0.2048292 0.19000432 0.0020337803
-0.047755741 -0.025139347 0.020922311 -0.80329114 -0.23639879 0.54666173 0.013683484
0.014913006 -0.026372928 0.020780016 0.97512341 -0.080349982 0.20658702 0.0021595282
0.015350129 -0.02541572 0.019379342 0.98121512 -0.072392769 0.17881867 0.0017157835
0.014907273 -0.021706313 0.020652082 0.97198552 0.11509087 0.20493482 0.0018391566
0.01532065 -0.022522749 0.019293001 0.97775602 0.10418928 0.18203752 0.0015352982
0.014581989 -0.01927218 0.019694885 0.93200219 0.29567581 0.20963714 0.0018223332
0.015154493 -0.020442827 0.018503966 0.96046495 0.21639016 0.17516376 0.0019364655
0.013470626 -0.016480977 0.019521529 0.87232876 0.44870198 0.19418827 0.0021598742
0.011105466 -0.013046756 0.019677592 0.78400093 0.57451802 0.23509914 0.0022994485
0.012343268 -0.014457088 0.019158075 0.81617105 0.54550666 0.1904923 0.00063175679
0.0084232874 -0.010028731 0.020570412 0.68935162 0.3757337 0.61936951 0.037266571
0.0096884621 -0.010558999 0.019223424 0.85824072 0.27743265 0.43180329 0.025991781
0.0040048892 -0.0089300238 0.020797687 0.47915524 0.46153206 0.74659121 0.097869165
0.008358906 -0.007483643 0.020568529 0.67132849 0.083781525 0.73640937 0.029238744
0.0096671237 -0.0074985642 0.01910785 0.87117565 0.0502511 0.48839298 0.032400955
0.0083640385 -0.0045140814 0.020566845 0.55112064 -0.0085739661 0.83438152 0.012002102
0.009615195 -0.0044950075 0.019202357 0.93072557 0.01446649 0.36543199 0.05818221
0.0083447425 -0.0015315245 0.020581895 0.59900939 -0.00010867118 0.80074197 0.020131571
0.0095929792 -0.0015227912 0.019235164 0.94463217 0.019413175 0.32755643 0.058614254
0.0083607547 0.0015160156 0.020567803 0.59444231 -0.0044221901 0.80412614 0.018745679
0.0096421959 0.0015068435 0.019159341 0.92101806 -0.016978154 0.38914984 0.049404126
0.0083356081 0.004507978 0.020584559 0.52229118 -0.00034483586 0.85276717 0.0083556557
0.0095958663 0.0042840377 0.019222768 0.91335708 0.0010474771 0.40715805 0.046667695
0.0083421851 0.007502377 0.020580374 0.60760152 -0.034629527 0.79348671 0.019449135
0.0096158544 0.0076568355 0.01917926 0.91350329 -0.057143863 0.40279794 0.055315215
0.0083834725 0.010211703 0.020566208 0.64133954 -0.39070186 0.66032994 0.043386605
0.0096631441 0.010549768 0.019094242 0.85942233 -0.2866177 0.42337164 0.02980203
0.01085421 0.013290093 0.019652354 0.806261 -0.54046583 0.24049886 0.0037233641
0.012227544 0.014683739 0.019032277 0.8065325 -0.56099308 0.186526 0.0012994463
0.013237223 0.016514705 0.019483699 0.85846382 -0.47377977 0.19639876 0.0018215993
0.014464325 0.019341312 0.019604698 0.92458266 -0.32033321 0.20623635 0.0016133552
0.015134994 0.020692645 0.018446835 0.95462424 -0.23451965 0.18355711 0.0015236732
0.014908212 0.02175089 0.020551672 0.96692926 -0.14090513 0.2125878 0.0019020764
0.015295926 0.022635156 0.019290444 0.97554636 -0.11876335 0.18494457 0.0017287758
-0.048031092 0.025557499 0.019973401 -0.85645151 0.056302316 0.51314801 0.0040950095
