# .PCD v0.7 - Point Cloud Data file format
VERSION 0.7
FIELDS x y z normal_x normal_y normal_z curvature
SIZE 4 4 4 4 4 4 4
TYPE F F F F F F F
COUNT 1 1 1 1 1 1 1
WIDTH 554
HEIGHT 1
VIEWPOINT 0 0 0 1 0 0 0
POINTS 554
DATA ascii
0.013626871 0.040369388 -0.0014597682 0.099315986 -0.94185925 -0.32099459 0.0043744817
0.016524866 0.040802438 -0.0014921646 0.17569168 -0.96205449 -0.20876679 0.0042461138
0.019508498 0.041493062 -0.0011555231 0.26856849 -0.96129531 -0.061501142 0.0030052238
0.02130739 0.041899808 -0.0015263923 0.28224814 -0.95750797 -0.059283718 0.0024897028
-0.051729962 0.044215307 -0.0014363155 -0.754089 -0.63692981 -0.16021894 0.040634293
-0.049539167 0.043609113 -0.0014653933 -0.2298429 -0.91029292 -0.34429502 0.034736432
-0.046618406 0.043631438 -0.0017027315 -0.27422416 -0.82124943 -0.50035036 0.022497891
-0.04396018 0.043209393 -0.0027071026 -0.27190739 -0.74186462 -0.61294633 0.010007824
-0.04161321 0.042092878 -0.0029397116 -0.21026373 -0.66117287 -0.72016644 0.010065855
-0.02739607 0.042013131 -0.0029904654 0.068869583 -0.57885224 -0.81251901 0.0057298415
-0.024971463 0.042113349 -0.0029049441 0.074353449 -0.51802045 -0.85213053 0.0096210428
-0.022576958 0.0422922 -0.0028205714 0.089483164 -0.5300855 -0.84320945 0.0038397359
-0.0194632 0.04262276 -0.0026981095 0.079264365 -0.50712991 -0.858217 0.0035174885
-0.016473169 0.042736448 -0.0024878734 0.066177838 -0.50111538 -0.86284637 0.0031779427
-0.013452517 0.043087997 -0.002475318 0.037217058 -0.50625718 -0.86157918 0.0030300305
-0.01052274 0.043105938 -0.0024604383 0.0012844318 -0.5341776 -0.84537131 0.0027034786
-0.0075122518 0.042899437 -0.0023766612 -0.023080042 -0.57332581 -0.81900227 0.0028769965
-0.0045325276 0.042744458 -0.002411755 -0.043823086 -0.62804288 -0.7769438 0.0032183318
-0.0014334074 0.042556651 -0.0024636793 -0.072426587 -0.69196141 -0.7182923 0.003419003
0.0013381548 0.042316675 -0.0026175599 -0.13554007 -0.73427105 -0.66518795 0.0027284345
0.02076794 0.042046916 -0.0023277844 0.29035643 -0.95682132 -0.013641906 0.0014747081
0.022733975 0.042470638 -0.0013736876 0.32976192 -0.9436956 0.026376812 0.0026011893
0.025298029 0.043426093 -0.0013414369 0.38094071 -0.91437924 0.13709377 0.0024812643
0.028250853 0.044567786 -0.0018029362 0.39218751 -0.90158904 0.18255451 0.0021252476
-0.052163828 0.046545155 -0.0015538805 -0.96831733 -0.23564696 -0.082656443 0.02951191
0.029613271 0.045316663 -0.0013053424 0.43821493 -0.86657065 0.23879494 0.0021386307
0.031403314 0.046112869 -0.001706391 0.4363625 -0.85466546 0.28130901 0.002546896
0.033920079 0.047450352 -0.0016939801 0.4715471 -0.79374486 0.38420361 0.0036516343
0.036174979 0.047911908 -0.0029957064 0.49953404 -0.75291121 0.42847458 0.0034304124
-0.052352369 0.049485028 -0.0013903159 -0.99655753 -0.032829426 -0.076127142 0.0018000997
0.035181459 0.048636943 -0.00096874952 0.4996008 -0.74409318 0.44353622 0.0030916503
0.037314497 0.049774017 -0.0015671164 0.52747327 -0.69022673 0.49533725 0.00384447
0.039539695 0.050720889 -0.0024623114 0.60558254 -0.61406046 0.50616157 0.0030523513
-0.05222128 0.052497439 -0.0014412806 -0.9940148 0.081024997 -0.073277451 0.0020526357
0.038470309 0.051627614 -0.00058863813 0.57701081 -0.53597707 0.61626863 0.0032783435
0.040267944 0.052567385 -0.0015637943 0.63236171 -0.50510299 0.58735818 0.0031509413
0.042195443 0.05360914 -0.0027986492 0.69404781 -0.50360292 0.51447219 0.0033638407
-0.05178652 0.055449598 -0.0014984966 -0.97859716 0.17349494 -0.11066682 0.010685958
-0.049849488 0.056885857 -0.0025122694 -0.22633158 0.9183982 -0.32452849 0.016944058
-0.046872519 0.0568837 -0.0025299559 -0.090075523 0.9326269 -0.34941885 0.010273863
-0.044325352 0.056864828 -0.0026138239 -0.29690593 0.80923206 -0.50694209 0.018456951
0.041242555 0.054959059 -0.00095186278 0.66998446 -0.36021358 0.64912796 0.0038467646
0.042598993 0.055432685 -0.0021764035 0.72133994 -0.35055137 0.59731269 0.0036309543
-0.051243875 0.057108175 -0.0012107835 -0.79501563 0.5785355 -0.18233705 0.027520718
-0.049460739 0.057279885 -0.00089318654 -0.29704705 0.91121227 -0.28540358 0.027833778
-0.046252113 0.057892691 -0.0009407677 -0.25051743 0.85729426 -0.44976389 0.012786467
-0.043715458 0.058894388 -0.0015375684 -0.32775953 0.82224512 -0.46528113 0.010366456
-0.040856659 0.059520684 -0.0018113556 -0.21723412 0.8923583 -0.39560837 0.0063923066
-0.037958201 0.059703074 -0.0024480047 -0.12759824 0.8995626 -0.41773903 0.00029680581
-0.034288473 0.059959166 -0.0029543668 -0.11129981 0.88222498 -0.45748383 0.00028081817
0.041591797 0.058151547 -0.00035826015 0.66356921 -0.078557611 0.74397892 0.0028959771
0.043114837 0.058548581 -0.0017988178 0.72378421 -0.099096879 0.68287349 0.0030297691
-0.040008992 0.060236439 -0.00046592896 -0.19199857 0.90105784 -0.38888469 0.00031537018
-0.037397794 0.060408972 -0.0011224624 -0.15506253 0.89607751 -0.41593352 0.00044280413
-0.034558117 0.060769513 -0.0013214331 -0.13727926 0.8785857 -0.45742935 0.00053736672
-0.03161101 0.061167829 -0.0013751739 -0.11792535 0.85904616 -0.49812984 0.00067945186
-0.02867174 0.061622441 -0.001299781 -0.10678438 0.84200728 -0.5287919 0.00054819847
-0.025648907 0.061860088 -0.0015436185 -0.12505805 0.80948746 -0.57366413 0.00060200912
-0.022650588 0.061784122 -0.0021561962 -0.11687014 0.78388661 -0.60980582 0.00055137865
-0.019030707 0.062180731 -0.0023918515 -0.15708776 0.75270885 -0.63933778 0.00056368404
-0.016878184 0.062579915 -0.0024888963 -0.18342522 0.68812215 -0.70202786 0.00092505867
0.041514128 0.061593156 -0.00048392662 0.63238794 0.077540919 0.77076125 0.00079418294
0.043014601 0.061703406 -0.0018145279 0.66995847 0.074553065 0.73864567 0.0012671112
-0.024403511 0.063007161 -0.00022357384 -0.13030086 0.79361981 -0.59429729 0.00051567814
-0.022973554 0.063267574 -0.00024398613 -0.15566511 0.78876644 -0.59465611 0.00043461885
-0.019391874 0.063621514 -0.00069765851 -0.1775092 0.74899906 -0.63835013 0.00039929579
-0.016944427 0.064275824 -0.00070826837 -0.21223041 0.72696841 -0.6530506 0.00075132778
-0.013072506 0.064377546 -0.0019371302 -0.31512907 0.65935087 -0.68260533 0.00046525369
-0.010827432 0.065269776 -0.0021338572 -0.36946881 0.63422281 -0.67915696 0.00045352898
-0.0088693202 0.065780476 -0.0026636389 -0.40866253 0.61700153 -0.67253548 0.00041449288
0.041171048 0.064587325 -0.00060889911 0.63418263 0.13608368 0.76111335 0.00044730373
0.042977273 0.064303525 -0.0021051378 0.69237876 0.13846408 0.7081238 0.00078831357
-0.01242726 0.066377588 -0.00031304237 -0.33414915 0.65932429 -0.67352492 0.00052414997
-0.0098959524 0.066915452 -0.0010667522 -0.36994672 0.64668357 -0.66703808 0.00055924599
-0.0074668457 0.06790141 -0.0015786787 -0.43612704 0.64225596 -0.63031775 0.0005123525
-0.0057322276 0.068558328 -0.0021799272 -0.47119263 0.62811971 -0.61922777 0.00061317097
0.040814482 0.067286037 -0.00094794179 0.60851312 0.16888463 0.77536422 0.00034787704
0.042712282 0.067051366 -0.0025435847 0.67327237 0.18521665 0.71582055 0.00070313906
-0.0066772713 0.069583759 -0.00042811086 -0.45592329 0.64480764 -0.6134795 0.00060330157
-0.0044188853 0.07010445 -0.0016680862 -0.49808073 0.64346188 -0.58126789 0.00078217546
-0.0022867734 0.071277186 -0.0023244047 -0.52798992 0.63461673 -0.56434768 0.00023624851
0.038711607 0.070327364 -0.00018929568 0.58422416 0.21007422 0.78393292 0.000373869
0.040431306 0.070386946 -0.0014361276 0.62599021 0.23432946 0.74379158 0.00072569482
0.042217862 0.069586314 -0.0026844488 0.68162346 0.24769604 0.68850285 0.00099883694
-0.0031641126 0.072281636 -0.00035699102 -0.47638127 0.68649572 -0.54934913 0.0018902891
-0.001195301 0.073110707 -0.0011201344 -0.50447726 0.69965148 -0.50595498 0.0013213559
0.00090145925 0.073887177 -0.0020386097 -0.47887146 0.74423724 -0.46561044 0.0013742669
0.0030112981 0.074676469 -0.0028821346 -0.48011336 0.7496587 -0.4555251 0.0015513572
0.038132988 0.073723152 -0.00070940284 0.56516755 0.34297973 0.75030035 0.0028746161
0.039926499 0.07329417 -0.0020187919 0.62318534 0.35934931 0.69462806 0.0033274868
0.0022864486 0.075325459 -0.00067376369 -0.40909833 0.8407461 -0.35466129 0.0035577095
0.0045284582 0.076036319 -0.0014330912 -0.35737768 0.89428586 -0.2693215 0.0035850424
0.0075182207 0.077126049 -0.0015436528 -0.30912933 0.93439245 -0.17705873 0.0027300105
0.0096574258 0.077797413 -0.0015178588 -0.28655723 0.95070249 -0.11853183 0.0034699575
0.032276597 0.077694111 -0.00014105644 0.27745408 0.6629113 0.69539034 0.0028812049
0.03489336 0.07704059 -0.00083345774 0.40315956 0.60351807 0.68791598 0.0049934913
0.03723719 0.076280743 -0.0016623926 0.51031047 0.53984433 0.66944098 0.0030965048
0.039375998 0.075341329 -0.0027037263 0.58073068 0.52231014 0.62445492 0.0047309236
0.010983191 0.078143954 -0.0013720789 -0.22256534 0.97417945 -0.037933923 0.0026719968
0.01334836 0.078653581 -0.001536662 -0.19249822 0.98129177 -0.0033087947 0.0027502091
0.016380109 0.079160064 -0.0013946643 -0.15062128 0.98142672 0.118806 0.0036667492
0.019358829 0.079529852 -0.001587933 -0.070564605 0.96755153 0.24262036 0.0056870882
0.022581583 0.079770893 -0.0015289116 0.00091108336 0.92483228 0.38037407 0.0028508145
0.025522487 0.079768479 -0.0014908909 0.020674473 0.9089523 0.4163872 0.0031242329
0.028478149 0.07956402 -0.0014437222 0.10463905 0.86451048 0.49160182 0.0026545892
0.031396594 0.079120941 -0.0015165112 0.21204665 0.79751027 0.56481284 0.0036135828
0.03424741 0.07863275 -0.0021420468 0.35816857 0.7378239 0.57212865 0.0028524629
0.011934658 -0.078047566 0.00080886274 -0.14194947 -0.98733932 0.070791319 0.0025658314
0.013866728 -0.078138091 0.00089864089 -0.13132906 -0.98085392 0.14379923 0.003008239
0.016607551 -0.078307465 0.0011588788 -0.047045324 -0.9629634 0.26549622 0.0024469774
0.019472949 -0.078340083 0.0012569083 0.012339356 -0.9342941 0.35628942 0.0029531259
0.022425717 -0.078459106 0.00076636684 0.03639188 -0.91045237 0.41200984 0.0032089162
0.02521893 -0.078350462 0.00051862281 0.076235518 -0.87330198 0.48117739 0.0030538675
0.027870327 -0.07818 0.00027047849 0.1567447 -0.78839403 0.59486634 0.0030467801
0.03019988 -0.078035116 0.00016600726 0.22956297 -0.73817188 0.63435256 0.002741857
0.001771606 -0.075471699 0.0018121433 -0.40183932 -0.89061677 -0.21290098 0.010304533
0.004501217 -0.076259807 0.0014117407 -0.27604645 -0.95515507 -0.10713136 0.0046720887
0.0074937525 -0.077031694 0.0014856963 -0.21237041 -0.97709042 -0.013899799 0.0036046966
0.010416185 -0.077578396 0.0016357258 -0.13122824 -0.98403639 0.12021458 0.0027019463
0.013180655 -0.077838831 0.0021796918 -0.084009454 -0.98083574 0.17579435 0.0039760415
0.016311433 -0.077858105 0.0026440537 0.0021510976 -0.95212674 0.30569577 0.0025956831
0.019672787 -0.077803209 0.0025552399 0.053961147 -0.91514945 0.39948669 0.0029483954
0.02276733 -0.077593639 0.0023544612 0.11132168 -0.8509981 0.51323462 0.0028089583
0.025629312 -0.077250943 0.0021278139 0.17085877 -0.80709201 0.56516349 0.0025903657
0.028618325 -0.07680434 0.0016862152 0.23029828 -0.72435552 0.64982444 0.0032841186
0.031392939 -0.076243572 0.0011876378 0.30296618 -0.61359686 0.72918475 0.0032541289
0.034030143 -0.075591132 0.00051829353 0.40711805 -0.56433004 0.7181828 0.002391726
-0.003209743 -0.072209157 0.0027172274 -0.51404184 -0.77934784 -0.3582989 0.0063705514
-0.0011285346 -0.073328733 0.001628833 -0.59072506 -0.74447489 -0.31112856 0.0086549129
0.00057294645 -0.074385546 0.0010413936 -0.55010802 -0.7947244 -0.256504 0.0075141382
0.029593583 -0.074949704 0.0028211125 0.3029286 -0.62544179 0.71906668 0.004187895
0.031944189 -0.074099123 0.0024934416 0.37864599 -0.45490044 0.80603528 0.0041411212
0.034460254 -0.073469341 0.0015137094 0.44990978 -0.38920012 0.8038063 0.0031764326
0.036573458 -0.073191948 0.00042655139 0.5003823 -0.38580778 0.77509344 0.0026569639
-0.012069857 -0.069146097 0.002835697 -0.33129483 -0.8780899 -0.34525627 0.01161352
-0.010879729 -0.069247462 0.0023278086 -0.39123634 -0.78384936 -0.48219743 0.019243874
-0.0074160141 -0.069785148 0.0014823395 -0.39944023 -0.78225994 -0.4780345 0.011171594
-0.004569659 -0.070758954 0.0015494018 -0.43795496 -0.7861644 -0.43605167 0.0089535741
-0.0023588638 -0.071569584 0.00080005085 -0.54470062 -0.74465293 -0.38573721 0.012443638
0.032769937 -0.071789607 0.0029862402 0.47666049 -0.29329813 0.82871652 0.0023139007
0.034851987 -0.070631556 0.0022534251 0.50205904 -0.22126599 0.83604914 0.00042331096
0.037200306 -0.070477866 0.00081881968 0.54512519 -0.22907779 0.80645013 0.0006910612
0.039238788 -0.069368623 2.6655132e-05 0.597377 -0.22560076 0.76957464 0.00068836717
-0.018529473 -0.066311032 0.0027095261 -0.20853142 -0.81156838 -0.54577595 0.016816188
-0.016261986 -0.066544004 0.0021243924 -0.26733086 -0.80309802 -0.53251082 0.018612774
-0.013231114 -0.067294396 0.0017844411 -0.32695365 -0.79876775 -0.50504601 0.017884184
-0.01058549 -0.067779176 0.0014327839 -0.36319315 -0.72368157 -0.58683538 0.020102493
-0.0079831416 -0.06812077 0.00073607248 -0.39045075 -0.71524525 -0.57963139 0.014039285
-0.0056197848 -0.068849944 0.00059213495 -0.40244633 -0.72525376 -0.55860907 0.025486849
0.035255056 -0.067861453 0.0026092359 0.51324642 -0.16335644 0.84255129 7.9478603e-05
0.037498586 -0.067526117 0.0012767427 0.53989106 -0.16776438 0.8248471 0.00016767626
0.039413363 -0.066898435 0.0002147863 0.59036785 -0.17360064 0.78824401 0.00043854787
-0.03089455 -0.06316442 0.0027102514 -0.16499144 -0.8887226 -0.42772645 0.017731303
-0.028748149 -0.063472725 0.0024203786 -0.17761852 -0.85698396 -0.4837667 0.015289391
-0.025306219 -0.063770942 0.0019537404 -0.18292029 -0.85167611 -0.49110883 0.01366616
-0.022396965 -0.064448588 0.0017896775 -0.2027577 -0.79984057 -0.56492865 0.014953472
-0.019740721 -0.064334042 0.0012354831 -0.21801615 -0.76797646 -0.60223019 0.015607012
-0.016812358 -0.064863846 0.0014052255 -0.2638199 -0.75856531 -0.59580016 0.016654089
-0.014029044 -0.065507658 0.0010631809 -0.31204128 -0.71850765 -0.62159228 0.013609395
0.035723589 -0.064560294 0.0028033983 0.51621383 -0.13433805 0.84585851 7.1548151e-05
0.037515651 -0.064597569 0.0017837824 0.53755373 -0.13727775 0.83198005 0.00023427579
0.039446779 -0.064828962 0.00047790786 0.58101141 -0.13517044 0.80259252 0.00035533746
-0.042811621 -0.060223166 0.0022578067 -0.1892093 -0.96445298 -0.18447278 0.018473109
-0.040421605 -0.060540047 0.001719591 -0.20067339 -0.93479466 -0.29306841 0.0054392791
-0.03746954 -0.060913477 0.001408287 -0.20142868 -0.92404079 -0.32492319 0.0022545836
-0.034482557 -0.061587662 0.0015918143 -0.20061249 -0.91228205 -0.35706595 0.0076907333
-0.031658854 -0.062010869 0.0014645668 -0.16670281 -0.90176028 -0.39879638 0.013046943
-0.028546462 -0.062308345 0.0012256979 -0.1449499 -0.86559522 -0.47930616 0.01133652
-0.025865586 -0.062401056 0.00080999214 -0.11236541 -0.84489608 -0.52299583 0.0092878444
-0.023042722 -0.062384311 0.0013196423 -0.095891029 -0.81091648 -0.57725149 0.02035711
0.037735488 -0.061582901 0.0020870073 0.54172069 -0.098624192 0.83475256 0.0001864496
0.040233515 -0.060987737 0.00049518718 0.57875633 -0.093482271 0.81012487 0.0005434482
-0.051584136 -0.0573541 0.001922448 -0.76460177 -0.61422956 -0.19520792 0.035293289
-0.049308863 -0.057698581 0.001734493 -0.32722777 -0.88585079 -0.32892308 0.011634397
-0.046492536 -0.058838345 0.0014074577 -0.34348604 -0.88454753 -0.31558365 0.010551525
-0.043746829 -0.059576016 0.001104258 -0.16774885 -0.94411969 -0.28372195 0.01015143
-0.041047614 -0.059762001 0.0010545121 -0.20261824 -0.93577361 -0.28857157 0.0089337928
0.037587386 -0.058587786 0.002468433 0.54800957 -0.031902406 0.83586347 0.00073866156
0.040258665 -0.058773696 0.00065676932 0.57727677 -0.02958826 0.81601232 0.0012527413
-0.052032366 -0.055565938 0.0011736718 -0.89595777 -0.39379713 -0.20538625 0.025558123
0.037713088 -0.055870306 0.0022005872 0.55561036 0.06503012 0.82889581 0.0012498237
0.039878406 -0.055881087 0.00073108252 0.60212129 0.16502534 0.78116363 0.002765551
-0.052556861 -0.05270138 0.001517173 -0.9820531 -0.12976289 -0.1368698 0.0015234445
0.035353158 -0.05176961 0.0024187341 0.56019491 0.41507724 0.71686304 0.0030496258
0.03738169 -0.052586291 0.0012805625 0.57424712 0.40444922 0.71180129 0.0036838541
0.039354626 -0.053695928 0.00033253504 0.60265779 0.4046838 0.68777508 0.0022092443
-0.052730303 -0.049606334 0.0014946961 -0.99168831 -0.017278878 -0.12749782 0.0023527488
0.032472629 -0.04879557 0.0024918946 0.5565244 0.60482299 0.56962246 0.0025313033
0.034444638 -0.049618166 0.0014898576 0.54340327 0.57589704 0.61078262 0.0048508593
0.03652804 -0.05042408 0.00045185644 0.53621089 0.58587122 0.60764527 0.0021902923
-0.052597404 -0.046497989 0.0014948624 -0.98710424 0.10341015 -0.12219454 0.0025145407
0.029141441 -0.045928538 0.0020585319 0.50365478 0.74611562 0.43548068 0.001409756
0.031268708 -0.04713437 0.0015861895 0.52412027 0.69394529 0.49369812 0.0033504691
0.03321331 -0.047682162 0.00051804201 0.52480215 0.66379815 0.53287405 0.0023031668
-0.052236393 -0.043734416 0.001469865 -0.93751264 0.29426828 -0.18567805 0.018484067
-0.04958282 -0.042260438 0.0009849976 -0.2733773 0.84174633 -0.4655405 0.015886698
-0.047516417 -0.04242849 0.00049909519 -0.28608614 0.81920004 -0.49705738 0.016765736
0.022834484 -0.042410329 0.0019113419 0.44697788 0.86475819 0.22891933 0.0023117131
0.025366845 -0.043680757 0.0018289392 0.44385409 0.84935766 0.28563082 0.0024842629
0.027447784 -0.044645406 0.0014497673 0.4736594 0.8086043 0.34900686 0.0026553525
-0.051720753 -0.041814242 0.0024993273 -0.70054823 0.67826623 -0.2217814 0.029358661
-0.04890874 -0.040925823 0.0022290116 -0.40417212 0.82511896 -0.39474484 0.013298486
-0.046764236 -0.040449876 0.0012353386 -0.38509181 0.81289911 -0.43692037 0.0085090445
-0.0438402 -0.03955004 0.001275785 -0.49118105 0.79664594 -0.35227326 0.0089070685
0.016375735 -0.039958641 0.0018217937 0.37772226 0.91929084 0.11059066 0.00084288471
0.019640122 -0.041063629 0.0016803355 0.37649283 0.91821122 0.12305012 0.0019015095
0.021788264 -0.04180792 0.00095375651 0.42546213 0.88326752 0.19702908 0.0011347202
-0.042354073 -0.037845619 0.0016943399 -0.89169192 0.2958183 -0.34260339 0.013413813
-0.041325893 -0.036979597 0.00099003199 -0.83492386 0.38480243 -0.39348364 0.022310827
-0.0035258874 -0.036597066 1.4013384e-05 0.079731867 0.14868756 -0.98566467 0.0044712215
-0.0012719288 -0.036740739 0.00017989072 0.10175946 0.21140501 -0.97208691 0.0075871469
0.0012022696 -0.037209496 0.00055251655 -0.00069197192 0.30476034 -0.95242882 0.013832773
-0.04064336 -0.034407768 0.001760693 -0.93572074 0.15352184 -0.31758106 0.01594688
-0.0035064798 -0.035649665 1.5582435e-05 0.087521337 0.011146699 -0.99610031 0.00061712135
-0.0013832478 -0.034401514 0.0001927141 0.12962665 0.012164065 -0.99148828 0.0013356378
0.0014042454 -0.03476635 0.00077309232 0.11321921 0.043997407 -0.99259543 0.0036128922
-0.040596332 -0.031524893 0.0017790738 -0.96840161 0.0052174604 -0.24934134 0.0041111005
-0.001586327 -0.03153858 0.00014418999 0.13887185 -0.02135559 -0.99008012 0.00021357424
0.00059774815 -0.031364776 0.00045892157 0.15244973 -0.0069171931 -0.98828703 0.00022698683
-0.040612351 -0.027914943 0.0015813292 -0.96582675 0.025112398 -0.25796917 0.0035533446
-0.001473945 -0.028631318 0.00013840423 0.13917468 -0.0077794571 -0.9902373 8.639416e-05
0.00061744172 -0.028571155 0.00046817833 0.13917468 -0.0077793719 -0.9902373 8.6368898e-05
-0.040582124 -0.025595823 0.0015017543 -0.96288425 0.034653783 -0.26768091 0.0030685072
-0.0012625118 -0.02552291 0.00014926586 0.1569293 -0.0043667825 -0.98760021 5.8092086e-05
0.00071852963 -0.025619324 0.00049825991 0.15692927 -0.0043667662 -0.98760021 5.8096386e-05
-0.040653698 -0.022560118 0.0016871656 -0.95361149 0.018025011 -0.30050004 0.0015121
-0.0015336659 -0.022123419 9.4740819e-05 0.16254345 -0.0081363264 -0.98666787 4.5315952e-05
0.00081818399 -0.022644265 0.0005264369 0.16977237 -0.0048532584 -0.98547137 6.7799367e-05
-0.040588669 -0.019535933 0.0015158558 -0.94728959 0.020821316 -0.31970116 0.0010923125
-0.0011381437 -0.019294906 0.00014432405 0.17595834 -0.0076423096 -0.98436797 4.7763482e-05
0.00092116045 -0.019643268 0.00055720424 0.18204702 -0.0039186021 -0.98328203 7.0830341e-05
-0.040546056 -0.016450081 0.001402952 -0.91353303 -0.0048000831 -0.4067362 0.0056606
-0.001031989 -0.016338293 0.00014690857 0.18946953 -0.0063247602 -0.98186624 5.5878729e-05
0.0006762027 -0.016467307 0.00049665489 0.18946953 -0.0063248272 -0.98186624 5.5874632e-05
-0.040439837 -0.013516339 0.00112456 -0.9250806 -0.011011248 -0.37961119 0.0041149454
-0.00098006835 -0.013308132 0.00013556136 0.20314772 -0.0050485265 -0.97913516 9.1306938e-05
0.00096959271 -0.013575001 0.00057077169 0.20314772 -0.0050484082 -0.9791351 9.1292401e-05
-0.040436506 -0.01064459 0.001114527 -0.91338015 -0.015767425 -0.40680224 0.0062786932
-0.00096065504 -0.010432538 0.00011656267 0.2231555 -0.0042967093 -0.97477341 0.00020891777
0.0011821814 -0.010640468 0.00064583821 0.22642574 -0.0026722415 -0.97402471 0.00018326228
-0.04049468 -0.0075559113 0.0012628111 -0.88738483 -0.077701718 -0.45443428 0.0079412572
-0.00049291883 -0.0075000036 0.00018597837 0.24173592 -0.0070155375 -0.97031671 0.00020445824
0.0015231848 -0.0075658606 0.00079372001 0.28425854 0.001819224 -0.95874596 0.0012386346
-0.042180166 -0.0039588478 0.0028122463 -0.8471151 -0.073490664 -0.52630329 0.008205723
-0.040615965 -0.0047891 0.0013641267 -0.89424646 -0.10237325 -0.43570974 0.0096456958
-0.00039627773 -0.0047812955 0.00018873758 0.29465115 -0.0092538381 -0.95556003 0.0011993648
0.0014617639 -0.0044110678 0.00076069613 0.3135998 0.003364963 -0.94954926 0.0011373812
0.0032298409 -0.0046281964 0.0018371794 0.34955052 -0.0075290739 -0.93688726 0.0023536247
-0.04234058 -0.0013381083 0.0027247954 -0.8729465 -0.042499043 -0.48596108 0.0058259787
-0.040769406 -0.0015433205 0.0015685797 -0.88547063 -0.025386784 -0.46400145 0.012244661
-0.00039248797 -0.0017987045 0.00016190953 0.28997579 -0.0045148944 -0.95702332 0.001012044
0.0014158256 -0.0014597701 0.00075305416 0.33097503 -0.0064246738 -0.94361764 0.0010604071
0.0031311382 -0.00090613402 0.0017208317 0.58795065 0.044629965 -0.80766475 0.02477699
-0.042311378 0.0014119332 0.0026466367 -0.88606042 0.014975112 -0.46332785 0.0056792526
-0.040765226 0.0014943671 0.0015540681 -0.9001928 0.0054049944 -0.43545803 0.012291052
-0.00032681634 0.0014090738 0.00016280402 0.27384439 -0.0031338169 -0.96176898 0.00011273754
0.0012721668 0.0015847676 0.0006620253 0.33137798 -0.0012435095 -0.94349724 0.001060083
0.003194103 0.0017541469 0.001795737 0.68690223 0.10200096 -0.71955627 0.034979686
-0.042320397 0.0036870788 0.002669302 -0.87660933 0.05489324 -0.47806153 0.0057306015
-0.040610969 0.0046447944 0.0015403873 -0.89794159 0.1115008 -0.42575637 0.010540997
-0.00025024355 0.0045458893 0.00019614337 0.29526561 0.0066757575 -0.95539194 0.0010078017
0.0013528976 0.0044505177 0.0006886007 0.32150945 0.0075841779 -0.94687605 0.001193522
0.0032567251 0.0044056093 0.001856312 0.78264815 0.0049003363 -0.62244517 0.034010392
-0.040410738 0.0074582906 0.001295605 -0.89519393 0.1058638 -0.43292111 0.010032369
-0.0007659379 0.0075521078 9.1878464e-05 0.28639236 0.010493378 -0.95805496 0.0012570238
0.0010463996 0.0073476508 0.00059368793 0.31612501 0.0093134083 -0.94867182 0.001458212
0.0033414606 0.0079922955 0.0019407158 0.78339505 -0.00078677136 -0.62152368 0.032123651
-0.040406536 0.010766386 0.0010234404 -0.9170419 -8.166692e-05 -0.39879102 0.0073716417
-0.00071639771 0.010242777 0.00012505313 0.27814615 0.012265092 -0.96046042 0.0014846333
0.001162249 0.010459531 0.00065463554 0.30888253 0.011161755 -0.95103472 0.0017963655
0.0034061018 0.010726897 0.0020086798 0.78107738 -0.016736597 -0.62420994 0.032411113
-0.040455431 0.013629339 0.0011500316 -0.9534387 -0.012237852 -0.30133846 0.0088679809
-0.00076137687 0.013273074 0.00013754005 0.22993815 0.0048693232 -0.97319305 0.00014837834
0.0011833695 0.013583739 0.00066503184 0.30096424 0.0081710098 -0.95360041 0.0020361592
0.0034715775 0.013496213 0.0020775073 0.77111983 -0.012146365 -0.63657427 0.036840014
-0.04047649 0.016517377 0.0012039661 -0.92823488 -0.016561951 -0.37162593 0.0088170227
-0.00077533716 0.016720498 0.00013671379 0.21999677 0.0085817985 -0.97546291 0.00016039796
0.0013001643 0.016491562 0.00069251435 0.29419023 0.005388692 -0.95573169 0.0018698922
0.003537694 0.016293781 0.0021470382 0.76500362 0.018790552 -0.64375186 0.03601874
-0.040668719 0.019559691 0.0017045925 -0.95900327 -0.023438092 -0.28242415 0.0031295307
-0.0011659744 0.019746382 0.00010619071 0.19275627 0.016478781 -0.98110825 0.00021569125
0.0012173457 0.019560203 0.00067312288 0.27666736 -0.0014157215 -0.96096474 0.0019834104
0.0033099372 0.019123878 0.001907233 0.75309438 0.019242603 -0.65763104 0.036520727
-0.040650368 0.022432771 0.0016561784 -0.95223969 -0.026656996 -0.30418566 0.00093541009
-0.00093111838 0.022489071 0.00017231233 0.18126179 0.018107241 -0.98326814 0.00027839039
0.0011205242 0.022605281 0.00062275922 0.25049081 0.0072077811 -0.9680922 0.0017249431
0.0031017084 0.022926286 0.0016816994 0.76823419 -0.01491796 -0.6399951 0.03375107
-0.040611137 0.025482371 0.0015524222 -0.96296054 -0.030256972 -0.26793942 0.0028648421
-0.0014752746 0.025556259 0.00015232092 0.16366437 0.016070919 -0.98638523 0.00027625615
0.0014303161 0.025476072 0.00073148141 0.23472659 0.01120806 -0.97199678 0.0021037296
0.0031664167 0.025811344 0.0017431303 0.74112946 -0.018543612 -0.67110598 0.044669427
-0.040604949 0.028427858 0.0015344406 -0.96409476 -0.01020932 -0.2653622 0.0039512124
-0.0014253495 0.028429162 0.00015438441 0.15842158 0.0096462928 -0.98732448 0.00032738262
0.0013047813 0.028515529 0.00069120666 0.22331426 0.010896042 -0.97468561 0.0026100562
0.0032319594 0.028733872 0.001805364 0.73653436 -0.019070003 -0.67613131 0.0468532
-0.040589493 0.031490084 0.0014896727 -0.95290053 0.034239642 -0.3013441 0.0066509065
-0.0030799028 0.032636542 3.1683205e-06 0.099877916 0.0045823385 -0.99498922 4.464533e-05
-0.0013029845 0.031438977 0.00017814981 0.15888205 0.010755362 -0.987239 0.0004775456
0.0015713875 0.031591743 0.0008213839 0.34567422 0.0016191115 -0.93835318 0.021517748
0.0032982174 0.031688172 0.0018686826 0.75069749 0.006261562 -0.66061646 0.045574885
-0.040747169 0.034505948 0.0018967032 -0.95735288 -0.11785506 -0.26379079 0.010045812
-0.0031485704 0.034581069 1.1175948e-05 0.081622422 -0.021155069 -0.99643886 0.00049258338
-0.0014369147 0.034559049 0.00017635079 0.14372261 -0.033579327 -0.98904818 0.0014485343
0.001638944 0.034637146 0.0008565709 0.24409704 -0.043724198 -0.9687646 0.0046079652
0.0033659805 0.034707312 0.0019416076 0.80856246 -0.23889458 -0.53773248 0.034509897
-0.042479537 0.038225479 0.0021817081 -0.75512218 -0.55164611 -0.35422748 0.019879689
-0.041285902 0.037477922 0.0013839828 -0.82416916 -0.41405037 -0.38640329 0.024416517
-0.003226703 0.037442934 1.9194074e-06 0.054874018 -0.16978982 -0.98395139 0.006936647
-0.0013257079 0.037164554 0.00014097494 0.13402268 -0.1639291 -0.97732556 0.0061799241
0.0016957507 0.037878498 0.00061271572 0.19407901 -0.32523775 -0.92550188 0.023934178
0.0046610371 0.038249083 0.00179218 0.36697406 -0.65762931 -0.65791625 0.05644092
0.007567212 0.038577076 0.0021396989 0.089576997 -0.92390251 -0.37199473 0.0045329523
0.0099397795 0.038799763 0.0022356024 0.17490171 -0.95091325 -0.25529113 0.0037218274
-0.051358823 0.041982744 0.0027889346 -0.27934799 -0.90412223 -0.32330754 0.026677998
-0.048542 0.041017186 0.0023430681 -0.38523951 -0.81939495 -0.42447892 0.012205658
-0.046509393 0.040747721 0.0014546001 -0.38561088 -0.82881796 -0.40541944 0.012391321
-0.043469112 0.039786715 0.0012071365 -0.46747944 -0.80330974 -0.36899394 0.013367689
-0.041696001 0.03935146 0.0012726637 -0.58435017 -0.7404108 -0.33215466 0.023754179
0.0023213855 0.03935542 0.00012809338 0.13525109 -0.59825647 -0.7898078 0.015961517
0.0048905588 0.039458003 0.00042131473 0.010976098 -0.83553123 -0.54933333 0.010771154
0.0075028329 0.039253917 0.00059465563 0.019823477 -0.90750307 -0.41957733 0.004411424
0.01079185 0.039283033 0.0010051833 0.10140391 -0.94851768 -0.30005229 0.004708176
0.013529603 0.039629709 0.0014797923 0.2230249 -0.95818365 -0.17928724 0.0048857327
0.016363993 0.040373992 0.0016645982 0.30585292 -0.95182872 -0.021817813 0.0027110691
0.019423073 0.041394003 0.0016232622 0.3324914 -0.94210529 0.043441527 0.002894287
0.021236926 0.041944463 0.00093787751 0.37477502 -0.92272383 0.090135902 0.0035910804
-0.052021183 0.043662921 0.0014325612 -0.77000475 -0.55925208 -0.30713165 0.039592128
-0.049594659 0.042595919 0.0014341566 -0.32577625 -0.85035264 -0.41324359 0.014584177
-0.047569226 0.042892281 0.00051933568 -0.34493005 -0.80897498 -0.47600707 0.020282751
0.020838818 0.04208339 0.0028345983 0.36554518 -0.92541277 0.099940002 0.003309973
0.022427717 0.042657174 0.0017843002 0.40631676 -0.89578015 0.18023473 0.0019930147
0.025458377 0.044011004 0.0014023725 0.42421916 -0.87220407 0.24351214 0.0026984992
0.027395252 0.044769123 0.0008364541 0.44187677 -0.85411346 0.2742902 0.0027969077
-0.052524578 0.046359479 0.0014855389 -0.95795244 -0.23694685 -0.16181251 0.022453904
0.026910394 0.045198388 0.0021677786 0.48940256 -0.79623282 0.35566625 0.0016776237
0.028700927 0.045832179 0.0014503591 0.4629432 -0.8260507 0.32144016 0.001742366
0.031081265 0.047225226 0.0012430615 0.50541544 -0.73019159 0.45975587 0.0028035885
0.033187773 0.04777126 0.00018326845 0.47723231 -0.71803766 0.50662732 0.0036587887
-0.052707262 0.049463626 0.001382026 -0.99109805 -0.0039503379 -0.13307492 0.001919923
0.032275081 0.04879149 0.0021422287 0.53213853 -0.65247494 0.53954148 0.0031643971
0.034278069 0.049660239 0.0012156974 0.53734905 -0.61222273 0.5800339 0.0035909824
0.036403716 0.050570536 0.00038336916 0.53588963 -0.59983295 0.5941571 0.0019486224
-0.052605014 0.052549001 0.0015312174 -0.98370826 0.1052346 -0.14575239 0.00083614286
0.035223782 0.051864307 0.002284386 0.56566447 -0.45250362 0.68939406 0.0025118422
0.037388321 0.052728478 0.0010945931 0.57040054 -0.46747658 0.67535836 0.0029931895
0.03932295 0.053610474 0.00019110739 0.60790384 -0.43232256 0.6659956 0.0022772083
-0.052233636 0.055313662 0.0013871492 -0.97070044 0.20257875 -0.12923805 0.012558836
0.037762493 0.055783425 0.0020454056 0.57090408 -0.17502129 0.80214471 0.0019958317
0.039711356 0.055627689 0.00062646513 0.60529268 -0.26421076 0.75087512 0.0034283765
-0.051859606 0.057395056 0.0019092544 -0.93384939 0.3468214 -0.087407723 0.011337437
-0.049167186 0.058152564 0.0017347181 -0.35846004 0.88106662 -0.30859032 0.014585011
-0.046739314 0.059177037 0.0013968628 -0.34443143 0.86243385 -0.37091079 0.0029557978
-0.044161562 0.059768111 0.00062163803 -0.27879202 0.85542804 -0.4364835 0.0046369596
0.037862517 0.058597799 0.002322349 0.55504572 -0.00093790074 0.8318193 0.001187462
0.040320702 0.058748599 0.00062832847 0.59893399 -0.024249678 0.80043119 0.0020009202
-0.045315344 0.060111597 0.002450784 -0.31981733 0.87287724 -0.36851349 0.0029958971
-0.043330967 0.060407653 0.0018836115 -0.24095745 0.90581793 -0.34847283 0.00056382426
-0.040668782 0.060864959 0.0014360533 -0.2010165 0.9110021 -0.36009383 0.00035768139
-0.037670396 0.061509609 0.0014151499 -0.19595648 0.89601624 -0.39844194 0.00036796962
-0.03459141 0.062105305 0.0013322076 -0.18231885 0.88194925 -0.43465549 0.00038607974
-0.031599399 0.062553704 0.0010740448 -0.16549316 0.86419195 -0.47516763 0.00033326531
-0.02882196 0.062660992 0.00043998432 -0.14269184 0.83544934 -0.53071976 0.00054125884
0.037792269 0.061564431 0.0021269743 0.54371703 0.089425787 0.83449078 0.00020698109
0.040271372 0.061165348 0.00052302441 0.5820412 0.08214815 0.80899924 0.0006112121
-0.033042885 0.063031919 0.0024921182 -0.16943988 0.87000179 -0.46301937 0.00035555163
-0.031141359 0.063443318 0.0024766214 -0.18805279 0.85552293 -0.48240727 0.00045201188
-0.028301524 0.063674778 0.0018314201 -0.17798966 0.83233613 -0.52491546 0.00057244772
-0.025526296 0.064131781 0.0016481553 -0.16785479 0.81583428 -0.55338877 0.00030345813
-0.02259656 0.064720944 0.0015617847 -0.19226798 0.78634673 -0.58710456 0.00051774841
-0.019634722 0.064951599 0.00094414817 -0.19879743 0.75512958 -0.62470704 0.0006339117
-0.016590824 0.065552674 0.00060637825 -0.24425903 0.71761757 -0.65219826 0.00045339621
-0.014259933 0.065931976 0.00011359474 -0.29273835 0.68544704 -0.66668326 0.00033822918
0.035616472 0.06486509 0.0028999175 0.51547486 0.12781337 0.84731901 0.00012205261
0.037405431 0.064471595 0.001971446 0.5360747 0.13177109 0.83382273 0.00014291052
0.039542329 0.06465771 0.00053879601 0.58180428 0.13175155 0.80258667 0.00040435381
-0.021461207 0.066001594 0.0028520259 -0.22314809 0.77870834 -0.58636022 0.0002507926
-0.019512685 0.066405885 0.0026476535 -0.24096468 0.75981927 -0.60383004 0.00085649383
-0.016403951 0.066627204 0.0017024225 -0.27407083 0.72971326 -0.62642133 0.00042809371
-0.01339596 0.067491129 0.001320618 -0.32144296 0.7007941 -0.6368376 0.00091884483
-0.011048939 0.068378299 0.0010273054 -0.36551777 0.67897707 -0.63669997 0.00061249349
-0.0087042684 0.068807654 0.0001351848 -0.40222791 0.65880013 -0.63576341 0.00035006838
0.035377748 0.067997724 0.002628796 0.50925249 0.16421261 0.84480542 0.00011233709
0.037497096 0.067512259 0.0013875453 0.54287696 0.16639385 0.82316321 0.00024172955
0.039400365 0.066921465 0.00031490228 0.59110332 0.16716869 0.78908271 0.00045275499
-0.01244498 0.069270983 0.0027428898 -0.3561419 0.7258094 -0.58852679 0.0030485773
-0.010023697 0.069694586 0.0018167951 -0.38521284 0.69453752 -0.60764194 0.0014290254
-0.0074385791 0.070617817 0.001141398 -0.42627084 0.67901742 -0.59768587 0.001266445
-0.0052089226 0.071693264 0.0006688594 -0.45022842 0.67158699 -0.58844316 0.00083042431
0.032802306 0.071849719 0.0029833952 0.48099327 0.24137737 0.84284192 0.0010083597
0.034833733 0.070651412 0.0023861227 0.48996276 0.22370295 0.84255183 0.00058912247
0.037253968 0.070499241 0.000909272 0.54298234 0.21352965 0.81214237 0.00045370069
0.039335664 0.069435678 9.6282201e-05 0.59697217 0.21876788 0.77185798 0.00046183876
-0.0063638156 0.072242811 0.0023367698 -0.41909516 0.75468379 -0.5047887 0.0040639117
-0.0040954114 0.07285887 0.0013414308 -0.44861186 0.7331602 -0.51110029 0.0025011024
-0.0016399003 0.074260205 0.0014079321 -0.41776639 0.83150584 -0.36615476 0.002473983
0.00029262435 0.074848771 0.00051084231 -0.41919947 0.85422117 -0.30753562 0.0055148778
0.032281555 0.074243337 0.0025362959 0.41011184 0.40066117 0.81931615 0.0041623358
0.034522187 0.07354261 0.0016775508 0.46220213 0.36199301 0.80952471 0.0032441888
0.036689419 0.07325764 0.00051565818 0.52038342 0.33906606 0.78373164 0.0026455896
-0.00035443899 0.075267583 0.0025537233 -0.38892141 0.87158865 -0.29845175 0.0040661469
0.001586878 0.075736582 0.0015649684 -0.35860336 0.89835703 -0.2536895 0.0015486178
0.0044351695 0.076672062 0.0014845168 -0.28141141 0.95270252 -0.11474086 0.0034400499
0.0073309937 0.077404656 0.0014589115 -0.22076164 0.97498751 -0.025762314 0.0046028867
0.0096001606 0.077848136 0.0015731618 -0.14526638 0.98731834 0.064033277 0.0048727281
0.020548878 0.077973306 0.002940001 0.041045513 0.90120447 0.43144616 0.0016567595
0.023174567 0.07772585 0.0027438437 0.14152327 0.81329745 0.56437439 0.003821844
0.025767641 0.077469938 0.0023116709 0.18895869 0.79088241 0.58206493 0.0028950658
0.02879788 0.076873578 0.0019377526 0.24992436 0.69382095 0.67538893 0.0035826459
0.031470764 0.076276973 0.001530017 0.33494133 0.55959523 0.75806826 0.0030879655
0.034131784 0.075922102 0.00058471737 0.42254686 0.50767034 0.75081623 0.0027692313
0.036021721 0.075231329 8.2056074e-05 0.45254773 0.52580655 0.72022772 0.0031185572
0.01106793 0.078085057 0.0017901895 -0.078232117 0.97668242 0.19992799 0.0023556508
0.013897712 0.078361914 0.0018733022 -0.048304182 0.96490294 0.25812596 0.0020874997
0.016790561 0.07868363 0.0013964369 -0.012032156 0.94360983 0.33084092 0.0020449003
0.01954376 0.07872016 0.0014245179 0.03627583 0.92480731 0.37870228 0.0020419953
0.022599148 0.078681767 0.0011613428 0.082668416 0.88030136 0.46715674 0.003777972
0.025851132 0.078538388 0.00079073571 0.10506158 0.85286224 0.51145673 0.0027580482
0.028215816 0.078303419 0.00054157252 0.17668816 0.76722419 0.61656165 0.0035589274
0.030273808 0.078366078 7.6841759e-05 0.18705367 0.76537973 0.61579609 0.0060213585
-0.0005997197 -0.075232506 0.0048973854 -0.41698167 -0.89487296 -0.1591498 0.0098688537
0.0014701623 -0.075766847 0.004520792 -0.30027214 -0.95074874 -0.076899119 0.011015257
0.004448378 -0.076408364 0.0044920309 -0.18613462 -0.98135161 0.047989197 0.0060510444
0.0074386261 -0.076872237 0.0044398387 -0.11979286 -0.97969872 0.16074839 0.0049693161
0.01057393 -0.077104345 0.0045550391 -0.036857042 -0.95937538 0.27971482 0.0037544461
0.013477262 -0.077174023 0.0045353496 0.0015518646 -0.9405219 0.33972946 0.0030194405
0.016500266 -0.077099681 0.0044424837 0.052060984 -0.91064477 0.40989748 0.0022669104
0.019667432 -0.076725639 0.0044956324 0.11058791 -0.86796099 0.48416322 0.0024670316
0.022466289 -0.076222658 0.0044257608 0.20230696 -0.7545048 0.62433517 0.0028545747
0.025361137 -0.075786464 0.0039429865 0.2480593 -0.68182164 0.68817568 0.0033861448
0.027949648 -0.075381279 0.0033570121 0.3026568 -0.63531768 0.71047187 0.0029646202
-0.0061656372 -0.072175466 0.0059320424 -0.40305245 -0.80696893 -0.43168271 0.0025606572
-0.0041164081 -0.072747812 0.0046757529 -0.43613642 -0.81227648 -0.38728803 0.0036255568
-0.0017489842 -0.073843107 0.0041986406 -0.49698085 -0.80919838 -0.31338146 0.0079969401
0.00052259123 -0.074167877 0.0040203296 -0.44577041 -0.87680668 -0.18027425 0.017074488
0.023478841 -0.074731588 0.0057180757 0.27738476 -0.66920561 0.68936312 0.0032437053
0.025761982 -0.074033462 0.0053245043 0.31649455 -0.57223892 0.75655389 0.0044007218
0.028490003 -0.073503785 0.0044525517 0.37314782 -0.47499451 0.79695725 0.0036518767
0.031069474 -0.072962627 0.0035167385 0.40914559 -0.40631464 0.81701183 0.0033747666
0.033348102 -0.072114907 0.0030609011 0.47930413 -0.30376273 0.82340497 0.0027010802
-0.012827343 -0.069234014 0.0056429203 -0.33094507 -0.8610217 -0.3861568 0.0068789064
-0.010320212 -0.06987416 0.0049110134 -0.36562887 -0.84631658 -0.38738072 0.0099222707
-0.0074291085 -0.070997655 0.0045379181 -0.37779674 -0.82662785 -0.41708034 0.0028056938
-0.0051866858 -0.071644321 0.0036312148 -0.41242456 -0.81584305 -0.40534699 0.0018315747
0.0268772 -0.071998671 0.0059057488 0.38464731 -0.47718152 0.79015458 0.0033920398
0.028945863 -0.070753068 0.0054851794 0.44849703 -0.28874129 0.84585983 0.0022862933
0.031420786 -0.070558079 0.0042110533 0.45295978 -0.27316162 0.84865201 0.0013953584
0.033508439 -0.069767311 0.0032407842 0.47742942 -0.24021935 0.84519571 0.00086340035
-0.022182489 -0.066264845 0.0046225009 -0.25815338 -0.88740605 -0.38192603 0.012221576
-0.019517167 -0.066546947 0.0044589625 -0.23792796 -0.86754751 -0.43675116 0.018327581
-0.016380666 -0.067508832 0.0048381384 -0.29088137 -0.87409228 -0.38903821 0.0032460121
-0.013736467 -0.068322673 0.0047521521 -0.31997725 -0.86158168 -0.39407066 0.0076133101
-0.010624058 -0.068630703 0.0034396064 -0.33704153 -0.83239776 -0.43990573 0.015095941
0.02952862 -0.067870684 0.0058502569 0.48027313 -0.18913943 0.85648352 0.00018780546
0.031547748 -0.06754484 0.0048287013 0.48736581 -0.17722169 0.85502458 0.00019254595
0.03397207 -0.067280732 0.0034686483 0.49964908 -0.1661233 0.85014927 0.00010088165
-0.033874273 -0.063362129 0.0045232996 -0.25086787 -0.92636323 -0.28092083 0.011202839
-0.031257827 -0.063617937 0.004378499 -0.20620102 -0.92818499 -0.30976409 0.020772144
-0.028425274 -0.06419719 0.0044969148 -0.21254304 -0.91422552 -0.34498861 0.012772854
-0.025474044 -0.064792015 0.0044489838 -0.27147079 -0.88792849 -0.37133095 0.0086509697
-0.022549294 -0.065226391 0.004443795 -0.22472745 -0.87310195 -0.4326551 0.016211534
-0.019420365 -0.065023318 0.0035213674 -0.24730507 -0.80202359 -0.54368955 0.027393511
-0.017102601 -0.065710828 0.0035437536 -0.28728002 -0.83196586 -0.47466099 0.013551068
0.03159507 -0.064578764 0.0053471983 0.50022304 -0.14193103 0.85418516 6.9213595e-05
0.034171503 -0.064329609 0.0038693456 0.50746948 -0.13557741 0.85093689 6.1784878e-05
0.036261149 -0.063278817 0.0031346935 0.5219838 -0.13542701 0.84213567 7.3638133e-05
-0.045640349 -0.060206607 0.0042912029 -0.27840644 -0.95472318 -0.10484965 0.0128893
-0.043437731 -0.060556903 0.0042111776 -0.22330602 -0.96785372 -0.11573089 0.01712494
-0.040362146 -0.06110074 0.0043112813 -0.2492523 -0.9440887 -0.21580021 0.0093375547
-0.03742351 -0.061778355 0.0043372097 -0.25081137 -0.94385034 -0.21503545 0.0056591127
-0.034632828 -0.0623517 0.0043770219 -0.26107684 -0.93423718 -0.24298103 0.010311442
-0.032032225 -0.062617585 0.0043867193 -0.21393399 -0.91690278 -0.33692947 0.019444866
-0.028984461 -0.06266813 0.0036083725 -0.16265851 -0.86635792 -0.47219288 0.020099841
0.032397393 -0.061372701 0.0053414232 0.51110727 -0.097106151 0.85401386 0.00013082985
0.034615278 -0.061598223 0.0039837426 0.51212406 -0.10276353 0.85274184 6.6245964e-05
0.036360096 -0.061257303 0.0031827444 0.52411079 -0.10013903 0.84574234 0.00010491887
-0.051925879 -0.057716053 0.0047887415 -0.79469812 -0.60473049 -0.052496668 0.022519011
-0.049377237 -0.058692317 0.0046452084 -0.33712107 -0.92429358 -0.17897153 0.009723396
-0.046714675 -0.059309512 0.0042671957 -0.29005432 -0.95407724 -0.074867696 0.011020347
-0.043823853 -0.059606105 0.0049086986 -0.2269747 -0.9684307 -0.10307536 0.016583771
-0.041457158 -0.059773792 0.0035677815 -0.14731248 -0.9654634 -0.21489392 0.022846764
0.032329958 -0.058494132 0.0056642606 0.51810956 -0.045303151 0.85411358 0.00041439719
0.034587391 -0.058543671 0.0042939377 0.5232451 -0.048725795 0.85078818 0.00046139254
0.036515947 -0.058490749 0.0033517117 0.53232133 -0.015156779 0.84640658 0.0010148579
-0.05256604 -0.055588245 0.0047910721 -0.94906539 -0.31312364 0.035048418 0.024479084
0.03242043 -0.055679996 0.0056724749 0.52833724 0.02270071 0.84873104 0.0011530822
0.034598984 -0.05589813 0.0042924606 0.53207666 0.042052969 0.84565121 0.0015167482
0.03650254 -0.05583179 0.0032171935 0.54681396 0.12498187 0.82787323 0.0027075291
-0.053068548 -0.052491069 0.0046738051 -0.99279481 -0.1136588 0.037948545 0.0062144031
0.032045651 -0.052334178 0.0052610673 0.57314748 0.2721552 0.77293825 0.0022448006
0.034172773 -0.052831996 0.0038782295 0.56368095 0.33174235 0.75644618 0.0032448706
-0.053234506 -0.049502689 0.004676491 -0.9993515 -0.0093138665 0.034783293 0.0063646259
0.029304028 -0.04885754 0.005432202 0.57855755 0.47597942 0.66235542 0.0037972217
0.031308573 -0.049815163 0.0044163615 0.57353288 0.49517167 0.6525833 0.0041744947
0.033333451 -0.05075578 0.0034211883 0.52680624 0.51964211 0.67264187 0.0032155153
-0.053118445 -0.046527121 0.0046521989 -0.99426532 0.09661974 0.045838922 0.0063805459
0.025902638 -0.04556017 0.0051467773 0.52321911 0.69045281 0.49951658 0.0021158934
0.028330082 -0.046950787 0.0044236165 0.54380983 0.63365757 0.55022639 0.0031282501
0.03031287 -0.047666244 0.0034469557 0.55308789 0.6110093 0.56635809 0.0014103983
-0.052679494 -0.043530978 0.0046806331 -0.96835202 0.24303012 0.056838352 0.018255565
0.020337414 -0.042232551 0.0056279697 0.49455905 0.81503463 0.30187723 0.0024256126
0.022566713 -0.043210994 0.0048986804 0.50657898 0.76641053 0.39495906 0.0030955083
0.025322521 -0.044447456 0.0039551961 0.50305295 0.74612707 0.436156 0.0024768198
-0.052150905 -0.041510195 0.0047919946 -0.91747111 0.3977128 0.0084371688 0.019277312
-0.04910991 -0.040217403 0.0045003821 -0.49425012 0.83014214 -0.25803265 0.021098733
-0.04649508 -0.039386496 0.0043525426 -0.33557567 0.88441688 -0.32433894 0.0044749249
-0.044529885 -0.039201535 0.0033685723 -0.47369874 0.82968503 -0.29535109 0.0061044632
0.014715455 -0.039373551 0.0044287383 0.40452838 0.90830791 0.10645901 0.0016959298
0.016906809 -0.040262718 0.0046389839 0.40849671 0.90115809 0.14506759 0.001245301
0.019437885 -0.041360855 0.0043554162 0.47501254 0.83492452 0.27796423 0.0015692622
0.021000387 -0.041996345 0.0039770771 0.46882528 0.84068817 0.2710098 0.0040175896
-0.045418799 -0.038875781 0.0054974696 -0.33661613 0.88357508 -0.32555285 0.0046362779
-0.043125819 -0.03723919 0.0042642248 -0.83806425 0.39388424 -0.37749651 0.018261347
-0.041542225 -0.036806192 0.0040713213 -0.7983892 0.521267 -0.30142242 0.020781148
0.010923731 -0.038152799 0.0048321071 0.40320608 0.90743113 0.11829455 0.0036381229
0.013121217 -0.038821895 0.0049450491 0.39635855 0.90700543 0.14227134 0.0029034235
-0.042083453 -0.034532737 0.0055894866 -0.89865899 0.18760425 -0.3965055 0.013003836
-0.041531231 -0.03436289 0.0042159865 -0.9338423 0.14865494 -0.325331 0.010849737
-0.042089608 -0.031452209 0.0056699449 -0.93362641 -3.3796325e-05 -0.35824814 2.7254109e-06
-0.041553468 -0.031475514 0.004273931 -0.93481934 0.003417006 -0.35510728 3.8427836e-05
-0.04222203 -0.028482752 0.0057792985 -0.93370998 -0.0001676283 -0.35803041 5.2313203e-06
-0.041553225 -0.028266657 0.0040354212 -0.93370128 -0.00017102237 -0.358053 6.8494692e-06
-0.042172011 -0.025545431 0.0056493697 -0.92349631 -0.021128185 -0.38302502 0.00096416142
-0.041601278 -0.02558217 0.0041592345 -0.93545288 0.0011640332 -0.35344955 0.00020664939
-0.042139482 -0.022513041 0.0055624335 -0.89120495 -0.064239614 -0.449029 0.0052325539
-0.041539531 -0.022639211 0.0039965985 -0.9206481 -0.008858026 -0.39029276 0.0017202363
-0.042098377 -0.020035509 0.0054534967 -0.86126631 -0.08161518 -0.50155681 0.005275534
-0.041525852 -0.019500434 0.0039598909 -0.89408845 -0.064656913 -0.44319901 0.005983369
-0.043332931 -0.015646178 0.0056595923 -0.83770692 -0.068538442 -0.54180217 0.0041929292
-0.04146089 -0.01646127 0.0037884386 -0.86802429 -0.072589055 -0.49118701 0.0070587508
-0.04336058 -0.013309664 0.0054862658 -0.86603349 -0.042984817 -0.49813479 0.0061634318
-0.041389372 -0.013962109 0.0036004365 -0.85064286 -0.045448303 -0.52377582 0.0067461412
-0.043160565 -0.010297991 0.005082855 -0.88569689 -0.018050389 -0.46391281 0.0061851032
-0.041312512 -0.010610715 0.0037139144 -0.83263892 -0.03077687 -0.5529604 0.0079488745
-0.042993866 -0.0075511038 0.0045865187 -0.87948513 -0.037351247 -0.47445831 0.0063410178
-0.041345663 -0.0077200835 0.0034264096 -0.85085225 -0.064654827 -0.52141172 0.0080901682
-0.042943738 -0.0045298254 0.0044236714 -0.88436294 -0.048153196 -0.46430963 0.0059732236
-0.041431382 -0.0055824406 0.0031669922 -0.86226487 -0.047760747 -0.50420058 0.0067764302
-0.043045443 -0.0014642174 0.0046887491 -0.91985512 -0.0087881768 -0.39215985 0.0030439533
-0.043043558 0.0014672783 0.0046832459 -0.9206779 0.0031187548 -0.39031076 0.0027033524
0.0037960056 0.0023602997 0.0044172071 0.84476024 0.022713179 -0.53466278 0.010927496
-0.042966899 0.0044932808 0.0044826972 -0.90589243 0.043962412 -0.42121997 0.0053230142
-0.041434214 0.0057941596 0.0031653782 -0.77860123 0.08488401 -0.62175149 0.0091924509
0.0040495638 0.0048623332 0.0047354964 0.86103934 -0.0096588824 -0.50844675 0.013828906
-0.043015197 0.0073530055 0.0046085566 -0.89220333 0.029426428 -0.45067427 0.0047124424
-0.041173525 0.0076234448 0.003405412 -0.84827715 0.075016253 -0.52421224 0.0090618683
0.0043059331 0.0073909699 0.0050574695 0.88827389 -0.040563535 -0.45751953 0.0093164081
-0.043187965 0.010512145 0.0050673755 -0.87028247 0.019987637 -0.49214724 0.0052141603
-0.041436598 0.010552319 0.0037932452 -0.84249187 0.023208713 -0.53820896 0.0076660477
0.0042936783 0.010677762 0.0050383098 0.88598394 -0.017152516 -0.46339858 0.0094726896
-0.043315295 0.013491204 0.0054487223 -0.87252134 0.027486006 -0.48780218 0.0053944681
-0.041405067 0.013654451 0.003962562 -0.83959609 0.038714267 -0.54182982 0.0073638521
0.0043642987 0.013450149 0.0051247398 0.90200853 -0.018729346 -0.43131179 0.0058096675
-0.043193001 0.01584373 0.0056358059 -0.87136704 0.047233764 -0.48835289 0.0044045844
-0.041431304 0.016786167 0.0039560772 -0.86151272 0.064620882 -0.50360692 0.0066260803
