# .PCD v0.7 - Point Cloud Data file format
VERSION 0.7
FIELDS x y z normal_x normal_y normal_z curvature
SIZE 4 4 4 4 4 4 4
TYPE F F F F F F F
COUNT 1 1 1 1 1 1 1
WIDTH 548
HEIGHT 1
VIEWPOINT 0 0 0 1 0 0 0
POINTS 548
DATA ascii
0.076822922 -0.040511541 -0.10952096 0.94482285 -0.32757804 -0.0015549961 0.00032389979
-0.018553216 -0.037426475 -0.10956895 -0.96026379 -0.27909166 0.0011588016 0.00028526306
0.077586271 -0.038047902 -0.10965817 0.96246201 -0.27140436 0.0025772869 0.00039062041
0.078131706 -0.036448773 -0.10911241 0.96755928 -0.25263593 0.0020373743 0.00026931512
-0.019256346 -0.034448788 -0.10948861 -0.97786343 -0.20924063 -0.001268786 0.00034791228
0.078413069 -0.03458757 -0.10956322 0.97965097 -0.20070828 -0.00044091771 0.00019456672
-0.019755615 -0.031407554 -0.10930721 -0.99190789 -0.12677848 -0.0067725214 0.00030986778
0.078988738 -0.031449571 -0.10941242 0.98840457 -0.15183632 -0.0014218495 0.00017610753
-0.020082792 -0.028543858 -0.10959496 -0.99649066 -0.083625533 -0.0036213757 0.00025275126
0.079331577 -0.028593091 -0.10971421 0.99582481 -0.091278039 0.001076021 0.00024986253
-0.020214677 -0.025600128 -0.10941929 -0.99964035 -0.025580956 -0.0080475211 0.00021604804
0.079549424 -0.025514979 -0.10943204 0.99943388 -0.033313964 -0.0047039683 0.00043503949
-0.020189311 -0.022499865 -0.10939473 -0.99930233 0.035609584 -0.011262158 0.00014667459
0.079544783 -0.022521585 -0.10940521 0.99878401 0.049170144 -0.0035789185 0.00058709033
-0.019980356 -0.019459346 -0.10970324 -0.99487787 0.10046411 -0.011175732 0.00019843306
0.079291508 -0.019444691 -0.10960985 0.99273276 0.12032855 0.0016758837 0.00049258349
-0.019616438 -0.016493263 -0.10927699 -0.98750269 0.15736248 -0.0086863143 0.0002417596
0.078822508 -0.016458582 -0.10945361 0.98230821 0.18708675 0.0083127916 0.00018117031
-0.019045958 -0.013212848 -0.10977531 -0.97699893 0.21324402 -0.00035211144 0.00030482805
0.077899128 -0.012544383 -0.10942682 0.97282422 0.23139228 0.0084043555 0.0001075904
0.078280009 -0.014047371 -0.10940644 0.97473556 0.22325259 0.0069847521 9.6682197e-05
-0.018525571 -0.01098517 -0.10949218 -0.9658609 0.2590262 0.0042640134 0.00034326391
-0.017916134 -0.0092998045 -0.10953912 -0.96021169 0.27923989 0.0043184138 0.00029793166
0.077421725 -0.010535597 -0.10954902 0.96619153 0.25767508 0.0088006696 9.5454787e-05
0.078057922 -0.011940822 -0.10959003 0.9731518 0.22995351 0.0098509481 1.5983464e-05
-0.018023796 -0.0088598728 -0.10926866 -0.95145196 0.30764419 0.0097068669 0.00082767732
-0.017467326 -0.0075586485 -0.10938848 -0.9406386 0.33937278 0.005013424 0.00035312958
0.076590128 -0.0075445701 -0.10960963 0.95079029 0.30975464 0.0070639006 0.00038512156
-0.016238268 -0.004518596 -0.10955442 -0.91571975 0.40180427 0.0032650016 0.00024994835
0.074920848 -0.0033551783 -0.10981967 0.91933119 0.39345559 0.0047803759 0.00035771006
0.075577095 -0.004767403 -0.10945824 0.92575842 0.37811056 0.0019586987 0.00028454224
-0.015277925 -0.0024150563 -0.10925905 -0.89017397 0.45562062 -0.00041468878 0.00030639954
-0.014535004 -0.00099616265 -0.10958456 -0.88135338 0.47245723 0.00066396373 0.0002716431
0.07407064 -0.001504641 -0.10945732 0.88915551 0.45759585 0.0029103225 0.00027321294
-0.013063512 0.0015503148 -0.10980704 -0.85818189 0.51332831 -0.0042320201 0.00028969307
0.071728535 0.002422357 -0.10953859 0.84147251 0.54029936 -0.00074797025 0.0002221521
0.072673306 0.001049162 -0.10936506 0.85678202 0.51567852 0.00044091721 0.00031686213
-0.010943974 0.0045963996 -0.10951582 -0.8021965 0.59694147 -0.011905776 0.00031562662
0.070391998 0.0044842716 -0.10949815 0.81820953 0.57492 -0.00030467528 0.00011532121
-0.009394899 0.0065951464 -0.10956421 -0.77651334 0.63006186 -0.007007597 6.9860951e-05
-0.0081505263 0.008153093 -0.10964754 -0.7619909 0.64758366 -0.002307527 0.00014851558
0.06787727 0.0077888183 -0.10950041 0.76668417 0.64201957 -0.0025165486 0.00030096053
0.06913922 0.006331889 -0.10948256 0.7887978 0.6146515 -0.0012551405 0.00020554675
-0.0066942461 0.0098081352 -0.10963241 -0.73599523 0.67698669 -0.0002072053 0.00019582508
-0.0052397051 0.011309039 -0.1095928 -0.70745784 0.70675439 -0.0013317178 0.00018149657
0.06498339 0.010979787 -0.1095405 0.70823717 0.70596331 -0.0039834967 0.00016028019
0.066375278 0.0095407972 -0.10960253 0.73169559 0.68162924 -0.0017888176 0.00021608548
-0.0037255948 0.012779267 -0.109656 -0.67981929 0.73337901 -0.00095728028 0.00015977203
-0.0021973636 0.014114299 -0.10990482 -0.65763313 0.75333679 -0.00154049 8.3908621e-05
0.061843805 0.013841346 -0.10944261 0.64273798 0.7660684 -0.005203566 0.00029248025
0.063440643 0.012475953 -0.10961699 0.67318314 0.73945755 -0.0051924121 0.00016455133
-0.00056477991 0.015433181 -0.10949767 -0.65586489 0.75474584 0.014137999 0.00019936881
0.0011314041 0.016997835 -0.10959723 -0.63329965 0.77341473 0.027589701 0.0010570068
0.056504924 0.017738285 -0.10958239 0.55366701 0.83273154 -0.0033298831 0.00024256525
0.058407366 0.016487179 -0.10979114 0.59176636 0.80610764 -0.0017553496 0.00018362551
0.060305383 0.015113108 -0.10929314 0.61700559 0.78694111 -0.0052748518 0.00020574023
0.002687956 0.018327171 -0.10949621 -0.56922168 0.82133621 0.037330024 0.0010186513
0.0046754871 0.019509215 -0.10944963 -0.48458555 0.87419558 0.030966556 0.0014489982
0.0071472637 0.020597771 -0.1095143 -0.38744548 0.9216997 0.018859735 0.00018264486
0.050694864 0.020935452 -0.10974305 0.40934619 0.91237897 0.00054133526 0.00012525616
0.052465267 0.020093536 -0.10948749 0.45446751 0.89076334 -0.0002320475 0.00021189591
0.05524683 0.018582623 -0.10925126 0.51506978 0.85713017 -0.0055787181 0.00029709743
0.0086171152 0.021168241 -0.1094749 -0.37125528 0.92847991 0.0097188959 0.00014977119
0.010348902 0.021856951 -0.10948376 -0.35449237 0.93504566 0.0049686464 8.386845e-05
0.013402067 0.022922633 -0.10945076 -0.31270447 0.9498468 -0.0026493666 0.00014478568
0.015956357 0.023685457 -0.10967076 -0.2815983 0.95951873 -0.0051126145 2.3387047e-05
0.0441802 0.023678122 -0.10943905 0.35257232 0.93562382 0.017342098 0.00010288454
0.046463225 0.022785252 -0.1093175 0.37098277 0.92855918 0.012234615 0.00010406242
0.049310286 0.02158713 -0.10938884 0.40831199 0.91283554 0.0035532082 0.0001561157
0.017471338 0.024120755 -0.10950019 -0.2749328 0.96145594 -0.0037941169 1.038684e-05
0.019581975 0.024701685 -0.10940289 -0.26078972 0.96539444 -0.0014901519 1.075743e-05
0.022457233 0.025459817 -0.10952306 -0.22764926 0.97373122 0.0048205247 0.00027935585
0.025491318 0.026036823 -0.10954222 -0.15416275 0.98797309 0.011957861 0.0003981718
0.028271824 0.026352281 -0.1094773 -0.067079388 0.99735743 0.027901232 0.00029900504
0.03150792 0.026522715 -0.10949412 -0.0020921954 0.99936932 0.035448264 0.00033720376
0.034601856 0.026366696 -0.10943237 0.096246332 0.99499929 0.026704416 0.001234416
0.037678119 0.025798038 -0.10953482 0.24640869 0.96872962 0.029079579 0.00075973547
0.040636588 0.024924476 -0.10956144 0.30486324 0.95205033 0.025662145 9.698006e-05
0.042701211 0.024213148 -0.10952218 0.34148917 0.93959045 0.02355759 8.7539025e-05
0.01450432 -0.07218568 -0.10655761 -0.3731626 -0.92772496 0.0087206671 0.00015435443
0.01651405 -0.072863236 -0.10639139 -0.30308366 -0.95288026 0.01262923 0.00048010398
0.019229509 -0.073553316 -0.10677457 -0.17888324 -0.98350543 0.026792681 0.00097318908
0.022650968 -0.073999904 -0.10646861 -0.081014737 -0.99634659 0.027019968 0.00038606516
0.025578387 -0.074161321 -0.10648079 -0.030575762 -0.99920142 0.025724709 0.00016589816
0.028422441 -0.074234754 -0.10650825 0.0034970718 -0.9998818 0.014973916 0.00017283493
0.031379435 -0.074169777 -0.10648334 0.041272856 -0.99912548 0.0066971784 0.00021954418
0.034404598 -0.073957622 -0.10641655 0.10342371 -0.99463743 9.1190384e-05 0.00030279477
0.037415754 -0.073541343 -0.10651878 0.16306789 -0.9866147 0.0004708725 0.00033327675
0.040460978 -0.072987117 -0.10651658 0.21127483 -0.97742301 0.0026878354 0.00021220413
0.043210488 -0.072318375 -0.10639272 0.26909453 -0.96309829 0.005461202 0.00019416063
0.0083395448 -0.06939286 -0.10668647 -0.44177446 -0.89712507 0.0014170003 0.00015208586
0.010565689 -0.070390418 -0.10650791 -0.41589567 -0.90940481 0.0036948598 3.2919106e-05
0.013383347 -0.071637526 -0.10627362 -0.39180785 -0.92002302 0.0066501927 0.00013341272
0.044543132 -0.071921133 -0.10655278 0.28665334 -0.95802492 0.0042549181 0.00028319293
0.046431087 -0.071275353 -0.10649756 0.34606308 -0.93820304 0.0039415709 0.00017293681
0.049473878 -0.070002198 -0.10621487 0.41862383 -0.9081583 0.0016354558 0.00017315785
0.051464628 -0.06922698 -0.10669055 0.4524512 -0.89178395 0.0030399379 0.0004017922
0.002655555 -0.066261888 -0.10699026 -0.53535408 -0.84462744 -0.00068551564 0.00032424773
0.0041041533 -0.06711027 -0.10632198 -0.50238311 -0.86464435 0.0011832669 0.00016277036
0.0067217201 -0.06858065 -0.10655973 -0.4577089 -0.88909727 0.0029242996 0.00021051794
0.052735589 -0.068519369 -0.10659428 0.48197526 -0.87617415 0.0043462962 0.00024993258
0.055191465 -0.06704054 -0.10635669 0.51339066 -0.85814542 0.0040564351 0.00022411415
0.057004958 -0.066073924 -0.10738612 0.55541539 -0.83155113 0.0060264613 0.00028787318
-0.00097351475 -0.063690007 -0.10650197 -0.61830038 -0.78591615 0.0063615441 0.00021118358
0.0010615317 -0.065206341 -0.10639685 -0.57019377 -0.82148671 0.0062085027 0.00039806476
0.058335245 -0.065019429 -0.10658067 0.57771808 -0.81623518 0.0014237585 0.00028876902
0.060537398 -0.06339965 -0.10644885 0.62431568 -0.78117061 0.0015192591 0.00022851063
-0.0040975562 -0.06106374 -0.10620221 -0.66929054 -0.74296254 0.0075411466 0.00029518109
-0.0024653529 -0.062497418 -0.10653464 -0.64287448 -0.76591676 0.0091614109 0.00028398156
0.062051773 -0.062163021 -0.1066054 0.65243709 -0.75784284 -0.00018337989 0.00029297575
0.063741975 -0.060659386 -0.10618021 0.67163134 -0.7408815 0.0024473746 0.00015520336
-0.0070608053 -0.058076616 -0.10619035 -0.74126172 -0.67114997 0.0094271544 0.00026471328
-0.0056312182 -0.059589732 -0.10615549 -0.71412832 -0.69996721 0.0081671113 0.00021634596
0.065279588 -0.059209377 -0.10596748 0.70576328 -0.7084471 -0.00093935884 0.00011984104
0.066661522 -0.057751369 -0.10613215 0.7400617 -0.67253435 -0.0024961738 0.0002364659
-0.0096894186 -0.054924693 -0.10637187 -0.78665918 -0.61733913 0.007729087 0.00014437958
-0.0084622586 -0.056453228 -0.10661791 -0.75782633 -0.6523903 0.0092764422 0.00013838877
0.068134032 -0.056051936 -0.10676833 0.76529312 -0.64368182 -0.00029409738 0.00032526164
0.069388114 -0.054466296 -0.10609727 0.78926986 -0.61402732 -0.0048315828 0.00023363573
-0.012233154 -0.051371813 -0.10663676 -0.82987612 -0.55792248 0.0053004785 0.00023466903
-0.011331439 -0.052627519 -0.10616263 -0.83212954 -0.55452931 0.0075976956 0.00018642387
0.0708661 -0.052421369 -0.10660809 0.82346207 -0.56736392 -0.0029010167 0.00030573341
0.072056554 -0.051080484 -0.10644928 0.83373672 -0.55216217 0.00036961786 0.00041055103
-0.013352578 -0.049452472 -0.10674826 -0.86325073 -0.50472361 0.0072323093 0.00022726171
0.071916938 -0.050739288 -0.10563363 0.8356998 -0.54918295 0.0019840805 0.00017432177
0.072815031 -0.049323943 -0.10661912 0.86481744 -0.50208646 -0.00011293242 0.00018824342
-0.015391294 -0.045594282 -0.10637896 -0.89710009 -0.44179368 0.0054587983 0.00016922642
-0.014632461 -0.047111366 -0.10651027 -0.89026845 -0.45540705 0.0051441113 0.00017402414
0.07434848 -0.046517517 -0.10636726 0.89401191 -0.44803885 -0.0020038565 0.00034783746
0.075138301 -0.045339998 -0.10642189 0.90072721 -0.43437988 -0.0021569617 0.00055325893
-0.016387023 -0.043398313 -0.10637116 -0.91781569 -0.39697698 0.0048654363 0.00016354964
0.075690567 -0.043483149 -0.10649482 0.92626911 -0.37686279 -7.3380303e-05 0.00017262109
-0.01806891 -0.039209932 -0.1064605 -0.94221884 -0.33493951 0.006267359 0.00019791715
-0.017485889 -0.040649552 -0.10660622 -0.93840599 -0.34552911 0.0019806293 0.00022929246
0.076827027 -0.04050884 -0.10655657 0.94672358 -0.32203883 0.002335978 0.00021961234
-0.018534433 -0.037496682 -0.1064849 -0.96047902 -0.27826115 0.0071224649 0.00033768735
-0.017923331 -0.038984206 -0.10740674 -0.95070171 -0.31007752 0.0042666481 0.00078035257
0.077705994 -0.03759582 -0.10642635 0.96742451 -0.25315738 0.0010890512 0.00028536929
0.078109384 -0.036505483 -0.10676048 0.96763122 -0.25236806 0.00048634433 0.0002226854
-0.019343944 -0.034207959 -0.10642444 -0.97551137 -0.21994886 -0.00025148646 0.00040185449
0.078443505 -0.034374274 -0.10650877 0.98109889 -0.19350447 0.00095370994 0.0002864651
-0.019753395 -0.031499222 -0.10627362 -0.99028409 -0.13905473 -0.0010672165 7.3896044e-05
0.078984559 -0.031483524 -0.10655481 0.98729551 -0.15889385 0.00057135161 0.00015140932
-0.020083884 -0.028611181 -0.10653764 -0.99641055 -0.08465106 -0.00055750896 0.00028956725
0.079353139 -0.028573016 -0.10659379 0.99418849 -0.10763297 -0.0020794224 0.00035718986
-0.020220401 -0.025521567 -0.10656459 -0.99974555 -0.022052232 -0.0047499472 7.640908e-05
0.079558082 -0.025541529 -0.10656371 0.99943715 -0.033545524 -0.00034837559 0.00028767184
-0.020227227 -0.0225308 -0.10653386 -0.9994266 0.032646302 -0.0089872107 0.00016253119
0.079564981 -0.022536527 -0.10651827 0.99900192 0.044578336 0.0028069546 0.00046863579
-0.020029634 -0.019459169 -0.10671529 -0.99459296 0.10373995 -0.00477731 0.00024640691
0.079290524 -0.019565595 -0.1064689 0.99097073 0.13407183 0.0013164781 0.00042035131
-0.019657232 -0.01662175 -0.10654974 -0.98531443 0.17074776 0.00089680945 0.00013827672
0.078831457 -0.016528526 -0.10651652 0.98307168 0.18318275 0.0037488735 0.00023064471
-0.019107928 -0.013581778 -0.10648672 -0.97899991 0.20383595 0.0031826792 0.00025973792
0.077921249 -0.012648389 -0.10636878 0.97326732 0.2296728 -0.0010765246 0.00012494549
0.078257211 -0.013982015 -0.10658195 0.97483724 0.22291766 0.00034331338 7.8327328e-05
-0.018457808 -0.010845112 -0.10653647 -0.96553582 0.25998032 0.012280482 0.0003147258
-0.017888136 -0.0094016772 -0.10689709 -0.95939481 0.28184992 0.011060522 0.00027822002
0.077406064 -0.010516017 -0.10651067 0.96574092 0.2595064 0.0009744105 0.00014539708
0.07805369 -0.011938855 -0.10655863 0.97294664 0.23102497 -0.0015276448 0
-0.017435722 -0.0076014688 -0.10647931 -0.94150651 0.33684787 0.009949063 0.00034872955
0.076553375 -0.0075151096 -0.10658365 0.94909561 0.31493974 0.0055369157 0.00033217564
-0.016209222 -0.0044902088 -0.10655105 -0.91680336 0.39926803 0.0075289481 0.00023363344
0.074916989 -0.0034067722 -0.10641567 0.91899985 0.39418876 0.0073881224 0.00035847398
0.075581804 -0.0048543313 -0.10646766 0.92660081 0.37599394 0.0062866947 0.00035995647
-0.015398358 -0.0027098337 -0.10590027 -0.89713591 0.44173956 0.0036383495 0.00030558664
-0.014587325 -0.0010962685 -0.10675009 -0.88224077 0.47074518 0.0070878086 0.00029432127
0.074044041 -0.0015108077 -0.10643861 0.89249325 0.45098752 0.0081299143 0.0002543279
-0.013092113 0.0014974379 -0.10679329 -0.85721731 0.5149529 -0.0014255663 0.0002315196
0.07165537 0.0025321709 -0.10629752 0.83091968 0.55638987 0.0016773771 7.5055541e-05
0.072653145 0.0010418838 -0.10642576 0.85866588 0.5125165 0.0044335658 0.00028599214
-0.01209612 0.0031199171 -0.10766643 -0.81446409 0.58019078 -0.0051829019 0.00044342724
-0.011206888 0.0044074394 -0.10609889 -0.81677061 0.5769527 -0.0033654075 0.00038479452
0.070507027 0.0043212315 -0.10633219 0.82194406 0.56956679 0.0012979533 0.00023947848
-0.009473606 0.0065090354 -0.10641634 -0.77572453 0.6310578 -0.0041805436 7.50049e-05
-0.0081528006 0.0081050424 -0.1065255 -0.75919247 0.65086609 5.5804274e-05 0.00012042627
0.067869917 0.0078086178 -0.1064986 0.76767993 0.64083332 -0.00034754313 0.00034786604
0.069108665 0.0062542865 -0.10646271 0.79310793 0.60908055 -0.00081754086 0.00028492804
-0.0066184681 0.0098714158 -0.10658751 -0.72969353 0.68377042 0.0023026543 0.00017166305
-0.0052399212 0.011296663 -0.10664741 -0.71251982 0.70165145 0.00084055122 0.00017745905
0.064919434 0.0110306 -0.10650538 0.70385593 0.71034259 -0.00044770844 0.00018143035
0.066350721 0.0095613161 -0.10649699 0.73269194 0.68056053 -0.00012456518 0.00021647544
-0.0038392555 0.012665667 -0.10652468 -0.68116206 0.73213255 0.00038280021 0.00016951047
-0.0020949936 0.014185168 -0.10663203 -0.64918095 0.76063311 0.0011693988 7.7024764e-05
0.061835188 0.013867101 -0.10652775 0.64238489 0.76637882 -0.0022556228 0.00028644144
0.063563243 0.012359376 -0.10647196 0.68176055 0.73157436 -0.00116914 0.00019992569
-0.00055402931 0.015471663 -0.10627625 -0.64422959 0.76475209 0.011066144 0.00012888094
0.0013291495 0.017057352 -0.10660774 -0.61354697 0.78919977 0.026903516 0.0006913385
0.056492567 0.01781177 -0.10597614 0.54887211 0.83589381 -0.0045731631 0.00031154294
0.058417659 0.016508089 -0.10666848 0.59158957 0.80620903 -0.006984306 0.0001813392
0.060409572 0.015107539 -0.10642418 0.62144423 0.78343081 -0.0065765991 0.00021663534
0.0027377147 0.018198641 -0.10673054 -0.54642546 0.83659053 0.039185721 0.00057216093
0.0045398036 0.019310849 -0.10641548 -0.48092335 0.87598222 0.036984574 0.0012597078
0.0070744175 0.020499572 -0.10653367 -0.40536308 0.91372842 0.0279491 0.00026923817
0.050778847 0.020894354 -0.10705965 0.40725422 0.91331315 0.0017323705 0.00014305559
0.052619286 0.020033216 -0.1067386 0.45866954 0.88860685 -0.00022508403 0.00025882054
0.055131011 0.018633656 -0.10648125 0.50609595 0.862477 -0.00051924511 0.00036870036
0.0085877208 0.021092074 -0.10645431 -0.38696361 0.92184651 0.021404004 0.00015254169
0.010803269 0.021994784 -0.10638984 -0.36345929 0.93152338 0.012705564 0.0001084185
0.013595636 0.023017781 -0.10631952 -0.33246806 0.9430939 0.0062288279 0.00016524257
0.015917057 0.023683975 -0.10646871 -0.28299996 0.95911491 0.0031118095 2.3636638e-05
0.04397032 0.023702158 -0.10590836 0.35088348 0.93627405 0.016483163 0.00011826652
0.046127915 0.022899138 -0.10608272 0.36424938 0.93121147 0.012950247 0.00012356912
0.049077604 0.021670179 -0.10599871 0.40251291 0.91541004 0.0027739967 0.00023461782
0.017522112 0.024143323 -0.10653699 -0.27616605 0.96110982 0.00049153139 1.4313374e-05
0.01943714 0.024669647 -0.1065732 -0.25886583 0.96591312 0.00054860325 1.679655e-05
0.022511123 0.025463752 -0.10644303 -0.22038975 0.97539389 0.0059307897 0.00036702995
0.025503343 0.025986351 -0.10652509 -0.13450624 0.99076259 0.017247556 0.00025058677
0.028290998 0.026283491 -0.10647311 -0.062402401 0.99769855 0.026524149 0.00035303447
0.031473562 0.026409874 -0.1065321 -0.003821915 0.99943811 0.033301093 0.0004195513
0.034528006 0.026274284 -0.10642726 0.10465331 0.99403107 0.030821858 0.00087110972
0.037576538 0.025749598 -0.10661232 0.24000831 0.97019845 0.033331819 0.00066468643
0.040622268 0.024862895 -0.10633256 0.32662556 0.94489837 0.021975053 0.0001416904
0.042641263 0.024147671 -0.10651401 0.33501422 0.94192791 0.023178363 7.2172334e-05
0.014511446 -0.072154731 -0.10338707 -0.36843821 -0.92955095 0.013723528 0.00022097609
0.016276464 -0.072709784 -0.10327767 -0.31975237 -0.94737053 0.01572906 0.00044269109
0.019473908 -0.073556453 -0.1036097 -0.19733192 -0.97990108 0.029224077 0.00092988677
0.022476565 -0.073880658 -0.10340595 -0.097246654 -0.9950707 0.019426554 0.00039692986
0.025517724 -0.074076965 -0.1035325 -0.045010235 -0.99874556 0.021941662 8.8987988e-05
0.028372103 -0.074169703 -0.10336501 -0.0085359933 -0.99986571 0.013988665 0.00021875709
0.031441286 -0.07413879 -0.10344473 0.043307938 -0.99903744 0.0069743344 0.00029350264
0.034517076 -0.073928133 -0.1034878 0.10211425 -0.99475461 0.0059994813 0.00029689763
0.037444353 -0.073529154 -0.10345972 0.16797297 -0.9857778 0.0052253683 0.00028349282
0.040469177 -0.072969809 -0.10349398 0.21418972 -0.97677284 0.0061384896 0.0001996603
0.043141767 -0.072317332 -0.10348204 0.2665059 -0.96382058 0.0049557956 0.00023615392
0.0082966685 -0.069353044 -0.10368089 -0.44120559 -0.89739949 0.0034499762 0.0002061811
0.01051882 -0.070375584 -0.10355842 -0.41276914 -0.91082501 0.0044161752 2.8435608e-05
0.012877124 -0.071398914 -0.10322533 -0.38720897 -0.92196387 0.0072002746 0.00010898463
0.04459263 -0.071882613 -0.10368335 0.28706396 -0.9578833 0.0073344614 0.00029384225
0.046436563 -0.071273439 -0.1036324 0.33868328 -0.94089872 0.0018085371 0.00023830752
0.049075983 -0.070162877 -0.10289358 0.41676927 -0.90900064 0.0046044965 0.00030231322
0.05128862 -0.069190837 -0.10377526 0.45643455 -0.88975167 0.0030725922 0.00029981966
0.0026111868 -0.066293895 -0.10361376 -0.54963744 -0.83539385 0.0039799721 0.00036795501
0.0044989134 -0.067330204 -0.10371617 -0.50557774 -0.86275709 0.0064345002 0.00025937415
0.0067118802 -0.06855572 -0.1034137 -0.46071568 -0.88754052 0.0036017208 0.00020035115
0.052863795 -0.068367101 -0.10376894 0.46964329 -0.88285154 0.0028918502 0.00031955124
0.055622123 -0.066781439 -0.10292066 0.51270223 -0.8585664 0.00028036674 0.00021013644
-0.00089524098 -0.06373819 -0.10356385 -0.61911881 -0.78529632 0.0013107395 0.00016553939
0.0011145743 -0.065234065 -0.10341968 -0.56690049 -0.82378215 0.0025908956 0.00035497709
0.056762289 -0.065960951 -0.10405227 0.53522176 -0.84470206 -0.0040091993 0.00025692245
0.058656115 -0.06481047 -0.10321195 0.5907982 -0.80681932 -0.00029345744 0.00026813318
0.060691196 -0.063393511 -0.10318518 0.62802428 -0.77819312 0.0010169132 0.00020632523
-0.0041245376 -0.061026443 -0.10311204 -0.67334569 -0.73925149 0.01061948 0.00023701745
-0.0023633044 -0.062549703 -0.10359222 -0.64953738 -0.7603122 0.0051502897 0.0002107919
0.061977711 -0.062205561 -0.10365008 0.65227044 -0.75797862 0.0034221685 0.00026468365
0.063824512 -0.060573898 -0.10310308 0.67390209 -0.73881704 0.0023057272 0.00014421072
-0.0069534243 -0.058148246 -0.10320576 -0.74123424 -0.67114061 0.011915823 0.00018946656
-0.0055261268 -0.059656162 -0.10315969 -0.70649117 -0.70764267 0.010586216 0.00020718209
0.065256849 -0.059227556 -0.10291076 0.70527101 -0.70893031 -0.0032504087 0.00018161433
0.066763557 -0.057666291 -0.10307325 0.73808575 -0.67469037 -0.0047174692 0.00028441823
-0.0096980305 -0.054891776 -0.10339954 -0.79008025 -0.61296022 0.0072795791 0.00017136139
-0.0084750196 -0.056419592 -0.10367247 -0.75771618 -0.65253264 0.0082075959 0.00013449453
0.068225332 -0.055958841 -0.10369867 0.77118719 -0.63657594 -0.006431987 0.00028236193
0.06944254 -0.054398511 -0.10320823 0.80194879 -0.59737468 -0.0046529192 0.00039651507
-0.01221783 -0.051362921 -0.10382172 -0.83200312 -0.55473614 0.0062137409 0.00023269265
-0.011347177 -0.052571319 -0.10320794 -0.83185709 -0.55495942 0.0058172382 0.00019243803
0.070897259 -0.052357521 -0.10358058 0.8265503 -0.56286079 -0.0015326096 0.00028212485
0.072041191 -0.051075045 -0.10348121 0.83511168 -0.55007523 0.0023821543 0.00017635409
-0.013384968 -0.049364332 -0.10377729 -0.86442226 -0.50275439 0.0034846091 0.00025594755
0.07195159 -0.050636247 -0.10256641 0.83940476 -0.54350567 -0.0011215534 0.00010873773
0.072846301 -0.049273878 -0.10372879 0.86279255 -0.50555813 0.00013159921 0.00020508343
-0.015372567 -0.045571927 -0.10346211 -0.89783686 -0.44028422 0.0062273424 0.00012894586
-0.014655279 -0.047038879 -0.10342871 -0.89194351 -0.45211864 0.0050579053 0.00014586181
0.074366495 -0.046495181 -0.1034324 0.89412493 -0.44781744 -0.00039987234 0.00040315685
0.075157642 -0.045278475 -0.10337251 0.90001237 -0.43586394 -0.00066188682 0.00041132508
-0.016335288 -0.043496385 -0.10343312 -0.91759723 -0.39747858 0.0051017539 0.00016538461
0.075725451 -0.043424048 -0.1035271 0.92678678 -0.37558633 0.0010953513 0.0001300163
-0.01805874 -0.039119195 -0.10337107 -0.95714498 -0.28953642 0.0064940569 0.00020036759
-0.017513718 -0.040531084 -0.10354767 -0.93664312 -0.35025749 0.0044039222 0.00027817045
0.076845534 -0.040433511 -0.10357767 0.94670725 -0.3220931 0.0011893207 0.00019127538
-0.018500905 -0.037515439 -0.10348012 -0.96133226 -0.27537715 0.0027843753 0.00020493526
-0.017891578 -0.038993403 -0.10468205 -0.95090741 -0.30913481 0.014520287 0.00063787564
0.077676222 -0.037703071 -0.1034269 0.96624196 -0.25763592 0.00040990091 0.00022497677
0.078146644 -0.036588177 -0.10350787 0.96873957 -0.24807765 0.0010058265 0.00024477724
-0.019284891 -0.034421474 -0.10350856 -0.97532642 -0.22074758 0.0029808544 0.00046071736
0.078427814 -0.034505073 -0.10345219 0.97797334 -0.20872247 -0.0017395738 0.00021064258
-0.019742787 -0.031445701 -0.10355111 -0.99104685 -0.13343838 0.0045121009 0.00019126944
0.078958698 -0.03157584 -0.10357577 0.98644483 -0.16407672 0.0023270496 0.00013994088
-0.020095019 -0.028508872 -0.10356435 -0.99676597 -0.080353528 0.00091835792 0.00037337843
0.079371929 -0.028472187 -0.10343096 0.99575877 -0.091990232 0.0014827421 0.00035217174
-0.020221477 -0.025516855 -0.10373231 -0.99952042 -0.030957758 -0.00064284232 0.0001749246
0.079549991 -0.025494099 -0.10376545 0.99970514 -0.023578783 0.0057967897 0.00042311504
-0.020246672 -0.022548435 -0.10360263 -0.99968141 0.024959765 -0.0037521843 0.00026044116
0.079563923 -0.022559909 -0.10371464 0.99890965 0.045902375 0.0085085602 0.00042394208
-0.020049989 -0.019507958 -0.10354888 -0.99615723 0.087580964 -0.0005367666 0.00051840156
0.079248361 -0.019504432 -0.10352628 0.99125606 0.13188028 0.0043696617 0.00022320432
-0.019582698 -0.016218502 -0.10353512 -0.98417288 0.17714442 0.004858877 0.00013022003
0.078835182 -0.016666923 -0.10351323 0.98313594 0.18285933 0.0024790028 0.00022059723
-0.019070197 -0.013544233 -0.10339753 -0.97726983 0.21190837 0.0062093111 0.00016749131
0.077896975 -0.012521634 -0.10337105 0.97366446 0.22793329 -0.004897052 5.3921598e-05
0.078265488 -0.01390139 -0.10355663 0.97554433 0.2197904 -0.0023291984 7.3296898e-05
-0.018404428 -0.010734249 -0.10347855 -0.96392661 0.26605454 0.0077764499 0.00026769633
-0.01788187 -0.00941307 -0.10350198 -0.95985329 0.28035006 0.0092505449 0.0002899078
0.077365696 -0.010318729 -0.10341157 0.96350002 0.26770833 9.1904971e-05 0.0001203902
0.078076243 -0.011949342 -0.10352352 0.97310555 0.23030144 -0.0051947054 6.2777843e-07
-0.017325189 -0.0073804455 -0.10353354 -0.93946451 0.34254581 0.0082937377 0.00023300183
0.076525353 -0.0075073941 -0.10355626 0.94785661 0.31865594 0.0051223999 0.00033726008
-0.016156487 -0.004414103 -0.10348405 -0.91764843 0.3973197 0.0076455185 0.00021817302
0.074904971 -0.0034540065 -0.10301683 0.91932058 0.39338964 0.0097111603 0.00031473869
0.075561821 -0.0048719989 -0.10350196 0.92650288 0.37618169 0.008929044 0.0003108854
-0.015236078 -0.0024090912 -0.10329264 -0.89674401 0.44250315 0.0064140758 0.00036515488
-0.01450553 -0.00096002413 -0.10377406 -0.88351953 0.46838456 0.0030263432 0.00030736392
0.074027307 -0.0015062556 -0.10336068 0.8912369 0.45351246 0.0048224875 0.00028764174
-0.013057694 0.0015199601 -0.10379202 -0.8584705 0.5128569 0.002493476 0.00018458255
0.071603946 0.0026017549 -0.10319027 0.83722669 0.54685158 0.0022045171 0.00023319689
0.072560534 0.001155619 -0.10360366 0.85846364 0.51287436 0.00036630683 0.0002957453
-0.01211354 0.0030365512 -0.10413983 -0.82816106 0.56041467 0.0092042554 0.00050420628
-0.011202686 0.0044074347 -0.10321623 -0.81937337 0.57325989 -0.00060189329 0.00047444372
0.070477828 0.0043587987 -0.1034546 0.82222366 0.56915516 0.0032642044 0.0002258278
-0.0094283829 0.0065786783 -0.10333169 -0.77154428 0.63617271 -0.0019410569 3.692089e-05
-0.0082124388 0.0080513693 -0.10343265 -0.75758725 0.65272737 -0.0029382436 9.9998259e-05
0.068031482 0.0076203523 -0.10344583 0.7774322 0.62896186 0.0024631342 0.00027691014
0.069161959 0.0062036342 -0.10360148 0.79356205 0.60846835 0.0050616823 0.00020166229
-0.0067630019 0.0097256033 -0.10356752 -0.73929411 0.67338169 -0.0011138669 0.00016011106
-0.0053079664 0.011224266 -0.10347822 -0.71278316 0.70138431 0.00045967911 0.00014942883
0.065108247 0.010871886 -0.10328961 0.71178669 0.70238763 -0.0033695011 0.00020194355
0.066468664 0.0094341487 -0.10359907 0.73603857 0.67693812 -0.0014117523 0.00021355975
-0.0037985633 0.012710509 -0.10353202 -0.67564583 0.73722541 -0.0011253515 0.00022227962
-0.0021660959 0.014145847 -0.10379384 -0.6529665 0.7573787 -0.0035034788 0.00018692242
0.061747786 0.013947076 -0.10391648 0.64060789 0.76785904 -0.0037520882 0.00032020206
0.063530929 0.012391797 -0.10349222 0.66894096 0.74331516 -0.00077232008 0.00016975266
-0.00056911277 0.015422937 -0.10335021 -0.62833935 0.77790219 0.0076039275 0.00014916925
0.0014112453 0.017008163 -0.10362066 -0.59737211 0.80154574 0.025901932 0.00046941335
0.056613769 0.017700642 -0.10356732 0.5602681 0.82831031 -0.0012969136 0.0001392055
0.058429275 0.01652352 -0.10362399 0.57820868 0.81588501 -0.002525571 0.00022762275
0.06020328 0.015170784 -0.10286316 0.62079883 0.78396314 -0.0032494063 0.00021398987
0.0028958453 0.018023381 -0.10393512 -0.58185476 0.81244427 0.03714015 0.0004196525
0.0043616719 0.019048942 -0.103441 -0.48689234 0.87289399 0.031494312 0.00080768316
0.0070337141 0.020377509 -0.10331355 -0.42936373 0.90266806 0.028934274 0.00052380963
0.050736658 0.020856697 -0.10370398 0.40601179 0.91386104 -0.003526065 0.00017324448
0.052469656 0.020096144 -0.10340485 0.45433074 0.89083034 -0.0022082205 0.00023645512
0.055085987 0.018687429 -0.10337684 0.51645809 0.85629708 -0.0051374291 0.00028674942
0.0086630294 0.021072924 -0.1039718 -0.40170136 0.91563118 0.015985733 0.00029606096
0.01051221 0.02181913 -0.10349018 -0.36325133 0.93162853 0.010803429 0.00010905938
0.013379344 0.0228737 -0.10363232 -0.31921276 0.94766599 0.0056845825 0.00016404064
0.016029818 0.023688665 -0.10339772 -0.2878522 0.9576748 0.00014346441 6.8545087e-05
0.043895133 0.02363554 -0.10336889 0.33495045 0.94218785 0.0094997259 6.3139669e-05
0.046507422 0.022693247 -0.10335343 0.35756868 0.93387759 0.0041480465 9.7180018e-05
0.049311884 0.021555502 -0.10340144 0.39330909 0.91940629 -0.00023287296 0.00015763612
0.017503235 0.024128124 -0.10332299 -0.28327668 0.95902634 -0.0047741216 6.0759794e-05
0.019542219 0.024701132 -0.10357609 -0.25807694 0.96611327 -0.0046238969 7.5688738e-05
0.022535101 0.025462231 -0.10347285 -0.21228437 0.97720188 0.003425678 0.00054633355
0.025842223 0.025989154 -0.10343796 -0.091630012 0.99556363 0.021379022 0.00037944666
0.028776834 0.026233377 -0.10352027 -0.042282097 0.99868166 0.029104859 0.00029825291
0.031605795 0.026300382 -0.10347386 0.012122456 0.99943745 0.031270802 0.0004857312
0.034459457 0.026181826 -0.10349245 0.089850873 0.99518263 0.039222721 0.0011488254
0.037453145 0.025657857 -0.10358065 0.23373379 0.9717021 0.034110956 0.00063477666
0.040519025 0.024791749 -0.10344505 0.29199514 0.95616841 0.021926066 0.00022963592
0.042416923 0.024180081 -0.10334756 0.32823631 0.94447613 0.01502706 8.3222585e-05
0.014620577 -0.072140157 -0.10042209 -0.36061531 -0.93258727 0.015415737 0.00022805617
0.016624277 -0.072775029 -0.10038923 -0.28405544 -0.95864773 0.017522912 0.00060451869
0.01954641 -0.073469721 -0.10055237 -0.18681365 -0.9820866 0.024629541 0.001008901
0.022417469 -0.073809966 -0.10046043 -0.090312235 -0.99568439 0.021363365 0.00012515063
0.025445385 -0.07403639 -0.10045888 -0.055331185 -0.9984147 0.010321835 0.00020743735
0.028377276 -0.074129201 -0.10040572 -0.0099198557 -0.99994099 0.004423901 0.000255708
0.031389561 -0.074130036 -0.10041973 0.040151697 -0.99918616 0.0038557632 0.00037136226
0.03440468 -0.07390558 -0.10054913 0.1018919 -0.99478137 0.0053016418 0.00031875545
0.037383243 -0.07351619 -0.10048905 0.15970355 -0.98716283 0.0020918816 0.00033156917
0.040440444 -0.072958916 -0.10042373 0.21559738 -0.97647774 0.0030004897 0.00017502907
0.043117732 -0.072307721 -0.10062236 0.26960388 -0.96296465 0.003584 0.00024047718
0.0084884958 -0.069425136 -0.10024808 -0.44015229 -0.89790624 0.0055014514 0.0001960605
0.010479064 -0.070328012 -0.1003961 -0.4133513 -0.91055012 0.0062629636 4.656181e-05
0.013126316 -0.071477458 -0.10019594 -0.38253239 -0.92390323 0.0084749823 0.00020172274
0.04447484 -0.071906552 -0.10031893 0.28308672 -0.95906907 0.0069607478 0.00028473284
0.046548799 -0.07119371 -0.10052404 0.34103367 -0.94003505 0.0054972828 0.00016700909
0.050071124 -0.069721423 -0.10007434 0.41893402 -0.90795499 0.010581885 0.00031502527
0.051433582 -0.069209822 -0.10048097 0.45076707 -0.8926363 0.0031084511 0.00030500584
0.0027344972 -0.066313386 -0.10102955 -0.53786159 -0.84301788 0.0050701648 0.00031193488
0.0044938717 -0.06731154 -0.10029503 -0.50163043 -0.86499596 0.012205962 0.00025961964
0.0067047575 -0.068513274 -0.10028622 -0.459113 -0.88836682 0.0044408566 0.00019497723
0.052774224 -0.068477452 -0.10043121 0.46429455 -0.88568002 0.0011972166 0.00022952142
0.055141725 -0.067067146 -0.10049858 0.51046014 -0.85989887 -0.0020955028 0.00028595701
0.057026789 -0.066081047 -0.1005148 0.54150009 -0.84069586 -0.0028410475 0.00038724102
-0.00085723191 -0.063726172 -0.10107438 -0.60271043 -0.79795837 0.0016084145 0.00024681876
0.00096379628 -0.065084919 -0.10004515 -0.55832547 -0.82962203 -4.3716256e-05 0.00035753663
0.058437824 -0.064975679 -0.10027079 0.58493567 -0.81107301 -0.0032826758 0.00043892037
0.060608901 -0.063340813 -0.10104317 0.63132232 -0.77552056 -8.0181322e-05 0.00025592974
-0.0040475908 -0.061025944 -0.10022711 -0.68314463 -0.73026335 0.0053643975 0.00027146022
-0.0023253516 -0.062584542 -0.10056946 -0.64371955 -0.76525277 0.0036478424 0.00021394342
0.062219381 -0.061988749 -0.10050048 0.66254723 -0.74901503 -0.0027612471 8.3594699e-05
0.063930653 -0.060469206 -0.10006452 0.67930877 -0.73385215 -0.00080715975 0.00012740523
-0.0069795181 -0.058064546 -0.10032552 -0.73451656 -0.67852151 0.0096957665 0.00028552694
-0.0055630058 -0.059542347 -0.10017896 -0.71633261 -0.6976819 0.010363596 0.00016567699
0.065198749 -0.059275772 -0.099913359 0.69455814 -0.71942824 -0.0034822212 0.00017405812
0.066456817 -0.058049954 -0.10107054 0.72014958 -0.69381106 -0.0032917955 0.00034100332
-0.009762859 -0.054786164 -0.1005412 -0.78927547 -0.61398876 0.0078771897 0.0001923503
-0.0085509513 -0.05626582 -0.10059448 -0.76435256 -0.64472359 0.0098318812 0.00028981717
0.068111554 -0.056142356 -0.10040309 0.77109176 -0.63665736 -0.0092185317 0.00027216488
0.069301389 -0.054642472 -0.10107493 0.78966981 -0.61350274 -0.0059915683 0.00028405542
-0.012205987 -0.051352486 -0.10101413 -0.83346146 -0.55255175 0.0053461771 0.00030574549
-0.011284505 -0.052607551 -0.10031223 -0.82794762 -0.56075525 0.0074987193 0.00022747635
0.070872411 -0.052386858 -0.1006202 0.82906604 -0.5591163 -0.006200891 0.00029510065
0.072031975 -0.051071782 -0.10051215 0.83631462 -0.54824579 -0.0020974532 0.00029204699
-0.01332698 -0.049446747 -0.10056272 -0.86385131 -0.50373483 0.0034863201 0.00040243097
0.07196632 -0.05081768 -0.10028705 0.84235412 -0.53890908 -0.00406102 0.00029826432
0.072807565 -0.049331859 -0.10061135 0.86197752 -0.50693601 -0.0032560199 0.00019799537
-0.01532704 -0.045605898 -0.10055555 -0.89678967 -0.44245455 0.0015298687 0.00015773013
-0.014609556 -0.047086209 -0.10027447 -0.89127916 -0.45344633 0.0028076761 0.00016797101
0.074359007 -0.046515472 -0.10054719 0.89305407 -0.44993094 -0.0040748804 0.0003376907
0.075124621 -0.045331612 -0.10038561 0.89942616 -0.43706879 -0.0018575145 0.00050533784
-0.01636233 -0.043408092 -0.10047251 -0.9166652 -0.39965391 0.0012974383 0.00018421913
0.075707041 -0.043486584 -0.10044102 0.92680496 -0.37551874 -0.0042862925 0.00023468875
-0.01803923 -0.0391239 -0.099860795 -0.94270861 -0.33361399 -0.0014699417 0.00021390051
-0.017490231 -0.040579937 -0.1005477 -0.93898445 -0.34395897 -0.00067712629 0.00019411929
0.076838322 -0.040465947 -0.10054169 0.94725895 -0.32045993 0.0024430584 0.00024936284
-0.018427458 -0.037652429 -0.10054986 -0.95944709 -0.28188869 -0.00036117411 0.00018316889
-0.017949263 -0.038734205 -0.099549964 -0.96067053 -0.27768439 -0.001881037 0.00024406447
0.077652596 -0.037727639 -0.10036582 0.96541387 -0.26071766 -0.0015450862 0.00012111512
0.078143805 -0.036574457 -0.10050321 0.96798962 -0.25098917 0.00072853727 0.00012982108
-0.019216007 -0.034717813 -0.10045145 -0.9729715 -0.23091969 -0.0016019556 0.00037880236
0.078463309 -0.034324914 -0.10036221 0.97940719 -0.20189403 -0.00059333071 0.00023846416
-0.019737603 -0.031453669 -0.10056113 -0.99094218 -0.13423772 0.0037162288 0.00018720749
0.078944989 -0.031624179 -0.1007582 0.98751169 -0.1575211 0.0027981177 0.00015256603
-0.020100746 -0.02842322 -0.10040017 -0.99741608 -0.071791612 -0.0026834551 0.0003500577
0.079355247 -0.028401559 -0.1004328 0.99540633 -0.095587991 0.0054003261 0.0002180233
-0.020231036 -0.025640046 -0.10081648 -0.99922109 -0.039456099 -0.00071702036 0.00027385799
0.079528145 -0.025523961 -0.10044229 0.99980134 -0.017090611 0.010253884 0.00062901474
-0.020250287 -0.02254233 -0.10076343 -0.99957967 0.028887302 -0.0024314828 0.00019993288
0.079511896 -0.02255453 -0.10045619 0.99917924 0.039112713 0.010535371 0.00060253189
-0.020055363 -0.019651605 -0.10041835 -0.99518263 0.097863451 -0.0058469647 0.00038305376
0.07924334 -0.019605283 -0.10042205 0.99383903 0.11073738 0.0046032909 0.00024474398
-0.019624891 -0.016602291 -0.10046197 -0.98691517 0.16121531 0.0028522008 0.00026235811
0.078819014 -0.016631752 -0.10057694 0.98398173 0.1782437 -0.0030235294 0.0002379652
-0.019088149 -0.013716428 -0.10051358 -0.97479022 0.22310674 0.0027335819 0.00024696035
0.077876292 -0.012457181 -0.10069349 0.97301888 0.23063268 -0.0065315166 0.00015199977
0.078271151 -0.013850744 -0.10057481 0.97631556 0.2163174 -0.0038279886 0.00011616063
-0.018353473 -0.010639722 -0.10054366 -0.96258396 0.27098015 0.0013729675 0.00036021962
-0.017919041 -0.0092336116 -0.10021955 -0.95522302 0.29576218 0.0085850721 0.00060488051
0.07743296 -0.010552025 -0.1005021 0.96288687 0.26989251 -0.0026253108 0.00017525745
0.078104556 -0.011962496 -0.10048801 0.97346389 0.22873138 -0.007075185 1.9772759e-05
-0.0173855 -0.0076071681 -0.10050836 -0.93956316 0.34226978 0.0085172821 0.00026505627
0.076447673 -0.0073399069 -0.10052165 0.94532377 0.32612583 0.0022417651 0.00029473117
-0.016210247 -0.0046588839 -0.10052442 -0.92125231 0.38883173 0.010197736 0.0001558002
0.074820213 -0.003314899 -0.10075179 0.9175517 0.39755729 0.0068545844 0.00039494023
0.075461052 -0.0046997177 -0.10035294 0.9237563 0.38282043 0.011080854 0.00027480521
-0.015246419 -0.002514225 -0.10039872 -0.89763075 0.44069439 0.0068864608 0.00032765607
-0.014431276 -0.00083684165 -0.10074422 -0.88166046 0.47187263 0.0033169826 0.00032662298
0.073968694 -0.0014074717 -0.10033005 0.88965744 0.45661706 0.0032430331 0.00037670965
-0.013053051 0.0015276086 -0.10070236 -0.85746402 0.5145269 0.0041844319 0.00025217544
-0.011986502 0.0029977146 -0.099305846 -0.8233431 0.56753868 -0.0024436158 0.00029546249
0.0716727 0.0024915207 -0.10030428 0.8439225 0.53646433 0.00093510468 0.00026348696
0.072584301 0.0010879136 -0.10052437 0.86090124 0.50876671 0.0023246172 0.00031552999
-0.012057406 0.0030642699 -0.10088215 -0.82714528 0.56195718 -0.0059012217 0.00063383713
-0.011202974 0.0043673627 -0.10021608 -0.82348013 0.56734443 -0.00088248966 0.00037461636
0.070444167 0.0043949182 -0.10051112 0.82156593 0.570113 -0.00068487599 0.00023900239
-0.0094589144 0.0065544434 -0.10036857 -0.77986145 0.62595177 -0.00067627506 0.00015372962
-0.008223705 0.0080632428 -0.10047236 -0.7562719 0.65425724 -0.00037078644 0.00011593381
0.06789995 0.0077457167 -0.10062384 0.77162474 0.63606626 -0.003862404 0.00027546054
0.069130838 0.0063201929 -0.10062578 0.79615444 0.60509211 -0.0013079909 0.00016897533
-0.006745432 0.0097400015 -0.10051087 -0.7385087 0.67424309 0.0011598673 0.00013689348
-0.0053035859 0.011222367 -0.10038856 -0.71941549 0.69457966 0.0006355067 0.0001099034
0.065056391 0.010931379 -0.1002648 0.70448339 0.70970821 -0.0041831075 0.00017858289
0.066430196 0.0094882054 -0.10045145 0.73386937 0.67926723 -0.0056323446 0.00032419493
-0.0037512537 0.012763071 -0.10047215 -0.6739493 0.7387765 -0.0012484008 0.00032754274
-0.002135217 0.014194836 -0.10070607 -0.63672513 0.77108699 -0.0024566159 0.00028821509
0.06167056 0.014019455 -0.10063223 0.64187926 0.76679748 -0.0035600613 0.00024165065
0.063523009 0.012412124 -0.10039215 0.6806733 0.73257619 -0.0039867959 0.0001878008
-0.00059113215 0.015414707 -0.10033419 -0.62329859 0.78198177 0.0018167171 0.00019414524
0.0013663014 0.016888568 -0.10075331 -0.58612502 0.81011313 0.013201577 0.00033549499
0.0030227243 0.01797002 -0.10011446 -0.55425197 0.83187556 0.028068347 0.00063189666
0.056789499 0.017633913 -0.10084811 0.55022532 0.83500481 -0.0043600732 0.00037827311
0.058446325 0.016529201 -0.10052254 0.58007103 0.81453836 -0.0066973986 0.00026217353
0.060240213 0.015115008 -0.10031586 0.62395185 0.78144354 -0.0054837777 0.00019674802
0.0029734001 0.018115319 -0.10010654 -0.52441502 0.85124123 0.019426342 0.00089731178
0.0046356521 0.019067159 -0.10040312 -0.48869693 0.87218451 0.021667194 0.00071141717
0.0072796415 0.020454569 -0.10013334 -0.43476281 0.90037817 0.017333234 0.00028494577
0.050710984 0.020873763 -0.10067314 0.40457767 0.91448617 -0.0056530396 0.00021737673
0.052473456 0.020128565 -0.10088577 0.45929581 0.88826311 -0.0060028564 0.00026598692
0.055578064 0.01839472 -0.1000955 0.51765966 0.85557067 -0.0052248207 0.00029431601
0.0088778026 0.021080974 -0.10054201 -0.40124881 0.91594189 0.0070613017 0.00026892568
0.010167357 0.021693073 -0.10093064 -0.37789676 0.92584544 0.0020709443 0.00025152811
0.013502762 0.02289843 -0.10060701 -0.32615837 0.94528806 -0.0071538254 0.00018137564
0.015944807 0.023693532 -0.10054684 -0.2940273 0.95565224 -0.016635826 9.2969065e-05
0.043898426 0.023624839 -0.10046187 0.32777798 0.9447546 0.00066113967 7.6638644e-05
0.046473585 0.022704763 -0.10043964 0.35145363 0.93619144 -0.0050908392 6.719424e-05
0.04929347 0.021589464 -0.1005166 0.39141867 0.92019248 -0.0061040497 0.00019185344
0.017580604 0.024202347 -0.10041163 -0.28955904 0.95691764 -0.021544985 8.9692068e-05
0.019839674 0.02484173 -0.10029146 -0.2288198 0.9734391 -0.0076025394 0.00019481826
0.02246003 0.025447806 -0.10050783 -0.1977748 0.98024738 0.00050777872 0.00061165984
0.025753383 0.025922574 -0.10048133 -0.10030347 0.9946956 0.022799695 0.00064986676
0.028703326 0.026124287 -0.10055661 -0.037106402 0.99890125 0.028626332 0.0002571728
0.031440701 0.026182242 -0.10053412 -0.0017599879 0.99936163 0.035683021 0.00035693968
0.034394573 0.026058424 -0.10049483 0.095868066 0.99479133 0.034633059 0.0013837223
0.037383273 0.02553325 -0.10052069 0.22375256 0.97432536 0.024997326 0.00054179667
0.040414177 0.0247714 -0.10041584 0.27727175 0.96067083 0.015227229 0.00025995419
0.042379454 0.024166679 -0.10051085 0.32220367 0.94665426 0.005524484 7.6786506e-05
0.014696138 -0.072148949 -0.097658217 -0.35192466 -0.93594605 0.012412846 0.00040231785
0.016509226 -0.072682358 -0.097637028 -0.27617314 -0.96087897 0.020978419 0.00054243434
0.019532761 -0.073388033 -0.097458012 -0.1886071 -0.98187119 0.01887721 0.00076500606
0.022351457 -0.073758826 -0.09753038 -0.10437541 -0.99431676 0.020976331 0.00019543125
0.025427129 -0.074011169 -0.097472742 -0.058515836 -0.9982658 0.0064311652 0.00025171597
0.028376225 -0.074121915 -0.097486958 -0.014068429 -0.99989998 0.0014841601 0.00032763102
0.031439088 -0.074140817 -0.097505778 0.036070261 -0.9993493 -6.4179832e-05 0.00023247465
0.034480389 -0.073897123 -0.09748318 0.096138462 -0.99536312 -0.0031039575 0.0004364505
0.037515633 -0.073502786 -0.097529791 0.17266831 -0.98497212 -0.003946112 0.00043901429
0.040475857 -0.072951615 -0.097519137 0.21884669 -0.97575909 -0.00061534456 0.00026259368
0.042996563 -0.07232634 -0.09750066 0.26729518 -0.96361399 0.0012141961 0.00019415749
0.0082983961 -0.069338717 -0.097410679 -0.44115654 -0.89742696 -0.0024035845 0.0002175652
0.010471503 -0.070334181 -0.097371332 -0.40842956 -0.9127894 0.00095498411 0.00017699448
0.013258572 -0.071514793 -0.097673021 -0.36655536 -0.93036747 0.0073113176 0.00021836725
0.044495832 -0.071870238 -0.097404025 0.28665248 -0.95803446 0.00067025679 0.0002551736
0.046733469 -0.071058564 -0.097569168 0.37932232 -0.92526191 0.0022157463 0.00019425784
0.049563464 -0.06999477 -0.097513527 0.39266133 -0.91967744 -0.0032491358 0.00021743658
0.05136789 -0.069231838 -0.097370148 0.44772536 -0.89416903 -0.0019345389 0.00039447707
0.0025381197 -0.066179715 -0.097600304 -0.54827189 -0.83629721 0.0022435631 0.00045901895
0.0043453393 -0.067234389 -0.097540326 -0.50715846 -0.8618474 -0.0030361603 0.00022772346
0.0069059012 -0.068612173 -0.098097615 -0.45788589 -0.88901067 -0.00082538725 0.00021690626
0.052696008 -0.06844943 -0.098017253 0.45747662 -0.88922095 0.0011495941 0.00036129195
0.055720247 -0.066737726 -0.097471111 0.52802223 -0.84922987 -0.0010871214 0.00028373831
0.05701692 -0.066137023 -0.097496629 0.55303377 -0.83315545 -0.0023757115 0.00027158932
-0.0008371041 -0.063785352 -0.097507097 -0.61365092 -0.78957134 0.0031023864 0.00017116727
0.0010142958 -0.06510146 -0.097460769 -0.5655756 -0.82468289 0.0047191214 0.00033718694
0.058618367 -0.064841658 -0.097245805 0.57782823 -0.81615239 0.0031369824 0.00030810232
0.060497474 -0.06345731 -0.098078519 0.63041955 -0.7762112 -0.0082130022 0.00027697792
-0.0039706114 -0.061119389 -0.097127467 -0.67553055 -0.73730785 -0.0059803003 0.00032335703
-0.0022717065 -0.062614702 -0.09759292 -0.6435433 -0.76540691 -0.0020721671 0.00027190565
0.062091012 -0.062136941 -0.097354479 0.66030967 -0.75093764 -0.009156269 0.00015522187
0.063761607 -0.060634732 -0.097068615 0.67578995 -0.73705149 -0.0079318192 7.0595866e-05
-0.0070036822 -0.058014002 -0.09728194 -0.74535799 -0.66666418 -0.0006007108 0.00017179966
-0.0055650496 -0.059520822 -0.097193427 -0.7244668 -0.6893031 -0.0029977011 0.00017007835
0.065252393 -0.0592339 -0.09748508 0.70166045 -0.7125079 -0.0022710871 0.00050369295
0.066690601 -0.057833757 -0.098086938 0.7248798 -0.68882602 -0.0082441634 0.0004830198
-0.0097157834 -0.054827437 -0.097378515 -0.78642559 -0.61767542 0.0034367596 0.00033104178
-0.0084765097 -0.056307897 -0.097694002 -0.75740677 -0.65294319 0.00039634784 0.00020966628
0.068199404 -0.056071311 -0.097382955 0.75941706 -0.65044874 -0.014219417 0.00059449632
0.069365688 -0.054595593 -0.098119222 0.79692692 -0.60397875 -0.010823483 0.00034466488
-0.012121579 -0.051385157 -0.097902462 -0.82646996 -0.56297892 0.0014585041 0.00011881669
-0.011382983 -0.052437074 -0.097249731 -0.82506591 -0.56500411 0.006040066 0.00020413952
0.070764489 -0.052604515 -0.097611435 0.82877558 -0.55948365 -0.010441004 0.00031372395
0.072046615 -0.051076967 -0.097540118 0.8376193 -0.54615521 -0.010416136 0.00019384608
-0.013230672 -0.049614485 -0.097763568 -0.86334425 -0.50460023 -0.003911559 0.00034079482
0.071775682 -0.050949454 -0.098414548 0.8434642 -0.53712142 -0.0082940329 0.00017890777
0.072803304 -0.049367681 -0.097473256 0.86287135 -0.50537235 -0.007202277 0.00022677782
-0.015265385 -0.045772254 -0.097445279 -0.8964057 -0.44322014 -0.0035774428 0.00016932163
-0.014516255 -0.047289301 -0.097101718 -0.88996655 -0.45601758 -0.0027503457 0.00018464135
0.074299969 -0.046649739 -0.097617082 0.89326876 -0.44950831 -0.0036342815 0.00027967163
0.07514137 -0.045300491 -0.097582817 0.89949393 -0.43692911 -0.0019143755 0.0003023094
-0.016282188 -0.043576512 -0.097515963 -0.91494542 -0.40357059 -0.0023867511 0.00015967713
0.074998893 -0.044934824 -0.09760806 0.91290385 -0.40810135 0.0077390545 0.00085371314
0.075695179 -0.043571282 -0.097454861 0.92637944 -0.37658268 -0.00258627 0.00024151443
-0.018069152 -0.039096251 -0.097553581 -0.94844449 -0.31688023 -0.0063219625 0.00036040042
-0.017421119 -0.040775307 -0.097506002 -0.9388513 -0.34431016 -0.0029510644 0.00024332396
0.07680548 -0.040579218 -0.097507991 0.94725853 -0.32044253 -0.0042133257 0.0002418379
-0.018601883 -0.03717725 -0.097491451 -0.96049094 -0.27830324 -0.0021281594 0.00018993084
-0.017935922 -0.038841635 -0.096418403 -0.95911419 -0.28298807 -0.0042136987 0.00021103378
0.077655174 -0.037697237 -0.097469054 0.96526968 -0.26122823 -0.003777157 0.00015555139
0.078153782 -0.036472481 -0.097398214 0.96744365 -0.25306848 -0.0030353728 0.00023156883
-0.019203668 -0.034735005 -0.097858377 -0.97271562 -0.23198612 -0.0026098082 0.00032656622
