# .PCD v0.7 - Point Cloud Data file format
VERSION 0.7
FIELDS x y z normal_x normal_y normal_z curvature
SIZE 4 4 4 4 4 4 4
TYPE F F F F F F F
COUNT 1 1 1 1 1 1 1
WIDTH 557
HEIGHT 1
VIEWPOINT 0 0 0 1 0 0 0
POINTS 557
DATA ascii
-0.067825593 0.055175602 -0.0069073634 -0.31815377 0.2112606 -0.92420083 0.0060298746
-0.065682992 0.054325815 -0.0074378536 -0.20069556 0.30521151 -0.93089592 0.0049109417
0.061871592 0.054436114 -0.0063988138 -0.36424336 0.62149012 -0.69359702 0.0048670759
0.06446413 0.055363785 -0.0066464799 -0.33066675 0.57959336 -0.74480271 0.0049623637
0.066639759 0.056136664 -0.0065821968 -0.36562154 0.54260445 -0.75624156 0.0049278913
0.066717386 0.057694919 -0.0060054753 -0.46378171 0.44115898 -0.76830029 0.0093994914
-0.015299741 0.0029036659 -0.0033610496 -0.25375849 -0.93389016 -0.25190446 0.0017214923
-0.013296266 0.0025761139 -0.0040464429 -0.20534433 -0.93349653 -0.29396904 0.0024467604
-0.010434276 0.0021370924 -0.0044135856 -0.1555583 -0.94008619 -0.30338004 0.0017221296
-0.0074577085 0.0017510339 -0.0045214687 -0.13487671 -0.94154745 -0.30870175 0.0021303718
-0.0046608313 0.0013392037 -0.0044672135 -0.091524474 -0.94368887 -0.3179222 0.0021185754
-0.0015866645 0.0010781455 -0.0042933449 -0.049158312 -0.95249182 -0.30057094 0.0032465253
0.0014716801 0.00095085247 -0.0042954204 -0.026208723 -0.95623308 -0.29142991 0.0037332361
0.0044882903 0.00094479485 -0.0045035211 0.016215479 -0.94540596 -0.3254914 0.0028541612
0.0076062754 0.0010596479 -0.004449049 0.048105184 -0.94591731 -0.32082132 0.0026814346
0.010450546 0.0012300748 -0.0045845332 0.060244665 -0.94836682 -0.3114017 0.0023630699
0.013569869 0.0015632974 -0.0046183676 0.099091657 -0.94450009 -0.31320992 0.0016415983
0.01673026 0.0019524246 -0.004541466 0.12760086 -0.94794565 -0.29174837 0.0018892277
0.019310052 0.0023491499 -0.0045804661 0.16899852 -0.95151049 -0.25703558 0.0014517506
0.021955941 0.002748589 -0.0040647066 0.19645254 -0.9425844 -0.2700761 0.0017646871
-0.024265304 0.0058387206 -0.0035464403 -0.35816392 -0.8908087 -0.27960438 0.0023558317
-0.022398626 0.0053822915 -0.0043533873 -0.32590914 -0.8966018 -0.29981419 0.0023507513
-0.019565655 0.0044373223 -0.0044836272 -0.27013546 -0.90998608 -0.31456673 0.0017796303
-0.016567977 0.0036427423 -0.0045762905 -0.27023333 -0.91460884 -0.30077332 0.0018150741
-0.013892572 0.0032405078 -0.0054995636 -0.21204454 -0.90505451 -0.36866432 0.0023073889
0.022901978 0.0032684591 -0.0051270765 0.2132819 -0.93364316 -0.28778678 0.0016397325
0.025514243 0.0036918302 -0.0045913374 0.24417271 -0.92909443 -0.27778292 0.0012687545
0.028512357 0.0045549003 -0.0046364604 0.26388764 -0.92289901 -0.28039393 0.0018644697
0.031331897 0.0053611523 -0.004540496 0.28519151 -0.92448205 -0.2529799 0.0015552939
-0.030976022 0.008651956 -0.0040379777 -0.37169531 -0.89000726 -0.26406395 0.0023149077
-0.028555414 0.0077779181 -0.0044444473 -0.34692165 -0.88754189 -0.30317438 0.0019766984
-0.025636626 0.0066947863 -0.0045914655 -0.35591111 -0.88746399 -0.29280525 0.001829537
-0.023297897 0.0061897333 -0.0056419768 -0.32724309 -0.87101877 -0.36638528 0.0012305952
0.032597043 0.0060340781 -0.0054170084 0.33393225 -0.90523869 -0.26273972 0.0015416478
0.034382906 0.0065250192 -0.0048323646 0.33562762 -0.90106839 -0.27464509 0.0014145931
0.03735432 0.0076118694 -0.0047030654 0.35442999 -0.89587682 -0.2679255 0.0015334033
0.039957929 0.0085312063 -0.0041673672 0.37318197 -0.88740742 -0.27063504 0.0014685135
-0.037083209 0.011430222 -0.004237901 -0.412451 -0.86308986 -0.29147911 0.0018930417
-0.034508612 0.010272247 -0.0044434029 -0.38859081 -0.87349975 -0.29324973 0.0018274343
-0.032046884 0.0093836999 -0.0048927646 -0.38394475 -0.877873 -0.28622615 0.0021205542
0.041082237 0.0093443571 -0.0050163609 0.39021391 -0.87354094 -0.29096287 0.0011596084
0.043487784 0.010179671 -0.0040332754 0.41954949 -0.87207574 -0.251917 0.0010139127
0.045618668 0.011483007 -0.004814845 0.44319159 -0.85560107 -0.26744744 0.0020852447
-0.042791441 0.014465521 -0.0042101964 -0.49829894 -0.82213086 -0.27531624 0.0020844487
-0.040494908 0.013296458 -0.0044498616 -0.45672673 -0.84369183 -0.28210771 0.001887363
-0.038373966 0.012346026 -0.0049514766 -0.4484641 -0.84472853 -0.29208496 0.001895234
0.047202874 0.012311968 -0.0045783711 0.4636912 -0.85371351 -0.23698905 0.001459189
0.049308598 0.013450714 -0.0042948974 0.52964765 -0.81644672 -0.2299744 0.0019804575
-0.048209604 0.017925307 -0.00336359 -0.55622327 -0.79356217 -0.24672784 0.0015478513
-0.046355784 0.016958555 -0.0043262639 -0.54493004 -0.79125136 -0.27743918 0.0022036114
-0.044181045 0.015574101 -0.0046762149 -0.53919548 -0.79688448 -0.27247629 0.0016180031
-0.05152915 0.020580225 -0.0039946027 -0.57953995 -0.76459843 -0.28199756 0.0016363981
-0.049581777 0.019310268 -0.0045058769 -0.57352227 -0.77550548 -0.2639384 0.0016262246
-0.047659755 0.018214248 -0.0052923649 -0.55788171 -0.7776944 -0.28975749 0.0021662083
-0.054941665 0.023271104 -0.0042243367 -0.59114993 -0.7544511 -0.285211 0.0018238574
-0.0529004 0.021826977 -0.0045852424 -0.58712566 -0.76277471 -0.2710318 0.0016129509
-0.058223009 0.026012545 -0.0042735725 -0.6289528 -0.718467 -0.29702455 0.0020358844
-0.056317497 0.024616053 -0.0047523887 -0.61612087 -0.73649752 -0.27922466 0.0016223158
-0.061099153 0.028794281 -0.004273124 -0.68562478 -0.65724325 -0.31296957 0.0020182997
-0.059569597 0.027474105 -0.0049211229 -0.66238844 -0.68897671 -0.29419827 0.0020675173
-0.063929625 0.031909764 -0.0042686258 -0.72958785 -0.59826881 -0.33132452 0.0023692136
-0.062450889 0.030521097 -0.0048509813 -0.71224278 -0.63198853 -0.30545175 0.0018985776
-0.066608571 0.035238236 -0.0040774248 -0.76600522 -0.54553789 -0.34003595 0.0022393255
-0.065311022 0.033944491 -0.0047152294 -0.75058419 -0.58071208 -0.31527245 0.001888087
0.017878881 0.033425845 -0.0051855724 -0.2214932 0.87193882 -0.43665034 0.0015455683
0.019575467 0.033892285 -0.0052137771 -0.23266412 0.86581832 -0.44297415 0.0013925106
0.022873314 0.035074569 -0.004485955 -0.24983405 0.90602899 -0.34160584 0.0012264743
0.025297336 0.035647675 -0.0048789605 -0.26787695 0.90378737 -0.33378196 0.0032833819
-0.069188587 0.038697492 -0.0033303106 -0.80753982 -0.47352189 -0.35164809 0.0022297865
-0.067856587 0.03742617 -0.0045192186 -0.78900814 -0.49541625 -0.36335766 0.0035713355
0.028280007 0.036641642 -0.0046895291 -0.30321842 0.90322548 -0.30371433 0.002172166
0.031643983 0.037929691 -0.004400685 -0.34985554 0.90471989 -0.24307013 0.0035602821
0.033759844 0.038675677 -0.0049648178 -0.42359561 0.86284065 -0.27581304 0.0018961276
-0.069868341 0.040659126 -0.004251773 -0.84154177 -0.39153114 -0.37217033 0.003286971
-0.068699628 0.039596204 -0.0053972304 -0.80725425 -0.40766284 -0.42679217 0.0051056161
0.035025798 0.039550938 -0.0040920279 -0.41314447 0.87192059 -0.2628046 0.0019725345
0.037443005 0.040674221 -0.0044949776 -0.46871841 0.8508805 -0.2372878 0.0019083356
0.03949447 0.041440297 -0.0057122726 -0.4745774 0.82102489 -0.31732404 0.0027055782
-0.072089165 0.04485273 -0.0032473819 -0.8665626 -0.3422769 -0.36320215 0.016394103
-0.070899926 0.043459695 -0.0044623991 -0.84472495 -0.3136602 -0.43365553 0.0035750729
0.040586382 0.042851716 -0.003838137 -0.50610632 0.84543937 -0.17055374 0.0018735626
0.043047801 0.044185273 -0.0044756308 -0.52073914 0.82245708 -0.2289 0.0032837398
-0.072465561 0.046734232 -0.0036913026 -0.84710997 -0.26219505 -0.46223211 0.0043805498
-0.071460448 0.046279997 -0.0051049287 -0.81429964 -0.20375343 -0.54350775 0.0055892393
0.044560764 0.045334376 -0.004027192 -0.50919175 0.81615806 -0.27314809 0.0016093262
0.046410233 0.046365634 -0.0044615511 -0.51276642 0.80951178 -0.28593943 0.0026520183
0.048579212 0.047453664 -0.0051859124 -0.49531534 0.79764956 -0.34411907 0.0028652595
-0.072954528 0.04954521 -0.0041280878 -0.79373974 -0.23888002 -0.55938673 0.0076979198
-0.071691543 0.049256176 -0.0056749429 -0.686566 -0.13532108 -0.71436357 0.0042079398
0.049869969 0.048735604 -0.0041668694 -0.5132885 0.78916103 -0.3372831 0.0026478581
0.052384079 0.050128534 -0.0046206992 -0.50075889 0.78235322 -0.37035665 0.0044173673
0.054293893 0.050760403 -0.0055804495 -0.4973596 0.75786757 -0.42222062 0.0031123597
-0.075176649 0.053516511 -0.0031175443 -0.87176323 -0.14873055 -0.46680638 0.021631785
-0.073597647 0.05252238 -0.0043704193 -0.71746111 -0.19220814 -0.6695562 0.0074824556
-0.071856909 0.051616028 -0.0057570157 -0.66361129 -0.12266012 -0.73795295 0.0066152052
0.053460881 0.051229015 -0.0037792793 -0.47809657 0.79833162 -0.36618343 0.002982385
0.055441253 0.052247837 -0.0042019207 -0.48392028 0.77583432 -0.40484852 0.0043012677
0.05797039 0.053407088 -0.0048990417 -0.4919062 0.7634564 -0.41852421 0.0030501804
-0.075329751 0.055411696 -0.0033261159 -0.84861714 0.092813194 -0.52080184 0.036612261
-0.073832296 0.055345494 -0.00468214 -0.66307265 0.099014618 -0.74197757 0.018537689
-0.071536571 0.056431461 -0.0058032973 -0.5641306 0.091566272 -0.82059264 0.0092415167
0.059019171 0.054718763 -0.0039384468 -0.54287285 0.74677491 -0.3842088 0.0039542858
0.061436288 0.056000572 -0.0044466751 -0.52256978 0.70174712 -0.48422292 0.0049269199
0.063724019 0.056400936 -0.0056433636 -0.37835893 0.57669681 -0.72406173 0.0059900503
-0.073568285 0.057949126 -0.0039320146 -0.63761997 0.59610569 -0.48795363 0.035996154
-0.070830256 0.058467954 -0.0048854542 -0.29549998 0.68117839 -0.66983271 0.034655005
0.062458113 0.057618923 -0.0035218755 -0.65159148 0.60235101 -0.46108752 0.010292406
0.064403251 0.058568459 -0.0044386694 -0.64201963 0.50771898 -0.57448441 0.013078447
0.067099564 0.059230909 -0.0053476212 -0.45275557 0.38054121 -0.80635029 0.0076849428
0.065073043 0.061255872 -0.0034734476 -0.7306841 0.33362481 -0.59564686 0.0093613844
0.066777088 0.061821692 -0.004403702 -0.60972995 0.33184993 -0.71979517 0.0046359347
0.069102496 0.062812008 -0.0048510139 -0.42003012 0.20393015 -0.88430041 0.0057986262
0.065945089 0.063317515 -0.0034455126 -0.64178264 0.23203176 -0.73094213 0.011632523
0.067117319 0.064765334 -0.0038538557 -0.64147842 0.22222176 -0.73424995 0.0099983467
0.069954142 0.064722717 -0.0046434482 -0.51722085 0.17304054 -0.83817637 0.015069892
0.067557447 0.06752415 -0.0036801477 -0.67101592 0.17507309 -0.72047698 0.010746125
0.06989678 0.067764945 -0.0045888075 -0.42484754 0.10705913 -0.89891213 0.0056535942
0.067932874 0.070464939 -0.003504772 -0.74313092 0.1184697 -0.65857524 0.013925375
0.069891959 0.070695817 -0.004548355 -0.63408208 0.10419171 -0.76621407 0.013285018
0.072002597 0.070910096 -0.004737596 -0.35488951 0.01884127 -0.93471843 0.004450955
0.068233892 0.073489979 -0.0035362816 -0.7851429 0.073847003 -0.61489606 0.031659253
0.069764242 0.073556259 -0.0045688087 -0.75730622 0.058459766 -0.65043813 0.036784817
0.072318137 0.073828518 -0.00526095 -0.55895692 0.042019255 -0.82813138 0.028378977
0.068527624 0.075859353 -0.0035710991 -0.89427328 0.13060105 -0.4280405 0.053758629
0.069700725 0.075784981 -0.0045313342 -0.742975 0.095235325 -0.66250914 0.033192232
-0.015913816 0.0027448395 -0.0013373418 -0.24958302 -0.95766896 -0.14345214 0.00080704433
-0.013517107 0.0021155865 -0.0015837973 -0.21066242 -0.96531427 -0.15423951 0.0013500816
-0.010477021 0.0014965996 -0.0014037496 -0.15139629 -0.98027724 -0.12702605 0.0029346107
-0.0073869615 0.0010690159 -0.0014969449 -0.13296564 -0.98313141 -0.12558997 0.0042441846
-0.0045936988 0.00068829372 -0.0015519192 -0.092340253 -0.98877853 -0.11743248 0.0029670894
-0.0013143647 0.00048612981 -0.0015090848 -0.051301029 -0.99281073 -0.10814412 0.0030873937
0.0018013557 0.00037185021 -0.001555251 -0.027778314 -0.99521458 -0.093682013 0.0033606321
0.0042708926 0.00035177852 -0.0019581672 0.015202934 -0.98993295 -0.14071791 0.0025704738
0.0077069663 0.00044183209 -0.0011525434 0.040503725 -0.99879497 -0.027714236 0.0019033855
0.010164139 0.00065539358 -0.0020086274 0.056546178 -0.99451709 -0.087968461 0.0038563556
0.013013254 0.00089653902 -0.0018692904 0.10355505 -0.98054808 -0.16673888 0.0031273081
0.016899457 0.0013726391 -0.0013934582 0.13662641 -0.96903682 -0.20567186 0.0024454591
0.019541234 0.0018130259 -0.0016737661 0.1735985 -0.97840065 -0.11223093 0.0024870725
0.022576053 0.0024487954 -0.0015458822 0.20544253 -0.9734298 -0.101133 0.0020104954
0.024456276 0.0028706193 -0.0016896864 0.21573386 -0.97210532 -0.09203355 0.0022380736
-0.024897188 0.0056982241 -0.0014344332 -0.35185882 -0.91889703 -0.17839172 0.00055311288
-0.022480683 0.0047769975 -0.0014806656 -0.32259005 -0.93017954 -0.17521878 0.00020482646
-0.019527832 0.0037695945 -0.0016332072 -0.28874838 -0.94197321 -0.17120411 0.00049034174
-0.017397031 0.0031819653 -0.0016470086 -0.27259782 -0.94858712 -0.16085042 0.00058631069
0.026026774 0.0032683562 -0.0018897706 0.2601856 -0.96050227 -0.098685704 0.0025338933
0.028569872 0.0039933431 -0.0017050171 0.28416231 -0.95563638 -0.077530138 0.0016896466
0.031359483 0.0048257709 -0.0017150332 0.29368535 -0.95133966 -0.093283877 0.0017778712
0.033710063 0.0056293323 -0.0017238647 0.31964055 -0.94274747 -0.095168792 0.0019856356
-0.033196133 0.0089635272 -0.0003698181 -0.37510732 -0.89912409 -0.22554453 0.0025115565
-0.031481359 0.0083511928 -0.0015313611 -0.3911902 -0.89641452 -0.20835362 0.00087080878
-0.028523959 0.0071091824 -0.0014838581 -0.35323122 -0.91121495 -0.21193191 0.00090998731
-0.026332587 0.0062699863 -0.0016767246 -0.35512406 -0.91339403 -0.19899328 0.00092072552
0.035478428 0.006305832 -0.0017305777 0.35427728 -0.9296183 -0.10147619 0.002067277
0.037778996 0.0071586082 -0.0014896467 0.38149437 -0.92205667 -0.065372914 0.0010925257
0.040500809 0.0083662132 -0.0017841903 0.40671131 -0.90950459 -0.085949793 0.0020712193
-0.039292473 0.011925742 -0.0015305546 -0.47243774 -0.85025537 -0.23209588 0.0016329148
-0.037489105 0.011040208 -0.001473881 -0.43429875 -0.87449658 -0.2159635 0.0022316079
-0.034541987 0.0096494565 -0.0015749261 -0.3948417 -0.89170367 -0.22127938 0.001554771
-0.032912176 0.0090806037 -0.002594569 -0.4032748 -0.8884685 -0.21907356 0.0022890228
0.041897599 0.0091106649 -0.0025090021 0.42911869 -0.90050638 -0.070324019 0.0018337151
0.043933261 0.0099589173 -0.0015113216 0.44450742 -0.89335412 -0.065814994 0.0014019965
0.046841513 0.01142821 -0.0010130944 0.47671363 -0.87606108 -0.072534144 0.0020930052
-0.043300558 0.014187749 -0.0014635824 -0.5150665 -0.83468533 -0.19495362 0.0026592494
-0.0405946 0.012688289 -0.0015262224 -0.46235481 -0.85446268 -0.23689996 0.0020024769
-0.03890397 0.01200401 -0.0027159932 -0.45463443 -0.86257994 -0.22195363 0.0009295955
0.047708247 0.012050567 -0.00203367 0.47674975 -0.87453169 -0.088904984 0.0021515987
0.049470842 0.013001697 -0.0015276265 0.48881987 -0.86877751 -0.079251535 0.0021313182
0.051242437 0.013958549 -0.0010234457 0.51776171 -0.85420018 -0.047590569 0.0016130722
-0.048376601 0.017694758 -0.0014605466 -0.57163823 -0.78987354 -0.22210245 0.0022551222
-0.046524134 0.016410252 -0.0015277552 -0.55028296 -0.81034064 -0.20133732 0.0016251052
-0.044790793 0.015210074 -0.0016023497 -0.55644685 -0.79627788 -0.23729388 0.0033953364
0.053482082 0.015563104 -0.0015458954 0.53303641 -0.84606135 0.0072466941 0.0035014136
-0.051980499 0.020351015 -0.0014311802 -0.59222609 -0.7827574 -0.19120437 0.0016055661
-0.049954284 0.018842475 -0.0015154897 -0.57957542 -0.78215629 -0.22874409 0.0021158268
0.057111904 0.018163627 -0.0020815772 0.51281816 -0.85235345 -0.1025243 0.0088970196
-0.05532163 0.022910336 -0.0014967383 -0.60680163 -0.77286983 -0.18564495 0.0011664628
-0.053383991 0.02142466 -0.0016158592 -0.60115248 -0.76486373 -0.23151496 0.0033316556
-0.060118169 0.026841937 -0.0010074669 -0.67349297 -0.71960092 -0.16906106 0.0010429835
-0.058489908 0.025514541 -0.0014835686 -0.63836592 -0.7463845 -0.18814661 0.0007692682
-0.056769282 0.024117237 -0.0017014215 -0.62790102 -0.75056487 -0.20589498 0.0014938996
-0.06306906 0.029875686 -0.0012910647 -0.73538131 -0.65920883 -0.15702903 0.00073387357
-0.061575562 0.028447956 -0.0015223095 -0.71250951 -0.67809486 -0.18032619 0.00072451943
-0.059965547 0.027143795 -0.0029357783 -0.67058957 -0.69284576 -0.26509315 0.0021530723
-0.064391725 0.031509351 -0.0014971009 -0.75592405 -0.63446379 -0.16135195 0.001426409
-0.062831216 0.030031417 -0.0023887102 -0.73790461 -0.65601963 -0.15854056 0.00085976429
-0.066988952 0.034744855 -0.0014430409 -0.80644041 -0.57378107 -0.14293084 0.0023640122
-0.065810084 0.033281431 -0.001618863 -0.77737659 -0.61251682 -0.14320908 0.0016211653
-0.069472134 0.038354874 -0.0013079405 -0.8500154 -0.50490868 -0.15013698 0.0048700324
-0.068471633 0.036894456 -0.0016335706 -0.81824929 -0.56102818 -0.12536113 0.0021287871
0.026952038 0.036748309 -0.0020209011 -0.29266095 0.92427319 -0.24508902 0.0015001786
0.02871136 0.037386872 -0.0018269217 -0.32807937 0.91510421 -0.23441035 0.0026834337
0.031777952 0.038524441 -0.0017642387 -0.356464 0.92147112 -0.15435156 0.00079516432
-0.070686996 0.040488508 -0.0015215761 -0.88643616 -0.44475949 -0.12813991 0.0036645625
0.034742422 0.039987721 -0.0010430209 -0.44709292 0.89439029 0.013188617 0.0025135451
0.037152808 0.04117462 -0.0016141904 -0.49561524 0.86696798 -0.052269652 0.0014222329
-0.072334863 0.044177588 -0.0012901464 -0.93221277 -0.3412292 -0.12059025 0.0061510275
-0.071674727 0.042769995 -0.0017210917 -0.90111512 -0.4122375 -0.13435709 0.0048659192
0.038614668 0.042118132 -0.0012026569 -0.51727635 0.8537823 -0.058999494 0.0021456298
0.040569082 0.043287471 -0.0014761388 -0.52052903 0.85158759 -0.062033288 0.0022256058
0.042403653 0.044455253 -0.0016729437 -0.53949571 0.83876491 -0.073606402 0.0024079494
-0.073115483 0.046489324 -0.0015162666 -0.93115181 -0.3064855 -0.19754238 0.010319945
0.044046797 0.045559987 -0.001477537 -0.53190833 0.84254616 -0.084790766 0.0025904123
0.04630531 0.047064036 -0.0015261574 -0.55975944 0.81960368 -0.12214414 0.0036527016
-0.075059608 0.050762281 -0.0005968645 -0.90351111 -0.40263447 -0.14681008 0.021427305
-0.074183099 0.049421817 -0.0015229378 -0.90727144 -0.34757996 -0.236742 0.015553341
0.047777705 0.048170768 -0.00066587434 -0.55478263 0.82464761 -0.11032922 0.0033352936
0.049462765 0.04918142 -0.0015941618 -0.54033536 0.83249927 -0.12240356 0.0039339531
0.051470011 0.050544441 -0.0015516093 -0.55399638 0.82577038 -0.10578868 0.003810676
-0.075627588 0.05261695 -0.0013532481 -0.92642683 -0.30759954 -0.21706168 0.018234365
-0.074774384 0.051481169 -0.0024526305 -0.8847701 -0.30795062 -0.34978318 0.016769998
0.05305472 0.051618088 -0.0013352378 -0.52578282 0.84325236 -0.11170463 0.0041000592
0.055453204 0.053149834 -0.0015453661 -0.55029267 0.81757116 -0.16957445 0.0056618415
-0.076224305 0.055353075 -0.0014877968 -0.96617615 0.05035175 -0.25291961 0.035099771
0.05835636 0.055184126 -0.0014859971 -0.58330202 0.79527348 -0.16522372 0.0088881459
0.060430519 0.056725003 -0.0015302846 -0.64600581 0.7473526 -0.15537255 0.011004196
-0.07566262 0.057227518 -0.0015246951 -0.93690372 0.27636221 -0.21409209 0.041349854
-0.073766954 0.05838941 -0.0015609831 -0.58049238 0.78777814 -0.2059956 0.024614379
-0.071133122 0.059701134 -0.0018386171 -0.45709795 0.85079288 -0.2592544 0.02886164
0.061931975 0.058389209 -0.001371654 -0.79753923 0.57884258 -0.16991901 0.017614245
0.063343145 0.059452709 -0.0026711894 -0.73467457 0.56234848 -0.37949637 0.015318915
-0.069874503 0.060315058 -0.00072731928 -0.48210138 0.87598616 0.015051111 0.0089636408
0.062942021 0.060150716 -0.00038058535 -0.82689637 0.55807441 -0.069248512 0.020492658
0.063946508 0.061494574 -0.0014527983 -0.86082894 0.44816107 -0.24109162 0.027995158
0.065016069 0.064429671 -0.0014809358 -0.90708959 0.27008846 -0.32286331 0.022014584
0.066101044 0.065487608 -0.0028750827 -0.88187802 0.19586904 -0.42886657 0.018845089
0.06555894 0.067370281 -0.00101967 -0.96490216 0.19831897 -0.17214322 0.049116302
0.06626223 0.067712247 -0.0023937183 -0.8884815 0.15979041 -0.43019485 0.014073513
0.065941036 0.069397889 -0.00066180888 -0.95304066 0.22980374 -0.1972405 0.057709668
0.066562429 0.070642978 -0.0015340033 -0.92193747 0.19953504 -0.33198959 0.026845649
0.067050636 0.073510841 -0.0015298243 -0.92847431 0.20323065 -0.3108581 0.031760436
0.067454807 0.076086558 -0.0014743325 -0.98111415 0.1698911 -0.092477679 0.08729931
-0.018536642 0.0029061367 0.0023902431 -0.25761154 -0.96605545 0.019319026 0.008252291
-0.016467178 0.0025474709 0.0015316085 -0.22226112 -0.97492218 0.011257247 0.0062996936
-0.013616472 0.0019215104 0.0014400375 -0.19085228 -0.98119169 0.028951127 0.0022687188
-0.010553885 0.0014169514 0.0014115516 -0.1465973 -0.98240912 0.11567851 0.0047293515
-0.0073232576 0.0010196435 0.0013460339 -0.12041348 -0.98581249 0.11693752 0.0035565372
-0.0046163886 0.00068237324 0.0014941166 -0.090336926 -0.99471211 0.048856333 0.0039324416
-0.0012272444 0.00049544341 0.0014534025 -0.054576054 -0.99455881 0.088736102 0.0032780289
0.0018251658 0.00038702015 0.001399641 -0.015551333 -0.99881452 0.046127103 0.0067712124
0.0042435601 0.0003781571 0.0016324488 0.035308558 -0.98759663 0.15299068 0.0057875998
0.0075208251 0.00050113699 0.0012716125 0.06255158 -0.99253744 0.10467426 0.0052371616
0.010297747 0.00062156067 0.0014292679 0.07380496 -0.97501785 0.20950678 0.0070261606
0.01379579 0.0010048834 0.0015490202 0.099737205 -0.97207505 0.21242096 0.0063860025
0.016540702 0.001353411 0.0014334702 0.15489933 -0.97415262 0.16441704 0.0038095263
0.01950743 0.0018176923 0.0013696818 0.16657992 -0.97421026 0.1522024 0.0040808828
0.022582002 0.0024815639 0.0013696537 0.19140801 -0.97388119 0.12214115 0.003194029
0.024664899 0.0028646556 0.00097144127 0.21856755 -0.96728307 0.1288089 0.0036827927
-0.027590603 0.0057283728 0.0021400738 -0.33331424 -0.94167191 -0.046428286 0.013565441
-0.025360772 0.0052286275 0.0015498766 -0.30695248 -0.9474057 -0.090568073 0.0070261904
-0.02246359 0.0043152417 0.0014081624 -0.32012504 -0.94674838 -0.034459054 0.0032066302
-0.019692972 0.0034363002 0.0013074825 -0.30142811 -0.95240849 -0.045376986 0.003067604
-0.017863967 0.0031320148 0.00047627123 -0.24782491 -0.96647805 -0.067104116 0.0019112965
0.025791625 0.0032551019 0.0017826419 0.24754909 -0.95683533 0.15226842 0.0035360523
0.028529197 0.0040237219 0.0015659858 0.28448826 -0.95053387 0.12470686 0.002715606
0.031428646 0.0048762709 0.001477593 0.28107619 -0.95367831 0.10720971 0.0021583049
0.033674043 0.005603116 0.0012377136 0.32388422 -0.93990558 0.10805807 0.0027580524
-0.036094535 0.0088769458 0.0023342972 -0.38679385 -0.91393989 -0.1228999 0.015323546
-0.034316607 0.0084542399 0.0017876545 -0.36746559 -0.92287189 -0.11522374 0.012054349
-0.031533688 0.0075618252 0.0014776053 -0.36324564 -0.92322236 -0.12535174 0.0047188927
-0.028796421 0.0066353455 0.0011839095 -0.37053734 -0.91937494 -0.13210556 0.0056563853
-0.02658774 0.0061691436 0.00047010023 -0.32677385 -0.93491417 -0.13839966 0.0045319977
0.035311937 0.0062719327 0.0014894009 0.3739908 -0.91965139 0.11988441 0.0025822993
0.037644234 0.0071537076 0.0013607307 0.37883085 -0.91712147 0.12399758 0.0024396516
0.04045682 0.0083344402 0.0012905216 0.39238471 -0.91334581 0.10878291 0.0033392403
-0.042277392 0.011903615 0.0024511367 -0.43931562 -0.88895643 -0.12945372 0.018071841
-0.040390279 0.01120865 0.0019720902 -0.42964101 -0.89288706 -0.13476342 0.013302538
-0.037578419 0.010222405 0.0013670945 -0.44906247 -0.8729797 -0.19039264 0.0068999878
-0.034893747 0.0095035322 0.00050862326 -0.39112991 -0.89919633 -0.19612065 0.0063435845
0.041839492 0.0090687498 0.0020135599 0.43165112 -0.89620662 0.10242607 0.0030106662
0.04374228 0.0099096233 0.0014455403 0.42670432 -0.89882451 0.1001893 0.0026775431
0.046827774 0.011418343 0.00051225798 0.48753828 -0.86767524 0.097190902 0.0029842819
-0.045891315 0.014369939 0.002137688 -0.55503184 -0.81777173 -0.15227909 0.010516931
-0.043553013 0.013355392 0.0014098271 -0.52757895 -0.82028764 -0.22088143 0.0099974349
-0.040797304 0.012531188 0.00049467717 -0.45345005 -0.86269641 -0.22391511 0.0068090199
0.04766693 0.012020897 0.0015315968 0.49174091 -0.8628217 0.11717336 0.0031244603
0.049164068 0.012886251 0.0015344081 0.48739153 -0.86487192 0.1201922 0.0030400259
0.051247958 0.013962506 0.00051727478 0.52215159 -0.8499794 0.069947913 0.0018654153
-0.051204491 0.017909067 0.0026375649 -0.5513649 -0.83069783 -0.077057399 0.014866631
-0.049259409 0.01697004 0.0018029871 -0.53254986 -0.82486528 -0.18970488 0.0094962446
-0.046826124 0.015896814 0.0010348015 -0.55311984 -0.80751014 -0.20490445 0.0070081246
-0.044922281 0.015137368 0.0003140624 -0.5509482 -0.80043083 -0.23614962 0.0057194778
0.053588409 0.015639279 0.0010370421 -0.58308953 0.78589642 -0.20584825 0.0037380387
-0.054455202 0.020555891 0.0023394637 -0.63445199 -0.74351335 -0.21132578 0.0065246881
-0.052406561 0.019608803 0.0015493868 -0.59669095 -0.76063555 -0.2557216 0.008334863
-0.050102025 0.018632149 0.00061140902 -0.57425308 -0.77524805 -0.26310405 0.0057781315
-0.05764626 0.023469398 0.0023047102 -0.66470909 -0.73731017 -0.1205634 0.0069198911
-0.055668321 0.022398405 0.0013461696 -0.62403727 -0.75046277 -0.21767649 0.0056416728
-0.053597715 0.021362239 0.00057050132 -0.59386224 -0.7579307 -0.2699419 0.0053678253
-0.060522065 0.026484219 0.0019110857 -0.71451485 -0.68706906 -0.13192667 0.0012726411
-0.058756102 0.025175264 0.0012491447 -0.66157913 -0.72968507 -0.17283709 0.0023964986
-0.056851037 0.024048084 0.00046297617 -0.61108047 -0.76130486 -0.21678448 0.0027900217
-0.063333392 0.02964738 0.0021586691 -0.76595819 -0.63740665 -0.08378984 0.00098505756
-0.061875757 0.028315753 0.0013052124 -0.74158496 -0.66051632 -0.11734523 0.00072288676
-0.064626105 0.031461071 0.0013897857 -0.79579979 -0.60448056 -0.03613745 0.0016081203
-0.067023486 0.034628931 0.0014372998 -0.8214668 -0.56950593 0.029243935 0.0015428119
-0.065915659 0.033188149 0.0012816712 -0.80653638 -0.59118325 -0.0011899185 0.0013622298
-0.069457822 0.038284522 0.0012912165 -0.86358953 -0.49443838 0.098710857 0.0031522624
-0.068516143 0.036824893 0.0015242761 -0.83890855 -0.54131103 0.056700014 0.0015459846
0.026585359 0.036676768 0.0021354102 -0.28073299 0.89140439 0.35579106 0.0014558531
0.028691851 0.037410613 0.0019650955 -0.3180581 0.88858187 0.33054692 0.0018312208
0.032055989 0.038745642 0.00078711525 -0.38104334 0.9238863 0.035214901 0.0017333642
-0.070657067 0.040482998 0.0014340564 -0.89389306 -0.43470517 0.1094836 0.0030491808
0.034701779 0.039985545 0.00082520308 -0.44310445 0.89495581 0.052082315 0.0025271457
0.037126906 0.041145548 0.0015306973 -0.48435751 0.868815 0.10275354 0.0022031106
-0.072276257 0.044223558 0.0011437298 -0.93361139 -0.31952754 0.16208558 0.0068910192
-0.07166665 0.042827871 0.0016619326 -0.91110688 -0.37195092 0.17758556 0.0056735664
0.038723532 0.042132214 0.0011269812 -0.52863562 0.84276563 0.10144152 0.0022340307
0.040501937 0.043172564 0.0015154429 -0.5130921 0.85104197 0.11164264 0.0025851652
0.042463064 0.044419937 0.0016658583 -0.53350639 0.83745533 0.11848883 0.0026488928
-0.072967142 0.046496134 0.0014410205 -0.92679983 -0.29323617 0.23463729 0.0069730715
0.044087619 0.04553017 0.0013784677 -0.52825385 0.83941233 0.12780802 0.002725773
0.046322644 0.046992585 0.0015721011 -0.56004477 0.81289524 0.15984765 0.0032021152
-0.075040929 0.050758593 0.00022194863 -0.96460211 -0.26064807 0.040067002 0.014196376
-0.074058585 0.049504492 0.0014398614 -0.90119696 -0.34534618 0.26187783 0.011365254
0.047884889 0.048176534 0.00071129447 -0.54333359 0.82534701 0.15359329 0.0031279442
0.049502037 0.049113192 0.0015924361 -0.53408211 0.82985228 0.16155952 0.0031601461
0.051563069 0.05049818 0.0015259011 -0.55049509 0.82088274 0.15200908 0.0035902031
-0.07556843 0.052695405 0.0012016792 -0.91977268 -0.28800592 0.26659098 0.015589397
-0.074722759 0.051714197 0.0023077186 -0.8844685 -0.2987164 0.35844651 0.011634428
0.053174704 0.0516252 0.0012653773 -0.52225876 0.83676606 0.16452453 0.0040123835
0.0556072 0.053127896 0.0015903215 -0.5441817 0.81245846 0.2092306 0.0053031249
-0.076113567 0.055355381 0.0014007482 -0.96068871 0.051785775 0.27275506 0.029734766
0.05697269 0.054404136 0.0001062772 -0.58244395 0.81285965 0.0042770496 0.012406401
0.058479376 0.055169348 0.001467853 -0.56468529 0.79896933 0.20682955 0.0056882459
0.060591355 0.056660913 0.0016507318 -0.66691947 0.71805155 0.19904849 0.0093073612
-0.075660594 0.057233971 0.0011234465 -0.8868922 0.38637257 0.25325561 0.03683278
-0.073740624 0.05836717 0.0016710663 -0.57661015 0.78804785 0.21564187 0.023230355
-0.071178526 0.05967696 0.0015784291 -0.42223394 0.86959469 0.25597557 0.024253918
0.062020861 0.05832687 0.0012433475 -0.76669234 0.58970618 0.25382954 0.020495262
0.063455895 0.059379321 0.0023712297 -0.72918081 0.59316391 0.3412506 0.015535942
-0.069872655 0.060315624 0.00060253078 -0.44996086 0.89064074 0.065530822 0.020458233
0.062961161 0.060117308 0.00018573678 -0.80181384 0.56838655 0.18447582 0.021997115
0.064227104 0.061527193 0.0014711983 -0.77404302 0.46587956 0.4287349 0.023402058
0.065133616 0.064373016 0.0012559614 -0.89842361 0.25850853 0.35497677 0.029629089
0.066478975 0.065220371 0.0025617364 -0.84932202 0.23522024 0.47257113 0.02124498
0.065626726 0.067212753 0.00079685682 -0.95309967 0.18538876 0.23923226 0.028788764
0.066740543 0.067721292 0.0020115606 -0.86294049 0.20530121 0.46171972 0.031841446
0.069837995 0.067960717 0.0029772602 -0.23392813 0.12352444 0.96437514 0.009535701
0.065930441 0.06938155 0.00011334696 -0.92456901 0.37420633 -0.071705818 0.055196397
0.066925578 0.070502147 0.0013089259 -0.79021382 0.25634596 0.55664068 0.033682775
0.069228411 0.071337186 0.0026569879 -0.48817191 0.030927904 0.87219936 0.011128491
0.067457557 0.073624641 0.001332621 -0.8596074 0.11066052 0.49882796 0.027295146
0.069087848 0.07273899 0.0026230512 -0.65307683 0.016727652 0.75710684 0.030950181
0.067756817 0.076075658 0.0013660585 -0.96770781 -0.027486067 0.25057173 0.058479171
-0.018319279 0.0029537671 0.0031991033 -0.24980566 -0.95932829 0.1314777 0.0054686433
-0.016289473 0.0026696865 0.0038360097 -0.20832846 -0.95486313 0.21174444 0.0082551735
-0.013471524 0.0023598929 0.004438696 -0.15436096 -0.94587892 0.28545734 0.0038473613
-0.010418189 0.0018966626 0.0045036203 -0.13945416 -0.94562626 0.29384264 0.0033225194
-0.0072756149 0.0015481197 0.0044927951 -0.11199011 -0.94854212 0.29618609 0.0030246277
-0.0045144879 0.0012510654 0.0043609627 -0.087376252 -0.95987141 0.26648128 0.0040854681
-0.0019506925 0.0010603997 0.0041180118 -0.050665975 -0.95722753 0.28486559 0.0037168951
0.0015932654 0.0011266654 0.0044403831 -0.0038528533 -0.9310587 0.36484903 0.0027751671
0.0043911668 0.0012130819 0.0044777412 0.037786782 -0.927459 0.3720108 0.0021139593
0.0075426749 0.0015231683 0.0047055651 0.064320326 -0.91850483 0.39014322 0.0020537195
0.010495674 0.0015092224 0.0043062586 0.072567396 -0.92110258 0.38249716 0.0018424068
0.013516475 0.0018773618 0.0044654887 0.10960513 -0.90756685 0.40535066 0.002354017
0.016319387 0.0022202362 0.0044708019 0.11011983 -0.89976889 0.42224342 0.0025062207
0.019096296 0.0025960999 0.00448291 0.12995382 -0.87544566 0.46551785 0.0025333213
0.021879762 0.0027588245 0.0035365031 0.21023466 -0.91741449 0.33786401 0.0036567021
-0.027535921 0.0058354796 0.0034640897 -0.33589932 -0.92596978 0.17248687 0.016511114
-0.025382265 0.0054261275 0.0041746744 -0.28481504 -0.93980998 0.18877901 0.01560953
-0.022525802 0.00464741 0.0044702315 -0.27454215 -0.92019826 0.27903736 0.005693892
-0.019589698 0.003779507 0.004550992 -0.27523795 -0.92297465 0.26900157 0.0055324952
-0.016831437 0.0033604132 0.0052092113 -0.2222545 -0.92394263 0.31134066 0.0052817613
-0.014542009 0.0031246652 0.0058836895 -0.16034777 -0.8904019 0.42599657 0.00030961313
0.020213902 0.0034212214 0.0056855613 0.13901687 -0.84675419 0.51349938 0.0030450376
0.023244692 0.0037263245 0.005143696 0.18113184 -0.85026675 0.4942041 0.0023804735
0.025367934 0.0040973704 0.0048722569 0.20120217 -0.85242772 0.48258123 0.0019734255
0.0284924 0.004842794 0.0046462188 0.2489533 -0.89461726 0.3710556 0.0037988762
0.031054331 0.0054447372 0.004314695 0.2776368 -0.89898807 0.33873042 0.0034865355
0.033217587 0.0058787949 0.0034560221 0.30515325 -0.88798082 0.34405178 0.0040276968
-0.036046423 0.0089542074 0.0032952684 -0.29003656 -0.95424724 0.07273902 0.029875576
-0.034232348 0.0085337991 0.0040326319 -0.35311937 -0.92604452 0.13322259 0.017998314
-0.031524472 0.0076953098 0.0044601485 -0.31870243 -0.91379851 0.25179568 0.0061994954
-0.028682746 0.0067094504 0.0046452116 -0.34532383 -0.90305346 0.25543252 0.0074764639
-0.026080849 0.0061973813 0.0055445037 -0.29505387 -0.89177358 0.34304959 0.0024318697
0.032180447 0.0063373111 0.0055459472 0.26755637 -0.87087035 0.41230875 0.0035740489
0.03466399 0.0068656672 0.0046794275 0.31255355 -0.88221264 0.3521522 0.0037583206
0.037287928 0.0078920051 0.0047616735 0.34311867 -0.88078749 0.32631737 0.002682968
0.039800514 0.0087042879 0.0041075544 0.36207291 -0.87074625 0.33272237 0.0025721805
-0.042144835 0.011919329 0.0031993678 -0.43793944 -0.89804441 0.041536871 0.022323977
-0.040240321 0.011346698 0.0041494719 -0.41450867 -0.89142811 0.18313535 0.015662508
-0.037524596 0.010175751 0.0044747572 -0.42683971 -0.87387997 0.23268357 0.006289192
-0.035097722 0.0093452586 0.0052235634 -0.36112523 -0.8876555 0.28575557 0.0064322557
0.041124925 0.0095814206 0.0048586782 0.38564032 -0.85914439 0.33638141 0.0028481525
0.043410368 0.01046736 0.0043305694 0.41138336 -0.83879924 0.35662249 0.0020707971
0.045858588 0.011344522 0.0033018398 0.46719396 -0.84656924 0.25504974 0.0041014859
-0.045741405 0.014493 0.0041259993 -0.54602242 -0.83194876 0.098594368 0.02273909
-0.043554176 0.013252153 0.004485392 -0.51302165 -0.8283304 0.22511661 0.0069883242
-0.041247491 0.012291468 0.0053218529 -0.43067056 -0.84663117 0.31263152 0.0030523373
0.04712965 0.012675743 0.0049269157 0.44538775 -0.83706957 0.31771746 0.003044615
0.050104059 0.014085256 0.0041060741 0.51867175 -0.80155736 0.29746509 0.0016604738
-0.0512072 0.017932206 0.0034732879 -0.53253114 -0.84641033 -0.00020901773 0.020986754
-0.049427226 0.016980598 0.0043027853 -0.56044114 -0.82136256 0.10615678 0.027203605
-0.047101583 0.015594349 0.004704508 -0.56573302 -0.80819154 0.16362299 0.012061574
-0.054459441 0.02057117 0.0040311594 -0.65504032 -0.751513 0.078423925 0.024728289
-0.052538529 0.019325985 0.0044806688 -0.60211957 -0.77381986 0.19660822 0.010021965
-0.050568145 0.018295782 0.0054478496 -0.51185846 -0.8073256 0.29364318 0.0068143471
-0.057708204 0.02339503 0.0042123673 -0.64752972 -0.75417763 0.10918488 0.018966073
-0.055852283 0.021933392 0.0045827371 -0.64512247 -0.74176699 0.18329953 0.01233321
-0.060629468 0.026273945 0.0042501856 -0.74073797 -0.66057175 0.12227902 0.014118743
-0.059139546 0.024875522 0.0046115122 -0.69343454 -0.70765162 0.13556448 0.011946077
-0.063381545 0.029488249 0.004099539 -0.78923416 -0.57659256 0.21130635 0.013038136
-0.062085044 0.028114317 0.0045638983 -0.75717849 -0.6345517 0.15499985 0.010162458
-0.066027567 0.032990567 0.0034543979 -0.80634189 -0.55241704 0.2113011 0.01201158
-0.06467519 0.031452861 0.004413452 -0.8074823 -0.55948877 0.1869348 0.0081608882
0.017517898 0.032821391 0.0058150869 -0.18371432 0.83164924 0.5240311 0.0012893153
-0.066793859 0.034683142 0.0042937933 -0.83203954 -0.49415645 0.25203079 0.0081329914
-0.065725476 0.033380166 0.0051061069 -0.80188626 -0.54904693 0.23563918 0.010737897
0.019956013 0.033794951 0.0051113497 -0.21593398 0.84062243 0.49671569 0.00096195639
0.022628175 0.034811866 0.0044877664 -0.23699427 0.87836492 0.41510105 0.0011138811
0.025373546 0.03544724 0.0048642554 -0.24401286 0.87947398 0.40863594 0.0025256574
-0.069206528 0.038560122 0.0035152056 -0.84581524 -0.41499826 0.33522066 0.0045370418
-0.068155833 0.037302401 0.0045576463 -0.83414739 -0.47743618 0.27613902 0.004477453
0.026507031 0.036025297 0.0042757397 -0.28542882 0.88769287 0.36129192 0.0014185527
0.028681837 0.036621638 0.0046560373 -0.28429177 0.88890845 0.35919359 0.0019013078
0.031721417 0.037838232 0.0043324623 -0.3541536 0.86628973 0.35230285 0.0029941737
0.033672165 0.038591053 0.0046390076 -0.40785992 0.8503471 0.33250597 0.0027342553
-0.06982664 0.040643759 0.0042804722 -0.86023676 -0.34629458 0.37426308 0.0045966613
-0.068768762 0.039612405 0.0055454802 -0.8285774 -0.3395564 0.4451527 0.0063758381
0.035193197 0.039452229 0.0042514834 -0.40838411 0.85049158 0.33149135 0.0027790028
0.038128771 0.041177142 0.0038194086 -0.47872061 0.85447204 0.20175269 0.0025304754
0.039627865 0.041482601 0.0054120333 -0.48719269 0.80274236 0.34387201 0.0032637166
-0.072057389 0.044956841 0.0030475515 -0.87015957 -0.30908051 0.38378584 0.014696094
-0.070809051 0.043517832 0.0044085146 -0.84435636 -0.2774674 0.45833853 0.0048056119
0.040980563 0.042867534 0.003902206 -0.50842959 0.82945281 0.23131658 0.002102047
0.04341127 0.044161107 0.0045341328 -0.51260376 0.79729462 0.31868285 0.0017803875
-0.072341613 0.046998728 0.0035197157 -0.83339661 -0.25249857 0.49162439 0.0052181962
-0.071314357 0.046304215 0.0048736664 -0.82367986 -0.20879745 0.52721447 0.0068692472
0.044684216 0.045168772 0.0040835538 -0.50533777 0.80374509 0.31405008 0.0015952813
0.046570718 0.046246938 0.0043983608 -0.50978559 0.7981531 0.32104561 0.0025383849
0.048764389 0.047459908 0.0048169116 -0.48274797 0.8020516 0.3516641 0.0031989492
-0.07280124 0.049557671 0.0039758026 -0.77712256 -0.23302472 0.58461958 0.0082690567
-0.071554564 0.049270004 0.0054201414 -0.6771304 -0.12400433 0.72533959 0.0083788997
0.050126679 0.048687361 0.0041344194 -0.5051294 0.78348869 0.36192498 0.0033840961
0.052580442 0.049938947 0.0047042472 -0.4758541 0.77615368 0.41370082 0.0035458137
0.054700285 0.050847128 0.0054790415 -0.42916867 0.71547669 0.55127794 0.0011267152
-0.075005069 0.053504892 0.0030728388 -0.7749303 -0.22052859 0.59232605 0.014675915
-0.073499061 0.052419662 0.0042178421 -0.71163607 -0.17074759 0.68148321 0.0079789879
-0.071713097 0.052531868 0.0057817725 -0.56209332 -0.055493258 0.82521009 0.0056300713
0.053629454 0.051247828 0.003501744 -0.48598185 0.78428227 0.38564631 0.0023215492
0.05567234 0.052054621 0.0043001501 -0.49040836 0.76905942 0.40993559 0.0030138597
0.058029164 0.053228322 0.0047331173 -0.48581901 0.74717182 0.45355719 0.0041415086
0.060178086 0.053563844 0.005999737 -0.33606502 0.64524454 0.68609029 0.003613288
-0.075190984 0.055457797 0.0031957664 -0.84827298 0.034281291 0.52844846 0.027792716
-0.07388822 0.055296358 0.004368369 -0.67622101 0.040985789 0.73555791 0.017918603
-0.071385771 0.055429716 0.0057768291 -0.49030647 0.07274016 0.86850935 0.0066628195
0.05899962 0.054528818 0.0037192209 -0.54621589 0.76257336 0.34659773 0.006168385
0.061498292 0.055875212 0.0041729864 -0.49772114 0.66967362 0.55119044 0.007995721
0.064057156 0.055943012 0.0057203304 -0.45005706 0.61402994 0.64839488 0.0074017113
-0.073725931 0.057570517 0.003967212 -0.66327477 0.4003382 0.63229418 0.039833613
-0.070954457 0.058384087 0.0047479393 -0.22935034 0.68937826 0.68713617 0.03323289
-0.068863206 0.057513952 0.0054577766 -0.21639757 0.46270344 0.85969627 0.022131657
0.062596895 0.057605766 0.0031918017 -0.63529891 0.60915774 0.47468111 0.016660571
0.064493664 0.058543317 0.0040870961 -0.59105581 0.52135712 0.61549956 0.0077882414
0.067090414 0.05871978 0.0051074317 -0.46912637 0.47796226 0.74261194 0.0074627521
0.065216407 0.060702227 0.0033442378 -0.71162176 0.44018993 0.54756486 0.018959522
0.066729642 0.061661787 0.0038085885 -0.72057879 0.3850483 0.57663161 0.013602687
0.067113854 0.064051539 0.0032457665 -0.63258195 0.31636831 0.70693082 0.02154069
0.070830382 0.064817481 0.0032656789 -0.19089791 0.14276358 0.97117281 0.008625254
0.067512669 0.066013366 0.0030061537 -0.3462522 0.28445274 0.8939777 0.024565307
0.070638403 0.06741178 0.0031215532 -0.17617992 0.074379049 0.9815439 0.0055004284
0.070952162 0.071296141 0.0035692744 -0.59410828 0.050543513 0.80279547 0.02346272
0.072412528 0.069941483 0.0034688006 -0.39500713 -0.05493189 0.91703427 0.0049579632
0.07026682 0.07373286 0.0036706715 -0.65308219 0.016705105 0.75710273 0.030949252
0.072506055 0.073704578 0.0044056326 -0.49059364 -0.060931668 0.8692556 0.013748163
0.069860727 0.075618714 0.003743263 -0.74751824 0.021621907 0.66388935 0.04955361
-0.012274466 0.0029404371 0.0063600796 -0.13458054 -0.85712087 0.49722418 0.0014147701
-0.010363207 0.0028355892 0.0066171382 -0.13769676 -0.87708127 0.46018258 0.0030910894
-0.0073666908 0.0025937762 0.0068244711 -0.09999036 -0.89256358 0.43969554 0.0023679615
-0.0046464172 0.002492791 0.0070438115 -0.046867274 -0.86578423 0.49821797 0.0015395388
-0.0016569232 0.0023732916 0.0070171449 -0.013113829 -0.86142278 0.50771934 0.0017913806
0.0015265516 0.0023611977 0.0069858609 0.010812977 -0.8617118 0.50728285 0.0016655205
0.0044098129 0.0024222326 0.0069362475 0.041378964 -0.86057526 0.50763965 0.0015279958
0.007260602 0.0026050103 0.0068712467 0.063669182 -0.8572681 0.51091844 0.0014315122
0.010072006 0.0025790404 0.006489276 0.085670926 -0.85406697 0.51305956 0.000728324
0.013360931 0.0028445558 0.0061892411 0.11119891 -0.85638666 0.50421888 0.0018129933
-0.024112703 0.0058751632 0.0062701032 -0.26238337 -0.88206214 0.3913072 0.0029510518
-0.022251403 0.0055555888 0.0067605837 -0.25606045 -0.86009949 0.44120499 0.0007143924
-0.019464552 0.0050740545 0.0073588607 -0.21944961 -0.8433302 0.49054673 0.00088083738
-0.016489668 0.0044489619 0.0075226282 -0.1799342 -0.85165203 0.49225241 0.0013426194
-0.013586245 0.0038153685 0.0074335919 -0.15880343 -0.8555727 0.49272379 0.0012737449
-0.010769946 0.0035605987 0.0078393249 -0.11852254 -0.84666139 0.51876485 0.0015100708
-0.0076224133 0.0034754749 0.0082692765 -0.076167397 -0.84089237 0.53581578 0.0014998047
-0.004417385 0.0034264261 0.0085386913 -0.038745083 -0.8176415 0.57442254 0.0012026131
-0.0015790369 0.0033754527 0.0085581979 -0.0093434639 -0.81351227 0.58147269 0.001323293
0.0011838309 0.0033712392 0.0086208731 0.01038939 -0.79318529 0.60889179 0.00073531456
0.0044796187 0.003371628 0.008518463 0.044058502 -0.79123801 0.60991907 0.00092066743
0.0074766777 0.0034907903 0.0082855467 0.063057542 -0.83068168 0.55316526 0.0014031155
0.010459462 0.0035381236 0.007976383 0.088079996 -0.83193386 0.5478394 0.00092186581
0.013702963 0.0037374187 0.0075751795 0.11993816 -0.8290965 0.54608965 0.0003919969
0.016500283 0.0039459346 0.00729312 0.11781964 -0.81933135 0.5610835 0.00050115609
0.019390125 0.0046503637 0.0075978041 0.14776017 -0.79051751 0.5943476 0.00084528443
0.022494936 0.0050069913 0.0073215785 0.16969998 -0.77990943 0.60244763 0.001124359
0.024700928 0.005139566 0.0069618458 0.17939939 -0.78870243 0.58801728 0.001414099
0.028025908 0.005821554 0.0067289015 0.2096992 -0.7860474 0.58151156 0.0014811299
-0.031236509 0.0085784746 0.0068349368 -0.31395355 -0.84117824 0.44028664 0.00098355941
-0.028423406 0.0078889495 0.0074110846 -0.28248551 -0.83881122 0.46540046 0.00087258196
-0.025576621 0.0070079635 0.0075355507 -0.27278224 -0.84580237 0.45848447 0.0010849726
-0.022711784 0.0065858453 0.0082497569 -0.23949021 -0.82219273 0.51637548 0.001142354
-0.020648325 0.0062143151 0.0086526778 -0.23224531 -0.80191493 0.55044943 0.00083223154
0.02095579 0.0060332608 0.0088405358 0.14946848 -0.74316937 0.6521951 0.00073802529
0.023096772 0.0062863892 0.0086771492 0.16463676 -0.74991542 0.64071959 0.00066101522
0.026282266 0.0065890769 0.008199621 0.18011579 -0.73294741 0.65600801 0.0010317743
0.027929343 0.0071281828 0.0083247367 0.1942378 -0.74074805 0.64308947 0.0012012047
0.031051358 0.0077260099 0.0080840234 0.20621137 -0.72217858 0.66025364 0.0019924901
0.034507737 0.008196055 0.007256161 0.26753119 -0.77819449 0.56819046 0.0029901699
0.036870062 0.0085431142 0.0064782309 0.32774323 -0.7952857 0.51000488 0.0020926371
-0.03928889 0.011844031 0.0064528957 -0.42283571 -0.82136989 0.38283342 0.0031704046
-0.037244905 0.011267918 0.0072141588 -0.36717787 -0.81033528 0.45665875 0.0010069394
-0.034579094 0.010203191 0.0074661351 -0.35052645 -0.82110333 0.45046699 0.0010474228
-0.031745151 0.0095619494 0.0082220435 -0.30729729 -0.82533699 0.47369525 0.0011162489
-0.029628798 0.0090979328 0.0087183835 -0.28602499 -0.8113963 0.50973099 0.00090944918
0.034878746 0.0095428964 0.0087859547 0.23886332 -0.68887949 0.68438983 0.0016561046
0.037586473 0.0096812714 0.0077446103 0.30462551 -0.77999967 0.54662949 0.0043538553
0.040399466 0.010601236 0.0072883726 0.33323231 -0.79130638 0.51263094 0.0017892127
0.042856615 0.011249159 0.0065665846 0.39207456 -0.78674638 0.47676805 0.0022621674
-0.045083098 0.014869806 0.0061030346 -0.50939971 -0.78659707 0.3489657 0.0051447474
-0.043191869 0.014251032 0.0070840828 -0.46001959 -0.77274543 0.4373174 0.0011732406
-0.040656041 0.013078465 0.0075518335 -0.42203987 -0.79668927 0.43262985 0.00093509624
-0.038180318 0.01243148 0.008422683 -0.37521309 -0.77611095 0.5068205 0.00059781916
0.041902136 0.012213791 0.0085840784 0.28811342 -0.72541535 0.62511063 0.005301991
0.043647457 0.012653993 0.0081077525 0.39435235 -0.71701878 0.5747785 0.0051814164
0.046431251 0.013507006 0.007135178 0.41800058 -0.75442004 0.50608897 0.0027201003
0.049601443 0.014667415 0.0061565 0.4242231 -0.79857361 0.42698359 0.007627063
-0.048591208 0.017514789 0.0067684748 -0.52154994 -0.73928469 0.42596218 0.0014625062
-0.046472888 0.016519161 0.0074424888 -0.4904505 -0.7556386 0.43412963 0.0010594751
-0.044144601 0.015528527 0.0081997355 -0.46130529 -0.74351484 0.48413137 0.00099957502
0.048898455 0.016051233 0.0087269805 0.3660824 -0.70964003 0.60199225 0.0081678312
0.051031478 0.016331557 0.0072146761 0.51961207 -0.74663138 0.41538528 0.0075745746
-0.052037507 0.020230958 0.0070877974 -0.54036236 -0.71966326 0.43599698 0.0013452607
-0.049797315 0.018952498 0.0076794014 -0.53180087 -0.73072541 0.42805177 0.00091387867
-0.047813997 0.018226055 0.0087249903 -0.49600106 -0.72093481 0.48397917 0.0011249558
-0.057164676 0.023846956 0.0061869603 -0.62786704 -0.68629616 0.36712474 0.0089637823
-0.055244204 0.022842949 0.007259097 -0.58220786 -0.68786317 0.43344939 0.001433168
-0.053174268 0.021628985 0.0079683773 -0.55962664 -0.70165169 0.44102487 0.0013164323
-0.060208142 0.026855987 0.0062700827 -0.67875534 -0.61173445 0.40629086 0.0067403316
-0.058355678 0.025699833 0.007256174 -0.64036572 -0.62605393 0.44495857 0.0017991159
-0.056422874 0.024556369 0.008246365 -0.58503848 -0.62973493 0.51104194 0.00076518161
-0.061148643 0.028772993 0.0072116866 -0.69027895 -0.55265236 0.46700147 0.0021064694
-0.059401214 0.027620496 0.0082578696 -0.64482188 -0.57706153 0.5012033 0.0020330176
0.0104316 0.029923484 0.0088819256 -0.08538691 0.72453237 0.68393129 0.0021789873
-0.0637234 0.031984799 0.0069383211 -0.72217315 -0.48512548 0.49307123 0.0025443926
-0.062275082 0.031015331 0.0079996558 -0.69660074 -0.48455885 0.52910316 0.0025013157
0.013560141 0.031126309 0.0076773092 -0.12283925 0.79157263 0.59860116 0.0013709713
0.016390417 0.031395555 0.0079972623 -0.16848157 0.80050814 0.5751527 0.001258819
0.019107683 0.032168034 0.0077551822 -0.2128948 0.81884843 0.53306955 0.0013774616
0.022280205 0.032619391 0.00835492 -0.23715343 0.79559565 0.55748177 0.0014810391
-0.066312365 0.035551548 0.0063624452 -0.75424892 -0.40429696 0.51735151 0.0024551407
-0.064770184 0.034399148 0.0075495001 -0.73206985 -0.39914283 0.55204958 0.0024854047
-0.062940516 0.033003367 0.0088236816 -0.68081731 -0.41883248 0.60088867 0.0015521728
0.01990526 0.033204455 0.0064267563 -0.21949516 0.83544165 0.50384444 0.001323565
0.022760766 0.033670433 0.0070216856 -0.23241235 0.83281928 0.50239086 0.0016929671
0.025353041 0.034091964 0.0075838235 -0.25272694 0.82534599 0.50490904 0.002805348
0.028389728 0.035095379 0.0075351358 -0.28513715 0.82300121 0.49129003 0.0018288854
0.031369403 0.035506766 0.0085211052 -0.3152377 0.77582818 0.54654914 0.004580352
-0.066897325 0.037706021 0.007003142 -0.74631697 -0.35765487 0.56133223 0.003201829
