# .PCD v0.7 - Point Cloud Data file format
VERSION 0.7
FIELDS x y z
SIZE 4 4 4
TYPE F F F
COUNT 1 1 1
WIDTH 1433
HEIGHT 1
VIEWPOINT 0 0 0 1 0 0 0
POINTS 1433
DATA ascii
0.012923351 0.17740235 1.3023323
0.015264455 0.17730252 1.3015994
0.017605951 0.17723325 1.3010908
0.019977843 0.17745025 1.3026839
0.022385964 0.17790951 1.3060553
0.02472984 0.17781933 1.3053933
0.026995156 0.17722908 1.3010602
0.029276432 0.17682965 1.298128
0.031603195 0.17674379 1.2974976
0.033959627 0.17682426 1.2980884
0.036349498 0.17705724 1.2997987
0.012914428 0.17962794 1.3014331
0.015251854 0.17950259 1.3005248
0.017601978 0.17954019 1.3007972
0.019964766 0.17968288 1.3018311
0.022302281 0.17959206 1.3011731
0.024637302 0.17950034 1.3005086
0.02697001 0.17940919 1.2998482
0.02928683 0.1792354 1.298589
0.031612381 0.17913684 1.2978749
0.033953708 0.17913507 1.2978622
0.036276784 0.17904347 1.2971985
0.038597528 0.17895217 1.296537
0.019890478 0.18135436 1.2969872
0.022219237 0.1812622 1.2963281
0.024545558 0.18116958 1.2956657
0.026733961 0.18016365 1.2884716
0.029039299 0.18004365 1.2876134
0.031349529 0.1799695 1.2870831
0.033663463 0.1799254 1.2867677
0.036141831 0.18070917 1.2923729
0.03845406 0.18061756 1.2917178
0.024373554 0.18222132 1.2865863
0.02663945 0.18184321 1.2839166
0.028940408 0.18174575 1.2832285
0.031245125 0.18168463 1.2827969
0.033609569 0.18195525 1.2847077
0.036008313 0.18236469 1.2875985
0.038378216 0.18258728 1.2891701
0.040862873 0.18329917 1.2941965
-0.008154165 0.18521604 1.2912812
-0.0058214571 0.18512234 1.290628
-0.0034910929 0.18502793 1.2899698
0.024364009 0.18447036 1.2860825
0.026628723 0.18408553 1.2833996
0.028924983 0.1839629 1.2825446
0.031245869 0.18400346 1.2828274
0.03358328 0.18412901 1.2837027
0.035950378 0.18439063 1.2855268
0.038339213 0.1847253 1.2878599
0.040763114 0.18518101 1.291037
-0.012779029 0.18703851 1.2877885
-0.010450251 0.1869434 1.2871336
-0.008123925 0.18685028 1.2864925
-0.00579987 0.18675582 1.2858421
-0.0034781585 0.18666117 1.2851905
-0.0011587942 0.18656586 1.2845342
0.0011582123 0.18647218 1.2838892
0.02427426 0.18610266 1.281345
0.026572747 0.18600923 1.2807018
0.028897187 0.18609789 1.2813121
0.031230224 0.18622467 1.2821851
0.033570971 0.18637678 1.2832323
0.035924464 0.18657544 1.2846001
0.038288113 0.18679959 1.2861434
0.040670712 0.18708529 1.2881105
0.043064013 0.18738665 1.2901855
0.045451604 0.18763354 1.2918854
-0.017379086 0.18885274 1.2843254
-0.015054278 0.18875749 1.2836776
-0.012731742 0.18866128 1.2830232
-0.010411649 0.18856652 1.2823789
-0.0080938861 0.18847193 1.2817355
-0.0057784221 0.18837656 1.281087
-0.0034653104 0.18828186 1.2804431
-0.0011545165 0.18818618 1.2797923
0.0011542686 0.18814579 1.2795177
0.0056931521 0.18559675 1.2621825
0.0079438863 0.18497907 1.2579818
0.026489517 0.18773006 1.2766904
0.028885012 0.18833029 1.2807723
0.031209847 0.18841501 1.2813485
0.033542149 0.18853001 1.2821306
0.035879098 0.1886546 1.2829779
0.038217667 0.18877211 1.283777
0.040563755 0.1889112 1.2847229
0.04292186 0.1890882 1.2859266
0.045275919 0.18923013 1.2868918
0.047644902 0.18941754 1.2881664
0.049993716 0.18951106 1.2888024
0.052381467 0.18973731 1.290341
-0.024277573 0.19075236 1.2815199
-0.021954475 0.19065729 1.2808812
-0.019633429 0.19055974 1.2802259
-0.01731492 0.19046412 1.2795835
-0.014998671 0.19036774 1.2789359
-0.012684816 0.19027224 1.2782943
-0.010373297 0.19017711 1.2776552
-0.0080640465 0.1900811 1.2770102
-0.0057571693 0.1899866 1.2763753
-0.0034541446 0.18997796 1.2763172
-0.001152606 0.19017999 1.2776746
0.001153932 0.19039877 1.2791444
0.0034547211 0.19000967 1.2765303
0.0057427133 0.18950954 1.2731704
0.0080024414 0.18862897 1.2672545
0.010262064 0.18813783 1.2639549
0.012515422 0.18773134 1.2612239
0.014785352 0.18766023 1.2607462
0.017070863 0.18777949 1.2615474
0.019365413 0.18795842 1.2627496
0.021662094 0.18811817 1.2638228
0.023980632 0.18841925 1.2658455
0.026300395 0.18867674 1.2675754
0.028767329 0.18986437 1.2755542
0.031173343 0.19050376 1.2798498
0.033492539 0.19056101 1.2802343
0.035812728 0.19061615 1.2806047
0.038135428 0.19067714 1.2810146
0.040465027 0.1907637 1.2815961
0.042804047 0.19088292 1.282397
0.045146775 0.19100559 1.2832211
0.047491081 0.19112265 1.2840075
0.049829967 0.19120802 1.2845811
0.052176181 0.19131267 1.2852842
0.054536317 0.19145729 1.2862557
0.056942884 0.19174644 1.2881984
-0.028824665 0.19254875 1.2780964
-0.026505308 0.19245158 1.2774514
-0.024188165 0.1923535 1.2768004
-0.021873685 0.19225818 1.2761676
-0.01956128 0.1921608 1.2755213
-0.017251281 0.19206426 1.2748804
-0.014943617 0.19196801 1.2742416
-0.012638227 0.19187127 1.2735994
-0.010335268 0.19177666 1.2729714
-0.008039658 0.19180328 1.2731481
-0.0057478761 0.19197905 1.2743149
-0.0034534433 0.19224167 1.2760581
-0.0011511133 0.19223593 1.2760199
0.0011482519 0.19175807 1.272848
0.0034362022 0.19128191 1.2696874
0.0057130405 0.19081555 1.2665918
0.0079778936 0.19032976 1.2633672
0.010242762 0.19006014 1.2615775
0.012508256 0.18989807 1.2605017
0.014775912 0.18981364 1.2599413
0.017047957 0.18980059 1.2598547
0.019326059 0.18985012 1.2601835
0.021614064 0.18997625 1.2610207
0.023911471 0.19015312 1.2621948
0.026207587 0.19028987 1.2631024
0.028512005 0.19046019 1.264233
0.031115711 0.19245642 1.2774836
0.033431746 0.19252074 1.2779105
0.035744186 0.19255739 1.2781538
0.038057029 0.19259162 1.278381
0.040374085 0.19264206 1.2787157
0.042702209 0.19273701 1.279346
0.045039039 0.19285947 1.2801589
0.047368009 0.19293799 1.2806801
0.049703643 0.19303508 1.2813245
0.052047245 0.1931531 1.2821079
0.054404154 0.19330838 1.2831386
0.056767371 0.19347247 1.2842278
0.059158597 0.19371541 1.2858404
-0.033347096 0.19433308 1.2746748
-0.031031791 0.19423603 1.2740382
-0.028718576 0.19413757 1.2733924
-0.026407922 0.19404082 1.2727578
-0.024099551 0.19394399 1.2721227
-0.021793369 0.19384627 1.2714818
-0.019489506 0.19374862 1.2708412
-0.017188041 0.19365191 1.2702069
-0.014888856 0.19355513 1.269572
-0.012602859 0.19362575 1.2700353
-0.010321701 0.19381861 1.2713003
-0.0080372216 0.19404149 1.2727622
-0.0057407767 0.19403826 1.272741
-0.003444396 0.19403431 1.2727151
-0.0011481961 0.19404514 1.2727861
0.001148294 0.19406168 1.2728946
0.003423573 0.19286129 1.265021
0.0056967838 0.19255129 1.2629876
0.0079564201 0.19209072 1.2599666
0.010226903 0.19203852 1.2596242
0.012490329 0.19189689 1.2586952
0.014755527 0.19182184 1.258203
0.017008504 0.19162914 1.2569391
0.019298537 0.19185016 1.2583888
0.021575201 0.19190574 1.2587533
0.023853274 0.19196206 1.2591227
0.026139196 0.19206627 1.2598063
0.02846244 0.19240609 1.2620353
0.031041617 0.19429752 1.2744416
0.0333727 0.19448228 1.2756535
0.035684884 0.19454017 1.2760332
0.037990771 0.1945588 1.2761554
0.040299717 0.19459006 1.2763604
0.042609714 0.19462276 1.2765749
0.044934902 0.19471791 1.277199
0.047263481 0.19481777 1.277854
0.049599409 0.1949372 1.2786374
0.051938109 0.19505645 1.2794195
0.05428654 0.19520053 1.2803646
0.056642171 0.19535768 1.2813954
0.059003927 0.19552281 1.2824786
0.061392859 0.19576214 1.2840483
-0.040159158 0.19620617 1.2719086
-0.037845571 0.19610886 1.2712779
-0.035534129 0.19601084 1.2706424
-0.03322478 0.19591163 1.2699993
-0.03091809 0.19581456 1.2693701
-0.028613601 0.19571702 1.2687378
-0.026311237 0.19561833 1.268098
-0.02171384 0.19542456 1.2668419
-0.01941902 0.19533248 1.266245
-0.017144296 0.19544497 1.2669742
-0.01487394 0.19564952 1.2683002
-0.012597382 0.19583203 1.2694833
-0.010306777 0.19582877 1.2694621
-0.0080071902 0.19560423 1.2680066
-0.005726289 0.19583908 1.269529
-0.0034360613 0.1958555 1.2696354
-0.0011454483 0.19587167 1.2697402
0.0011450852 0.19580956 1.2693377
0.003414388 0.19462012 1.2616271
0.0056830421 0.19436005 1.2599411
0.0079479683 0.19415751 1.2586282
0.010211071 0.19401035 1.2576742
0.012471742 0.1938789 1.2568221
0.01473484 0.19381982 1.2564391
0.016996579 0.19376101 1.2560579
0.019263249 0.19376563 1.2560878
0.021530997 0.19377898 1.2561743
0.023805249 0.19384275 1.2565877
0.026110463 0.19412561 1.2584214
0.02844814 0.19458528 1.2614012
0.030861609 0.19545686 1.2670512
0.033307146 0.1963973 1.2731477
0.035631798 0.19654959 1.2741349
0.037936408 0.19657956 1.2743292
0.040237561 0.19658922 1.2743918
0.042540263 0.196605 1.2744941
0.044845082 0.19662844 1.274646
0.047170438 0.19673525 1.2753384
0.049501661 0.19685544 1.2761176
0.051835839 0.19697618 1.2769003
0.054173332 0.19709872 1.2776946
0.056520246 0.19724412 1.2786372
0.058875121 0.19740482 1.2796789
0.061234552 0.19756809 1.2807373
0.063620031 0.19780047 1.2822437
-0.044629727 0.19797289 1.2685249
-0.042320292 0.19787596 1.2679038
-0.04001265 0.19777682 1.2672685
-0.037707213 0.19767721 1.2666303
-0.035404116 0.1975778 1.2659934
-0.033103816 0.19748139 1.2653756
-0.01713408 0.19761306 1.2662193
-0.014849345 0.19761051 1.2662029
-0.012550163 0.19737984 1.2647249
-0.010280991 0.19762349 1.2662861
-0.0079953363 0.19759904 1.2661294
-0.0057125841 0.19765541 1.2664906
-0.0034278373 0.19767195 1.2665966
-0.0011427094 0.19768873 1.2667041
0.001142796 0.19770372 1.2668002
0.0034123759 0.19678034 1.2608836
0.0056746686 0.19634353 1.2580847
0.0079331761 0.19606279 1.2562858
0.010192195 0.19591664 1.2553493
0.012450144 0.19580682 1.2546456
0.014708525 0.19573653 1.2541952
0.016968086 0.19569859 1.2539521
0.019238768 0.19578275 1.2544914
0.021511897 0.19587147 1.25506
0.023804072 0.19610022 1.2565256
0.026103865 0.19634648 1.2581035
0.028437199 0.19678542 1.2609161
0.030811301 0.19742057 1.2649858
0.033249635 0.19835126 1.2709494
0.035576671 0.19854078 1.2721636
0.037881989 0.19859345 1.2725012
0.040179051 0.19859932 1.2725388
0.042475764 0.19860289 1.2725617
0.044773005 0.19860846 1.2725973
0.047083769 0.19867054 1.2729951
0.049407117 0.19877748 1.2736803
0.051736008 0.19889621 1.2744411
0.054068483 0.19901803 1.2752217
0.056403819 0.19914003 1.2760034
0.05874842 0.19928385 1.276925
0.061102077 0.1994464 1.2779665
0.06345956 0.19960918 1.2790095
0.065838873 0.19982676 1.2804037
0.068305857 0.20028667 1.2833506
-0.049084991 0.19976449 1.2653761
-0.046918422 0.20026155 1.2685246
-0.044544201 0.19987783 1.266094
-0.042178646 0.19949359 1.2636601
-0.039866623 0.19933312 1.2626436
-0.037569977 0.19923472 1.2620203
-0.035275541 0.19913611 1.2613957
-0.014812415 0.19939789 1.2630539
-0.012531037 0.19935741 1.2627975
-0.010246706 0.19924152 1.2620634
-0.0079778805 0.19944701 1.263365
-0.0056989552 0.19946344 1.2634691
-0.0034196561 0.19947994 1.2635736
-0.0011399769 0.19949596 1.2636751
0.0011400683 0.19951196 1.2637764
0.0034133832 0.19911401 1.2612557
0.0056761573 0.19866551 1.2584147
0.0079351272 0.19837819 1.2565948
0.010192346 0.19818451 1.2553679
0.012450048 0.19806895 1.2546359
0.014709688 0.19801503 1.2542944
0.016970688 0.19799137 1.2541445
0.019241044 0.19806957 1.2546399
0.021514516 0.19816002 1.2552128
0.023802899 0.19835749 1.2564636
0.026101068 0.19859509 1.2579687
0.02842639 0.19898473 1.2604368
0.030779896 0.19949932 1.2636964
0.033208702 0.20039734 1.2693847
0.035541549 0.20063777 1.2709078
0.037844352 0.20068976 1.271237
0.040138058 0.20069028 1.2712404
0.042425882 0.20066296 1.2710673
0.044718094 0.20065813 1.2710366
0.047014914 0.20067342 1.2711335
0.049321033 0.20072514 1.2714611
0.051638752 0.20081738 1.2720454
0.053965807 0.20093651 1.2728001
0.056295618 0.20105578 1.2735555
0.058628898 0.2011776 1.2743272
0.06097075 0.20131852 1.2752198
0.063323066 0.20148247 1.2762583
0.065679178 0.2016466 1.277298
0.06805408 0.20185533 1.2786201
0.070502944 0.20226254 1.2811996
-0.051208884 0.2014216 1.2614561
-0.048911564 0.20133364 1.2609053
-0.046743643 0.20179573 1.2637992
-0.044441558 0.20169631 1.2631766
-0.042141639 0.2015965 1.2625514
-0.039771639 0.20113087 1.2596353
-0.037440013 0.2008146 1.2576547
-0.014777215 0.20119748 1.2600524
-0.012504777 0.20121323 1.2601511
-0.010232021 0.20122975 1.2602546
-0.0079405475 0.20078242 1.2574531
-0.0056703468 0.20073028 1.2571266
-0.0034026105 0.20075402 1.2572752
-0.0011347596 0.20085245 1.2578917
0.0011373585 0.20131245 1.2607726
0.0034123561 0.20132902 1.2608763
0.0056782379 0.20100962 1.258876
0.0079370793 0.20069472 1.2569039
0.010194935 0.20050038 1.2556868
0.012453022 0.20038044 1.2549356
0.014712919 0.20032205 1.2545699
0.016973892 0.20029193 1.2543813
0.01924332 0.20035692 1.2547883
0.0215172 0.20044972 1.2553694
0.023801653 0.20061393 1.2563978
0.026099775 0.20085479 1.2579063
0.028415101 0.20117891 1.2599362
0.030760553 0.20165251 1.2629023
0.033208426 0.20268592 1.2693743
0.035536706 0.20290312 1.2707345
0.037835456 0.20293564 1.2709382
0.040118366 0.20288432 1.2706168
0.042396784 0.20281705 1.2701955
0.044674955 0.20275557 1.2698104
0.046962075 0.20273872 1.2697049
0.04925159 0.20273329 1.269671
0.051555496 0.20278496 1.2699945
0.05386512 0.20285375 1.2704253
0.056190059 0.20297226 1.2711675
0.058518201 0.20309258 1.271921
0.060849104 0.20321305 1.2726755
0.063186735 0.2033464 1.2735107
0.06554047 0.2035204 1.2746004
0.067898557 0.20369567 1.2756981
0.070269689 0.2038973 1.2769608
0.072692044 0.20423003 1.2790446
-0.05116903 0.20353903 1.2604744
-0.048568353 0.20217989 1.2520576
-0.046574522 0.20333755 1.2592267
-0.044280823 0.20323762 1.2586079
-0.041989341 0.20313762 1.2579886
-0.039700616 0.20304029 1.2573858
-0.037415721 0.20295194 1.2568387
-0.032267433 0.19916795 1.2334052
-0.010207677 0.20301937 1.2572563
-0.0079220003 0.20257686 1.2545159
-0.0056574913 0.20253818 1.2542764
-0.0033947846 0.20255549 1.2543836
-0.0011320194 0.20263149 1.2548542
0.0011346504 0.20310242 1.2577707
0.0034042355 0.20311938 1.2578757
0.0056741992 0.20313632 1.2579806
0.0079399254 0.20303525 1.2573546
0.010197598 0.2028189 1.2560148
0.012455997 0.20269305 1.2552354
0.014716151 0.20263007 1.2548455
0.016977793 0.20260164 1.2546694
0.019245874 0.20264773 1.2549548
0.021519886 0.20273997 1.2555261
0.023802396 0.20288709 1.2564371
0.026098451 0.20311403 1.2578425
0.02840936 0.20341103 1.2596817
0.03075113 0.2038686 1.2625154
0.033238053 0.20515901 1.2705066
0.035549238 0.20526817 1.2711827
0.037837263 0.20523849 1.2709988
0.040106602 0.20511661 1.2702441
0.04237463 0.20500158 1.2695317
0.044647973 0.20492275 1.2690436
0.046921205 0.20485111 1.2685999
0.04920347 0.20482376 1.2684305
0.051488377 0.20480932 1.2683411
0.053784452 0.20483865 1.2685227
0.056089167 0.20489715 1.268885
0.058408614 0.20500278 1.2695391
0.06073698 0.20513056 1.2703304
0.063069209 0.2052616 1.271142
0.065405279 0.20539553 1.2719713
0.067757018 0.2055679 1.2730387
0.070114121 0.20574471 1.2741338
0.072479479 0.20593375 1.2753044
0.074892439 0.20624226 1.277215
-0.062101088 0.20436904 1.2516298
-0.059825633 0.20431018 1.2512693
-0.05755204 0.20425332 1.2509211
-0.055571124 0.20527293 1.2571656
-0.052984226 0.20404564 1.2496492
-0.050698586 0.20392098 1.2488858
-0.048412059 0.20378099 1.2480284
-0.046125982 0.20362934 1.2470996
-0.044030454 0.20434646 1.2514915
-0.041838016 0.20466705 1.2534549
-0.039558496 0.20457394 1.2528847
-0.037284687 0.20450085 1.2524371
-0.034827705 0.20334886 1.2453818
-0.030213051 0.20253934 1.240424
-0.027749693 0.20090778 1.2304318
-0.025518587 0.20082018 1.2298954
-0.02339186 0.20161556 1.2347665
-0.021185867 0.20182326 1.2360386
-0.018974962 0.20202753 1.2372895
-0.016759232 0.20222805 1.2385176
-0.014526288 0.20225063 1.2386559
-0.012297495 0.20234969 1.2392626
-0.010071366 0.20254636 1.2404671
-0.0079211788 0.20481905 1.2543858
-0.0056526554 0.20462613 1.2532043
-0.0033918356 0.20464075 1.2532939
-0.0011318659 0.20486774 1.254684
0.0011319636 0.20488541 1.2547922
0.00339617 0.20490226 1.2548954
0.0056607481 0.20491907 1.2549984
0.007925692 0.20493576 1.2551006
0.010192547 0.20498344 1.2553927
0.012458973 0.20500673 1.2555352
0.014719547 0.20494138 1.2551351
0.016981695 0.20491245 1.2549579
0.019249169 0.20494702 1.2551696
0.02152257 0.2050308 1.2556827
0.023803774 0.20516586 1.2565099
0.026097616 0.20537689 1.2578022
0.028411802 0.20570144 1.2597899
0.03077535 0.20630883 1.2635098
0.033309452 0.20789693 1.2732359
0.035540335 0.2075097 1.2708644
0.037847638 0.20758855 1.2713473
0.040103275 0.20739122 1.2701387
0.042366289 0.20725131 1.2692819
0.044626758 0.20711392 1.2684405
0.046895087 0.20702466 1.2678938
0.049165316 0.20695168 1.2674469
0.051439475 0.206901 1.2671365
0.053722154 0.20688745 1.2670535
0.056008317 0.20688786 1.267056
0.058312446 0.20695202 1.2674489
0.060626231 0.2070443 1.2680141
0.062953979 0.20717582 1.2688196
0.06528566 0.20731062 1.2696451
0.067620866 0.20744707 1.2704808
0.069968425 0.20761123 1.2714862
0.072324306 0.20778888 1.2725742
0.074684434 0.20796742 1.2736676
0.077096768 0.20827635 1.2755595
-0.066522166 0.20633146 1.249838
-0.06417086 0.20602225 1.247965
-0.061906856 0.205981 1.2477151
-0.059660252 0.20599672 1.2478104
-0.057408575 0.20599549 1.2478029
-0.055370882 0.20679331 1.2526356
-0.052847449 0.20576772 1.2464232
-0.050538212 0.20552206 1.2449352
-0.048261262 0.20539096 1.244141
-0.04606219 0.20559466 1.2453749
-0.043962572 0.20628591 1.2495621
-0.041687548 0.20618437 1.248947
-0.039414912 0.20608369 1.2483371
-0.036992785 0.20514181 1.2426318
-0.034672584 0.2046801 1.239835
-0.032427035 0.20462579 1.239506
-0.030126585 0.2041913 1.2368741
-0.027861157 0.20394368 1.2353742
-0.025614634 0.20380341 1.2345245
-0.023379939 0.20373946 1.2341372
-0.021154158 0.20374794 1.2341886
-0.01893471 0.20382658 1.2346649
-0.016720328 0.20398802 1.2356428
-0.014480506 0.20384097 1.2347521
-0.012260674 0.20397304 1.2355521
-0.010038959 0.20412549 1.2364756
-0.0079024211 0.20659186 1.2514154
-0.0056450376 0.20660837 1.2515154
-0.003387308 0.20662579 1.2516209
-0.0011291938 0.20664248 1.251722
0.0011292828 0.20665875 1.2518206
0.0033881406 0.20667657 1.2519286
0.0056482009 0.20672415 1.2522167
0.0079095289 0.20677769 1.2525411
0.010180366 0.20700079 1.2538924
0.01245544 0.20721322 1.2551793
0.014723003 0.20725457 1.2554297
0.016985597 0.20722429 1.2552463
0.019252973 0.20725259 1.2554177
0.021528693 0.20735531 1.2560399
0.023809994 0.20748709 1.2568382
0.026110424 0.20774814 1.2584195
0.028455 0.20829061 1.2617054
0.033393856 0.21072675 1.2764622
0.035627227 0.21031556 1.2739714
0.037867494 0.20999245 1.2720143
0.040113412 0.20973583 1.2704598
0.042364899 0.20953451 1.2692403
0.044621188 0.20937634 1.2682822
0.046878356 0.20923755 1.2674414
0.049138132 0.20912275 1.266746
0.051405352 0.20904844 1.2662959
0.053670924 0.20897402 1.2658452
0.055951748 0.20896265 1.2657763
0.058232017 0.20895018 1.2657007
0.060533203 0.20901087 1.2660683
0.062839322 0.20908356 1.2665087
0.065166466 0.20921865 1.267327
0.067496456 0.20935342 1.2681433
0.069831863 0.20949557 1.2690045
0.072176956 0.20965688 1.2699815
0.07452938 0.20982888 1.2710234
0.076891087 0.21001595 1.2721566
0.079297282 0.21031019 1.2739389
-0.066594608 0.20881361 1.2511991
-0.064169183 0.2082684 1.2479323
-0.061816078 0.20792681 1.2458855
-0.059550289 0.20786421 1.2455105
-0.057296891 0.20784165 1.2453753
-0.055172041 0.2083026 1.2481372
-0.052761275 0.20767736 1.2443908
-0.050346814 0.20698135 1.2402203
-0.048277151 0.20770402 1.2445506
-0.046074174 0.20789567 1.2456989
-0.043805186 0.20779383 1.2450887
-0.04153825 0.20769125 1.2444741
-0.0392741 0.20759168 1.2438774
-0.036862276 0.20665216 1.2382479
-0.034571547 0.20631406 1.236222
-0.03229671 0.20603074 1.2345244
-0.030072931 0.20605527 1.2346714
-0.027816905 0.2058451 1.233412
-0.025576094 0.20572075 1.232667
-0.023346102 0.20566803 1.2323511
-0.021123566 0.20567682 1.2324038
-0.018881487 0.20547499 1.2311944
-0.016664047 0.20552324 1.2314835
-0.014447332 0.20559666 1.2319233
-0.012230357 0.20569237 1.2324969
-0.01004847 0.20655189 1.2376471
-0.0078837806 0.20835705 1.2484635
-0.0056317211 0.20837368 1.2485632
-0.0033793026 0.20839033 1.2486628
-0.0011265252 0.20840716 1.2487638
0.0011268479 0.20846687 1.2491215
0.0033795654 0.20840654 1.24876
0.0056357472 0.20852263 1.2494557
0.0079235071 0.20940697 1.2547545
0.010165965 0.20896706 1.2521186
0.012458781 0.20953403 1.2555159
0.014730651 0.20962849 1.2560819
0.016996721 0.20962623 1.2560683
0.019265823 0.20965749 1.2562556
0.021547083 0.20980056 1.2571129
0.023847481 0.21008494 1.258817
0.035707742 0.21309459 1.2768506
0.03790728 0.2125105 1.2733507
0.040140137 0.2121693 1.2713063
0.042376284 0.21188143 1.2695813
0.044623699 0.21167652 1.2683536
0.046871375 0.21149279 1.2672527
0.04912591 0.21135566 1.266431
0.051377416 0.21121827 1.2656077
0.053640936 0.21113986 1.2651379
0.055902403 0.21106009 1.26466
0.058177449 0.21103585 1.2645147
0.060455207 0.2110229 1.2644371
0.062748484 0.21106309 1.2646779
0.065051049 0.21113059 1.2650824
0.067374118 0.21125783 1.2658448
0.069702014 0.21139134 1.2666448
0.072037727 0.21153934 1.2675316
0.074385025 0.21171123 1.2685615
0.076747864 0.21191575 1.269787
0.079119474 0.21213192 1.2710823
0.081526443 0.21242805 1.2728567
-0.070924506 0.21052194 1.2479441
-0.068216331 0.20912218 1.2396466
-0.065962538 0.2090677 1.2393236
-0.063712664 0.20902224 1.2390541
-0.06146216 0.20897134 1.2387524
-0.059218947 0.20894232 1.2385803
-0.057246622 0.20990428 1.2442827
-0.05467882 0.20867223 1.2369792
-0.052409243 0.20852189 1.236088
-0.050139476 0.20835738 1.2351129
-0.04787593 0.20820463 1.2342074
-0.045909703 0.20939302 1.2412521
-0.043648999 0.20929135 1.2406493
-0.041390497 0.20918982 1.2400475
-0.03913404 0.2090876 1.2394415
-0.036762636 0.2083216 1.2349008
-0.034488749 0.20804504 1.2332613
-0.032228678 0.20781942 1.2319239
-0.029979642 0.20763677 1.2308413
-0.027740397 0.20749816 1.2300196
-0.025508976 0.20739906 1.2294321
-0.02328359 0.20733483 1.2290514
-0.021063238 0.20730661 1.2288841
-0.018846113 0.20730723 1.2288878
-0.016631015 0.20733333 1.2290424
-0.014437562 0.20767877 1.2310902
-0.012238221 0.20804976 1.2332894
-0.010036564 0.2085375 1.2361807
-0.0078497874 0.20970145 1.2430804
-0.0056184628 0.2101305 1.2456237
-0.003372083 0.21019317 1.2459952
-0.0011236313 0.21011904 1.2455558
0.0011243823 0.21025948 1.2463883
0.0033874067 0.21114835 1.2516574
0.0056355391 0.21076916 1.2494096
0.0079039438 0.2111482 1.2516565
0.01018359 0.21159236 1.2542894
0.012466061 0.21192303 1.2562495
0.014765279 0.21239285 1.2590346
0.017095115 0.2131191 1.2633398
0.021626493 0.21285023 1.2617458
0.038027577 0.2154896 1.2773917
0.040190369 0.2147314 1.2728971
0.042413719 0.21436122 1.2707028
0.04463876 0.21403714 1.2687817
0.046879709 0.21381721 1.267478
0.049119081 0.21361089 1.2662549
0.051369168 0.21346743 1.2654046
0.053617511 0.21332924 1.2645854
0.055871885 0.21322535 1.2639695
0.058130059 0.21314354 1.2634846
0.060398713 0.21310489 1.2632555
0.062673964 0.21309148 1.263176
0.064958908 0.2131108 1.2632905
0.067260712 0.21318226 1.2637141
0.069575973 0.21329029 1.2643545
0.071910575 0.21344885 1.2652944
0.074252471 0.21361865 1.2663009
0.076604038 0.2138053 1.2674074
0.078971535 0.21402431 1.2687056
0.081355214 0.21427359 1.2701833
0.083841704 0.21477258 1.2731413
-0.072949775 0.2121155 1.2440847
-0.070670597 0.2120118 1.2434765
-0.068393685 0.2119083 1.2428695
-0.06574735 0.2106144 1.2352806
-0.063454069 0.21040034 1.2340251
-0.061281092 0.21058412 1.235103
-0.059149191 0.21092825 1.2371213
-0.057042509 0.21139283 1.2398462
-0.054575957 0.21050727 1.2346523
-0.052221645 0.20999768 1.2316635
-0.050037473 0.21015739 1.2326002
-0.047875531 0.21042967 1.2341971
-0.045737375 0.21083814 1.2365929
-0.043493759 0.21077745 1.2362369
-0.041243367 0.21067558 1.2356395
-0.039078154 0.21102202 1.2376714
-0.036746532 0.21045741 1.2343599
-0.034493681 0.21030018 1.2334377
-0.032165103 0.20962773 1.2294937
-0.029924186 0.2094693 1.2285645
-0.027690932 0.20934345 1.2278264
-0.025464302 0.20925014 1.2272791
-0.023242902 0.20918612 1.2269036
-0.021025626 0.20914966 1.2266897
-0.018842157 0.20948045 1.2286298
-0.016638074 0.20963973 1.2295641
-0.014436756 0.20988822 1.2310215
-0.012233349 0.21019119 1.2327985
-0.01003192 0.21067032 1.2356086
-0.0078317486 0.21145722 1.2402239
-0.005609734 0.21204795 1.2436886
-0.0033686901 0.21222748 1.2447416
-0.0011227138 0.21219291 1.2445388
0.001125747 0.21276617 1.2479011
0.0033772322 0.21276563 1.2478979
0.0056439829 0.21334256 1.2512816
0.0079141101 0.21368097 1.2532665
0.010199099 0.21418107 1.2561996
0.012508134 0.21491249 1.2604895
0.042470846 0.21694566 1.2724143
0.044678468 0.21651874 1.2699103
0.0469019 0.21620633 1.268078
0.049132604 0.21595494 1.2666036
0.051366325 0.21573856 1.2653345
0.053607885 0.21557213 1.2643584
0.055853866 0.21543634 1.263562
0.058098707 0.21530698 1.2628032
0.060353573 0.21522312 1.2623113
0.062615715 0.21517037 1.262002
0.064888299 0.21515594 1.2619174
0.067164063 0.21515267 1.2618982
0.069471218 0.2152469 1.2624508
0.071788944 0.21536684 1.2631543
0.074130468 0.2155486 1.2642204
0.076472357 0.21572053 1.2652287
0.078843407 0.21596238 1.2666472
0.081230663 0.21623375 1.2682388
0.083659694 0.21659839 1.2703775
-0.072766997 0.21382302 1.2409676
-0.070418909 0.21349226 1.239048
-0.068010323 0.21295035 1.2359029
-0.065815151 0.21306261 1.2365545
-0.063469246 0.21267766 1.2343203
-0.061304934 0.21289532 1.2355835
-0.059097946 0.21297561 1.2360495
-0.056840278 0.21287242 1.2354506
-0.054584384 0.21276771 1.2348429
-0.052255917 0.21235916 1.2324718
-0.050061874 0.21248484 1.2332013
-0.047831353 0.21246019 1.2330582
-0.045584589 0.21235748 1.232462
-0.043367028 0.21238723 1.2326348
-0.041200582 0.21268408 1.2343576
-0.039031453 0.21300022 1.2361923
-0.036756419 0.2127417 1.234692
-0.034501608 0.21257442 1.2337211
-0.032209136 0.21213603 1.2311769
-0.029956143 0.21191198 1.2298765
-0.027710566 0.21170874 1.2286969
-0.025486272 0.21164687 1.2283379
-0.02326465 0.21159753 1.2280515
-0.021052355 0.21163157 1.2282491
-0.018844405 0.21172243 1.2287765
-0.016637484 0.21185063 1.2295204
-0.014436419 0.21210432 1.2309928
-0.012230346 0.21236329 1.2324958
-0.010027943 0.21281523 1.2351187
-0.0078222146 0.21343473 1.2387141
-0.0056070737 0.21419021 1.2430987
-0.0033687016 0.21447399 1.2447457
-0.0011230554 0.21450357 1.2449174
0.0011260945 0.21508406 1.2482864
0.0033837014 0.21542899 1.2502882
0.0056534349 0.2159612 1.2533771
0.0079417778 0.21669708 1.2576479
0.010245743 0.21743745 1.2619448
0.044748489 0.21915287 1.2719005
0.046940621 0.2186746 1.2691249
0.049159266 0.21835859 1.2672908
0.051379133 0.21807587 1.26565
0.053610001 0.21786191 1.2644082
0.055839241 0.21765907 1.263231
0.058083501 0.2175284 1.2624726
0.060325526 0.21739954 1.2617247
0.062572956 0.21729881 1.2611401
0.064828709 0.21723305 1.2607585
0.067096993 0.2172123 1.2606381
0.069378741 0.21723506 1.2607702
0.071687274 0.21733761 1.2613653
0.074017584 0.21749781 1.2622951
0.076363325 0.21769245 1.2634248
0.078729331 0.21793191 1.2648145
0.081109956 0.21819721 1.2663542
0.083545052 0.21859047 1.2686366
-0.07284651 0.21629809 1.2423236
-0.070241928 0.21518558 1.2359339
-0.067908369 0.21485764 1.2340503
-0.065650433 0.2147548 1.2334597
-0.063393988 0.21464981 1.2328566
-0.061140347 0.21454704 1.2322663
-0.058888581 0.21444331 1.2316706
-0.056639023 0.21433984 1.2310762
-0.054391548 0.2142361 1.2304804
-0.052146096 0.21413185 1.2298816
-0.04990327 0.21402958 1.2292943
-0.047696996 0.21408187 1.2295946
-0.045519698 0.21427566 1.2307076
-0.043341145 0.21448311 1.2318991
-0.041164789 0.21472445 1.2332853
-0.038973659 0.21491189 1.2343619
-0.036773745 0.21507068 1.235274
-0.034508731 0.21484469 1.2339759
-0.032219887 0.21442889 1.2315878
-0.029963709 0.21418504 1.2301872
-0.027719662 0.2139958 1.2291002
-0.025492029 0.21391138 1.2286154
-0.023269918 0.21386163 1.2283297
-0.021055462 0.21387917 1.2284304
-0.018846652 0.21396492 1.228923
-0.01663827 0.21407907 1.2295785
-0.014435298 0.21430866 1.2308972
-0.012229641 0.21457462 1.2324247
-0.010023886 0.21495667 1.2346191
-0.0078160735 0.2155003 1.2377415
-0.005609062 0.21650979 1.2435396
-0.0033702103 0.21681687 1.2453033
-0.0011252112 0.21716577 1.2473072
0.0011281515 0.21773325 1.2505666
0.0033959632 0.21847363 1.254819
0.0056792488 0.219219 1.2591001
0.047028359 0.2213774 1.271497
0.049209747 0.22087166 1.2685922
0.05141367 0.22050753 1.2665008
0.053625897 0.22020847 1.2647831
0.05584988 0.21998014 1.2634717
0.058073565 0.2197686 1.2622567
0.060302157 0.21959087 1.261236
0.062545784 0.21947886 1.2605926
0.064786702 0.21936551 1.2599416
0.067046985 0.21932319 1.2596985
0.069323264 0.21933427 1.2597622
0.071616858 0.21939768 1.2601264
0.073933877 0.21952674 1.2608676
0.0762683 0.21969824 1.2618526
0.078631289 0.21993971 1.2632395
0.081018783 0.22023416 1.2649307
0.083423056 0.22055684 1.2667841
0.085947111 0.22117057 1.2703091
-0.072907783 0.21872334 1.2433686
-0.070310466 0.21762763 1.2371398
-0.06788677 0.21701509 1.2336577
-0.065547258 0.21663925 1.2315212
-0.063254185 0.21639588 1.2301378
-0.060982451 0.21621051 1.229084
-0.058737665 0.21611027 1.2285142
-0.056509055 0.21606404 1.2282513
-0.05428984 0.21605141 1.2281796
-0.052081987 0.21608484 1.2283696
-0.049884338 0.21616547 1.228828
-0.047684211 0.21624234 1.229265
-0.045493368 0.2163709 1.2299957
-0.043301165 0.21650581 1.2307627
-0.041110482 0.21666335 1.2316582
-0.038908694 0.21677701 1.2323043
-0.036698185 0.21685292 1.2327359
-0.034473617 0.21685018 1.2327203
-0.032230642 0.21672328 1.2319989
-0.029970989 0.21645714 1.230486
-0.027728179 0.2162798 1.2294779
-0.025497759 0.21617664 1.2288915
-0.023275191 0.21612678 1.228608
-0.021058565 0.21612738 1.2286115
-0.0188489 0.21620798 1.2290696
-0.016640142 0.21632184 1.2297169
-0.014434163 0.21651244 1.2308004
-0.012229114 0.21678883 1.2323716
-0.010021012 0.21712193 1.2342651
-0.007812263 0.21762733 1.2371382
-0.0056127836 0.21889855 1.2443646
-0.0033768816 0.21949729 1.2477683
-0.0011294462 0.22024202 1.2520018
0.0011332913 0.22099179 1.256264
0.049325574 0.22368574 1.2715782
0.051478561 0.22307377 1.2680993
0.053665712 0.22265562 1.2657223
0.055874459 0.22235754 1.2640278
0.058084853 0.22208914 1.2625021
0.06030447 0.22187494 1.2612844
0.062523596 0.22167456 1.2601453
0.064766094 0.22156823 1.2595408
0.06701903 0.22150357 1.2591733
0.069292933 0.2215102 1.2592109
0.071577221 0.22154853 1.2594289
0.07388062 0.22164187 1.2599595
0.07621523 0.22182046 1.2609746
0.078565523 0.22203299 1.2621828
0.080933735 0.22228278 1.2636029
0.083352268 0.22265331 1.2657092
0.085847825 0.22320434 1.2688416
-0.070374966 0.22006139 1.2382747
-0.067934074 0.21939364 1.2345173
-0.065592155 0.2190111 1.2323648
-0.063290209 0.21873984 1.2308384
-0.061012894 0.21853709 1.2296976
-0.058759455 0.21840778 1.2289699
-0.056521084 0.21832654 1.2285128
-0.054290075 0.21826826 1.2281848
-0.05207542 0.21827358 1.2282147
-0.049861349 0.21828189 1.2282616
-0.047654279 0.21832308 1.2284933
-0.045451161 0.21838728 1.2288545
-0.043240674 0.21842083 1.2290434
-0.041037731 0.21849819 1.2294786
-0.038833451 0.21857685 1.2299212
-0.036629263 0.21866561 1.2304207
-0.034421373 0.21874228 1.2308521
-0.032198496 0.21872772 1.2307702
-0.029965283 0.21863559 1.2302518
-0.027733576 0.21854058 1.2297171
-0.025503486 0.2184429 1.2291676
-0.023280468 0.21839295 1.2288865
-0.021062814 0.21838813 1.2288593
-0.01885148 0.21845539 1.2292378
-0.016642015 0.21856512 1.2298553
-0.014434533 0.2187387 1.230832
-0.01222748 0.21898305 1.2322069
-0.010020189 0.21933082 1.2341638
-0.0078163855 0.21997541 1.2377909
-0.0056345416 0.22200094 1.2491884
0.051635209 0.22604747 1.2719581
0.053746209 0.22527666 1.2676208
0.055919778 0.22482033 1.265053
0.058120515 0.22450474 1.2632772
0.060316633 0.22419579 1.2615387
0.06253612 0.22399302 1.2603978
0.06476441 0.22383489 1.259508
0.067020431 0.22378008 1.2591996
0.069285199 0.22375712 1.2590704
0.071565755 0.22378498 1.2592272
0.073861137 0.22385606 1.2596271
0.076177493 0.22398457 1.2603502
0.078514516 0.22416465 1.2613635
0.080884665 0.22442648 1.2628368
0.083293378 0.22477803 1.264815
0.085791536 0.22534578 1.2680097
-0.070444897 0.22251642 1.2395052
-0.067978755 0.22176675 1.2353293
-0.065627843 0.22135492 1.2330352
-0.063314632 0.22104581 1.2313133
-0.061026908 0.22080645 1.22998
-0.058763411 0.22063997 1.2290527
-0.056511771 0.22050671 1.2283103
-0.05427555 0.2204252 1.2278563
-0.05204482 0.22036 1.227493
-0.049818069 0.22030658 1.2271955
-0.04759568 0.22026837 1.2269827
-0.045379769 0.22025791 1.2269244
-0.043167431 0.22026458 1.2269616
-0.040957693 0.22028597 1.2270807
-0.03875548 0.22035259 1.2274518
-0.036562484 0.22048286 1.2281774
-0.034366999 0.22061396 1.2289077
-0.032164253 0.22071332 1.2294612
-0.029948736 0.22073328 1.2295724
-0.027731607 0.2207436 1.2296299
-0.025509557 0.22071312 1.2294601
-0.023285726 0.22065999 1.2291641
-0.021067549 0.22065485 1.2291355
-0.018854292 0.22070612 1.2294211
-0.016644245 0.22081366 1.2300202
-0.014437576 0.22100596 1.2310914
-0.012230135 0.22125426 1.2324744
-0.010030313 0.22178137 1.2354107
-0.0078329453 0.22267944 1.2404133
0.056049708 0.22763045 1.2679924
0.058185555 0.22703776 1.2646909
0.060363639 0.22664838 1.2625219
0.062567353 0.22638005 1.2610272
0.064800896 0.2262347 1.2602175
0.067044377 0.22613274 1.2596495
0.069304921 0.2260931 1.2594287
0.071580268 0.22610275 1.2594825
0.073867694 0.22614878 1.2597389
0.076174974 0.22625104 1.2603085
0.078508414 0.22642282 1.2612654
0.080867968 0.22665811 1.2625761
0.083268002 0.22699085 1.2644296
0.08579462 0.22764172 1.2680552
-0.070514984 0.22497638 1.2407384
-0.068025738 0.22415037 1.236183
-0.065650918 0.2236582 1.2334688
-0.063312769 0.22326081 1.2312771
-0.061013352 0.22297606 1.2297068
-0.058728065 0.22272342 1.2283134
-0.056474786 0.22257711 1.2275065
-0.054221291 0.22241795 1.2266288
-0.051981527 0.22230397 1.2260002
-0.049746361 0.22220041 1.2254291
-0.04752171 0.22213636 1.2250758
-0.045303687 0.22209856 1.2248673
-0.043092847 0.22209391 1.2248417
-0.040883716 0.22209802 1.2248644
-0.038680028 0.22213387 1.2250621
-0.036487866 0.22224426 1.2256709
-0.034300465 0.22239979 1.2265286
-0.032112729 0.22257443 1.2274917
-0.029915275 0.22270261 1.2281986
-0.027718477 0.22285655 1.2290477
-0.025517585 0.22300151 1.2298471
-0.023293545 0.2229525 1.2295768
-0.021076322 0.2229653 1.2296474
-0.018862261 0.2230185 1.2299408
-0.016655052 0.2231777 1.2308187
-0.01445195 0.22344938 1.2323171
0.05835703 0.22999536 1.268418
0.06045587 0.22927603 1.2644509
0.062643975 0.22893524 1.2625715
0.06486436 0.22873223 1.2614518
0.067104399 0.2286099 1.2607772
0.069356732 0.22853611 1.2603703
0.071623392 0.22851272 1.2602413
0.073909603 0.22855124 1.2604537
0.076211229 0.22863369 1.2609084
0.078532428 0.22876836 1.2616512
0.080897689 0.22902021 1.2630401
0.083298817 0.22935702 1.2648976
-0.068066411 0.2265161 1.2369223
-0.065670043 0.22594947 1.2338281
-0.063312925 0.22548288 1.2312802
-0.060983583 0.22508486 1.2291068
-0.058680005 0.2247555 1.2273083
-0.056399167 0.22449081 1.2258629
-0.054134455 0.22427131 1.2246643
-0.051894687 0.22414088 1.2239521
-0.049659055 0.22401752 1.2232784
-0.047439221 0.22395726 1.2229494
-0.045223787 0.22391289 1.2227072
-0.043016624 0.22390705 1.2226752
-0.040812071 0.22391489 1.222718
-0.038610786 0.22394256 1.2228692
-0.036416627 0.22401743 1.2232779
-0.034231957 0.22416411 1.2240789
-0.032049857 0.22434901 1.2250886
-0.02986633 0.22455056 1.2261891
-0.027706394 0.22497593 1.2285119
-0.025533168 0.22535796 1.2305981
-0.023326399 0.22548853 1.2313111
-0.021110937 0.22555369 1.2316669
-0.01891282 0.22584133 1.2332376
0.060727928 0.23259942 1.2701411
0.062813461 0.23183878 1.2659875
0.064990558 0.23145759 1.263906
0.067210346 0.23124915 1.2627678
0.069448479 0.23111543 1.2620375
0.071710669 0.2310677 1.2617769
0.073988885 0.23107299 1.2618058
0.076286614 0.23113705 1.2621557
0.078605622 0.23126 1.262827
0.08097104 0.23150875 1.2641853
0.083415449 0.2319635 1.2666686
-0.068078987 0.22879004 1.2371508
-0.06566149 0.22814585 1.2336674
-0.063279979 0.22758588 1.2306395
-0.060930818 0.22710577 1.2280433
-0.058607936 0.22669107 1.2258009
-0.056308661 0.22633873 1.2238957
-0.054039478 0.22608353 1.2225157
-0.051791824 0.22590052 1.221526
-0.049563948 0.22579132 1.2209356
-0.047348805 0.22573267 1.2206185
-0.045142464 0.22571233 1.2205085
-0.042939518 0.22570772 1.2204835
-0.040741667 0.22573087 1.2206087
-0.038543962 0.22575749 1.2207527
-0.036348931 0.22580397 1.221004
-0.034163587 0.22592048 1.221634
-0.031984869 0.22609994 1.2226044
-0.029815799 0.22637922 1.2241145
-0.027678132 0.22696069 1.2272588
-0.025555814 0.22778009 1.2316896
0.065219693 0.23456205 1.2683622
0.067385502 0.23413607 1.2660587
0.069604136 0.23391555 1.2648662
0.071846254 0.23378544 1.2641627
0.074119508 0.23376153 1.2640334
0.076416411 0.23381141 1.2643031
0.078744993 0.23395252 1.2650661
0.08114364 0.23428796 1.26688
-0.065609485 0.2301892 1.2326903
-0.06321387 0.22956616 1.2293538
-0.06084846 0.22901148 1.2263834
-0.058506854 0.22850789 1.2236867
-0.056202147 0.22811459 1.2215805
-0.053929467 0.22782449 1.220027
-0.051687516 0.22764502 1.2190659
-0.0494707 0.22756521 1.2186385
-0.047262084 0.22751747 1.2183828
-0.045064751 0.22752203 1.2184073
-0.042866673 0.22752312 1.2184131
-0.040673461 0.22755152 1.2185652
-0.038480856 0.22758676 1.2187539
-0.036290813 0.22764237 1.2190517
-0.034101166 0.22770777 1.219402
-0.031921793 0.22785556 1.2201934
-0.0297566 0.22813393 1.2216841
-0.02762033 0.22869633 1.2246958
0.072072029 0.23680809 1.2681352
0.074331023 0.23671572 1.2676406
0.076650053 0.23681433 1.2681687
-0.065572985 0.23228395 1.2320045
-0.063137889 0.23150559 1.2278762
-0.060756825 0.23087594 1.2245365
-0.058402594 0.23030457 1.2215061
-0.056096926 0.2298874 1.2192935
-0.053830188 0.22960222 1.2177809
-0.051593192 0.22942504 1.2168412
-0.049381573 0.22934997 1.2164431
-0.04718538 0.22934289 1.2164055
-0.044990081 0.22933969 1.2163885
-0.042799469 0.22936127 1.2165029
-0.040610339 0.22939353 1.2166741
-0.038422067 0.22943462 1.216892
-0.036234766 0.22948685 1.217169
-0.034047544 0.22954635 1.2174846
-0.031867128 0.22966309 1.2181038
-0.029698079 0.22988513 1.2192814
-0.027549477 0.23031363 1.2215542
-0.06308534 0.23352642 1.2268542
-0.060668908 0.23274799 1.2227646
-0.058315322 0.232161 1.2196808
-0.056009244 0.23172452 1.2173877
-0.053745378 0.23143418 1.2158624
-0.051513981 0.23126489 1.214973
-0.049306422 0.23119235 1.2145919
-0.047115527 0.23119479 1.2146047
-0.044925708 0.23120303 1.214648
-0.042736351 0.23121463 1.2147089
-0.040549133 0.23123966 1.2148404
-0.038364146 0.231281 1.2150576
-0.036180079 0.23133323 1.215332
-0.033995029 0.23138551 1.2156067
-0.03181443 0.23147741 1.2160895
-0.02964179 0.23164509 1.2169704
-0.027485518 0.23197778 1.2187182
-0.025367012 0.23271477 1.2225901
-0.06309174 0.23576386 1.2269787
-0.060614254 0.23474248 1.2216631
-0.058242593 0.2340693 1.2181597
-0.055935245 0.23361191 1.2157793
-0.053673763 0.23331656 1.2142422
-0.051448524 0.23316033 1.2134292
-0.049241893 0.23307829 1.2130022
-0.047047876 0.23305111 1.2128607
-0.044861145 0.23305912 1.2129024
-0.042675093 0.23307167 1.2129678
-0.040489364 0.23308744 1.2130498
-0.038306408 0.23312186 1.2132289
-0.036125295 0.23317236 1.2134918
-0.033944182 0.23322938 1.2137885
-0.031761196 0.23328051 1.2140546
-0.029589653 0.23342949 1.2148299
-0.027431671 0.23371783 1.2163305
-0.025291849 0.23422451 1.2189674
-0.060587656 0.23684266 1.221127
-0.058193699 0.23606877 1.217137
-0.055882178 0.23558173 1.2146258
-0.053625487 0.2352955 1.2131501
-0.051394209 0.23510118 1.2121482
-0.049180154 0.23497184 1.2114813
-0.04698281 0.23491406 1.2111834
-0.044796761 0.23490985 1.2111617
-0.042613849 0.2349225 1.2112269
-0.040430695 0.23493512 1.211292
-0.038248841 0.23495716 1.2114056
-0.036070678 0.23500594 1.2116572
-0.033892848 0.2350633 1.2119529
-0.031713646 0.2351184 1.212237
-0.029540855 0.23523274 1.2128265
-0.027378034 0.23545109 1.2139523
-0.02523116 0.2358565 1.2160425
-0.023135034 0.23685868 1.2212096
-0.060605928 0.23911794 1.2214953
-0.058156192 0.23811121 1.2163526
-0.05584725 0.23762459 1.2138667
-0.05358183 0.23729096 1.2121625
-0.051342934 0.23705141 1.2109388
-0.04912167 0.23687561 1.2100407
-0.046924014 0.23680258 1.2096677
-0.044732559 0.23675525 1.2094259
-0.042552773 0.23676801 1.209491
-0.040372748 0.23678072 1.209556
-0.038192425 0.23679304 1.2096189
-0.03601623 0.23683399 1.2098281
-0.033841673 0.2368917 1.2101229
-0.031666059 0.23694949 1.2104181
-0.029492218 0.23703004 1.2108296
-0.027324606 0.23717758 1.2115833
-0.02517412 0.23751235 1.2132934
-0.023049904 0.23818234 1.2167159
-0.058162488 0.24033178 1.2164842
-0.055828754 0.23973523 1.2134646
-0.053545881 0.23931731 1.2113492
-0.051296111 0.23901805 1.2098345
-0.049073078 0.23882231 1.2088437
-0.046864044 0.23867966 1.2081217
-0.04467205 0.23861411 1.2077899
-0.042492308 0.23861066 1.2077724
-0.040315174 0.23862225 1.207831
-0.038137827 0.23863383 1.2078897
-0.035961941 0.23865651 1.2080045
-0.033790804 0.23871569 1.208304
-0.031618621 0.23877512 1.2086048
-0.029445359 0.23883457 1.2089058
-0.027280159 0.2389742 1.2096125
-0.025125423 0.23923773 1.2109464
-0.022988245 0.23973455 1.2134612
-0.058199 0.24267884 1.2172478
-0.055813357 0.24185789 1.21313
-0.053515829 0.24136733 1.2106694
-0.051258285 0.24102299 1.2089423
-0.049024768 0.24076608 1.2076536
-0.046810564 0.24058452 1.206743
-0.044616666 0.24049471 1.2062925
-0.042432912 0.24045317 1.2060841
-0.040258925 0.24046548 1.2061459
-0.038084581 0.24047694 1.2062033
-0.035911132 0.24049576 1.2062978
-0.033741664 0.24054541 1.2065468
-0.031572249 0.2406023 1.2068322
-0.029401805 0.24065922 1.2071177
-0.027236108 0.2407672 1.2076592
-0.025076941 0.24095668 1.2086097
-0.022932261 0.24133475 1.2105061
-0.020822898 0.24220318 1.214862
-0.05582919 0.24411587 1.2134742
-0.053498179 0.24347129 1.21027
-0.051223058 0.24303707 1.2081115
-0.048980631 0.24272625 1.2065665
-0.046764564 0.24252319 1.2055571
-0.044561598 0.24237163 1.2048037
-0.042377017 0.24230962 1.2044954
-0.040202763 0.24230313 1.2044632
-0.038032334 0.24232031 1.2045486
-0.035862055 0.24234055 1.2046492
-0.033692524 0.2423688 1.2047896
-0.031527102 0.24243255 1.2051065
-0.029359756 0.24248983 1.2053913
-0.027192051 0.2425531 1.2057058
-0.025033034 0.24271159 1.2064936
-0.022884097 0.2430073 1.2079636
-0.02075051 0.24354546 1.2106386
-0.055863317 0.2464558 1.2142159
-0.053482935 0.24558491 1.2099252
-0.051196665 0.24509043 1.207489
-0.04894679 0.24473396 1.2057328
-0.046718728 0.24445845 1.2043755
-0.044512235 0.24427447 1.203469
-0.042326063 0.24418883 1.2030472
-0.040147405 0.24413961 1.2028047
-0.037980434 0.24415994 1.2029048
-0.035813108 0.24418029 1.2030051
-0.033645723 0.24420282 1.2031161
-0.031481728 0.2442548 1.2033721
-0.029317826 0.24431521 1.2036698
-0.027152538 0.24437284 1.2039537
-0.024991943 0.24448641 1.2045132
-0.022840293 0.24471743 1.2056514
-0.020702159 0.24515715 1.2078178
-0.055767521 0.24822015 1.2121338
-0.053496376 0.24783015 1.2102293
-0.051179651 0.24718682 1.2070878
-0.048911214 0.2467299 1.2048564
-0.046676368 0.24640781 1.2032835
-0.044468783 0.24620521 1.2022942
-0.042274036 0.24605657 1.2015684
-0.040097032 0.24600072 1.2012956
-0.037928678 0.24599457 1.2012656
-0.035764299 0.24601503 1.2013655
-0.033599764 0.24603698 1.2014726
-0.031437118 0.24607673 1.2016668
-0.029275656 0.24613237 1.2019385
-0.027113808 0.24619338 1.2022364
-0.0249523 0.24626835 1.2026025
-0.022798453 0.24644043 1.2034428
-0.02065333 0.24675293 1.2049689
-0.018527832 0.24740104 1.2081338
-0.053532366 0.25018188 1.2110435
-0.051164627 0.24929148 1.2067333
-0.048884507 0.24876784 1.2041986
-0.046642214 0.2483969 1.2024031
-0.044425327 0.24813171 1.2011193
-0.042226821 0.24794723 1.2002263
-0.040048845 0.24786988 1.1998519
-0.037877418 0.24782653 1.1996421
-0.035715625 0.24784477 1.1997304
-0.033553928 0.24786611 1.1998336
-0.031393357 0.24789928 1.1999942
-0.029234016 0.24794777 1.2002289
-0.027074834 0.24800549 1.2005084
-0.024915053 0.24806726 1.2008073
-0.022761032 0.24820364 1.2014675
-0.02061462 0.24846043 1.2027105
-0.018478032 0.24890995 1.2048866
-0.05117397 0.25151461 1.2069538
-0.048867155 0.25085139 1.2037711
-0.046608407 0.25038469 1.2015315
-0.044383921 0.25006551 1.1999998
-0.042184737 0.24986345 1.1990302
-0.039998617 0.24972109 1.1983471
-0.037829999 0.249678 1.1981403
-0.035667401 0.24967182 1.1981106
-0.033508219 0.24969026 1.1981992
-0.031350669 0.2497243 1.1983625
-0.029194791 0.24977766 1.1986185
-0.027039349 0.2498436 1.1989349
-0.024882764 0.24990949 1.1992512
-0.022729095 0.25002006 1.1997817
-0.020581249 0.25022465 1.2007636
-0.018443067 0.25060871 1.2026066
-0.016323805 0.25138658 1.2063394
-0.051207658 0.25385925 1.2077483
-0.048857272 0.2529721 1.2035277
-0.046582248 0.25241077 1.2008572
-0.044350784 0.25204226 1.199104
-0.042144295 0.25178513 1.1978806
-0.039955184 0.25160965 1.1970458
-0.037781857 0.2515192 1.1966155
-0.035621807 0.25151154 1.196579
-0.03346749 0.25154597 1.1967428
-0.031312373 0.25157872 1.1968986
-0.029158384 0.25162604 1.1971238
-0.027006287 0.25169858 1.1974689
-0.024852129 0.25176287 1.1977746
-0.022699993 0.25186184 1.1982455
-0.020552151 0.25203428 1.1990659
-0.018413726 0.25237635 1.2006934
-0.016290728 0.25304931 1.203895
-0.04886109 0.25516349 1.2036217
-0.046565123 0.25448382 1.2004157
-0.04431827 0.25401935 1.1982248
-0.042104937 0.25370923 1.196762
-0.039914649 0.25351197 1.1958314
-0.037739933 0.25339669 1.1952877
-0.03558233 0.2533893 1.1952529
-0.033428896 0.2534126 1.1953628
-0.031277273 0.25345376 1.1955569
-0.029125724 0.25350168 1.1957829
-0.026973059 0.25354674 1.1959956
-0.024823865 0.25363514 1.1964124
-0.022676731 0.25376341 1.1970176
-0.020531509 0.25394234 1.1978616
-0.018394398 0.2542755 1.1994331
-0.016268622 0.25487506 1.2022613
-0.048896406 0.25752106 1.2044916
-0.046552192 0.25657839 1.2000824
-0.044292409 0.25603172 1.1975256
-0.042076141 0.25569347 1.1959435
-0.039881241 0.25545552 1.1948305
-0.037706699 0.25532821 1.1942351
-0.035545085 0.25527832 1.1940018
-0.03339069 0.25527722 1.1939965
-0.031240877 0.25531337 1.1941657
-0.029094914 0.25538868 1.194518
-0.026948834 0.25547493 1.1949214
-0.024800666 0.25555468 1.1952944
-0.022654779 0.25567538 1.1958588
-0.020514505 0.25589144 1.1968695
-0.018379377 0.25623015 1.1984537
-0.016256297 0.2568495 1.2013506
-0.04655144 0.25873941 1.200063
-0.044277735 0.2581068 1.1971289
-0.042054132 0.25771636 1.195318
-0.039858587 0.25746495 1.1941519
-0.037683114 0.25732183 1.1934881
-0.035517633 0.25723377 1.1930797
-0.033364814 0.25723195 1.1930712
-0.031217031 0.25727141 1.1932542
-0.029069113 0.25731549 1.1934587
-0.026923424 0.25738794 1.1937947
-0.024780942 0.25750631 1.1943438
-0.022641048 0.25767669 1.195134
-0.020501304 0.25788483 1.1960994
-0.018368434 0.25823858 1.1977401
-0.016251674 0.25894335 1.2010089
-0.046584629 0.26109061 1.2009186
-0.044281293 0.26028761 1.1972251
-0.042052049 0.2598601 1.1952587
-0.039851397 0.25957263 1.1939365
-0.037666809 0.25936288 1.1929717
-0.035499785 0.25925601 1.1924802
-0.033343829 0.2592214 1.1923209
-0.031194452 0.25923666 1.1923912
-0.029050056 0.25929865 1.1926763
-0.026908696 0.25939983 1.1931417
-0.024766056 0.25950518 1.1936263
-0.022625556 0.25965521 1.1943163
-0.020488612 0.25988185 1.1953589
-0.018360481 0.26028684 1.1972215
-0.016253464 0.26113898 1.2011411
-0.044317335 0.26266128 1.1981995
-0.042065494 0.2621004 1.1956409
-0.039853748 0.26174217 1.1940068
-0.037666295 0.26151171 1.1929555
-0.035494465 0.26136836 1.1923015
-0.033333 0.26128772 1.1919336
-0.03118369 0.26129782 1.1919798
-0.02903614 0.26132527 1.1921049
-0.026893571 0.2614055 1.192471
-0.024756027 0.26155281 1.193143
-0.02261709 0.26171204 1.1938694
-0.020483529 0.26197356 1.1950623
-0.018359115 0.26242736 1.1971325
-0.016271554 0.26359919 1.2024781
-0.044433907 0.26551968 1.2013513
-0.042111941 0.26454937 1.196961
-0.039878387 0.2640596 1.1947451
-0.037678655 0.26375058 1.193347
-0.035498593 0.26355016 1.1924402
-0.033331387 0.26342547 1.1918759
-0.031177497 0.26339608 1.191743
-0.029030722 0.26342693 1.1918825
-0.026885942 0.26348221 1.1921327
-0.024747442 0.26361406 1.1927292
-0.022610785 0.26379248 1.1935365
-0.020480867 0.2640954 1.1949071
-0.018363565 0.26465139 1.1974226
-0.042234324 0.26748404 1.2004396
-0.039929502 0.26655641 1.1962764
-0.037708834 0.26611665 1.1943028
-0.035517111 0.2658402 1.1930622
