# .PCD v0.7 - Point Cloud Data file format
VERSION 0.7
FIELDS x y z rgb
SIZE 4 4 4 4
TYPE F F F U
COUNT 1 1 1 1
WIDTH 1165
HEIGHT 1
VIEWPOINT 0 0 0 1 0 0 0
POINTS 1165
DATA ascii
0.054785982 -0.11251745 0.65301907 65987
0.056040812 -0.11267152 0.65391332 65993
0.057297565 -0.11282304 0.65479267 66004
0.058581706 -0.11302128 0.65594316 65996
0.059870228 -0.11321994 0.65709615 65972
0.061166961 -0.11342611 0.65829271 65974
0.062436171 -0.11357437 0.65915316 65975
0.063718267 -0.11374009 0.66011494 65973
0.064965233 -0.11383817 0.66068417 65971
0.066202849 -0.11391662 0.66113949 65971
0.067451857 -0.11401155 0.66169041 65970
0.068742394 -0.11417215 0.66262251 65970
0.019226709 -0.11722091 0.68751574 66012
0.020424524 -0.11697682 0.68608415 65994
0.021406466 -0.11559492 0.67797911 65966
0.022619072 -0.11554067 0.67766094 131751
0.023847852 -0.11557036 0.67783505 65958
0.028018396 -0.11266972 0.66082245 155
0.029006163 -0.11188091 0.656196 65957
0.030125363 -0.11164105 0.65478915 65957
0.031251621 -0.11144445 0.6536361 65959
0.032383479 -0.11128142 0.65267986 65929
0.033522964 -0.11115509 0.65193897 65938
0.034667693 -0.11105413 0.6513468 65935
0.035809953 -0.11095215 0.65074867 65933
0.036960099 -0.1108803 0.65032727 65937
0.038112707 -0.11082003 0.64997375 65937
0.039270915 -0.11077915 0.64973402 65937
0.040432889 -0.11075096 0.64956868 131750
0.041597657 -0.1107318 0.64945626 131755
0.04276989 -0.110733 0.64946336 131755
0.043942012 -0.11073387 0.64946842 131753
0.045119446 -0.11074773 0.64954972 65960
0.046298865 -0.11076564 0.64965475 65956
0.047478795 -0.11078386 0.64976162 65968
0.048675917 -0.11084034 0.6500929 131784
0.04987574 -0.11090018 0.65044385 131776
0.051084612 -0.11097691 0.65089393 131777
0.052304976 -0.11107461 0.65146691 131798
0.053533237 -0.11118441 0.65211093 131786
0.054767419 -0.11130153 0.65279782 65987
0.056018554 -0.11144744 0.65365362 131802
0.057264343 -0.11157691 0.65441298 66001
0.058514059 -0.11170866 0.6551857 65981
0.059745837 -0.11180162 0.6557309 66023
0.060994048 -0.11192112 0.65643179 65998
0.062246475 -0.11204366 0.65715051 65974
0.063469291 -0.11210931 0.65753555 65975
0.064661473 -0.11211943 0.65759492 65982
0.065867312 -0.11215245 0.65778857 65981
0.067074142 -0.11218596 0.65798509 65971
0.068261065 -0.11218558 0.65798289 65969
0.069447987 -0.11218521 0.65798074 65969
0.070634894 -0.11218484 0.65797853 65969
0.071821801 -0.11218447 0.65797639 65969
0.073008701 -0.11218411 0.65797424 65969
0.074314535 -0.11236358 0.65902686 65983
0.075651355 -0.11258351 0.66031682 65989
0.01796844 -0.11586546 0.68683398 65974
0.019173883 -0.11566181 0.68562675 131780
0.02041856 -0.11570518 0.68588382 65930
0.02141544 -0.11441963 0.67826331 108
0.02262642 -0.11435515 0.67788106 65940
0.025702422 -0.11177565 0.66259015 111
0.026761111 -0.11120728 0.65922093 121
0.027861316 -0.11085247 0.65711766 126
0.028975844 -0.11058129 0.65551013 65929
0.030106761 -0.11039146 0.65438485 65926
0.031238912 -0.11022031 0.65337032 65937
0.032374144 -0.11007209 0.65249169 65934
0.033517156 -0.10995979 0.65182596 65933
0.034661472 -0.10985925 0.65122998 65939
0.035809021 -0.1097752 0.65073174 65941
0.036962759 -0.10971486 0.65037405 65941
0.038119622 -0.10966722 0.65009165 65944
0.03928259 -0.10963947 0.64992714 65942
0.040442221 -0.10960428 0.64971858 65942
0.041608483 -0.10958853 0.64962524 65942
0.042781465 -0.10959088 0.64963913 131759
0.043954503 -0.10959323 0.64965308 131756
0.045128867 -0.10959868 0.64968538 131757
0.04630762 -0.10961424 0.64977759 65963
0.047486022 -0.10962822 0.6498605 65961
0.048679605 -0.10967574 0.65014213 65969
0.049877498 -0.10973049 0.65046674 131784
0.05108726 -0.10980825 0.65092766 131776
0.052300856 -0.10989056 0.65141559 65985
0.053523276 -0.10998739 0.65198958 131802
0.05474668 -0.11008204 0.65255064 131794
0.055978067 -0.11018841 0.6531812 65998
0.057204865 -0.11028155 0.65373331 131819
0.058433663 -0.1103747 0.65428549 131803
0.059656195 -0.11045256 0.65474707 65996
0.060870301 -0.1105121 0.65509999 65981
0.062085699 -0.11057168 0.65545315 65999
0.06328477 -0.11060048 0.65562391 66008
0.064476661 -0.11061592 0.65571547 65990
0.065668903 -0.11063139 0.65580714 65984
0.066847771 -0.11062419 0.65576446 65975
0.068012387 -0.11059406 0.65558583 65973
0.069172643 -0.11055799 0.65537202 65973
0.070327371 -0.11051444 0.65511388 65975
0.07149221 -0.11048795 0.65495688 65973
0.072670199 -0.11048234 0.65492356 65968
0.073853768 -0.11048524 0.65494078 65975
0.075038247 -0.11048938 0.65496534 65984
0.076272219 -0.11056516 0.65541452 65983
0.077519991 -0.11065831 0.6559667 65992
0.078851342 -0.11086617 0.65719891 65973
0.015634885 -0.11569815 0.69325668 144
0.016754728 -0.11480091 0.68788046 65950
0.017944584 -0.11447407 0.68592203 131772
0.01917935 -0.11445741 0.68582225 65951
0.020314815 -0.11388608 0.68239886 129
0.021382194 -0.11302017 0.67721039 128
0.024573259 -0.11087934 0.66438264 121
0.025622176 -0.11023495 0.66052145 121
0.026713129 -0.10982064 0.65803897 132
0.027823277 -0.10951715 0.6562205 137
0.028952776 -0.1093115 0.65498823 65935
0.030084634 -0.10913053 0.6539039 65937
0.031225145 -0.10899343 0.65308237 65938
0.032362964 -0.10885725 0.65226638 65943
0.033508521 -0.10875572 0.65165806 65945
0.034659572 -0.10867831 0.65119421 65946
0.035809617 -0.10860294 0.65074259 65948
0.036966849 -0.10855344 0.650446 65947
0.038125858 -0.10851206 0.65019804 65950
0.039289959 -0.1084872 0.65004909 65948
0.040453531 -0.10846236 0.64990026 65946
0.041619636 -0.10844553 0.64979941 65948
0.042792685 -0.10844722 0.64980948 65946
0.043965317 -0.10844778 0.64981288 131752
0.04513875 -0.10845025 0.64982766 131761
0.046316095 -0.10846174 0.6498965 131759
0.047494687 -0.10847552 0.64997911 65966
0.048684031 -0.1085126 0.65020126 65969
0.049881067 -0.10856467 0.65051329 131775
0.05108368 -0.10862622 0.65088207 131788
0.052295879 -0.10870491 0.6513536 131780
0.053512387 -0.10878892 0.65185696 65986
0.05473236 -0.1088762 0.65237993 131800
0.055942688 -0.10894103 0.65276837 131795
0.057162113 -0.10902052 0.65324473 65991
0.058377121 -0.10908855 0.65365237 65980
0.059590816 -0.1091515 0.65402949 131796
0.060790192 -0.10918627 0.65423787 66006
0.061989013 -0.10921874 0.65443242 65996
0.063176028 -0.10922958 0.65449739 65985
0.064360522 -0.10923575 0.65453434 65978
0.065525323 -0.10920887 0.65437329 65982
0.06669189 -0.10918584 0.6542353 65970
0.067844398 -0.10914099 0.65396655 65971
0.068998441 -0.1091001 0.65372151 65979
0.070151605 -0.10905922 0.6534766 65987
0.071310148 -0.10902791 0.65328896 65971
0.072483353 -0.10901968 0.65323967 65981
0.073657759 -0.10901348 0.65320253 65986
0.074834064 -0.10901025 0.65318316 65995
0.076029196 -0.10903411 0.65332615 65995
0.077235736 -0.10907336 0.65356135 65985
0.078465 -0.10914305 0.65397888 65988
0.079733968 -0.10926507 0.65470999 65987
0.081039883 -0.10943341 0.65571874 65977
0.082415514 -0.10968971 0.65725446 65973
0.015563067 -0.11392165 0.69007224 124
0.016711855 -0.11326925 0.68612033 65961
0.017940359 -0.11320985 0.68576056 131760
0.019115383 -0.11284242 0.68353486 124
0.020195704 -0.11199436 0.67839777 128
0.024472198 -0.10922956 0.66165024 129
0.025547327 -0.10872468 0.65859193 134
0.026664512 -0.10843568 0.6568414 65937
0.027786238 -0.10818897 0.65534693 65942
0.028924054 -0.10802249 0.65433848 65940
0.030063573 -0.10787518 0.65344614 65948
0.031211352 -0.1077675 0.65279388 65944
0.032356836 -0.10766002 0.65214282 65952
0.033505287 -0.10756961 0.65159518 65954
0.03465895 -0.10750148 0.65118253 65953
0.035811659 -0.10743497 0.65077966 131746
0.036969937 -0.10738887 0.65050036 131748
0.03813193 -0.10735605 0.65030158 131749
0.039295729 -0.10733012 0.65014452 65955
0.040458966 -0.10730422 0.64998758 65956
0.041628167 -0.10729513 0.64993256 65954
0.042800829 -0.10729523 0.64993316 65952
0.043973781 -0.10729603 0.64993799 65949
0.045148995 -0.10730216 0.64997512 131756
0.046324704 -0.10730913 0.65001732 131764
0.047503516 -0.10732276 0.65009993 131760
0.048688106 -0.10734847 0.65025568 131764
0.049884766 -0.10739897 0.65056157 65968
0.051084176 -0.10745292 0.65088838 131781
0.052291986 -0.10752173 0.65130514 131789
0.053501867 -0.10759167 0.65172881 131781
0.054721352 -0.1076775 0.65224874 65976
0.055922017 -0.10772346 0.65252715 131808
0.05713103 -0.10778328 0.65288949 131795
0.058332369 -0.10782649 0.65315127 131791
0.05953452 -0.10786948 0.65341163 65986
0.060728218 -0.10789577 0.65357089 65989
0.061903812 -0.1078895 0.65353292 65993
0.063082561 -0.10788887 0.65352911 65972
0.064261213 -0.1078881 0.6535244 65978
0.065415025 -0.10784639 0.65327179 65985
0.06656491 -0.10779981 0.65298963 65992
0.067719623 -0.10776254 0.65276384 65997
0.0688724 -0.10772349 0.65252733 65983
0.070028536 -0.10769095 0.65233016 65998
0.071190618 -0.10766846 0.65219396 66000
0.072356813 -0.10765282 0.65209925 65995
0.073521987 -0.10763619 0.65199852 65988
0.07469815 -0.10763592 0.65199685 65986
0.075885393 -0.10765138 0.65209049 65987
0.077072985 -0.10766684 0.65218419 131808
0.078285776 -0.10771652 0.65248507 66017
0.079517022 -0.10778975 0.65292865 65999
0.080772854 -0.10789366 0.65355814 65977
0.082033217 -0.10800056 0.65420568 65979
0.083292902 -0.10810355 0.6548295 65992
0.084595852 -0.10825903 0.65577132 65975
0.08596696 -0.10849623 0.65720814 66000
0.087431319 -0.10884307 0.65930909 65983
0.0033991619 -0.12304965 0.75360054 135
0.0047272258 -0.12223256 0.74859631 120
0.014381422 -0.11317553 0.69312787 106
0.01551134 -0.1123021 0.68777865 115
0.016701605 -0.11196261 0.68569946 131760
0.017941043 -0.11197685 0.68578666 135
0.019036002 -0.11114569 0.68069637 112
0.023264561 -0.10797142 0.66125602 139
0.024354637 -0.10751681 0.65847176 144
0.02547868 -0.10724746 0.6568222 65942
0.026616296 -0.10705666 0.65565366 65949
0.027753923 -0.10688213 0.65458477 65946
0.028899821 -0.1067524 0.65379024 65956
0.030046372 -0.10663516 0.65307224 65944
0.031198645 -0.10654631 0.65252811 65952
0.032350354 -0.10646208 0.65201223 65945
0.033500243 -0.10637796 0.65149707 65950
0.034655977 -0.10631748 0.65112668 65941
0.035814837 -0.10627025 0.65083742 65946
0.036976308 -0.10623352 0.65061247 65948
0.038136385 -0.10619517 0.65037757 131755
0.039300319 -0.10616951 0.65022045 131754
0.040467605 -0.10615416 0.6501264 131754
0.041637778 -0.10614701 0.65008265 131751
0.042808983 -0.10614282 0.65005696 65957
0.043983757 -0.10614747 0.65008545 65955
0.045159239 -0.10615353 0.65012258 65951
0.046334848 -0.10615959 0.65015966 65950
0.047512349 -0.10616957 0.65022081 131765
0.048693597 -0.10618725 0.65032905 131771
0.049888469 -0.1062331 0.65060985 131766
0.051087469 -0.10628542 0.65093035 65969
0.052286774 -0.10633603 0.65124023 131783
0.053492334 -0.10639685 0.6516127 131792
0.054704167 -0.10646725 0.65204388 131782
0.055903755 -0.10651136 0.65231407 65981
0.057103671 -0.10655428 0.65257686 65972
0.058294483 -0.1065788 0.65272707 131791
0.059479717 -0.10659236 0.65281016 131795
0.060668539 -0.10661171 0.65292859 66001
0.061834183 -0.10659035 0.65279782 65989
0.062999368 -0.10656902 0.65266716 65990
0.064162999 -0.1065459 0.65252554 65987
0.06532418 -0.10651961 0.65236455 65983
0.06648127 -0.10648769 0.65216911 65979
0.067632399 -0.10644752 0.65192306 65979
0.068783715 -0.106409 0.65168715 65977
0.06993825 -0.10637667 0.65148914 65978
0.071101561 -0.10635854 0.6513781 65986
0.072269075 -0.10634718 0.65130854 65989
0.073434621 -0.10633333 0.65122372 65995
0.074607782 -0.10633078 0.6512081 131803
0.075784236 -0.10633292 0.65122122 131795
0.07696031 -0.10633448 0.65123075 65999
0.07816603 -0.10637633 0.65148705 65991
0.079383947 -0.10643329 0.65183592 66020
0.08061263 -0.10650282 0.65226173 131811
0.081844926 -0.10657504 0.65270406 66002
0.083079003 -0.10664751 0.65314788 65985
0.084340066 -0.10675211 0.65378851 65974
0.085602306 -0.1068553 0.65442044 65999
0.086865813 -0.10695723 0.65504467 65979
0.088152386 -0.10708445 0.65582383 65974
0.089517906 -0.10730292 0.65716183 65990
0.090942904 -0.10758606 0.65889585 65973
0.0020384318 -0.12162644 0.75320697 143
0.003383613 -0.12113335 0.75015336 135
0.0047114575 -0.1204787 0.74609923 106
0.013204011 -0.11254848 0.69698906 102
0.014349375 -0.11167557 0.69158334 102
0.015484948 -0.11087222 0.68660837 65918
0.016706372 -0.11075706 0.6858952 131758
0.017894609 -0.11045294 0.68401182 102
0.020960817 -0.1071996 0.66386461 148
0.022026885 -0.1065625 0.65991914 65943
0.023134865 -0.1061831 0.65756959 65954
0.024279499 -0.10600074 0.65644032 65951
0.025431827 -0.10586737 0.65561438 65956
0.026580576 -0.10573162 0.65477371 65948
0.027726313 -0.10559596 0.65393358 65960
0.028877666 -0.10549188 0.65328908 65953
0.030031554 -0.10540487 0.65275019 65955
0.031187365 -0.10533091 0.65229219 65949
0.032344434 -0.10526644 0.6518929 65950
0.03350009 -0.10520203 0.65149409 65951
0.034655318 -0.10514072 0.65111434 65948
0.035815563 -0.10509812 0.65085059 65947
0.036979534 -0.10506883 0.65066922 65946
0.038142864 -0.10503957 0.65048802 65943
0.039306354 -0.1050125 0.65032035 65944
0.040476914 -0.10500533 0.65027595 131759
0.041646972 -0.10499729 0.65022618 131755
0.042818323 -0.10499287 0.65019882 131752
0.043993652 -0.10499818 0.65023166 65959
0.045169484 -0.10500439 0.6502701 65955
0.046345364 -0.10501038 0.65030724 65952
0.047521379 -0.10501638 0.65034437 65952
0.048699882 -0.10502746 0.65041298 131768
0.049893878 -0.10507064 0.65068036 131772
0.051090769 -0.10511779 0.65097237 131769
0.052287936 -0.10516338 0.65125471 65970
0.053488743 -0.10521412 0.65156895 131780
0.054682329 -0.10524878 0.65178359 131796
0.05587665 -0.10528337 0.6519978 131788
0.057071753 -0.10531797 0.65221208 65992
0.058251075 -0.10532265 0.65224105 65987
0.059429485 -0.10532552 0.65225881 65988
0.060601715 -0.10531754 0.6522094 65973
0.061764874 -0.10529441 0.65206611 65975
0.062927514 -0.10527126 0.65192282 65980
0.064089164 -0.10524735 0.6517747 65987
0.065245457 -0.10521565 0.65157843 65991
0.066395506 -0.10517518 0.65132779 131790
0.067546554 -0.10513768 0.65109557 131797
0.068705857 -0.10511409 0.65094948 131790
0.069867827 -0.1050953 0.65083313 131785
0.071032956 -0.10508181 0.65074956 65987
0.072199643 -0.10507103 0.65068281 65985
0.073366091 -0.10506024 0.65061599 65980
0.074535541 -0.10505404 0.65057755 65983
0.075705215 -0.10504832 0.6505422 65988
0.076875724 -0.10504393 0.65051496 131810
0.078082599 -0.10508861 0.6507917 131803
0.079295442 -0.10513989 0.65110922 66002
0.080509476 -0.10519122 0.65142709 65988
0.081725731 -0.10524393 0.65175354 131816
0.082949184 -0.10530428 0.65212727 131810
0.08417403 -0.1053647 0.6525014 66003
0.08540649 -0.10543284 0.65292341 65986
0.086643532 -0.10550471 0.65336847 66015
0.087908849 -0.10560861 0.65401196 66007
0.089173749 -0.10570928 0.65463537 65984
0.09044107 -0.10581014 0.65525997 65975
0.091710821 -0.1059112 0.65588582 65992
0.093090855 -0.10613544 0.65727443 65988
0.094492957 -0.10637886 0.65878195 65973
-0.0020438123 -0.12058492 0.75519502 65993
-0.00068051764 -0.12045162 0.7543602 66005
0.00067894557 -0.12017336 0.75261754 65950
0.0020322446 -0.11990242 0.75092071 65932
0.0033775491 -0.11956524 0.74880898 119
0.0047047725 -0.11896354 0.74504066 102
0.013188253 -0.11115814 0.69615728 102
0.014332332 -0.11029664 0.69076192 102
0.015481696 -0.10961042 0.68646425 65919
0.016711138 -0.1095508 0.68609089 65940
0.018461095 -0.1054069 0.66013861 65964
0.019622944 -0.10525034 0.65915811 65984
0.020772124 -0.1050476 0.65788841 65961
0.021931542 -0.10491575 0.65706271 65960
0.023083879 -0.1047653 0.65612042 65954
0.024239168 -0.10464226 0.65534985 65963
0.025396567 -0.10453936 0.65470541 65964
0.026548965 -0.10442593 0.65399504 65961
0.027707964 -0.10434701 0.6535008 65961
0.028865891 -0.10427067 0.65302265 65963
0.030022122 -0.10419442 0.65254515 65964
0.031181291 -0.10413375 0.65216517 65960
0.032341242 -0.10407999 0.65182853 65959
0.033499997 -0.10402631 0.6514923 65958
0.034655016 -0.10396504 0.65110862 65958
0.035816282 -0.10392594 0.65086371 65954
0.036980804 -0.10389845 0.65069157 65952
0.038144834 -0.10387132 0.65052164 65950
0.039314292 -0.10386015 0.65045166 65947
0.040484753 -0.10385219 0.65040183 65945
0.041655377 -0.1038451 0.65035743 131761
0.042828903 -0.10384542 0.65035945 131757
0.044002946 -0.10384695 0.65036905 131755
0.04517917 -0.10385341 0.65040952 131752
0.046355538 -0.10385988 0.65044999 65956
0.047532048 -0.10386633 0.6504904 65952
0.048709117 -0.10387366 0.6505363 65953
0.049899444 -0.10390826 0.65075296 131776
0.051092464 -0.10394675 0.650994 131776
0.052282177 -0.10397691 0.65118295 131773
0.053475719 -0.10401321 0.65141028 65979
0.05466288 -0.1040358 0.65155178 65974
0.055850562 -0.10405841 0.6516934 131779
0.057031073 -0.10406701 0.65174723 131790
0.058209464 -0.10407147 0.65177512 131790
0.059376985 -0.10405669 0.65168262 131791
0.060537502 -0.10403047 0.65151834 131788
0.061697438 -0.10400426 0.65135419 65991
0.062856786 -0.10397805 0.65119004 65988
0.064017802 -0.10395551 0.65104896 65979
0.0651787 -0.1039336 0.65091169 65978
0.066339403 -0.10391217 0.65077746 65972
0.067499638 -0.10389074 0.65064329 65969
0.068659395 -0.10386933 0.65050924 131778
0.06981954 -0.10384924 0.65038335 131785
0.07098484 -0.10383733 0.65030879 131793
0.072150193 -0.10382589 0.65023714 131790
0.073315963 -0.10381541 0.65017146 131786
0.074484922 -0.10380969 0.6501357 131783
0.075653747 -0.10380398 0.65009993 65986
0.076831043 -0.10380989 0.65013689 65982
0.078030951 -0.10384571 0.65036124 131786
0.079231694 -0.10388156 0.65058577 131804
0.08043322 -0.10391737 0.65081006 131800
0.081637435 -0.10395558 0.65104938 65997
0.082852498 -0.10400633 0.65136719 65987
0.084068745 -0.10405711 0.65168524 131823
0.085291572 -0.10411454 0.65204489 131809
0.08651761 -0.10417426 0.65241891 66002
0.087745048 -0.10423405 0.65279335 65986
0.088973902 -0.10429391 0.65316826 66014
0.090211712 -0.10436257 0.65359825 66013
0.091478817 -0.10446291 0.6542266 65993
0.092747763 -0.10456277 0.65485203 65975
0.094019398 -0.1046631 0.65548038 65995
0.095298998 -0.10476971 0.65614802 65980
0.096694708 -0.10499977 0.6575889 65975
0.09808819 -0.10522188 0.65897989 65973
-0.0034106169 -0.11937159 0.75614017 102
-0.0020361291 -0.1187742 0.75235605 65964
-0.00067841465 -0.11872257 0.752029 131829
0.00067785644 -0.11862488 0.75141025 65958
0.0020300497 -0.11841957 0.75010973 65921
0.0033766241 -0.11818184 0.74860388 104
0.004702575 -0.11756437 0.74469262 102
0.010841034 -0.11159888 0.70690519 102
0.014325782 -0.10900052 0.69044626 102
0.015484249 -0.10838975 0.68657744 65925
0.017252332 -0.1041089 0.65946108 102
0.018372634 -0.10371649 0.65697539 65995
0.019552452 -0.10368725 0.6567902 66001
0.020724578 -0.10362289 0.65638256 65974
0.021887504 -0.10352197 0.6557433 65967
0.02305045 -0.10343151 0.65517026 65967
0.024213519 -0.10335039 0.65465641 65957
0.025374763 -0.10326938 0.65414333 65965
0.02653419 -0.10318852 0.65363109 65970
0.027695507 -0.10312157 0.653207 65957
0.028855337 -0.10305478 0.65278393 65963
0.030013673 -0.10298809 0.65236151 65970
0.031169245 -0.10291732 0.65191323 131762
0.032330789 -0.1028707 0.65161788 131759
0.0334941 -0.10283276 0.65137762 131758
0.034656551 -0.10279485 0.65113747 131756
0.03581911 -0.10275974 0.65091509 131753
0.036983844 -0.1027329 0.65074503 131750
0.038151432 -0.1027154 0.65063417 65954
0.039322048 -0.10270684 0.65057999 65951
0.040492591 -0.1026986 0.65052778 65950
0.04166567 -0.10269707 0.65051812 65945
0.042839486 -0.10269739 0.65052015 65947
0.044014215 -0.10269983 0.65053558 131754
0.045189243 -0.10270283 0.65055454 131754
0.046365436 -0.10270824 0.65058887 131751
0.047541928 -0.10271404 0.65062559 65955
0.048718847 -0.10272045 0.65066624 65951
0.049902428 -0.1027403 0.65079188 65961
0.051090278 -0.1027678 0.65096611 65969
0.05227825 -0.10279431 0.65113407 131778
0.053459492 -0.10280672 0.65121263 131788
0.054645587 -0.10282772 0.65134567 131780
0.055817518 -0.10282174 0.65130782 65984
0.05699167 -0.10282002 0.65129691 65982
0.058154464 -0.1027983 0.65115929 65977
0.059320189 -0.1027825 0.65105927 65970
0.060488902 -0.10277241 0.65099531 131781
0.061655551 -0.10275926 0.65091199 131778
0.062819906 -0.10274284 0.65080798 131784
0.063984573 -0.10272752 0.650711 131779
0.065149389 -0.102713 0.65061903 131775
0.066313885 -0.1026985 0.65052712 131773
0.067474917 -0.10267922 0.65040505 65978
0.068633445 -0.10265686 0.65026343 65977
0.0697928 -0.10263646 0.65013421 65970
0.070958972 -0.10262661 0.6500718 65964
0.072124258 -0.10261581 0.65000337 131771
0.073289491 -0.10260529 0.64993674 131783
0.074454583 -0.1025949 0.64987087 131782
0.075618453 -0.10258317 0.64979661 131782
0.076795213 -0.10258903 0.64983368 131783
0.077985607 -0.10261264 0.64998329 65987
0.079185635 -0.10264805 0.65020758 65981
0.080386497 -0.10268348 0.65043199 131809
0.081588186 -0.10271894 0.65065664 131801
0.08279065 -0.10275435 0.65088093 131794
0.083993942 -0.10278979 0.6511054 65991
0.08519806 -0.10282525 0.65132999 65984
0.086412363 -0.10287186 0.65162528 131818
0.087633364 -0.10292509 0.65196246 131808
0.088860594 -0.10298413 0.65233642 66002
0.090089224 -0.10304323 0.6527108 65986
0.09131927 -0.1031024 0.65308559 65993
0.092547596 -0.10315815 0.65343869 66015
0.093781948 -0.10321913 0.65382499 65997
0.095052391 -0.10331782 0.65445012 65978
0.096325457 -0.1034169 0.65507776 66000
0.097599477 -0.1035146 0.65569657 65994
0.098897159 -0.10363474 0.65645766 65975
0.10032 -0.10388166 0.65802169 65993
0.1017841 -0.10416502 0.65981656 65960
-0.0034073745 -0.11789516 0.75542134 102
-0.0020348972 -0.11734574 0.75190091 125
-0.00067727023 -0.11716775 0.75076038 131838
0.00067728752 -0.11717074 0.75077957 131785
0.0020292746 -0.11702151 0.74982333 65928
0.0033772972 -0.11685448 0.74875313 105
0.0047077108 -0.11634771 0.74550593 102
0.014333189 -0.1078105 0.69080323 102
0.016139589 -0.10341293 0.66262543 102
0.017235702 -0.10281988 0.65882546 102
0.018347993 -0.10239364 0.65609431 140
0.019514099 -0.10230118 0.65550184 131807
0.02069645 -0.1022996 0.65549171 65984
0.021865098 -0.1022341 0.65507203 65974
0.023030335 -0.10216021 0.65459853 65959
0.024194421 -0.10208865 0.65414006 65967
0.025356874 -0.10201719 0.65368217 65957
0.026517708 -0.10194585 0.65322506 65962
0.027679248 -0.10188319 0.65282351 65950
0.028843215 -0.10183421 0.65250969 65950
0.030006064 -0.10178528 0.65219617 65952
0.031167794 -0.10173639 0.65188289 65948
0.032331172 -0.10169623 0.65162557 65942
0.033496626 -0.1016652 0.65142673 65946
0.034661368 -0.10163418 0.65122801 65954
0.03582342 -0.10159757 0.65099341 131759
0.036987927 -0.10157003 0.65081692 131753
0.038158976 -0.10156158 0.6507628 131746
0.039331332 -0.10155702 0.65073359 65950
0.04050434 -0.10155436 0.65071654 65943
0.041679312 -0.10155663 0.65073109 65946
0.0428546 -0.10155953 0.65074968 65942
0.0440288 -0.10155977 0.65075117 65942
0.045202363 -0.10155856 0.65074342 131753
0.046378728 -0.10156354 0.65077537 131753
0.047555387 -0.10156891 0.65080976 131750
0.048730448 -0.1015707 0.65082121 65955
0.049907971 -0.1015774 0.65086418 65963
0.051088724 -0.10159022 0.65094632 65964
0.052263975 -0.10159177 0.65095627 65958
0.053438447 -0.10159177 0.65095627 131781
0.054612361 -0.10159073 0.6509496 131792
0.055786252 -0.1015897 0.65094298 131784
0.05695818 -0.10158521 0.65091419 131784
0.058126863 -0.10157523 0.65085024 131778
0.059293389 -0.10156194 0.65076512 65979
0.060457855 -0.10154572 0.65066117 65974
0.061621953 -0.10152951 0.65055728 65967
0.062785678 -0.10151329 0.65045339 65961
0.06394995 -0.10149854 0.65035892 131769
0.065114141 -0.1014842 0.650267 131782
0.066278003 -0.10146987 0.65017515 131778
0.067443207 -0.10145804 0.65009934 131775
0.068609186 -0.10144777 0.65003353 131767
0.069774993 -0.10143759 0.64996833 65965
0.070939541 -0.10142595 0.64989376 65968
0.072103955 -0.1014145 0.64982039 65966
0.073268183 -0.10140316 0.64974773 65960
0.074433327 -0.10139343 0.64968538 65959
0.075597897 -0.10138323 0.64962 131789
0.076781221 -0.1013981 0.6497153 131788
0.077969365 -0.1014188 0.64984792 131780
0.079157993 -0.10143951 0.6499806 131776
0.080347091 -0.1014602 0.65011317 65981
0.081540748 -0.10148597 0.65027833 65980
0.082742549 -0.101521 0.6505028 131806
0.083945185 -0.10155606 0.65072745 131799
0.085148595 -0.10159109 0.65095186 131791
0.086352825 -0.10162612 0.65117633 65988
0.087557897 -0.10166118 0.65140098 65977
0.088763796 -0.10169627 0.65162581 131813
0.089975052 -0.1017365 0.6518836 131803
0.091202982 -0.1017943 0.65225393 66002
0.092428677 -0.10184816 0.6525991 65986
0.093654968 -0.10190132 0.65293968 65977
0.09488254 -0.10195453 0.65328068 131804
0.096112512 -0.10200899 0.6536296 66001
0.097356319 -0.10207663 0.65406299 65984
0.098628677 -0.10217223 0.65467554 65987
0.099905618 -0.10227025 0.65530366 65999
0.10117467 -0.10235801 0.65586597 65979
0.10249873 -0.10249873 0.65676761 65975
0.10391211 -0.10272454 0.65821457 65990
-0.0034055815 -0.11647088 0.75502378 102
-0.0020343109 -0.11595573 0.75168425 102
-0.00067655579 -0.11569104 0.74996847 131799
0.00067664695 -0.11570663 0.7500695 131790
0.0020289537 -0.11565036 0.74970472 65932
0.0033789261 -0.11555927 0.74911427 111
0.0047189393 -0.11527694 0.74728405 102
0.016126392 -0.10213383 0.66208363 102
0.017225472 -0.10157089 0.65843439 102
0.018340997 -0.10117131 0.65584409 102
0.019488849 -0.10098767 0.65465367 131812
0.020671329 -0.10099421 0.65469605 131797
0.021843135 -0.1009507 0.65441406 65972
0.02301188 -0.10089824 0.65407395 65968
0.024180468 -0.10085025 0.65376282 65959
0.025346747 -0.10079753 0.6534211 65960
0.026511639 -0.10074423 0.65307558 65961
0.027675299 -0.10069098 0.65273041 65959
0.02884003 -0.10064582 0.65243763 65952
0.030004304 -0.10060267 0.6521579 65952
0.031167582 -0.10055955 0.65187842 65952
0.032329034 -0.10051391 0.65158248 65948
0.033493519 -0.10048056 0.65136629 65943
0.034662303 -0.10046192 0.65124553 65939
0.035831012 -0.10044431 0.65113133 65935
0.036999483 -0.10042717 0.65102023 131748
0.038172472 -0.10042296 0.65099299 131746
0.039345637 -0.10041946 0.65097028 65949
0.04051977 -0.10041856 0.65096444 65944
0.041694224 -0.10041848 0.6509639 65948
0.042869281 -0.10041982 0.6509726 65944
0.044043254 -0.10041862 0.6509648 65939
0.045217201 -0.10041742 0.65095705 65940
0.046391692 -0.10041746 0.65095729 131751
0.047567155 -0.10041954 0.65097082 131751
0.048742663 -0.10042164 0.65098435 131747
0.049915582 -0.1004184 0.65096343 65955
0.051086385 -0.10041117 0.65091652 65964
0.052257087 -0.10040406 0.65087044 65959
0.053427614 -0.10039695 0.65082431 65956
0.054597981 -0.10038984 0.65077823 65951
0.055768181 -0.10038272 0.6507321 65971
0.056937385 -0.10037415 0.65067655 131769
0.058106694 -0.10036611 0.65062439 131771
0.05927581 -0.10035805 0.65057218 131768
0.060444742 -0.10035001 0.65052003 131756
0.061613631 -0.1003422 0.65046942 65954
0.062782764 -0.10033508 0.65042323 65948
0.063950874 -0.1003266 0.65036827 65948
0.065115124 -0.10031249 0.65027684 65949
0.066279061 -0.1002984 0.65018553 65953
0.067444906 -0.10028764 0.65011573 131768
0.068610907 -0.10027748 0.65004987 131771
0.069776826 -0.10026754 0.64998543 131757
0.070942603 -0.10025773 0.64992183 131754
0.07210815 -0.10024792 0.64985824 65961
0.073271431 -0.10023531 0.64977652 65959
0.074434787 -0.10022321 0.64969808 65959
0.075597785 -0.10021102 0.64961904 65955
0.076776087 -0.10021917 0.64967185 65960
0.077961296 -0.10023595 0.64978063 131780
0.079148427 -0.10025468 0.64990205 131775
0.080336012 -0.10027342 0.65002352 131769
0.081524037 -0.10029216 0.65014505 65973
0.082712516 -0.10031092 0.65026665 65969
0.083902203 -0.10033061 0.65039426 131803
0.085099123 -0.10035827 0.65057361 131800
0.086302698 -0.10039294 0.65079832 131796
0.087507054 -0.10042755 0.65102273 131789
0.08871223 -0.10046219 0.65124726 65985
0.089918241 -0.10049686 0.65147197 65974
0.09112478 -0.10053121 0.65169466 131802
0.092328668 -0.1005618 0.65189296 131796
0.093534976 -0.10059422 0.65210313 65998
0.094760649 -0.10064641 0.65244144 65988
0.095987864 -0.10069893 0.6527819 131821
0.09721636 -0.1007515 0.65312272 131806
0.098446429 -0.10080443 0.65346581 66000
0.09968175 -0.10086142 0.65383524 65988
0.10093325 -0.10093325 0.65430093 66003
0.10220743 -0.10102584 0.65490115 66007
0.10348219 -0.10111688 0.65549129 65987
0.10476805 -0.10121658 0.65613765 65975
0.10568076 -0.10095759 0.6544587 65989
0.10757122 -0.10162806 0.65880501 65979
-0.0034054993 -0.11510587 0.7550056 102
-0.0020344248 -0.11460593 0.75172633 102
-0.00067611434 -0.11426333 0.74947912 65979
0.00067626091 -0.1142881 0.7496416 65982
0.0020287975 -0.11428893 0.74964702 65941
0.0033802378 -0.11425204 0.74940509 65913
0.0047274483 -0.11413411 0.74863154 103
0.0060380218 -0.11338063 0.7436893 102
0.016145494 -0.10105883 0.66286784 113
0.017223017 -0.10036862 0.65834057 102
0.018340522 -0.099985421 0.65582711 102
0.019471442 -0.099717386 0.65406901 65993
0.02065507 -0.099734485 0.65418112 131804
0.021833714 -0.099726968 0.65413183 131774
0.023004156 -0.099684678 0.65385443 131767
0.024172349 -0.09963724 0.65354329 131762
0.025339443 -0.099589907 0.65323281 131760
0.026505433 -0.099542625 0.65292269 131758
0.027670311 -0.099495374 0.65261275 131754
0.028836645 -0.099456996 0.65236104 65946
0.030004583 -0.099426955 0.65216398 65946
0.031171771 -0.09939678 0.65196604 65942
0.032338243 -0.099366598 0.65176809 65941
0.033505239 -0.099340089 0.65159422 65935
0.034675911 -0.099325918 0.65150124 65932
0.035846245 -0.099311732 0.6514082 65934
0.037015535 -0.099295639 0.65130264 65934
0.038186096 -0.099283852 0.65122533 65939
0.039360628 -0.099282779 0.6512183 131738
0.040536817 -0.099285826 0.65123826 65936
0.041713037 -0.099288777 0.65125763 65936
0.042887956 -0.09928856 0.6512562 65939
0.044064187 -0.099291302 0.6512742 65935
0.045237906 -0.099288397 0.65125513 65932
0.046409503 -0.099281088 0.65120721 65938
0.047583774 -0.099279724 0.65119827 131753
0.048756871 -0.099276036 0.65117407 131751
0.049927041 -0.0992667 0.65111285 131751
0.051097803 -0.099258952 0.65106201 131755
0.052268662 -0.099251725 0.65101463 65946
0.053437211 -0.099240534 0.65094119 65943
0.054606069 -0.099230379 0.65087461 65938
0.055775166 -0.099221088 0.65081364 65939
0.056944046 -0.09921179 0.65075266 65943
0.0581127 -0.099202484 0.65069163 131750
0.059281971 -0.099194586 0.65063983 131748
0.060451571 -0.099187531 0.65059352 131751
0.061621018 -0.099180497 0.65054739 131748
0.062790282 -0.099173434 0.65050107 65953
0.063959599 -0.099166721 0.65045702 65951
0.065126613 -0.099156737 0.65039158 65952
0.066290751 -0.099142812 0.6503002 65946
0.067454673 -0.099129044 0.6502099 65938
0.068622045 -0.099120729 0.65015537 131750
0.069787249 -0.09910962 0.65008253 131747
0.070950538 -0.099096201 0.64999449 131748
0.072113506 -0.09908279 0.64990652 65958
0.073275708 -0.099068761 0.64981449 65955
0.074440502 -0.099058621 0.64974797 65951
0.075609937 -0.09905488 0.64972347 65956
0.076788433 -0.099062942 0.64977634 65952
0.077967122 -0.099071003 0.64982921 65956
0.079146646 -0.09907987 0.64988738 131775
0.080334201 -0.099098392 0.65000886 131776
0.081522204 -0.099116921 0.65013039 131769
0.082710639 -0.099135451 0.65025192 65969
0.083896123 -0.099149965 0.65034711 65962
0.085082538 -0.099165164 0.65044683 65962
0.086271107 -0.099182427 0.65056008 131791
0.087460391 -0.09920004 0.65067559 131791
0.088660717 -0.099229544 0.65086913 131788
0.089866012 -0.099263765 0.6510936 65994
0.091070965 -0.099296726 0.65130979 65979
0.092274338 -0.099327154 0.65150934 131804
0.093478434 -0.099357583 0.65170896 131801
0.094682068 -0.099386767 0.65190035 131794
0.095885977 -0.099415526 0.652089 65995
0.097094938 -0.099448755 0.65230697 65986
0.098319642 -0.099497125 0.65262425 131821
0.099549048 -0.099549048 0.65296483 131808
0.10077975 -0.099601038 0.65330583 66003
0.10201552 -0.099656776 0.65367144 65994
0.10299277 -0.099461585 0.65239114 131813
0.1045128 -0.099789053 0.65453905 66007
0.10578705 -0.099877156 0.65511698 65992
0.1070656 -0.099967323 0.65570837 65975
0.10840372 -0.10011054 0.65664774 66002
0.10987066 -0.10036833 0.65833867 65993
-0.0034070865 -0.11379669 0.75535744 102
-0.0020352742 -0.11329693 0.75204021 102
-0.00067616854 -0.11292014 0.74953914 126
0.00067606411 -0.1129027 0.74942338 65962
0.0020287677 -0.11293474 0.74963605 65942
0.0033816544 -0.11294726 0.74971914 65923
0.0047326498 -0.1129075 0.74945521 105
0.006069439 -0.11262181 0.74755889 102
0.016125968 -0.099742092 0.66206616 102
0.017224161 -0.099187411 0.65838426 102
0.018343037 -0.098815717 0.65591705 102
0.019465076 -0.09850508 0.65385514 65937
0.020645002 -0.098506153 0.65386224 131801
0.021829715 -0.09852872 0.65401202 131771
0.02299718 -0.098475099 0.65365613 65945
0.0241662 -0.098433055 0.65337706 65947
0.025336102 -0.09839835 0.65314668 65951
0.026505379 -0.098364405 0.65292138 131745
0.027675502 -0.098336354 0.65273517 131738
0.028844951 -0.098308302 0.65254897 65943
0.030013988 -0.098281093 0.65236837 65938
0.031182559 -0.098254479 0.6521917 65937
0.032350499 -0.098227881 0.65201515 65938
0.033517759 -0.098201163 0.65183777 65933
0.034686718 -0.098181054 0.65170431 65928
0.035860825 -0.09817636 0.65167314 65922
0.037034888 -0.098171853 0.65164322 65919
0.038209714 -0.098169573 0.65162808 65924
0.039387461 -0.098174714 0.65166223 65933
0.040562924 -0.098174036 0.6516577 65924
0.041737106 -0.098170377 0.65163344 65927
0.04291084 -0.0981659 0.6516037 65924
0.044085365 -0.098163411 0.65158719 65923
0.045261003 -0.098163471 0.65158761 65925
0.046435364 -0.098160833 0.65157008 65929
0.047609452 -0.098157763 0.6515497 65922
0.048783451 -0.098154657 0.65152907 65911
0.049957022 -0.098150857 0.65150386 65924
0.051129457 -0.098145045 0.6514653 65908
0.052302256 -0.098140188 0.65143305 65904
0.053475399 -0.098136172 0.65140641 65903
0.05464695 -0.098129466 0.65136188 65906
0.055817284 -0.098120905 0.65130508 65907
0.056987345 -0.098112233 0.6512475 65905
0.058156993 -0.09810321 0.6511876 65901
0.059325695 -0.098092981 0.65111971 65905
0.060492441 -0.098079979 0.6510334 65906
0.061658945 -0.098067082 0.65094781 65920
0.062825032 -0.098054022 0.65086108 65904
0.063990466 -0.098040432 0.6507709 65900
0.065153487 -0.098023713 0.65065992 65916
0.066315725 -0.098006427 0.65054518 65922
0.067477547 -0.097989134 0.65043038 65932
0.068645038 -0.097980522 0.65037322 65924
0.069812216 -0.097971767 0.65031511 65938
0.070975922 -0.097958505 0.65022707 131744
0.072140642 -0.097947046 0.65015101 65943
0.073305599 -0.09793628 0.65007955 65942
0.074470304 -0.097925521 0.65000814 65940
0.07564088 -0.09792269 0.64998937 65945
0.07681378 -0.097922906 0.6499908 65942
0.077986673 -0.097923115 0.64999217 65944
0.079159595 -0.097923346 0.64999372 65946
0.080337979 -0.097930238 0.65003943 131760
0.081520364 -0.097941726 0.65011573 131772
0.082708113 -0.097959258 0.65023208 131770
0.083893165 -0.097973138 0.65032423 131762
0.085078552 -0.097987026 0.65041637 65965
0.08626464 -0.098001331 0.65051132 65963
0.087453529 -0.098018385 0.65062457 131785
0.088642843 -0.098035462 0.65073788 131785
0.089832574 -0.098052546 0.65085131 131778
0.091021597 -0.098068431 0.65095675 65984
0.092219859 -0.098093733 0.65112472 65980
0.093423232 -0.098123774 0.65132409 65977
0.094627351 -0.098153837 0.65152365 131806
0.095831603 -0.098183297 0.65171921 131799
0.097035512 -0.098211698 0.65190774 131793
0.098240122 -0.098240122 0.65209639 65990
0.099261068 -0.098086379 0.6510759 65978
0.10065713 -0.098302573 0.65251094 131816
0.1018801 -0.098346695 0.65280378 131808
0.10311224 -0.098398529 0.65314788 66003
0.10434811 -0.098452732 0.65350765 65990
0.10558684 -0.098508395 0.65387714 131824
0.10683958 -0.098575741 0.65432417 66017
0.10810743 -0.09865541 0.65485299 65998
0.10945068 -0.098801427 0.65582222 66002
0.11082558 -0.098972574 0.65695822 66003
0.11232954 -0.099254146 0.65882725 65997
-0.0034099445 -0.11252817 0.7559911 102
-0.0020366535 -0.11201594 0.75254983 102
-0.00067661575 -0.1116416 0.75003493 112
0.00067606434 -0.11155062 0.74942368 65939
0.0020289016 -0.11158959 0.74968547 65937
0.0033826842 -0.11162858 0.74994743 65936
0.0047366628 -0.11164992 0.75009078 65909
0.0060856636 -0.1115705 0.74955726 102
0.0073989462 -0.11098419 0.74561828 102
0.016130578 -0.098575749 0.66225541 102
0.017232338 -0.098046057 0.65869683 102
0.018350942 -0.097674362 0.65619969 102
0.019472824 -0.097364128 0.65411544 130
0.020640071 -0.097303189 0.65370607 131794
0.021825749 -0.09733104 0.65389317 131769
0.022999454 -0.097305387 0.6537208 65943
0.024170417 -0.097271189 0.65349108 65937
0.025341969 -0.097242437 0.6532979 65932
0.026513094 -0.097214676 0.6531114 65932
0.02768355 -0.09718693 0.65292501 131737
0.028853338 -0.097159199 0.65273869 131734
0.030024534 -0.097138196 0.65259761 65931
0.031196475 -0.097121105 0.65248275 65927
0.032368008 -0.09710402 0.65236801 65920
0.033539921 -0.097089246 0.65226871 65916
0.034712538 -0.097077437 0.65218937 65915
0.035886981 -0.097071342 0.65214843 65916
0.037062671 -0.097068898 0.65213203 65911
0.038241342 -0.097074181 0.6521675 65911
0.039419331 -0.097077452 0.65218949 65910
0.040596884 -0.097079501 0.65220326 65912
0.041773561 -0.097079404 0.65220261 65909
0.042950667 -0.097080275 0.65220845 65906
0.044127796 -0.097081155 0.65221435 65907
0.045304619 -0.097081326 0.65221554 65909
0.046480462 -0.097079448 0.6522029 65910
0.047655679 -0.097076386 0.65218234 65911
0.048830118 -0.097071923 0.65215236 65909
0.050004255 -0.09706708 0.65211982 65905
0.051178727 -0.097063109 0.65209311 65903
0.05235311 -0.097059138 0.65206647 65902
0.0535274 -0.097055174 0.65203983 65902
0.054701582 -0.097051188 0.65201306 65903
0.05587355 -0.097043537 0.65196162 65905
0.057044499 -0.097034454 0.65190065 65899
0.058215082 -0.097025134 0.651838 65899
0.059385441 -0.09701582 0.65177542 65901
0.060554039 -0.097004041 0.65169632 65904
0.061721418 -0.096990801 0.65160733 65898
0.062888198 -0.09697713 0.65151548 65896
0.064054646 -0.096963458 0.65142363 65897
0.065219298 -0.096947603 0.65131712 65905
0.066382691 -0.096930474 0.65120208 65901
0.067544766 -0.096912049 0.65107828 102
0.068706252 -0.096893437 0.65095323 105
0.069867402 -0.096874975 0.6508292 65908
0.07102637 -0.096854143 0.65068924 65924
0.072184831 -0.096833311 0.65054929 65931
0.073207498 -0.096633896 0.64920956 65925
0.074505746 -0.096798807 0.65031749 65932
0.075679235 -0.096799023 0.65031892 65943
0.07685218 -0.096798547 0.65031576 65940
0.078025065 -0.096798018 0.65031219 65936
0.079197951 -0.096797496 0.65030867 65933
0.080370814 -0.09679696 0.65030509 65933
0.081543669 -0.096796438 0.65030158 131739
0.082716227 -0.096795589 0.65029585 131752
0.08389128 -0.09679763 0.65030956 131760
0.085075557 -0.096810117 0.65039349 131760
0.086261235 -0.096823834 0.65048563 65967
0.087447248 -0.096837558 0.65057784 65966
0.088636197 -0.096854128 0.65068913 65977
0.089825824 -0.096870989 0.65080243 131783
0.091013148 -0.096884966 0.65089631 131771
0.092200391 -0.096898504 0.65098727 131772
0.093391538 -0.096915752 0.65110314 65975
0.094583519 -0.096933424 0.65122187 65975
0.095775947 -0.096951112 0.65134072 65988
0.09698046 -0.09698046 0.6515379 131804
0.098184414 -0.097008549 0.6517266 131802
0.099389017 -0.097036615 0.65191513 131791
0.10059432 -0.097064696 0.65210378 65989
0.10180032 -0.097092792 0.65229255 65978
0.10300703 -0.097120911 0.65248144 131814
0.10422155 -0.097155683 0.65271509 131802
0.10544468 -0.097197615 0.65299678 66004
0.10668985 -0.097258702 0.65340716 65990
0.10795084 -0.097332716 0.65390444 131823
0.10924082 -0.097430997 0.65456468 66008
0.11053474 -0.097530648 0.65523416 66014
0.11194971 -0.097733878 0.65659952 65999
0.11338119 -0.097947098 0.658032 65981
-0.0034141534 -0.1113014 0.75692421 102
-0.0020388756 -0.11077891 0.75337094 102
-0.00067728525 -0.1103975 0.75077707 102
0.00067623012 -0.11022551 0.74960744 121
0.0020295167 -0.1102704 0.74991274 65929
0.0033839361 -0.11031632 0.75022501 65925
0.0047395821 -0.11036455 0.75055301 65920
0.0060933409 -0.11035717 0.75050282 104
0.0074352394 -0.11017673 0.74927568 102
0.01614465 -0.097465843 0.66283315 102
0.017245494 -0.096931569 0.65919971 102
0.018362761 -0.096552581 0.65662235 102
0.019485954 -0.096248806 0.65455645 102
0.020639697 -0.096122019 0.65369421 131773
0.02182683 -0.096156031 0.65392554 131763
0.023004079 -0.09614525 0.65385222 65941
0.024177913 -0.096121944 0.65369374 65925
0.025352588 -0.096103996 0.65357167 65923
0.026526827 -0.096086062 0.65344971 65919
0.027700629 -0.096068144 0.65332782 65919
0.028873991 -0.096050218 0.65320593 65929
0.030046917 -0.096032299 0.6530841 65929
0.031219557 -0.096014857 0.65296549 65921
0.03239293 -0.096000865 0.6528703 65923
0.033567421 -0.095991045 0.65280354 65907
0.034742936 -0.09598472 0.65276051 65904
0.035919942 -0.09598279 0.65274739 65917
0.037098821 -0.095985845 0.65276814 65908
0.038278643 -0.09599106 0.6528036 65910
0.039457295 -0.095993124 0.65281767 65910
0.040635262 -0.095993437 0.65281981 65908
0.04181347 -0.095994309 0.65282571 65907
0.042991702 -0.095995165 0.65283155 65906
0.044169955 -0.095996037 0.65283746 65905
0.045348227 -0.095996894 0.6528433 65908
0.046525646 -0.095995955 0.65283692 65907
0.0477014 -0.095991708 0.65280801 65904
0.048877213 -0.095987782 0.65278131 65901
0.05005293 -0.095983855 0.6527546 106
0.051229104 -0.095980972 0.65273499 106
0.052406218 -0.095979929 0.6527279 104
0.053583298 -0.095978871 0.65272075 104
0.054761123 -0.095979169 0.65272278 104
0.055938095 -0.095977999 0.65271479 102
0.057110436 -0.095969081 0.65265417 102
0.05828255 -0.095960163 0.65259349 102
0.05945567 -0.095953211 0.65254623 102
0.0606291 -0.095947027 0.65250415 102
0.061795354 -0.095929936 0.65238792 102
0.062961206 -0.095912859 0.65227181 102
0.064126633 -0.095895797 0.65215576 102
0.065288663 -0.095874339 0.65200984 105
0.066447899 -0.095849626 0.65184176 102
0.067610964 -0.095831193 0.65171641 102
0.068773583 -0.095812768 0.65159112 105
0.069935106 -0.095793471 0.65145987 65908
0.071095176 -0.09577284 0.65131956 65906
0.072251283 -0.095747642 0.6511482 65904
0.073406726 -0.09572237 0.65097636 65901
0.074564368 -0.095700726 0.65082914 65918
0.075726815 -0.095685825 0.65072781 65917
0.076888904 -0.095670924 0.65062648 65927
0.078056753 -0.095663533 0.65057623 65928
0.079230107 -0.095663019 0.65057272 65934
0.080403447 -0.09566249 0.65056914 65937
0.081576779 -0.095661975 0.65056562 65937
0.082749635 -0.095660925 0.65055847 131740
0.083922312 -0.095659696 0.65055013 131744
0.085097194 -0.095660985 0.65055889 131750
0.08627335 -0.095663652 0.65057701 65954
0.087449573 -0.095666312 0.65059513 65960
0.088630475 -0.095673956 0.6506471 65956
0.089818642 -0.095689148 0.6507504 65964
0.091005452 -0.095702514 0.6508413 131782
0.092192598 -0.095715888 0.65093225 131776
0.093380079 -0.095729262 0.65102321 131773
0.094570301 -0.095745087 0.65113086 131774
0.095762551 -0.095762551 0.65124959 65975
0.09695524 -0.095780022 0.65136844 65967
0.098145068 -0.095794283 0.65146542 131790
0.099335179 -0.095808484 0.65156198 131792
0.10053176 -0.095828518 0.65169823 131790
0.10173716 -0.095856398 0.65188783 131783
0.10294327 -0.095884308 0.65207762 65984
0.10415009 -0.095912226 0.65226752 65977
0.10535761 -0.095940173 0.65245754 131806
0.1065854 -0.095985748 0.65276748 131799
0.10782183 -0.096038029 0.65312302 66000
0.10909808 -0.096124254 0.65370941 131820
0.11040431 -0.096234769 0.65446103 66011
0.11173438 -0.096363515 0.65533656 66015
0.11312048 -0.096537374 0.65651894 66005
0.11457886 -0.09676867 0.6580919 65992
0.11628554 -0.097202785 0.66104418 141
-0.0020513725 -0.11009033 0.75798857 102
-0.00068042387 -0.10954824 0.75425625 102
0.00067798246 -0.10915517 0.7515499 102
0.0020307032 -0.10898107 0.75035119 65914
0.0033861259 -0.10903326 0.75071049 65916
0.0047428994 -0.10908668 0.75107837 65914
0.0060987845 -0.10910048 0.75117332 65897
0.0074495743 -0.10903468 0.75072026 102
0.0087728603 -0.10864849 0.74806136 102
0.016166367 -0.096399449 0.66372478 102
0.01726413 -0.095845684 0.65991205 102
0.018379195 -0.09545324 0.65720999 102
0.019502679 -0.095149435 0.65511829 102
0.020644348 -0.094964005 0.65384156 65948
0.021832744 -0.095001943 0.65410274 131758
0.023022451 -0.095041402 0.65437442 65937
0.024191352 -0.094995305 0.65405709 65917
0.025367424 -0.094980359 0.65395415 65916
0.026543129 -0.094965413 0.65385127 65915
0.027718462 -0.094950475 0.65374839 65915
0.028893426 -0.094935544 0.65364558 65911
0.03001249 -0.094745316 0.65233582 65932
0.031247156 -0.094920605 0.65354276 65908
0.032423764 -0.0949132 0.65349174 65907
0.033600166 -0.094905734 0.65344036 65906
0.034777321 -0.094900824 0.65340656 65904
0.035956156 -0.094900668 0.65340549 65905
0.03713553 -0.094901912 0.65341401 65909
0.038315561 -0.094904698 0.6534332 65909
0.039494809 -0.094905429 0.65343827 65908
0.04067412 -0.094906278 0.65344411 65905
0.041853458 -0.094907135 0.65345001 65905
0.043033354 -0.094909184 0.65346408 65901
0.044214379 -0.094913535 0.65349406 65901
0.045395885 -0.094918668 0.65352941 103
0.046578791 -0.094926402 0.65358263 102
0.047757991 -0.094926372 0.65358245 102
0.048936661 -0.094925337 0.6535753 102
0.05011531 -0.094924293 0.65356815 102
0.051293939 -0.094923265 0.65356106 102
0.052472893 -0.094922878 0.65355837 102
0.053656314 -0.094930395 0.65361017 102
0.054838013 -0.09493462 0.65363926 102
0.05601459 -0.094929993 0.65360737 102
0.057188526 -0.094921164 0.65354657 102
0.058368113 -0.094921879 0.65355152 102
0.059545062 -0.094918363 0.65352732 102
0.060719114 -0.094910458 0.6534729 102
0.061891295 -0.09489999 0.65340078 102
0.063058928 -0.094883062 0.65328425 102
0.064225517 -0.09486521 0.65316135 102
0.065391645 -0.094847344 0.65303832 102
0.066551432 -0.094821073 0.65285742 102
0.067709692 -0.094793566 0.65266806 102
0.068866394 -0.094764866 0.65247047 102
0.070015796 -0.094727255 0.65221149 102
0.071164705 -0.094690226 0.65195656 102
0.072320737 -0.094663732 0.65177411 102
0.073476136 -0.094637267 0.6515919 102
0.074628882 -0.094608262 0.65139222 111
0.075789891 -0.094590485 0.65126979 65909
0.076952629 -0.094575368 0.65116572 65911
0.078115001 -0.094560266 0.65106177 65910
0.079277143 -0.094545335 0.65095896 65910
0.080439091 -0.094530612 0.65085757 65919
0.081609882 -0.094526552 0.65082961 65928
0.082783058 -0.094525337 0.65082127 65934
0.083956219 -0.094524138 0.65081298 131740
0.085129343 -0.094522923 0.65080464 131739
0.086304039 -0.094523467 0.65080839 131746
0.087480679 -0.094526097 0.65082651 65954
0.088657387 -0.094528742 0.65084469 65950
0.089833081 -0.09453024 0.650855 65939
0.091008939 -0.094531864 0.65086621 65949
0.092187025 -0.094535738 0.65089285 131762
0.093372174 -0.094546668 0.65096813 131769
0.094559886 -0.094559886 0.65105915 131774
0.095749162 -0.094574325 0.65115857 131773
0.09694168 -0.09459158 0.65127736 65976
0.098129652 -0.094604038 0.65136313 65968
0.099316686 -0.094615303 0.65144068 65962
0.10050401 -0.094626583 0.65151834 131791
0.10169671 -0.094642594 0.65162861 131789
0.1028917 -0.094660364 0.65175092 131782
0.10408714 -0.094678134 0.65187329 65987
0.10529013 -0.094702296 0.65203965 65982
0.10651421 -0.094744682 0.65233147 131812
0.10775681 -0.094802439 0.65272915 131804
0.10900847 -0.094866827 0.65317249 65990
0.11028744 -0.094953358 0.65376824 131812
0.11162008 -0.095083766 0.65466613 131812
0.1129676 -0.095224001 0.65563166 66000
0.114387 -0.095421277 0.65698993 65996
0.11584519 -0.095646538 0.6585409 66008
0.11774255 -0.096226148 0.66253161 65952
-0.0020528573 -0.10880143 0.75853717 102
-0.00068080419 -0.10824787 0.75467783 102
0.00067835767 -0.10785887 0.75196582 102
0.0020324141 -0.10771795 0.75098336 65911
0.0033890365 -0.10777136 0.75135577 65914
0.0047469195 -0.10782289 0.751715 65914
0.0061046858 -0.10784946 0.7519002 65904
0.0074595977 -0.10782509 0.75173038 103
0.0088040503 -0.10768031 0.75072092 102
0.010096262 -0.10702038 0.7461201 102
0.017376736 -0.095272444 0.66421634 102
0.018468581 -0.094725944 0.66040629 102
0.019604469 -0.094457895 0.65853751 102
0.020721506 -0.094134845 0.65628529 102
0.021845931 -0.093878455 0.6544978 65926
0.023035008 -0.093911953 0.65473133 65935
0.024208391 -0.093881324 0.65451777 65922
0.025385881 -0.093868718 0.65442991 65910
