# .PCD v0.7 - Point Cloud Data file format
VERSION 0.7
FIELDS x y z normal_x normal_y normal_z curvature
SIZE 4 4 4 4 4 4 4
TYPE F F F F F F F
COUNT 1 1 1 1 1 1 1
WIDTH 556
HEIGHT 1
VIEWPOINT 0 0 0 1 0 0 0
POINTS 556
DATA ascii
-0.043695092 0.036992073 -0.015474251 0.083887868 0.34236798 -0.93581355 0.0035615403
-0.040834926 0.036475983 -0.015290667 0.14483818 0.41479835 -0.89831191 0.0026929171
-0.03873026 0.036037084 -0.015004555 0.19414411 0.49473456 -0.84708077 0.002106979
0.047351304 0.036145464 -0.015117012 -0.16338782 0.46766773 -0.86867213 0.0020433932
0.04975339 0.036484186 -0.015277808 -0.086968385 0.39247942 -0.91563988 0.003102652
0.05264543 0.036782868 -0.015301229 0.032725714 0.28800502 -0.95706958 0.0030393442
0.055058528 0.036764652 -0.015171447 0.14648636 0.20119467 -0.9685362 0.0041679326
-0.051892202 0.039387491 -0.015038569 -0.11363813 0.195548 -0.97408801 0.0029004507
-0.049627054 0.039178804 -0.015100632 -0.020958202 0.24682519 -0.96883333 0.0034789506
-0.047813531 0.039241888 -0.015052134 0.063842297 0.38899723 -0.91902411 0.00287714
-0.0006827045 0.0059728222 -0.012138783 -0.057054672 -0.69339913 -0.71829134 0.0019390853
0.0016190377 0.005911848 -0.012106519 -0.038697276 -0.68653971 -0.72606188 0.0019506131
0.0043101269 0.00585991 -0.012143866 -0.0086611696 -0.70127195 -0.71284127 0.0014406699
0.0075039202 0.0058703977 -0.012182697 0.0091832103 -0.69571376 -0.71826047 0.0012576408
0.010450252 0.0058990419 -0.012118055 0.032646529 -0.70891881 -0.70453417 0.0011730606
0.012762728 0.0059595397 -0.012040609 0.054094821 -0.72607774 -0.68548149 0.0011239327
-0.015931211 0.0086960094 -0.0122449 -0.18007222 -0.6663391 -0.72357869 0.0010130334
-0.013398044 0.0083660008 -0.012485427 -0.14725047 -0.65134186 -0.74435943 0.0011980527
-0.010459366 0.0080811949 -0.01274304 -0.11793046 -0.63602072 -0.7626074 0.0010670497
-0.0074550821 0.0078254836 -0.012931217 -0.091878265 -0.62516892 -0.7750628 0.0010627846
-0.0044993148 0.0076407236 -0.013079908 -0.067688778 -0.60888016 -0.79036903 0.0014941524
-0.0014927074 0.0075023179 -0.013192293 -0.050086945 -0.60305381 -0.79612654 0.0016485363
0.0015085381 0.0074941576 -0.013358106 -0.037067767 -0.58837718 -0.80773652 0.0016652858
0.0045160195 0.0074759447 -0.013454353 -0.015044177 -0.58471912 -0.81109625 0.0013119952
0.0075087603 0.0074762404 -0.013488011 0.0021597859 -0.59022331 -0.80723709 0.0012700931
0.01049953 0.0074681877 -0.013443003 0.01815901 -0.60776579 -0.79390872 0.0015403876
0.013499316 0.0074873432 -0.013334147 0.040027376 -0.64224464 -0.76545382 0.0013924637
0.016487362 0.0076125041 -0.013233763 0.065398678 -0.65565568 -0.75222242 0.0013810297
0.019451261 0.0077993083 -0.013081812 0.096938297 -0.67541099 -0.73104233 0.0012580893
0.022406623 0.0081107141 -0.012923853 0.1323726 -0.67971694 -0.72143072 0.0012650602
0.025304535 0.0084129423 -0.012640242 0.16466512 -0.69091636 -0.70393169 0.0013392181
0.027905839 0.0087483414 -0.012328339 0.19557743 -0.70377558 -0.68297094 0.0011431632
-0.02481143 0.011652715 -0.012268323 -0.24061564 -0.66480273 -0.70720679 0.0011287591
-0.022326501 0.011230606 -0.012650769 -0.22120002 -0.63951218 -0.73627079 0.0012458303
-0.019392662 0.010727639 -0.013032275 -0.19941878 -0.60666311 -0.76954013 0.0013856994
-0.016480075 0.010453527 -0.013476065 -0.16546525 -0.57522768 -0.80108321 0.0012351283
-0.01351161 0.010416771 -0.013985842 -0.12402079 -0.53971934 -0.83265954 0.0010084676
-0.010551188 0.010207715 -0.014259529 -0.10074755 -0.52212203 -0.84689927 0.0013390217
-0.0075563709 0.010006146 -0.014446029 -0.076103121 -0.50156206 -0.86176777 0.0017452674
-0.0045419703 0.0098135835 -0.014563881 -0.057782538 -0.48715973 -0.87139922 0.0020378882
-0.0015661218 0.0096489917 -0.014645779 -0.045593068 -0.47470501 -0.87896329 0.0022626955
0.0014082355 0.0095252991 -0.014710509 -0.03460018 -0.47789842 -0.87773341 0.002158514
0.0044436618 0.0094416523 -0.014760799 -0.021473493 -0.4756175 -0.87939006 0.0021769805
0.0074668452 0.0093939174 -0.014787973 -0.0074346387 -0.50814444 -0.86123979 0.0017446209
0.01050901 0.0093777711 -0.014786314 0.0083255311 -0.52822822 -0.84906155 0.0017109867
0.013503455 0.0093970308 -0.014749699 0.027725806 -0.55129945 -0.83384663 0.0016017581
0.016489044 0.0094875954 -0.014674875 0.050253842 -0.55632156 -0.82944608 0.0017102271
0.019540329 0.0096575273 -0.014560097 0.075037174 -0.55298686 -0.82980412 0.0018686787
0.02256418 0.0098837288 -0.014377653 0.104589 -0.56775385 -0.81652725 0.0016246823
0.025567859 0.010144331 -0.014098794 0.13942693 -0.59588927 -0.79087049 0.0015063927
0.028526107 0.010455119 -0.013729825 0.17157941 -0.61953509 -0.76598746 0.0010438169
0.031395957 0.010689184 -0.013180108 0.21849114 -0.66330642 -0.71574175 0.0015627028
0.034291029 0.011211404 -0.012723836 0.2495247 -0.68699616 -0.68247616 0.0010955053
0.036713626 0.011651053 -0.012281287 0.27795348 -0.68512189 -0.67331254 0.0011885914
-0.033336781 0.014809153 -0.012141787 -0.29179358 -0.63928193 -0.71145988 0.0016774752
-0.03119906 0.014398734 -0.012484611 -0.26830721 -0.64988071 -0.71110213 0.0011572794
-0.028385689 0.013858762 -0.012963525 -0.24131893 -0.62061769 -0.74605554 0.0015504955
-0.025513656 0.01347746 -0.013501066 -0.2223538 -0.57560223 -0.78691858 0.001279816
-0.02259939 0.013302601 -0.014135026 -0.18475239 -0.53567094 -0.82396799 0.0010387119
-0.019660374 0.012876909 -0.014500659 -0.16299254 -0.50066584 -0.85015708 0.0017699307
-0.016742891 0.012436934 -0.014758636 -0.13417569 -0.4707163 -0.87202239 0.0021520713
-0.014259495 0.01214047 -0.014924894 -0.10697279 -0.46176329 -0.88052911 0.0018780263
0.02949198 0.012177494 -0.014878498 0.15682414 -0.57883823 -0.80022031 0.0011752157
0.031725675 0.012539845 -0.014629194 0.18924753 -0.57121891 -0.79868287 0.0020417226
0.034597807 0.012992099 -0.014198582 0.21619287 -0.58214527 -0.78381598 0.0014354228
0.037522998 0.01344538 -0.013640973 0.25200662 -0.60755062 -0.75324297 0.00093691301
0.040318567 0.013937496 -0.012988602 0.31562936 -0.64910859 -0.69212437 0.0017796619
0.042785551 0.014567715 -0.012444361 0.34909451 -0.66601241 -0.65921205 0.0014610183
-0.039265107 0.017807892 -0.012134338 -0.36929041 -0.60926831 -0.70172405 0.0018752199
-0.037169922 0.017264936 -0.012541232 -0.33123824 -0.61998123 -0.71126968 0.001132252
-0.034411576 0.01662413 -0.013123527 -0.29356036 -0.60558093 -0.73965806 0.0011490758
-0.031569377 0.016379466 -0.013904192 -0.23071896 -0.54704404 -0.804681 0.00094081933
-0.028682163 0.015946865 -0.014422965 -0.20676859 -0.51360422 -0.83274096 0.001658738
-0.025902933 0.015416513 -0.014749017 -0.18314312 -0.47937262 -0.85828924 0.0018713273
-0.023617603 0.015226136 -0.014967737 -0.16578951 -0.47182927 -0.86596245 0.002019211
0.038351778 0.015261092 -0.014813381 0.23322377 -0.57010829 -0.78777105 0.0016620975
0.040718727 0.015845584 -0.014422837 0.27532718 -0.54659611 -0.79083985 0.0017053653
0.043524843 0.016458167 -0.013735932 0.3232908 -0.57008237 -0.75530732 0.00099020021
0.046243507 0.017003024 -0.012878384 0.38075727 -0.61848271 -0.6873886 0.0013237958
0.048485734 0.017713757 -0.012254325 0.4148829 -0.63021243 -0.65628076 0.0012073737
-0.042766493 0.020505482 -0.012403036 -0.40490669 -0.5935235 -0.69554323 0.001267292
-0.040332738 0.019732909 -0.013014304 -0.3658171 -0.57310861 -0.73329699 0.0012072515
-0.037575085 0.019357773 -0.013930198 -0.29291472 -0.51657474 -0.80458158 0.00082027941
-0.034775678 0.018737156 -0.014527418 -0.25352812 -0.48807892 -0.83516616 0.0019514551
-0.032472357 0.018211486 -0.014855992 -0.21238972 -0.50633949 -0.83576971 0.0013507971
0.044422071 0.018385485 -0.014786605 0.31337106 -0.52909255 -0.78858072 0.0013348442
0.046697576 0.01910511 -0.014274962 0.35180622 -0.5052014 -0.78803796 0.0013793019
0.049388781 0.019587995 -0.013254233 0.40140936 -0.54388738 -0.73692399 0.0015701391
0.051735613 0.020329034 -0.012481333 0.44955567 -0.57584924 -0.68285972 0.0013250766
-0.048133466 0.023940576 -0.012094501 -0.44367027 -0.58080477 -0.68251199 0.0014737612
-0.046062693 0.023155564 -0.0125852 -0.41969687 -0.56157249 -0.71308541 0.0013452749
-0.04348338 0.022497261 -0.013450087 -0.38170195 -0.50076807 -0.77687514 0.0014652851
-0.040790111 0.022041572 -0.014386523 -0.31892875 -0.46507403 -0.8258273 0.0013691845
-0.038591895 0.021343671 -0.014816328 -0.27463061 -0.47326475 -0.83701766 0.0022543087
-0.0065032318 0.023935435 -0.01498452 0.091429427 0.43086579 -0.89777243 0.00051472249
-0.0042253211 0.02380052 -0.014908264 0.067193948 0.46752921 -0.88142014 0.0024331328
-0.0014592084 0.023635378 -0.014836629 0.040178619 0.4570291 -0.88854373 0.001882775
0.0015509655 0.023545625 -0.014789197 0.012657818 0.465505 -0.88495469 0.001954023
0.0042850464 0.023528526 -0.014798286 -0.012349955 0.44551674 -0.89518839 0.0022348391
0.0072396868 0.023635989 -0.014828303 -0.039408997 0.48388001 -0.87424648 0.0021876467
0.0099369325 0.023803867 -0.014883494 -0.065103836 0.51823276 -0.85275805 0.0020299109
0.012535045 0.023908779 -0.014965164 -0.098352313 0.52254486 -0.84692007 0.0015330401
0.047792215 0.021074353 -0.014937978 0.36611742 -0.48868129 -0.79192722 0.0013815851
0.049969438 0.021939754 -0.014528159 0.37191293 -0.43246421 -0.82137406 0.0013428823
0.052484754 0.022478851 -0.013533491 0.42888266 -0.46631122 -0.77370125 0.0013940943
0.054860514 0.023220124 -0.012618687 0.48379871 -0.50720406 -0.71322012 0.0011931172
-0.051380575 0.026734542 -0.012201801 -0.45367807 -0.55322421 -0.69865525 0.0016782079
-0.049244862 0.025883837 -0.012797059 -0.42237213 -0.52948445 -0.7356956 0.0015914451
-0.046559315 0.025412148 -0.013824622 -0.36719513 -0.46024942 -0.8082934 0.0011884669
-0.043983486 0.024728769 -0.014600688 -0.32773975 -0.410945 -0.850712 0.0020486803
-0.041641101 0.024067428 -0.014991027 -0.32651725 -0.45528796 -0.82831115 0.0013223067
-0.01562562 0.026647644 -0.014925083 0.16442893 0.44248083 -0.88157469 0.0021888188
-0.013369251 0.026342524 -0.014670728 0.1551403 0.47425583 -0.86660999 0.0019024113
-0.010347996 0.025944408 -0.014402839 0.1315414 0.48889485 -0.86236811 0.0018359037
-0.0074722394 0.025521005 -0.014252374 0.10441019 0.51354992 -0.85168362 0.0016823815
-0.0044943141 0.025257464 -0.014091345 0.078827769 0.51715475 -0.85225415 0.0014263995
-0.001479486 0.025370393 -0.013776821 0.052378122 0.54209965 -0.83868015 0.0017408952
0.0013714208 0.025513148 -0.013549475 0.024181737 0.56359684 -0.82569599 0.0017929388
0.0045452719 0.025355166 -0.013637193 -0.0087755602 0.57035124 -0.82135397 0.0019190812
0.0076406347 0.025448585 -0.013662277 -0.038557079 0.56314516 -0.82545793 0.0019371979
0.010534668 0.025278399 -0.013981913 -0.072067924 0.55813175 -0.82661664 0.0016176818
0.013556384 0.025589924 -0.014098153 -0.10618085 0.55104083 -0.82769531 0.001444781
0.016397759 0.025892619 -0.014306726 -0.1356131 0.54523158 -0.82724339 0.0015291517
0.019388175 0.02633613 -0.014552939 -0.15806282 0.53440905 -0.83031511 0.0017371101
0.021695105 0.026760487 -0.014739028 -0.17230396 0.50375104 -0.84649056 0.0020543723
0.053106945 0.024968773 -0.014576002 0.39161441 -0.35617697 -0.8483963 0.0013960734
0.055449575 0.025480894 -0.013570643 0.45370096 -0.4081966 -0.79216856 0.0021290532
0.057648372 0.026095055 -0.012572256 0.50793183 -0.43426248 -0.74392295 0.0019017899
-0.054352958 0.029621011 -0.012298431 -0.48457384 -0.47899652 -0.73194987 0.0018817462
-0.052305397 0.028711287 -0.012932374 -0.43762156 -0.46899703 -0.76715648 0.0020961754
-0.049608558 0.028369687 -0.014087836 -0.36915931 -0.39978474 -0.8389836 0.0014076679
-0.047239412 0.027587732 -0.014718701 -0.31870776 -0.35669926 -0.87817478 0.0030125109
-0.024314517 0.029917881 -0.0148981 0.20158458 0.50595015 -0.83867639 0.0017256559
-0.022068905 0.029504422 -0.014634401 0.19937304 0.48438093 -0.8518365 0.0018080542
-0.019418905 0.028879765 -0.014381687 0.18984598 0.50085104 -0.84445655 0.0016723255
-0.016435929 0.028440293 -0.01396569 0.18068531 0.53266257 -0.82681531 0.0010801282
-0.013519269 0.028313667 -0.013376575 0.17170155 0.57013744 -0.80340636 0.0019407384
-0.010489788 0.028017899 -0.012977153 0.14072788 0.58314592 -0.80008531 0.0016085247
-0.0075259679 0.027744167 -0.012680817 0.120116 0.60287684 -0.78874058 0.0013342547
-0.0049045328 0.027375408 -0.012624502 0.093876921 0.61030078 -0.78658766 0.0012602353
-0.0019131715 0.027402915 -0.012242576 0.067097664 0.64122504 -0.76441371 0.0012644329
0.0016816078 0.027164591 -0.012250059 0.027645735 0.63517082 -0.77187669 0.0012496001
0.0046504852 0.02725601 -0.012115583 -0.0076016528 0.62608027 -0.7797215 0.0011136025
0.0073080561 0.027272223 -0.01219385 -0.038500875 0.63082081 -0.77497274 0.0010359631
0.010635894 0.027403131 -0.012310956 -0.073906995 0.64376849 -0.76164293 0.0010637584
0.013692147 0.027481232 -0.012633231 -0.10890725 0.64354205 -0.7576232 0.0012011104
0.016643997 0.027880559 -0.012785781 -0.14769471 0.63316441 -0.75979543 0.0013594306
0.019587288 0.02813752 -0.013203914 -0.1688167 0.59170014 -0.78828424 0.0013136226
0.022541886 0.02835222 -0.013755947 -0.17959851 0.56581408 -0.80473524 0.00097761594
0.02525478 0.028631344 -0.014233505 -0.18842085 0.55407709 -0.81086141 0.0010423096
0.028148925 0.029217914 -0.014550422 -0.1970472 0.56364822 -0.80216777 0.0016092351
0.030603031 0.02967347 -0.014846267 -0.19527553 0.54963046 -0.81226468 0.0015395605
0.055890188 0.028239386 -0.014504902 0.40926552 -0.27983928 -0.86844212 0.0015302035
0.058454517 0.028465984 -0.013195752 0.48771358 -0.33836576 -0.80476332 0.0019845939
0.060476586 0.029368805 -0.012299703 0.5450685 -0.35531169 -0.7593773 0.0022256346
-0.057286225 0.03264527 -0.012145536 -0.52184767 -0.4122006 -0.74683714 0.0022636824
-0.055283416 0.03167155 -0.012828976 -0.45844084 -0.38481438 -0.80109298 0.0028430813
-0.052545305 0.031405251 -0.014108521 -0.38817278 -0.31444237 -0.86628395 0.0014984132
-0.050345242 0.030681476 -0.014788285 -0.32900238 -0.27259156 -0.90413016 0.0034217816
-0.030483106 0.032715611 -0.014860098 0.20857735 0.47936061 -0.85247219 0.0026415635
-0.028184842 0.032190263 -0.014542294 0.22499962 0.47965455 -0.84811956 0.0019229859
-0.025418006 0.031504136 -0.014193278 0.2217494 0.53066045 -0.81806284 0.001285738
-0.022630582 0.031281251 -0.013516972 0.21392097 0.56237262 -0.79873329 0.0010581412
-0.019798676 0.03099386 -0.012921846 0.21599692 0.58818036 -0.77935171 0.00088373816
-0.017173313 0.030381277 -0.012664454 0.20835176 0.61373788 -0.76152176 0.0011810199
-0.01485277 0.030304722 -0.012074288 0.17323564 0.65929699 -0.73165357 0.0020956881
0.023105066 0.03022703 -0.012282757 -0.20874205 0.6706028 -0.71184176 0.0010066077
0.025584288 0.030478278 -0.012801033 -0.21691792 0.65128958 -0.72716463 0.0014832515
0.028730219 0.030998722 -0.013269953 -0.22350812 0.62564474 -0.74740404 0.0012427613
0.031535462 0.031508297 -0.013696492 -0.22175181 0.60223925 -0.76689899 0.0012152445
0.034434207 0.031840224 -0.014312839 -0.23101264 0.55895287 -0.79636979 0.0016271388
0.037269384 0.032562517 -0.014641194 -0.23112372 0.54588509 -0.80535173 0.0015726646
0.039158382 0.032902382 -0.014953251 -0.21173882 0.51341707 -0.83160663 0.0022378585
0.056590699 0.030787898 -0.014861143 0.36348808 -0.14604858 -0.92007947 0.003062316
0.058488641 0.031385232 -0.014103477 0.42476192 -0.17951168 -0.8873291 0.0025568611
0.061144274 0.031792998 -0.012740291 0.50246519 -0.24139126 -0.83021623 0.0030784691
-0.057974651 0.034759268 -0.012571777 -0.4824751 -0.30221084 -0.82212311 0.0031320837
-0.055495277 0.03443177 -0.013750113 -0.40067703 -0.23136279 -0.88652641 0.002740385
-0.053105127 0.034170043 -0.014691528 -0.34321326 -0.17921053 -0.92200226 0.0030410269
-0.036838546 0.03560254 -0.014881979 0.19838172 0.4676362 -0.8613717 0.0022522663
-0.03431946 0.035090514 -0.014500621 0.22917832 0.47479236 -0.84973496 0.001972453
-0.031496797 0.034452055 -0.014030498 0.24196421 0.52849126 -0.81372625 0.0012392543
-0.028763585 0.033977058 -0.013448419 0.25343964 0.55917364 -0.78936255 0.0016359153
-0.025974289 0.033749536 -0.012644198 0.24895686 0.58914655 -0.76871759 0.0010543606
-0.023650246 0.033274896 -0.012166669 0.26190475 0.6433031 -0.71942127 0.0014583064
0.03235672 0.033426337 -0.012247035 -0.25860441 0.6826694 -0.68343711 0.0015105938
0.034810077 0.033905216 -0.012701158 -0.2625306 0.65392661 -0.70954752 0.00146004
0.037595827 0.034355421 -0.013363091 -0.27712861 0.59962881 -0.750763 0.0017149576
0.040417247 0.034613036 -0.014184994 -0.24737503 0.53609675 -0.8070972 0.0012835526
0.043357387 0.035349511 -0.01463218 -0.22385553 0.49679345 -0.83850163 0.0017547628
0.045372505 0.035801802 -0.014861394 -0.16962986 0.49629831 -0.85141861 0.0029463263
0.056822378 0.035021763 -0.014957202 0.23039564 0.033997823 -0.97250295 0.0033133614
0.058659896 0.034426097 -0.014449071 0.35099924 -0.03566841 -0.93569618 0.003602661
0.061501093 0.034494709 -0.013133938 0.46153077 -0.12699772 -0.87798685 0.0030280184
0.063355401 0.035165835 -0.012159651 0.5618757 -0.17790829 -0.80786407 0.0023889672
-0.060461324 0.038239766 -0.012200188 -0.50211376 -0.23157512 -0.83321941 0.0031485213
-0.058506679 0.037501533 -0.013046297 -0.41900444 -0.17442417 -0.89107317 0.0033194844
-0.055519301 0.037457783 -0.014279722 -0.31611767 -0.054788299 -0.9471367 0.0049564051
-0.053440157 0.037488405 -0.014876951 -0.2322242 0.003199656 -0.97265702 0.0051219105
-0.045618571 0.038892578 -0.014923259 0.10153719 0.39807203 -0.91171753 0.0036153006
-0.043343969 0.038491957 -0.01475508 0.15247095 0.42030618 -0.89448047 0.0028378177
-0.040479865 0.037883706 -0.014454069 0.19152492 0.46938908 -0.86196989 0.0017443784
-0.037538111 0.037349392 -0.013949335 0.23523742 0.5296309 -0.81495667 0.0013477464
-0.034652889 0.037095964 -0.013156142 0.26739639 0.56669104 -0.77933341 0.0010687805
-0.03135987 0.036395568 -0.012435998 0.27856353 0.61211777 -0.7400772 0.0010569305
0.038822398 0.036299448 -0.012147256 -0.33028641 0.62426794 -0.70795512 0.0014439351
0.040872406 0.036790706 -0.012671254 -0.30844456 0.61866665 -0.72257423 0.0015176779
0.043547954 0.037265204 -0.013372585 -0.2763187 0.55907249 -0.78171986 0.0014810439
0.046465509 0.037492894 -0.014148243 -0.20658608 0.50885528 -0.83569646 0.0013569638
0.049481086 0.037941985 -0.014568031 -0.15507384 0.44749531 -0.88073838 0.0021471572
0.052472014 0.038416035 -0.014708042 -0.058495771 0.37029663 -0.9270699 0.0030831245
0.05575024 0.038037751 -0.014778796 0.088803902 0.23094246 -0.96890634 0.0043832655
0.058492895 0.037420943 -0.014412805 0.24608785 0.13332783 -0.96003354 0.0038709631
0.061604522 0.037512813 -0.01331279 0.38519165 0.023601716 -0.92253476 0.003180013
0.063534625 0.037407786 -0.012336891 0.49966106 -0.046039525 -0.86499661 0.0032695043
-0.060815055 0.040576484 -0.012394822 -0.43651274 -0.080328055 -0.89610487 0.0039869575
-0.058551986 0.040462833 -0.01333549 -0.32338953 0.022207456 -0.94600528 0.0039950456
-0.055551801 0.040449295 -0.014204466 -0.22546835 0.11413893 -0.9675414 0.0059593339
-0.052700549 0.040323474 -0.014634953 -0.12073506 0.21225239 -0.96972775 0.0057246066
-0.049573317 0.040679224 -0.014538735 0.049024735 0.37180486 -0.92701548 0.0043837619
-0.046516512 0.040396508 -0.014293075 0.12579475 0.45707092 -0.88048953 0.0018950499
-0.043578323 0.040340457 -0.013686323 0.21057346 0.52301526 -0.82590193 0.0016360517
-0.040598676 0.039952219 -0.013061073 0.24531141 0.56323564 -0.78904235 0.0012088502
-0.038238503 0.039508905 -0.012558021 0.27029324 0.59024918 -0.76062304 0.0010383425
0.044541929 0.039306417 -0.01219634 -0.32684743 0.6076802 -0.72380632 0.0016225839
0.046852175 0.039894465 -0.012634238 -0.26518562 0.57882679 -0.77112657 0.0019960452
0.049576979 0.040378042 -0.013164088 -0.21745628 0.52904814 -0.82025647 0.0020162426
0.052457638 0.040483065 -0.013710497 -0.11068241 0.45925474 -0.88138211 0.0023809879
0.055520665 0.040515441 -0.013963218 0.0017419921 0.35423449 -0.93515503 0.0041368324
0.058605336 0.040353313 -0.013818723 0.16188043 0.25289008 -0.95385599 0.0052455212
0.061469637 0.040502761 -0.013130009 0.30064771 0.14156663 -0.94317013 0.0052704769
0.063556306 0.040390313 -0.012330598 0.42260781 0.081038095 -0.90268236 0.0038287661
-0.060915697 0.043393534 -0.012364599 -0.35332122 0.081617363 -0.93193489 0.0037551417
-0.058573637 0.043380935 -0.013059488 -0.22433035 0.16118407 -0.96109074 0.0052608009
-0.055539671 0.04329953 -0.013554551 -0.11639186 0.2782667 -0.95342571 0.0051376238
-0.052605361 0.043363817 -0.013527624 0.023668498 0.40085632 -0.91583514 0.0035835144
-0.049670435 0.04341476 -0.013158527 0.12617509 0.47778645 -0.86936754 0.00301492
-0.046889938 0.042933136 -0.012851201 0.17310104 0.52611792 -0.83260798 0.0018180609
-0.044441033 0.042513423 -0.01240446 0.24418406 0.57336193 -0.78206795 0.0014207915
0.050622337 0.042388327 -0.012090798 -0.27909368 0.59347177 -0.75491583 0.0020760428
0.052774131 0.042737089 -0.012452928 -0.18764457 0.53362107 -0.82464421 0.0027701217
0.055636138 0.043198552 -0.012710663 -0.098276109 0.4658263 -0.87940186 0.0035519346
0.058496308 0.043475728 -0.012748383 0.021000462 0.37835512 -0.92542225 0.0046121571
0.061347019 0.043283433 -0.012528667 0.22592995 0.24928133 -0.94170821 0.0033494753
0.063295893 0.042769674 -0.01212207 0.30221209 0.21304533 -0.92912841 0.004596848
-0.060579039 0.045455262 -0.012150589 -0.25524276 0.25709906 -0.93206829 0.0054491605
-0.058583956 0.045715157 -0.012418721 -0.14464472 0.31680247 -0.93739754 0.0037544444
-0.055709489 0.045857612 -0.012472333 0.011848113 0.44338831 -0.89625132 0.0034304713
-0.052587461 0.045562308 -0.012368107 0.10909624 0.50535989 -0.85598451 0.0024181209
-0.050791506 0.045487374 -0.012057945 0.18727663 0.56841117 -0.80114681 0.0018017356
0.059545808 0.045176048 -0.012056009 0.028083595 0.43417224 -0.90039206 0.0046807933
0.06053121 0.04509728 -0.012036716 0.088356212 0.41918293 -0.90359223 0.0065339659
-0.015611909 0.0057944683 -0.0092735142 -0.21835136 -0.76363087 -0.60761046 0.0013581527
-0.013348918 0.0055185594 -0.0095698228 -0.17702711 -0.76304567 -0.62162906 0.0011114278
-0.010419901 0.0052188709 -0.0099251484 -0.14580481 -0.75609779 -0.63801026 0.001227609
-0.0074683256 0.0049653784 -0.010185678 -0.11258392 -0.75377238 -0.64741957 0.0012457852
-0.0044937138 0.0047977115 -0.010406131 -0.081147663 -0.75133771 -0.65490967 0.0014994935
-0.0014826861 0.0046729324 -0.010564457 -0.055699047 -0.74812222 -0.66121906 0.0015821474
0.0015014004 0.0045038261 -0.010563538 -0.034723323 -0.75742811 -0.65199471 0.0015235908
0.0044999118 0.0044303122 -0.010572382 -0.0084412126 -0.76928616 -0.63884848 0.0011977572
0.0074953772 0.0044582314 -0.010588534 0.018387483 -0.7745713 -0.63221925 0.0010033193
0.010489372 0.0045609893 -0.010577339 0.042233597 -0.77435559 -0.63133961 0.001324382
0.0134687 0.00474319 -0.010544211 0.068069674 -0.77630335 -0.62667346 0.0014357021
0.016438033 0.004918789 -0.010387202 0.098788738 -0.78871858 -0.60676503 0.001605478
0.01942833 0.0051632305 -0.010151227 0.13431895 -0.79453373 -0.59217793 0.0012209493
0.0223436 0.0054390351 -0.0097990669 0.16399698 -0.80186772 -0.57455468 0.0010931947
0.02515921 0.0057457383 -0.0093723712 0.1964868 -0.8085838 -0.55460364 0.00076523935
0.027077191 0.0059258528 -0.009036134 0.23673725 -0.79619509 -0.55680239 0.0017136607
-0.024499238 0.0087709632 -0.0092135053 -0.29643959 -0.75704646 -0.5822407 0.0015311338
-0.022236682 0.0083534084 -0.0097559253 -0.2769011 -0.74063021 -0.61220312 0.0011551623
-0.019396963 0.007851365 -0.010302513 -0.23536149 -0.73296332 -0.63825518 0.0016651036
-0.016559945 0.0073084724 -0.010651763 -0.20317261 -0.72946924 -0.65314269 0.0011323072
-0.013593286 0.0069091045 -0.011058099 -0.16383247 -0.72862065 -0.66503447 0.0012745102
-0.010632259 0.0065794513 -0.011373128 -0.13037901 -0.69917905 -0.70295811 0.0012494081
-0.0076948623 0.0063199643 -0.011615741 -0.10101922 -0.7161423 -0.6906051 0.0011786782
-0.0047911773 0.0061523188 -0.011830684 -0.070485368 -0.69506085 -0.71548736 0.0017885069
-0.0021925843 0.0061107916 -0.011954487 -0.050353959 -0.69125563 -0.72085375 0.0021563438
0.011338825 0.0060167992 -0.011973542 0.020662548 -0.6964218 -0.71733516 0.0027123115
0.01386534 0.0060516489 -0.011938981 0.051050365 -0.71911687 -0.69301134 0.0022472274
0.016694009 0.0061358572 -0.011827978 0.079733141 -0.70819414 -0.70150101 0.001229325
0.019666629 0.0063362359 -0.011606964 0.11462395 -0.71377951 -0.69092703 0.0013405381
0.022609631 0.0066213203 -0.011311212 0.14894696 -0.74124354 -0.65450191 0.0012535214
0.025584467 0.0069554807 -0.010881151 0.18315296 -0.77631968 -0.60314405 0.0013263746
0.028506881 0.0074782823 -0.010565017 0.21513994 -0.78877449 -0.57580346 0.0010361896
0.031368408 0.0080836248 -0.010272021 0.24974337 -0.77969033 -0.57420486 0.0013567038
0.034116726 0.0085461177 -0.0096235285 0.29193157 -0.78624076 -0.54461139 0.0010590899
0.036376052 0.0089290999 -0.0091717029 0.33173487 -0.78631151 -0.52121603 0.0010955818
-0.033040084 0.011963231 -0.0090940576 -0.3484138 -0.73940033 -0.57610327 0.0019849092
-0.031038545 0.011611362 -0.0095664496 -0.31883898 -0.7447055 -0.58630657 0.00092885637
-0.028361907 0.011029189 -0.010157842 -0.29328585 -0.73708773 -0.60883915 0.0016690041
-0.025530962 0.010340753 -0.01061587 -0.26865327 -0.7329154 -0.62502837 0.001212555
-0.022647621 0.0097673088 -0.011169437 -0.24835904 -0.70454675 -0.66477937 0.0012947163
-0.020027794 0.0093079321 -0.011644679 -0.21636364 -0.68400347 -0.69665349 0.0010598478
-0.017829577 0.0090363342 -0.011940865 -0.19559605 -0.66774994 -0.71822846 0.001952122
0.032018635 0.0092914887 -0.011566508 0.23014687 -0.72898328 -0.64468271 0.0013544405
0.034696881 0.0098083196 -0.011043319 0.27348384 -0.75661868 -0.59391487 0.0018470945
0.037531532 0.010527295 -0.010534636 0.30619919 -0.76876497 -0.56146449 0.0010617778
0.040255483 0.011305363 -0.010016496 0.35108182 -0.7554388 -0.55322123 0.0012080431
0.042352952 0.011800221 -0.0093358494 0.38304675 -0.75847596 -0.52724707 0.0013162042
-0.039168015 0.014969405 -0.0092122378 -0.41235754 -0.72041625 -0.55763936 0.0013803536
-0.037108976 0.014443599 -0.009697414 -0.37721241 -0.7152518 -0.58832443 0.0009258397
-0.034406785 0.013765942 -0.010385173 -0.32317355 -0.71881467 -0.61551958 0.0015770294
-0.031648327 0.013008622 -0.01089703 -0.29800972 -0.72062296 -0.62601334 0.0011425903
-0.028889706 0.012453985 -0.011521969 -0.26553142 -0.67677271 -0.686638 0.0011003081
-0.026672378 0.012172338 -0.011967351 -0.25192684 -0.65887755 -0.7088111 0.0030087307
0.038732182 0.012123719 -0.01188813 0.30902603 -0.70266658 -0.6409077 0.0025388538
0.04088008 0.012568239 -0.011282331 0.33008566 -0.71577704 -0.61539155 0.0010059191
0.043560844 0.013376084 -0.010620403 0.37759221 -0.73846698 -0.55865067 0.0009243681
0.046157178 0.014271345 -0.0099713877 0.41845974 -0.72377861 -0.54866749 0.0013305644
0.048262309 0.014872544 -0.009162155 0.43622676 -0.71791518 -0.54249799 0.00093694922
-0.042678777 0.017537501 -0.0095297871 -0.46033776 -0.67415488 -0.57758498 0.0013460772
-0.040357936 0.016770002 -0.010290099 -0.40244287 -0.68230575 -0.61032659 0.001626508
-0.037754685 0.015956843 -0.010989214 -0.35884303 -0.68963563 -0.6289947 0.0012065872
-0.035239067 0.015320606 -0.011661283 -0.31279886 -0.67605501 -0.66716295 0.001159459
0.044792853 0.015146496 -0.011926576 0.37187988 -0.6661815 -0.64645773 0.002184923
0.046911616 0.015710289 -0.011199805 0.39932042 -0.68471736 -0.60967636 0.0010756039
0.049408425 0.016648095 -0.010450709 0.44070172 -0.68567014 -0.57934314 0.0013811924
0.051664621 0.017511381 -0.00967889 0.47808608 -0.67023891 -0.56763864 0.0010627082
-0.048009854 0.020963803 -0.0090857763 -0.49455392 -0.65310705 -0.57346982 0.00073842099
-0.046107411 0.020245949 -0.0098692672 -0.48556927 -0.65304416 -0.5811677 0.0013884275
-0.043650586 0.019300973 -0.010704257 -0.43117198 -0.64492196 -0.63100427 0.0011687743
-0.041212242 0.018490275 -0.011520553 -0.39002356 -0.63592255 -0.66594601 0.00087282067
0.050487474 0.018393403 -0.011582458 0.45129794 -0.63029301 -0.63171262 0.00129752
0.052653123 0.019201996 -0.010764252 0.46875125 -0.63928246 -0.60958207 0.0015271412
0.054931894 0.020179844 -0.0099132992 0.51893532 -0.6204589 -0.58799392 0.0011637592
-0.051388446 0.023707712 -0.0093071731 -0.50500804 -0.64709127 -0.57117391 0.0014731773
-0.049213026 0.022867836 -0.010170805 -0.48004669 -0.63852435 -0.60153294 0.0016643136
-0.046835721 0.021982497 -0.011082285 -0.44959784 -0.60448378 -0.65761781 0.0014940941
-0.044755477 0.021181954 -0.011765774 -0.43256339 -0.60469615 -0.66875362 0.0015710435
0.053741612 0.021175334 -0.011818431 0.47182661 -0.58075905 -0.66339922 0.0016687282
0.05581513 0.022166273 -0.011095391 0.50700325 -0.55653226 -0.65819418 0.0021883829
0.057994064 0.022992888 -0.010005538 0.5543282 -0.56254297 -0.61340499 0.0014177858
-0.054595109 0.026441773 -0.0095220869 -0.53756213 -0.62202185 -0.56931162 0.0012620462
-0.052401155 0.025610559 -0.010450222 -0.48224807 -0.60723841 -0.63142562 0.0020736072
-0.050050676 0.024701178 -0.011348483 -0.45504642 -0.5964691 -0.66117877 0.0013103195
0.0568638 0.024159929 -0.011842138 0.50261724 -0.49830225 -0.70644933 0.00084734772
0.058811847 0.02510736 -0.011050237 0.54889405 -0.48568478 -0.68031287 0.0018170886
0.06089022 0.025946509 -0.0098567642 0.59978658 -0.51357251 -0.61359543 0.0012897573
-0.057620838 0.029373368 -0.0095778527 -0.57454783 -0.55369329 -0.60275912 0.0014936674
-0.055504337 0.028482301 -0.010589759 -0.51642346 -0.52290732 -0.67814058 0.0011690905
-0.05336814 0.027617062 -0.01154782 -0.500054 -0.55229825 -0.66701776 0.00088218623
-0.012522817 0.029800968 -0.011822649 0.1934022 0.6859988 -0.70142812 0.0020354022
-0.0099189738 0.029429719 -0.011641176 0.14702177 0.65869588 -0.73790538 0.0015364049
-0.0069034696 0.029064512 -0.01134899 0.12289093 0.66411936 -0.73745733 0.0012612566
-0.0043115281 0.02883685 -0.011158828 0.099682592 0.66992563 -0.73570579 0.00086469814
-0.0013710195 0.028556751 -0.011059595 0.071876228 0.67112947 -0.73784757 0.00129828
0.0014745955 0.028420042 -0.010981475 0.040504213 0.68554264 -0.72690487 0.0013700143
0.0045382567 0.028349193 -0.010990003 -0.0057612364 0.68325329 -0.73015875 0.0015192226
0.0076950458 0.028289398 -0.011165564 -0.042001795 0.68773001 -0.72475058 0.0012923998
0.010420869 0.028509034 -0.011173937 -0.07360962 0.69278878 -0.71737397 0.0011312175
0.013524712 0.028971268 -0.011107604 -0.10749804 0.70421952 -0.70179707 0.0013641862
0.016487902 0.029172158 -0.011471126 -0.15345453 0.69269192 -0.70471948 0.0012336546
0.019064933 0.029598556 -0.011689686 -0.18793425 0.70485979 -0.68399817 0.0017859644
0.05969698 0.027169785 -0.011767879 0.55445611 -0.42467779 -0.71570051 0.001741389
0.061598063 0.028336696 -0.010866527 0.58902782 -0.40121239 -0.70148051 0.0016627066
0.063550994 0.02906091 -0.0095365979 0.63933641 -0.43538368 -0.63379019 0.0016577201
-0.060439389 0.032404672 -0.0094353752 -0.61331069 -0.49842548 -0.61271697 0.0014799432
-0.058443662 0.031513963 -0.010508264 -0.55414742 -0.4598231 -0.69388992 0.0016781162
-0.05636644 0.030676143 -0.011597597 -0.52938598 -0.46001104 -0.71283966 0.0017595566
-0.021751158 0.032851804 -0.011857871 0.26683068 0.68431026 -0.67861682 0.0021018784
-0.019249568 0.032330215 -0.011442906 0.24411786 0.6872884 -0.6841352 0.0012460202
-0.016447719 0.031981517 -0.010767369 0.23247974 0.72663188 -0.64649767 0.0017917207
-0.013284532 0.031089421 -0.010734253 0.18965392 0.67041451 -0.7173394 0.0015349108
-0.010430831 0.030999439 -0.0099513251 0.17286254 0.74279428 -0.64681929 0.001544834
-0.0077257603 0.030471735 -0.0098835342 0.14258595 0.75176084 -0.64383602 0.0012992639
-0.0046466198 0.030233603 -0.0095949862 0.11767057 0.75541782 -0.64459103 0.0013470261
-0.0016277544 0.030024307 -0.0093313018 0.085768208 0.78982562 -0.60730493 0.002327688
0.0010214279 0.030014798 -0.0090932017 0.052451748 0.81596601 -0.57571548 0.0036297303
0.0087151062 0.030020747 -0.0090769352 -0.041067075 0.78139007 -0.62269014 0.001064728
0.010701571 0.03014157 -0.0092158439 -0.079654038 0.78358269 -0.61616021 0.00098278001
0.013595897 0.030341933 -0.009369337 -0.11842824 0.7918815 -0.59908134 0.0018229164
0.016582374 0.030549904 -0.0098305568 -0.16554768 0.77743971 -0.60677958 0.0015102405
0.019781047 0.030846905 -0.010488912 -0.20101728 0.74849784 -0.63193601 0.0014401816
0.023081573 0.03186436 -0.010403899 -0.22324809 0.71794468 -0.65932983 0.0014475705
0.025481228 0.032187305 -0.010961391 -0.23653449 0.71229851 -0.66081941 0.0011191263
0.028031772 0.032455537 -0.011629277 -0.24327168 0.70259422 -0.66871536 0.0011071967
0.030267682 0.032932948 -0.011883474 -0.26833341 0.69986719 -0.66195405 0.0030382851
0.062468268 0.031061459 -0.011551734 0.5913052 -0.3015646 -0.74794185 0.0020257565
0.064234808 0.031525478 -0.010252083 0.64266026 -0.3432821 -0.68494177 0.0015102401
-0.063208967 0.035720333 -0.0091370801 -0.64405596 -0.43359241 -0.63022977 0.0018715382
-0.061260954 0.034667958 -0.010172568 -0.59666365 -0.41289523 -0.6881206 0.0018933913
-0.059222016 0.03404608 -0.011454749 -0.53336364 -0.35551977 -0.76754731 0.0019042166
-0.027924463 0.035657719 -0.011581684 0.29946637 0.67258787 -0.67671674 0.0017098086
-0.025274832 0.034921162 -0.011133374 0.29115063 0.69998312 -0.65211576 0.0018054561
-0.02261129 0.03437268 -0.010500549 0.27287641 0.73174715 -0.62456751 0.0012512126
-0.019762525 0.033691157 -0.010074119 0.26510876 0.75425971 -0.60067427 0.0016611912
-0.017163688 0.033361379 -0.0093460781 0.24733797 0.77346283 -0.58359164 0.0013962899
0.025891617 0.03336402 -0.0095608067 -0.25715318 0.78061658 -0.56965774 0.0012538868
0.028764421 0.033893887 -0.010157523 -0.25866148 0.74937207 -0.6095373 0.0010893175
0.031672031 0.034443375 -0.01079555 -0.27556255 0.73037845 -0.62499011 0.001338246
0.034082126 0.034880124 -0.011379326 -0.29577902 0.71491635 -0.6335687 0.0016402483
0.036649197 0.035750698 -0.011648173 -0.32121927 0.6776672 -0.6615023 0.0017745362
0.062921621 0.033097602 -0.011894418 0.59306645 -0.26490974 -0.76032555 0.0015957075
0.06463404 0.034264527 -0.010968043 0.59874904 -0.21427706 -0.77174145 0.0015087874
0.066450752 0.03482588 -0.009565616 0.67782378 -0.25795889 -0.6884855 0.0017190621
-0.063791566 0.037828658 -0.0096868025 -0.61842901 -0.3430948 -0.70698756 0.002777369
-0.061721001 0.03731259 -0.011075155 -0.53986967 -0.2747753 -0.79563767 0.0011794131
-0.059811302 0.036265984 -0.011896144 -0.51133585 -0.27725983 -0.81342643 0.0034206999
-0.033851519 0.038449675 -0.011555416 0.31333196 0.65613604 -0.68651915 0.0014578381
-0.0313862 0.037776537 -0.010995395 0.32171166 0.70362324 -0.63357395 0.0015764578
-0.028897703 0.037219107 -0.010305734 0.32445091 0.71232605 -0.62235296 0.0016649093
-0.026036289 0.036446363 -0.0096661672 0.31683889 0.73531729 -0.59910065 0.00093113689
0.032511707 0.036076471 -0.0091044549 -0.31589037 0.77904034 -0.54158062 0.0012428371
0.035177182 0.036559585 -0.0098743886 -0.32166976 0.72510463 -0.60889399 0.0011018126
0.037954897 0.037342407 -0.01057129 -0.35474136 0.70927942 -0.60916442 0.0017624747
0.040406708 0.038139928 -0.011150034 -0.36880416 0.67790723 -0.63594437 0.0017461851
0.042491496 0.038607202 -0.011792039 -0.33648902 0.6182552 -0.7103067 0.0015409972
0.064997837 0.037406683 -0.011383643 0.56165367 -0.095212549 -0.82187569 0.0019308163
0.066825286 0.037450623 -0.0099146124 0.65002024 -0.14104962 -0.74671197 0.0021281736
-0.066169813 0.041405492 -0.009146885 -0.64798903 -0.2602554 -0.71580541 0.0030179031
-0.064416043 0.040527139 -0.010176588 -0.57827485 -0.22097047 -0.78534722 0.0041392278
-0.062247138 0.040351409 -0.011593978 -0.49615431 -0.14473447 -0.85608578 0.0028075494
-0.039922908 0.041357934 -0.011538967 0.3046892 0.67239875 -0.67456985 0.0020374947
-0.037356012 0.040790912 -0.010823386 0.3364487 0.70674211 -0.62234867 0.0012751399
-0.035216477 0.03965361 -0.01095668 0.30605811 0.65923011 -0.68683624 0.00079950254
-0.032135691 0.039336771 -0.0095487358 0.35156694 0.72886676 -0.58749801 0.0010019974
0.040564593 0.039427247 -0.0098052658 -0.39598075 0.70529014 -0.58801782 0.0013137376
0.043460302 0.040422518 -0.010512467 -0.36921829 0.6722461 -0.64168757 0.0013121075
0.046268813 0.041156258 -0.011329304 -0.32561746 0.64085698 -0.69518036 0.0017057742
0.048469096 0.041740898 -0.011777197 -0.29684088 0.62152129 -0.72498053 0.0012632011
0.065060765 0.040487245 -0.01150313 0.50182235 0.030090954 -0.86444712 0.0032407893
0.067119226 0.04059485 -0.010037037 0.60869604 -0.031568781 -0.79277521 0.0031034895
-0.066476502 0.043681338 -0.0093516735 -0.60514176 -0.13142876 -0.78519416 0.0035672374
-0.064494036 0.043430787 -0.01062902 -0.49905798 -0.052365519 -0.86498499 0.003065232
-0.062390666 0.043551296 -0.011752519 -0.41874143 0.01023066 -0.90804785 0.0038573507
-0.04850246 0.044810817 -0.011877791 0.22117397 0.62602168 -0.74778271 0.0020723648
-0.045755055 0.044121284 -0.011543798 0.25489178 0.61376703 -0.74720824 0.0013770711
-0.04358286 0.043305278 -0.011340605 0.28540489 0.62300873 -0.72828853 0.0014516895
-0.040982779 0.042616047 -0.010792713 0.29881945 0.64674038 -0.70173627 0.0011911821
-0.038339775 0.042417049 -0.0095026903 0.36995411 0.71665084 -0.59122372 0.00096765551
0.044680811 0.042172022 -0.0093525527 -0.40895465 0.68791109 -0.59961194 0.0018105615
0.046592813 0.042761564 -0.0099120084 -0.38337949 0.67788845 -0.62728578 0.0013693947
0.049574863 0.043554582 -0.010645647 -0.30895206 0.64221013 -0.70150894 0.0014671613
0.052380688 0.044196907 -0.011247871 -0.24541444 0.58530807 -0.77277821 0.001626658
0.054965965 0.044696048 -0.011695306 -0.18361524 0.54527301 -0.81790149 0.0032666263
0.057346564 0.04487747 -0.011927275 -0.06633918 0.50762755 -0.85901886 0.0052733459
0.062609583 0.044713005 -0.011825543 0.21049367 0.27009284 -0.93954366 0.0051445817
0.064541943 0.043544199 -0.011436764 0.40272495 0.16377938 -0.90054923 0.0034900054
0.06719511 0.043451123 -0.0099391472 0.5635404 0.085406721 -0.82166171 0.0037614654
-0.066642918 0.046494115 -0.0094194124 -0.54560709 0.018534292 -0.83783609 0.0044761677
-0.064550839 0.046441864 -0.010530422 -0.41181454 0.11710481 -0.90371192 0.005570387
-0.061725911 0.046529006 -0.011542832 -0.26188439 0.25095955 -0.93189913 0.0057921712
-0.05877148 0.047259551 -0.011753282 -0.055833664 0.40359586 -0.91323215 0.004051087
-0.055507053 0.047273297 -0.011653733 0.065231837 0.48602426 -0.87150741 0.0024219905
-0.052421976 0.046782143 -0.011493564 0.13800104 0.53319126 -0.83466327 0.0016654741
-0.04949126 0.04623716 -0.011049927 0.21692351 0.59633827 -0.77286792 0.0011673527
-0.046842296 0.04568832 -0.010496438 0.28411674 0.64594233 -0.70854509 0.0010567526
-0.044322886 0.045519453 -0.0093828989 0.34994254 0.70033699 -0.62214816 0.0011080786
0.050235786 0.045238666 -0.00933134 -0.37315303 0.6717692 -0.63990855 0.0013055973
0.052775063 0.046050981 -0.0098300399 -0.3167288 0.63336593 -0.70606691 0.0013693922
0.05565514 0.04657099 -0.010493791 -0.23542462 0.58417356 -0.77673447 0.0019735598
0.058389135 0.046548139 -0.011148183 -0.087413631 0.49781379 -0.86286747 0.0027782198
0.061486483 0.046513014 -0.011279263 0.086785525 0.42191613 -0.90247166 0.0060905227
0.064523183 0.046450891 -0.010716933 0.30244321 0.28436977 -0.90975928 0.006855974
0.06685885 0.046493039 -0.0096951351 0.48880103 0.1892056 -0.85163069 0.0050600944
-0.066586532 0.049014505 -0.0091961091 -0.43201235 0.18585764 -0.88250899 0.0063744294
-0.064629607 0.049277157 -0.0098653296 -0.30877888 0.26487142 -0.91350895 0.0051547219
-0.061565448 0.049365375 -0.010481572 -0.14172387 0.41930333 -0.8967157 0.0053519784
-0.058579098 0.049373973 -0.010575827 0.016799301 0.5168063 -0.85593754 0.0026291832
-0.055609655 0.049235981 -0.010268647 0.11129653 0.57646048 -0.80950993 0.0021532474
-0.052679099 0.048547655 -0.010087377 0.1846454 0.60212988 -0.77675331 0.0014745099
-0.050166953 0.048277676 -0.0093742302 0.30009159 0.67934775 -0.66965038 0.0019833627
0.056113675 0.048347861 -0.0092104347 -0.28393391 0.63112789 -0.7218442 0.0024999699
0.058678944 0.048814863 -0.009684287 -0.18134037 0.58180767 -0.79285276 0.0033143249
0.061649181 0.049330015 -0.0098105064 -0.028447617 0.48853007 -0.87208319 0.0044538397
0.064458415 0.049439501 -0.0096217524 0.11324276 0.40569511 -0.90696615 0.0078884624
0.06652949 0.048849009 -0.0092494031 0.39978909 0.28897089 -0.8698647 0.0066273548
-0.064073607 0.051306166 -0.0091463802 -0.19517805 0.41797301 -0.88724524 0.0072033056
-0.061682239 0.051305477 -0.009346433 -0.024142923 0.54175997 -0.84018642 0.0045764539
-0.059126671 0.051435944 -0.009172325 0.064841434 0.6023134 -0.79562193 0.0018111406
0.064367227 0.051025826 -0.0090486966 -0.04482843 0.47913373 -0.87659645 0.0055561769
-0.012344441 0.0029808402 -0.0060550221 -0.22066601 -0.86724323 -0.44631344 0.0015282884
-0.010027865 0.0027989065 -0.0063777417 -0.16550747 -0.87578017 -0.45344952 0.0013708083
-0.0074061169 0.002587076 -0.0067546754 -0.12121134 -0.87129384 -0.47555751 0.0018507014
-0.0044208323 0.0024342516 -0.0070843068 -0.082976677 -0.87170511 -0.48295453 0.0018192687
-0.0014733732 0.0022986426 -0.0072451327 -0.054432519 -0.87390655 -0.48303658 0.0019218299
0.001523475 0.0022352221 -0.0073874253 -0.02514758 -0.87505126 -0.48337656 0.001725866
0.0044812164 0.0022102438 -0.0074268938 -0.00089006656 -0.87725765 -0.48001894 0.0016870593
0.0074638557 0.0022411079 -0.0073976819 0.029126901 -0.8810876 -0.47205538 0.0017363351
0.010445577 0.0023190302 -0.0072612376 0.056907769 -0.88403463 -0.46394423 0.0017283818
0.013431984 0.0024602762 -0.0070358296 0.086766116 -0.88633186 -0.45484892 0.0017510029
0.016334517 0.0026388373 -0.006741567 0.11869119 -0.89079487 -0.43863058 0.0016512931
0.018996274 0.0028384922 -0.0063508772 0.16111629 -0.89175636 -0.42286193 0.0013685948
-0.02142605 0.0058050519 -0.0062801377 -0.32260326 -0.83759052 -0.44087341 0.0015465043
-0.019236123 0.0054421723 -0.0069810115 -0.27855089 -0.83927906 -0.46692613 0.0017756583
-0.01646645 0.0049213604 -0.0075211409 -0.22609663 -0.83316362 -0.50469649 0.0015423476
-0.013499322 0.0041865096 -0.0075473017 -0.19388282 -0.8502093 -0.48944208 0.0014701776
-0.010587203 0.0037339982 -0.0078020138 -0.15939988 -0.84287107 -0.51396513 0.0013605803
-0.0075997715 0.0035247942 -0.008256698 -0.11510371 -0.83964932 -0.53079206 0.0017023074
-0.0046479679 0.0033511792 -0.0085330158 -0.0836403 -0.80934542 -0.58134687 0.00095318467
-0.0016027585 0.0032345972 -0.0087449113 -0.056626141 -0.81576264 -0.57560819 0.0013607484
0.0012760543 0.0031460719 -0.0088626882 -0.03052469 -0.79736292 -0.60272759 0.00076118554
0.0045952075 0.0031106791 -0.0088941222 -0.0047483072 -0.80449802 -0.59393632 0.00084329792
0.0075291502 0.0031125932 -0.0088415714 0.023528764 -0.81706303 -0.5760681 0.0011815821
0.010565817 0.0031872678 -0.0087608043 0.051857125 -0.82203799 -0.56706643 0.0011943046
0.013609969 0.0032905044 -0.008557654 0.080107816 -0.83988684 -0.53681737 0.0013916678
0.016667444 0.0034473862 -0.0082240086 0.10931946 -0.8619225 -0.49511507 0.0016369866
0.019617693 0.0036696838 -0.0077976193 0.15531829 -0.86916482 -0.46949837 0.0013982427
0.022495359 0.0040818253 -0.0075328308 0.18783955 -0.87981808 -0.43661931 0.0013161154
0.025495408 0.0047480445 -0.0075064613 0.21064653 -0.87019539 -0.44540769 0.0016232939
0.028315751 0.0053711631 -0.0072808899 0.23895803 -0.87295645 -0.42525995 0.0015842057
0.030699736 0.0057497458 -0.0065954826 0.28648558 -0.87505281 -0.3901391 0.0010503401
-0.02800449 0.0086097857 -0.0067489422 -0.33643752 -0.8302716 -0.4443635 0.0013046302
-0.025456967 0.0079920273 -0.0074257213 -0.30592346 -0.81417137 -0.49349338 0.0013900805
-0.022574633 0.0070243604 -0.0076445285 -0.29953358 -0.82058853 -0.48673832 0.0014989019
-0.01987374 0.0064501688 -0.0083076572 -0.26327866 -0.80343831 -0.53401417 0.0016878668
-0.017607676 0.0061480151 -0.0089024864 -0.2366066 -0.75974143 -0.60564876 0.0013341666
0.029087009 0.0062473356 -0.0085498421 0.23774602 -0.84784436 -0.4739587 0.0014195278
0.031682357 0.0066629439 -0.0078200651 0.28201631 -0.85563314 -0.43400323 0.0014993862
0.034516923 0.0075216182 -0.0075854002 0.3040612 -0.85183495 -0.42652538 0.0014925111
0.03727198 0.0083791995 -0.0072085238 0.33531556 -0.84518367 -0.41620675 0.0014809581
0.03939775 0.0088403709 -0.0063532293 0.37761286 -0.83900923 -0.39175519 0.001365197
-0.036315337 0.011843176 -0.00621734 -0.3984167 -0.81455737 -0.42161635 0.0013951042
-0.034206096 0.011414438 -0.0071546491 -0.3606621 -0.81311131 -0.4569166 0.0015286083
-0.031481821 0.010482737 -0.0075567919 -0.33676729 -0.81374854 -0.47370982 0.001741319
-0.028792521 0.0096090464 -0.0079495357 -0.32440117 -0.81381059 -0.48215783 0.0017761919
-0.02653232 0.009240984 -0.0087523526 -0.30391699 -0.76601058 -0.56644696 0.0013977271
0.038138118 0.0093274163 -0.0083787264 0.33632997 -0.8237769 -0.45637012 0.0013918077
0.040606122 0.010025299 -0.0076489798 0.37154818 -0.82593131 -0.42401576 0.0012552383
0.043309465 0.011183429 -0.0074206986 0.39800319 -0.8132596 -0.42450243 0.0013766011
0.045431402 0.011827201 -0.0065721371 0.4285464 -0.80677253 -0.4067753 0.0011679166
-0.042141426 0.014897114 -0.0061747967 -0.4805488 -0.77265459 -0.41482249 0.0014006628
-0.040129568 0.014340691 -0.0071443762 -0.44216156 -0.77329361 -0.45443398 0.0014430931
-0.03757957 0.013249305 -0.0076005696 -0.40445647 -0.79647768 -0.4494867 0.0012402199
-0.035057504 0.012468013 -0.0082940739 -0.35170457 -0.78748399 -0.50613523 0.0015902462
-0.032717776 0.012015749 -0.0089374762 -0.32138598 -0.73744714 -0.59403932 0.0011716153
0.044271078 0.012273605 -0.0085549923 0.4045473 -0.77937102 -0.47845829 0.00092317228
0.046636026 0.01308553 -0.0076983101 0.44215566 -0.78852355 -0.42746821 0.0011900292
0.049095329 0.014262958 -0.0072477614 0.47244883 -0.77320284 -0.42302418 0.0012763041
0.05100891 0.014887655 -0.0063487357 0.49722388 -0.7715292 -0.39687672 0.00095096102
-0.045550521 0.017570049 -0.0067174863 -0.51701027 -0.7354663 -0.43793812 0.0011753781
-0.043446261 0.016610032 -0.0075083771 -0.48578182 -0.75037688 -0.44827503 0.0011557507
-0.041112434 0.015534588 -0.0081882691 -0.44559065 -0.75233543 -0.48522213 0.0019145375
0.050213713 0.015523333 -0.0082409997 0.48191682 -0.75024968 -0.45263848 0.0016514692
0.052471045 0.016608704 -0.0075327633 0.51308596 -0.74152595 -0.43229863 0.0015557167
0.0545609 0.01755899 -0.006648289 0.53159821 -0.72830677 -0.43240318 0.0011368641
-0.048953295 0.020305268 -0.0071091759 -0.54218394 -0.71272129 -0.44504485 0.0015654314
-0.046739358 0.019074144 -0.0077334424 -0.53120768 -0.72240096 -0.4426682 0.001177734
-0.04470399 0.018228581 -0.008635086 -0.49845523 -0.69152188 -0.52281916 0.0016176305
0.053698406 0.018260745 -0.0087447837 0.51265752 -0.67953867 -0.52479464 0.0015914305
0.055703823 0.019104464 -0.0077338698 0.54965061 -0.70420486 -0.44942161 0.0013446368
0.057686057 0.020356519 -0.0071837739 0.58279049 -0.67444336 -0.45330063 0.0012186659
-0.054249689 0.023814645 -0.0063576284 -0.55456632 -0.70984793 -0.43424883 0.00086875446
-0.052255448 0.022932634 -0.0073272251 -0.54392093 -0.71374547 -0.44126791 0.0017522838
-0.050064072 0.021739893 -0.0080072852 -0.53376019 -0.70852995 -0.46161175 0.001766955
0.058853175 0.021922713 -0.0079240557 0.59280813 -0.63846368 -0.49085906 0.0017534926
0.060775653 0.023177572 -0.0071135084 0.62645721 -0.61326391 -0.48110148 0.0014812984
-0.057431106 0.026646331 -0.0065764342 -0.59836495 -0.65546912 -0.46078154 0.00095599052
-0.055437762 0.025553653 -0.0074914605 -0.57426745 -0.68642199 -0.44614092 0.0011956054
-0.053344786 0.024490276 -0.0083768368 -0.53714204 -0.67147326 -0.51049209 0.00099168054
0.061829947 0.025042169 -0.0079808841 0.64012396 -0.56198204 -0.52384877 0.0019491202
0.063623577 0.026273066 -0.0069881175 0.67112064 -0.53764147 -0.5104298 0.0018098752
-0.060411628 0.029596753 -0.0066147526 -0.64546591 -0.59687096 -0.47656983 0.0010303991
-0.058523249 0.028446138 -0.0075887744 -0.62224859 -0.6260159 -0.4700115 0.0016800094
-0.056558669 0.027405202 -0.0086137075 -0.56039363 -0.60863143 -0.56171763 0.0010010261
0.062799521 0.02720282 -0.0089346748 0.63549232 -0.47983617 -0.60490221 0.0017190019
