# .PCD v0.7 - Point Cloud Data file format
VERSION 0.7
FIELDS x y z normal_x normal_y normal_z curvature
SIZE 4 4 4 4 4 4 4
TYPE F F F F F F F
COUNT 1 1 1 1 1 1 1
WIDTH 554
HEIGHT 1
VIEWPOINT 0 0 0 1 0 0 0
POINTS 554
DATA ascii
-0.015130368 0.032917663 -0.0089419233 0.25025058 0.79359436 -0.55460131 0.0031673214
-0.01323059 0.032631084 -0.0085902251 0.22658706 0.80938715 -0.5418033 0.0017875023
-0.010339849 0.032311294 -0.0079880562 0.19815615 0.83440602 -0.51429629 0.0022980613
-0.0074901148 0.031827413 -0.0077807065 0.15605411 0.84585321 -0.51007801 0.0020173583
-0.0045266724 0.031391241 -0.0077193957 0.12877183 0.84374624 -0.52106637 0.0020307861
-0.0015153449 0.031023007 -0.0077271359 0.10108418 0.85380614 -0.51068294 0.0024338518
0.0015460424 0.03080523 -0.0077025341 0.056103472 0.85739809 -0.51158667 0.0020909694
0.0045033833 0.03067961 -0.0077468064 0.027786812 0.84962183 -0.52665985 0.0025242858
0.0074656317 0.03071826 -0.0077251531 -0.0474751 0.84274995 -0.53620768 0.0025635606
0.010568125 0.030963898 -0.0077385386 -0.092608057 0.8460384 -0.52501696 0.0023109016
0.013444422 0.031282619 -0.0077160839 -0.13185629 0.8497225 -0.51047581 0.0020201192
0.016505063 0.031758592 -0.0078698313 -0.18083586 0.84381115 -0.50525355 0.0019250445
0.019352755 0.032474943 -0.0078109438 -0.22690229 0.81930017 -0.52655727 0.0017553155
0.021861155 0.032664411 -0.0086847516 -0.24206811 0.80133742 -0.54704791 0.0012554445
0.065612786 0.030766139 -0.0083156861 0.69700468 -0.38632032 -0.60410357 0.0018316023
0.066881299 0.031882361 -0.0074165892 0.73234367 -0.38114318 -0.56427181 0.0021750091
-0.064015009 0.034847971 -0.0072420188 -0.6963281 -0.48061168 -0.53304744 0.0024830743
-0.062398579 0.03381829 -0.0083167804 -0.66216576 -0.48976201 -0.5671593 0.0016516931
-0.021721426 0.035476454 -0.0084377732 0.3092452 0.80247116 -0.51030123 0.0025444231
-0.019464554 0.03503295 -0.0078449361 0.29577088 0.83336926 -0.46692103 0.001469573
-0.016597511 0.034162141 -0.0076885512 0.24559659 0.83790421 -0.48744109 0.0018410978
-0.013697345 0.033565491 -0.0073318137 0.23416574 0.84400845 -0.4825103 0.0017852671
-0.01147564 0.033484519 -0.0062362193 0.2073181 0.88337171 -0.4203257 0.00091257988
0.020215176 0.033444826 -0.0065337922 -0.23880301 0.86042064 -0.45016599 0.0019711335
0.022862932 0.033417683 -0.0080093062 -0.23727022 0.78341919 -0.57441902 0.0011175665
0.025599025 0.034299031 -0.0078188255 -0.25195545 0.81846672 -0.51636297 0.0010333873
0.02850258 0.035176449 -0.0078515317 -0.27707916 0.82046419 -0.50006562 0.00075129292
0.030881384 0.035634562 -0.0085102599 -0.30455723 0.79963458 -0.51752239 0.001362842
0.067636706 0.034347352 -0.0078975502 0.72957933 -0.28916743 -0.61975491 0.0019196635
0.069149218 0.035441443 -0.0064058634 0.798455 -0.31482339 -0.51318216 0.0023625118
-0.066530846 0.038144354 -0.0067894105 -0.70853132 -0.4176794 -0.56879461 0.0031603335
-0.065005295 0.03725338 -0.0079855146 -0.69216758 -0.40620127 -0.59657735 0.0030090678
-0.030622756 0.0389244 -0.0089663491 0.35415682 0.75503606 -0.55180931 0.00044254426
-0.028244985 0.038426805 -0.0080977399 0.36077872 0.79505032 -0.48757944 0.0021773037
-0.025632223 0.03747097 -0.007750852 0.34816027 0.80519086 -0.48005426 0.0017942301
-0.022940014 0.036570795 -0.0074260398 0.32487658 0.82401341 -0.46417356 0.0014282922
-0.020447634 0.036134526 -0.00631929 0.30171382 0.85296184 -0.42593995 0.00071756821
0.029632889 0.036411952 -0.0062652673 -0.31678209 0.85532904 -0.409953 0.0015970987
0.031746101 0.036519989 -0.0074974536 -0.31806234 0.80211234 -0.50542265 0.0012131177
0.034529973 0.037495498 -0.0078550316 -0.35161585 0.78933352 -0.50330794 0.0015321453
0.037046071 0.038390696 -0.008325737 -0.3889344 0.76254469 -0.51696783 0.0018066285
0.068381272 0.037237864 -0.008201804 0.74022126 -0.18604505 -0.64611119 0.0021202024
0.069639079 0.038124848 -0.0068643088 0.76564628 -0.19283117 -0.61367905 0.0017811246
-0.069150746 0.041926835 -0.0060529783 -0.73247468 -0.3495273 -0.58421874 0.0056169038
-0.067299582 0.040643979 -0.0074129519 -0.71490443 -0.30746761 -0.62799323 0.0022477531
-0.065667085 0.039740559 -0.0086666709 -0.65214819 -0.26711512 -0.70947319 0.0029137488
-0.036325008 0.041974202 -0.0086080916 0.40784174 0.77691656 -0.47965178 0.0018910556
-0.034113459 0.041275315 -0.0079722758 0.40814576 0.79626501 -0.44651881 0.0010464288
-0.031472705 0.040191121 -0.0076404531 0.37806359 0.7974422 -0.47027001 0.0018418573
-0.029068708 0.03937196 -0.0070858323 0.37178269 0.81452507 -0.44533876 0.0010723234
0.038144615 0.039571546 -0.0073989793 -0.39849141 0.75006676 -0.52782995 0.0011087721
0.040705267 0.040804137 -0.0078050303 -0.4252581 0.73425424 -0.52917498 0.0008722436
0.043001909 0.041671801 -0.0085147936 -0.42786264 0.73174357 -0.53055143 0.0013966823
0.068582207 0.040449973 -0.0086491853 0.70336038 -0.077410281 -0.70660579 0.0020057368
0.069865763 0.040530276 -0.0071831499 0.74817514 -0.087292485 -0.65773398 0.0025380591
-0.069370121 0.043986838 -0.0064806328 -0.74016052 -0.24863888 -0.62477285 0.0032449791
-0.067852043 0.043418363 -0.0079062311 -0.6836099 -0.17642909 -0.70820206 0.0034476563
-0.040190592 0.044387028 -0.0079457685 0.4006865 0.77672338 -0.48595381 0.002547998
-0.037644967 0.043233477 -0.007703112 0.38028753 0.78987283 -0.48112607 0.0018498939
-0.03521001 0.042287998 -0.0072168959 0.39083031 0.79443121 -0.46489862 0.0014652407
0.041800112 0.042402677 -0.0062564043 -0.47500917 0.76925451 -0.42733335 0.0010012148
0.043534562 0.04277572 -0.0073730075 -0.42148247 0.72205096 -0.54863018 0.0011642246
0.046340469 0.044112042 -0.007910978 -0.41333941 0.70991272 -0.57024068 0.0015408499
0.048449717 0.044740558 -0.00864885 -0.39757565 0.7000578 -0.59317166 0.0017285824
0.068600811 0.043420058 -0.0087616891 0.62495404 0.028854365 -0.78012806 0.0030207541
0.069948584 0.043539237 -0.0073676463 0.71267253 0.016274856 -0.70130807 0.0023941488
-0.069754131 0.046609085 -0.0068029095 -0.70301622 -0.12871791 -0.69942832 0.005193356
-0.06797833 0.046456248 -0.0083171465 -0.59132504 -0.054331448 -0.80460095 0.002909895
-0.048128869 0.047844477 -0.0087410333 0.35089779 0.71678334 -0.60257149 0.0027735338
-0.046205647 0.04739926 -0.0080954209 0.36193335 0.75827384 -0.54224068 0.0025525023
-0.043593835 0.046408355 -0.0075775422 0.39557087 0.78243154 -0.48096219 0.0018531014
-0.041282512 0.045542501 -0.0070558665 0.41826397 0.78077626 -0.46415919 0.0012584354
0.047431488 0.045613293 -0.0066455179 -0.42894381 0.7271226 -0.53600371 0.0010022981
0.04962327 0.046183094 -0.0076886038 -0.3972173 0.70984757 -0.58166564 0.0013013593
0.05213505 0.047341172 -0.0080529191 -0.39504051 0.69994944 -0.59499049 0.002039334
0.054315709 0.047755897 -0.0088820178 -0.31708345 0.6583963 -0.68262172 0.0030395749
0.068441756 0.046737295 -0.0085385963 0.58464319 0.12984392 -0.80083257 0.0034398299
0.069874145 0.046370778 -0.0072886306 0.6677388 0.09650486 -0.73811358 0.002264844
-0.07005576 0.049556632 -0.0068347002 -0.62904674 -0.019572597 -0.77712101 0.0078267911
-0.067793921 0.049654972 -0.0083496338 -0.4693771 0.10750552 -0.87642896 0.0080915401
-0.06551221 0.050943948 -0.0089693703 -0.16833271 0.33680272 -0.92640597 0.0088363532
-0.05516623 0.050761774 -0.0088198073 0.16907877 0.65894514 -0.73294181 0.0018383184
-0.052213892 0.050201781 -0.0080863703 0.30677131 0.74419194 -0.59335464 0.0032638237
-0.049477763 0.049362324 -0.0075864992 0.34015936 0.76551318 -0.54615128 0.0019884361
-0.047051355 0.048615359 -0.0069427574 0.40279794 0.77075779 -0.49364585 0.0017978882
-0.044834178 0.048021257 -0.0060944338 0.40358019 0.7860347 -0.46826541 0.0011424074
0.053112995 0.048679929 -0.0071406369 -0.39211947 0.70639038 -0.58928347 0.0014628501
0.055543661 0.049540553 -0.0076936744 -0.35222945 0.69006312 -0.63225567 0.00212074
0.058406752 0.050364062 -0.0082552591 -0.28150889 0.63978404 -0.71514285 0.0043477393
0.060734663 0.050666723 -0.0087225446 -0.15315767 0.57884455 -0.80092549 0.005372982
0.065587468 0.050783545 -0.0088392561 0.19031052 0.37013477 -0.90927565 0.0085965963
0.067650199 0.049738232 -0.0083713112 0.44243586 0.24045897 -0.86396176 0.0050053918
0.069816001 0.049328268 -0.006935678 0.60521734 0.15416072 -0.78099072 0.0041571339
-0.070208512 0.052623507 -0.0066676266 -0.49229378 0.096689716 -0.86504215 0.010765839
-0.067595899 0.052491259 -0.007825614 -0.29180303 0.29847834 -0.90871429 0.013609599
-0.064684957 0.052630264 -0.0082736323 -0.082585804 0.45091352 -0.88873881 0.0074069262
-0.061627675 0.052700151 -0.008188094 0.031288523 0.57993358 -0.81406265 0.0038636553
-0.058474869 0.052346792 -0.0079591153 0.12537728 0.66569626 -0.73561466 0.0024975173
-0.055583172 0.052050605 -0.0074106511 0.22817381 0.75322759 -0.61691564 0.004070336
-0.052964315 0.051568642 -0.0067963493 0.34467313 0.7710976 -0.53535873 0.0022921835
0.056733243 0.051373601 -0.0063915476 -0.37150237 0.69846517 -0.61166364 0.0024733406
0.058694068 0.051910326 -0.0068884459 -0.33420891 0.67958778 -0.65304279 0.0023152817
0.061541185 0.052391019 -0.0076391944 -0.23618256 0.60056257 -0.76389951 0.0062209
0.0644392 0.052484453 -0.0080942428 0.023939291 0.42486596 -0.90493965 0.0078157857
0.067503147 0.052560356 -0.0075854626 0.30915391 0.30759099 -0.89989543 0.01357125
0.069703631 0.052454788 -0.0064903502 0.53596848 0.17627163 -0.82563072 0.0053358935
-0.069982536 0.055210043 -0.0063438476 -0.24785434 0.27241099 -0.92970991 0.014473289
-0.06751094 0.055359885 -0.0067258123 -0.088282384 0.41899213 -0.90368789 0.0092812805
-0.06470371 0.055061053 -0.0067657032 0.053689782 0.55422837 -0.83063138 0.0086993771
-0.061632976 0.054418489 -0.0066062729 0.18065041 0.66805267 -0.72185248 0.005874835
-0.059495319 0.054164551 -0.0061664181 0.25582054 0.74535632 -0.61562967 0.0038955975
0.062320106 0.05437037 -0.0063240733 -0.33826998 0.6131835 -0.71384835 0.0054464433
0.06475465 0.055091724 -0.0066490346 -0.16697867 0.52551979 -0.83423448 0.012137176
0.067448504 0.055566128 -0.0065735709 0.082387641 0.3529101 -0.93202293 0.02199039
0.069365062 0.054927241 -0.0062404466 0.40962043 0.20961018 -0.88784838 0.01140673
0.067796625 0.057117436 -0.0061746212 0.019131634 0.40585434 -0.91373754 0.019361988
-0.015175824 0.0028945657 -0.0030868906 -0.25668496 -0.94104743 -0.22032399 0.00088329811
-0.013103667 0.0026339414 -0.0039985492 -0.22807357 -0.92399418 -0.3069483 0.0022316833
-0.010452122 0.0022751351 -0.0045457333 -0.16004755 -0.93725365 -0.30974236 0.0018553124
-0.0074726357 0.0018526661 -0.0045599476 -0.12538487 -0.93693841 -0.32622853 0.0019148841
-0.0046480396 0.0015023152 -0.0046976581 -0.096735224 -0.93395942 -0.34403807 0.0020921391
-0.0014158807 0.0011857379 -0.0044905297 -0.054022614 -0.93409801 -0.35290581 0.0021943382
0.001500117 0.0010503597 -0.0044492302 -0.034685966 -0.93119848 -0.36285841 0.0021042414
0.0044882051 0.0010001644 -0.0045199003 0.010673514 -0.93753737 -0.34772074 0.0023336504
0.0076317624 0.0011649156 -0.0046386565 0.037902698 -0.93751967 -0.34586155 0.0023165066
0.010568324 0.0012818753 -0.0045816 0.056709047 -0.94102937 -0.33353838 0.002014017
0.013549841 0.0015889658 -0.0046419655 0.098834358 -0.93479687 -0.34115469 0.0014968785
0.016524615 0.0019417749 -0.0045451107 0.12822443 -0.93889356 -0.31943306 0.0014734502
0.019462317 0.0023873979 -0.0045731738 0.16552992 -0.93575495 -0.31138816 0.0012448059
0.02201446 0.0027439308 -0.004013354 0.19193812 -0.93386227 -0.30176347 0.0012183468
-0.024304235 0.0059076985 -0.0034668795 -0.38711762 -0.88636756 -0.25395378 0.0027987158
-0.022189923 0.0054498925 -0.0043051676 -0.32486272 -0.89395159 -0.30873099 0.002100396
-0.01949306 0.0045628357 -0.0045142425 -0.28165552 -0.90170777 -0.32801414 0.0021364966
-0.016533075 0.0038023593 -0.0046861409 -0.25919139 -0.91107965 -0.32055238 0.0019566782
-0.013904859 0.0032580874 -0.0051797484 -0.23289527 -0.90695035 -0.35099971 0.0019855404
-0.011713388 0.0030630175 -0.0059976885 -0.211202 -0.87147743 -0.44262955 0.0027411962
0.022953143 0.0032966069 -0.0051813587 0.20803125 -0.92090791 -0.32962343 0.001348111
0.025414458 0.0036564234 -0.0046111089 0.22552474 -0.91978192 -0.32115364 0.0010880686
0.028457806 0.0045325463 -0.0047229188 0.25964591 -0.91263407 -0.31572601 0.0013330776
0.031416368 0.0053197225 -0.0044398918 0.28007552 -0.91303355 -0.29652587 0.0013391753
0.033507228 0.0058261985 -0.0039235028 0.31765616 -0.90964228 -0.26766679 0.0021149707
-0.030799815 0.008709915 -0.003920285 -0.36132461 -0.88206935 -0.30232137 0.001746361
-0.028503031 0.0079710055 -0.0045835269 -0.34480941 -0.88623136 -0.30935493 0.0018481411
-0.025558449 0.0068338686 -0.0046156324 -0.348425 -0.88701218 -0.30300072 0.0017491258
-0.023349727 0.0062449551 -0.0053166859 -0.34777325 -0.88325858 -0.31449664 0.0018778709
0.032766901 0.0060712076 -0.0054614069 0.29750228 -0.89375901 -0.33568904 0.0014165369
0.034787562 0.006565114 -0.0046753134 0.32286468 -0.89077449 -0.31981143 0.0012501354
0.037371192 0.0075766216 -0.0047693346 0.34289858 -0.88499641 -0.3149634 0.0013493737
0.040080652 0.0085017998 -0.0042151948 0.3889353 -0.88984954 -0.23853123 0.0018822365
-0.036855813 0.011575776 -0.0044135894 -0.41898873 -0.85423583 -0.30778173 0.00193898
-0.034456845 0.010493136 -0.0046316781 -0.3918747 -0.85877675 -0.33005551 0.0017339798
-0.031858858 0.0094903084 -0.0049155392 -0.37832379 -0.87095559 -0.31354025 0.0019480061
-0.029826274 0.0090645729 -0.005849903 -0.35392296 -0.85579306 -0.37730199 0.0023322848
0.041539043 0.0094837369 -0.0050879996 0.41275615 -0.85917169 -0.30241764 0.0014011102
0.043718457 0.01032718 -0.0045251828 0.41301945 -0.8568452 -0.30859548 0.0013200762
0.04614326 0.011472814 -0.0043319017 0.44785956 -0.85721081 -0.2541877 0.001532054
-0.04266268 0.014582437 -0.0041375891 -0.4935112 -0.81505132 -0.30354238 0.0018751373
-0.040498856 0.013578586 -0.0046556066 -0.46358815 -0.83487397 -0.29676813 0.0015247517
-0.038202316 0.01249072 -0.0049934797 -0.44371125 -0.84070522 -0.31037882 0.0016195501
0.047343992 0.012407562 -0.0050502568 0.47691375 -0.83763391 -0.26631323 0.0014541002
0.049530003 0.0134995 -0.0045571961 0.50086468 -0.8170588 -0.28556874 0.0015970245
0.051449284 0.014446937 -0.004022175 0.50765902 -0.79881126 -0.32277369 0.0013708075
-0.046158027 0.017133558 -0.0044671143 -0.54232305 -0.78436923 -0.30108234 0.001870544
-0.043914881 0.015740752 -0.0049062655 -0.52955049 -0.79234153 -0.30293742 0.0016821061
0.053018965 0.015788801 -0.0047582416 0.54148751 -0.79701436 -0.26750582 0.0015031233
0.05536079 0.017308006 -0.0044027981 0.55520183 -0.76953775 -0.31553543 0.0014810743
-0.051442116 0.020718601 -0.0038038797 -0.56390035 -0.77065682 -0.29682398 0.0018129299
-0.049477387 0.019549919 -0.0046153869 -0.56516254 -0.76797217 -0.30134708 0.0022104697
-0.047520395 0.018309856 -0.0051263957 -0.56264973 -0.77196485 -0.2957963 0.0020674162
0.056506451 0.018372923 -0.0050860774 0.59045464 -0.75789732 -0.2774075 0.0017105923
0.058341272 0.019611992 -0.0044946913 0.60469514 -0.74817348 -0.27309376 0.0016972359
0.060132004 0.020660175 -0.0034713224 0.63838619 -0.72291273 -0.26431081 0.002293535
-0.054684836 0.023380689 -0.0043116356 -0.60259819 -0.73939151 -0.30029252 0.0020846559
-0.052728791 0.022031171 -0.0047265501 -0.57938099 -0.75583577 -0.30500802 0.0020859174
0.05958923 0.021273311 -0.0056122448 0.63897067 -0.69536501 -0.32891339 0.0019064796
0.061472796 0.02244832 -0.0044628195 0.67009854 -0.67956871 -0.29858732 0.0017826527
0.063355394 0.023699606 -0.0031240196 0.70311028 -0.64775497 -0.2933419 0.0019745056
-0.058001887 0.026185669 -0.004419859 -0.62194175 -0.70844948 -0.33359823 0.0019129664
-0.056035977 0.024739211 -0.0048568859 -0.60787654 -0.72825599 -0.31643212 0.0020609384
0.062597014 0.02418001 -0.0057204245 0.69520438 -0.61277384 -0.37576485 0.003769391
0.064246953 0.025469918 -0.0045868829 0.72982156 -0.61055201 -0.30754945 0.001363802
-0.060982417 0.029052272 -0.0042875945 -0.68513441 -0.6486308 -0.33146465 0.0020236003
-0.059377041 0.027669443 -0.0049531888 -0.6576193 -0.68005884 -0.32412469 0.0019329902
0.06570024 0.027695553 -0.0051656985 0.74710298 -0.51763719 -0.41699985 0.0021875589
0.06682539 0.028859865 -0.0044687418 0.78445518 -0.511181 -0.35117528 0.0029325867
-0.063740782 0.032164045 -0.0043845563 -0.73096347 -0.57541174 -0.36687022 0.0020277675
-0.062382802 0.030891949 -0.0049496102 -0.70351815 -0.61762905 -0.35156307 0.0017712173
-0.0077108066 0.032931931 -0.0056854533 0.16018154 0.89378244 -0.41892102 0.0019216607
-0.0038839965 0.032449596 -0.005411386 0.14449728 0.90418369 -0.40196073 0.0019044053
-0.001505052 0.032441176 -0.0047176238 0.091510862 0.91271287 -0.39822218 0.0020012688
0.0014249778 0.032298654 -0.0045347032 0.06906049 0.90288252 -0.42430386 0.0029460993
0.0044969302 0.032108705 -0.0047460287 0.017627141 0.91231275 -0.40911448 0.0023704888
0.0076836185 0.032214534 -0.004592739 -0.035055257 0.94158262 -0.33495262 0.0035294443
0.010147806 0.032265738 -0.0048449812 -0.082863159 0.89625734 -0.43572512 0.0025231461
0.013637967 0.032712959 -0.0046852557 -0.14078422 0.93740445 -0.31851658 0.0021641466
0.015959527 0.032837342 -0.0054003261 -0.18748683 0.88753253 -0.42087382 0.0019477669
0.068106636 0.031302501 -0.0048770793 0.81076473 -0.43927944 -0.38690329 0.0015243966
0.069406755 0.032552652 -0.0033305862 0.83384138 -0.44722131 -0.32357645 0.004953146
-0.066499747 0.035463627 -0.0039402791 -0.75402534 -0.53173178 -0.38562566 0.0022388801
-0.065061383 0.034150451 -0.0048268992 -0.74425125 -0.56771034 -0.35184532 0.0016374983
-0.018115915 0.035689916 -0.0055334549 0.29496229 0.85070544 -0.43508333 0.00057424686
-0.016146947 0.035394296 -0.0049268045 0.27385384 0.88452178 -0.37765762 0.00091230532
-0.013411984 0.034552608 -0.004974002 0.25150549 0.87996876 -0.40298873 0.0014414297
-0.010788652 0.033919223 -0.0048076613 0.21790287 0.89442974 -0.39052999 0.0013087033
-0.0077529689 0.033360146 -0.0046714358 0.16020681 0.89647877 -0.41310966 0.0019756709
-0.005552059 0.0333822 -0.0036078291 0.16668971 0.94356006 -0.28619754 0.0029124876
0.016519779 0.03345437 -0.0040683341 -0.19473816 0.93533123 -0.29535168 0.0026567648
0.019440211 0.033946149 -0.0046466035 -0.22857434 0.93111914 -0.28420231 0.002246734
0.022411646 0.034769963 -0.0046744747 -0.26112866 0.9182871 -0.29759148 0.0026570209
0.0253662 0.035572577 -0.0047952831 -0.27765268 0.9148308 -0.29324678 0.0021384028
0.0275319 0.035921544 -0.0055848835 -0.27570224 0.91398877 -0.2976791 0.0023992884
0.06882669 0.033381306 -0.0055811377 0.83632278 -0.35921046 -0.41416419 0.0025828471
0.069735572 0.034651019 -0.0047432128 0.84328961 -0.33758008 -0.41821319 0.0030189231
-0.06910786 0.038805105 -0.0030842833 -0.84865803 -0.46556932 -0.25104731 0.0064206123
-0.067488439 0.037497327 -0.0046507339 -0.77364278 -0.48789379 -0.40427271 0.003410795
-0.025039893 0.03853032 -0.0050788997 0.34512976 0.832775 -0.43286401 0.00074639323
-0.022264775 0.037440352 -0.0049473895 0.32941011 0.84773767 -0.41572809 0.00021129951
-0.019671842 0.036525253 -0.0047284057 0.29787123 0.86118853 -0.41185814 0.00035912491
-0.017449716 0.036178082 -0.0039830864 0.28821659 0.87611139 -0.38647124 0.00092732767
0.026715448 0.036441248 -0.0032095485 -0.26673594 0.94938695 -0.16588056 0.0022073381
0.02858329 0.03669716 -0.0044770818 -0.30579507 0.90956098 -0.28140417 0.0022757656
0.03147063 0.037676319 -0.0045832386 -0.34891796 0.88961589 -0.2946862 0.0025889389
0.034013584 0.038648263 -0.0049187238 -0.40302134 0.86635184 -0.29497167 0.0024962651
0.07063596 0.037653334 -0.0049471585 0.85427326 -0.25436267 -0.45333964 0.0038785725
-0.06958665 0.040853564 -0.0043433774 -0.80956221 -0.39667794 -0.43273035 0.0039655548
-0.068522818 0.039776709 -0.0052529685 -0.79854131 -0.41286203 -0.43803728 0.0038136311
-0.03126473 0.041351907 -0.0049687554 0.39859137 0.82178926 -0.40716994 0.00043306287
-0.028414005 0.040062211 -0.0047943024 0.37024862 0.83097392 -0.41520873 0.00027838701
-0.026184032 0.039213203 -0.0045931805 0.36325672 0.83444452 -0.41442358 0.00041608184
0.035382736 0.039514303 -0.0042992705 -0.39383125 0.86833894 -0.30147055 0.0022264502
0.037478771 0.040485114 -0.0045909961 -0.43839657 0.85010004 -0.29178479 0.0026355046
0.039647598 0.041678585 -0.0048259543 -0.5175277 0.81092399 -0.27307034 0.0018162921
0.071327321 0.040388346 -0.0047434275 0.87597996 -0.13959807 -0.46170503 0.0027664348
0.072044358 0.041356932 -0.0034815504 0.91862178 -0.1653643 -0.35887143 0.0043169549
-0.070468701 0.04353318 -0.0046543195 -0.81325305 -0.30795282 -0.49374542 0.0039011389
-0.037163436 0.044210136 -0.0052469759 0.4212923 0.80530906 -0.41712126 0.00039855301
-0.034558401 0.043108061 -0.0047149993 0.41072032 0.81701273 -0.40472105 0.00016764595
-0.032266758 0.042208426 -0.0041382597 0.40420085 0.82070678 -0.40380949 0.00026002014
0.041115042 0.042763457 -0.0043201209 -0.49695757 0.82066095 -0.28204408 0.0022340121
0.04342109 0.044142645 -0.0045454735 -0.53330106 0.7995773 -0.27616334 0.0017733633
0.045365538 0.044931941 -0.0056798882 -0.47006422 0.77067411 -0.43023378 0.0012266277
0.07150998 0.043568477 -0.005126921 0.87160003 -0.044830244 -0.48816359 0.0038302385
0.072154678 0.04346402 -0.003874898 0.91083491 -0.06597361 -0.40746439 0.0040410738
-0.072214402 0.046729133 -0.0035271479 -0.83239794 -0.2739324 -0.48174134 0.0024762638
-0.071187757 0.046367448 -0.0050040665 -0.81776774 -0.22865289 -0.52817971 0.0058811754
-0.042911071 0.047474269 -0.0048883278 0.42505389 0.79310274 -0.4362537 0.00050657697
-0.040384628 0.046156488 -0.0047380337 0.42387274 0.80204165 -0.42078623 0.00043335839
-0.03842666 0.045178365 -0.0045163748 0.42433915 0.80283034 -0.41880766 0.00033640163
0.04482235 0.0454957 -0.0034111966 -0.5136987 0.80675119 -0.29200369 0.0020070279
0.04670703 0.046290029 -0.0044683428 -0.49598682 0.78610271 -0.36883554 0.0025780129
0.04944393 0.047489934 -0.0055623935 -0.45336604 0.74895203 -0.48324955 0.0015895799
0.071406409 0.047132857 -0.0053239968 0.77023864 0.061666377 -0.63476741 0.0026633237
0.072285891 0.046518147 -0.0037254661 0.89952034 -0.011255752 -0.43673387 0.0042546
-0.072704136 0.049681548 -0.004015591 -0.77848971 -0.21622021 -0.589239 0.0051950519
-0.071487762 0.049153823 -0.0054517877 -0.76738626 -0.12606122 -0.62867069 0.0061094896
-0.048768796 0.050536778 -0.0051246556 0.38293046 0.79089862 -0.47732961 0.0011575352
-0.046585515 0.049600296 -0.0046024485 0.41544008 0.79454893 -0.44283342 0.00057683559
-0.044139173 0.048478119 -0.0040823584 0.42598769 0.80095869 -0.42071325 0.00031831342
0.050043412 0.04836423 -0.0046211518 -0.46892574 0.76088858 -0.44850552 0.0011584995
0.052232962 0.049564932 -0.005058812 -0.44322404 0.73785287 -0.50904381 0.0013322715
0.05421957 0.0504473 -0.0055585299 -0.4447071 0.72785372 -0.52198136 0.0026390466
0.070971109 0.050121468 -0.0056423969 0.68144131 0.11463614 -0.72283912 0.0032222364
0.072358958 0.049770031 -0.0035765134 0.87440485 0.011843547 -0.48505259 0.0051018428
-0.073272802 0.052628268 -0.0043554953 -0.6981836 -0.14930914 -0.70017594 0.0080414461
-0.071605459 0.052219335 -0.0057063499 -0.58375311 -0.034333274 -0.81120503 0.0073014903
-0.057072181 0.05369468 -0.0058365455 0.27495679 0.83083457 -0.48385203 0.0024094034
-0.055215761 0.053482201 -0.0050130743 0.27738941 0.81546783 -0.50800323 0.0016459199
-0.052362137 0.052446313 -0.0048703393 0.35532358 0.81459415 -0.45845565 0.0011302626
-0.050059833 0.051472303 -0.0044604936 0.38200447 0.80377698 -0.45608681 0.0007405479
0.053583998 0.051105298 -0.003634844 -0.50573695 0.78030688 -0.3679013 0.0019609469
0.05572075 0.051764708 -0.0048961588 -0.41693643 0.72619539 -0.54662997 0.0019658569
0.05844276 0.053118914 -0.0052824072 -0.3948144 0.69978833 -0.59533012 0.0035092467
0.060449876 0.053934436 -0.0057077468 -0.35932711 0.62490505 -0.69309288 0.0019524759
0.071091779 0.052756369 -0.005223 0.56785417 0.13833332 -0.81142193 0.0057454207
0.07229425 0.052492272 -0.0036373266 0.83750337 0.028526464 -0.54568708 0.0063585797
-0.075186312 0.055701062 -0.0032372656 -0.76404351 -0.039077621 -0.64398015 0.031420808
-0.073498972 0.055432156 -0.0046112943 -0.61293954 0.074981637 -0.78656399 0.018401101
-0.07123825 0.055926565 -0.0057738856 -0.31989655 0.20267326 -0.92552131 0.024427636
-0.066477388 0.056831557 -0.0058593391 0.073152296 0.52344072 -0.84891605 0.0095998598
-0.063957296 0.056276903 -0.0056104269 0.18041718 0.64976025 -0.7384181 0.00813716
-0.06152698 0.055910103 -0.004790795 0.31355304 0.7590121 -0.57060075 0.0062136371
-0.058709495 0.054914486 -0.0046437024 0.29706451 0.80485427 -0.51377261 0.0026980266
-0.056026869 0.054323133 -0.0039030223 0.29237571 0.82674658 -0.48063138 0.0021656386
0.059134793 0.054334436 -0.0042003407 -0.43383265 0.6803124 -0.59073192 0.0018532643
0.061584514 0.055546124 -0.0047101476 -0.42279601 0.66210836 -0.61875373 0.0052918061
0.063963585 0.056371164 -0.0054971557 -0.35516971 0.59553164 -0.72055292 0.014128678
0.068790883 0.05681055 -0.005973496 0.072701976 0.3366861 -0.93880612 0.024035551
0.070662491 0.05576155 -0.0051905192 0.4685092 0.17415927 -0.86612213 0.0078990441
0.072324276 0.055099394 -0.0034667072 0.77351701 0.031576451 -0.63298851 0.0083238427
-0.072963953 0.057628497 -0.0045621176 -0.49893349 0.29292676 -0.81563431 0.032129411
-0.070407368 0.058125455 -0.0051951911 -0.16058148 0.49004158 -0.85678047 0.014398918
-0.067716174 0.058313351 -0.0049111904 0.10174906 0.61470246 -0.78216881 0.0054184999
-0.064957254 0.057776567 -0.0045540864 0.22452611 0.65062189 -0.72545093 0.0042844252
-0.062589698 0.057469793 -0.0033921443 0.34574527 0.73285609 -0.58598816 0.0032244436
0.062611438 0.057353795 -0.0035416337 -0.4986845 0.59305811 -0.63213599 0.011760287
0.06476023 0.058462124 -0.0044150758 -0.49485159 0.48843977 -0.71871316 0.012654244
0.067454048 0.058635134 -0.0054505304 -0.072176874 0.3130511 -0.94698972 0.018615941
0.070503853 0.058587123 -0.0048239934 0.3766264 0.20161366 -0.90415961 0.011762265
0.072199777 0.058934644 -0.0036072014 0.48134413 0.069305681 -0.8737874 0.0086786635
-0.069043741 0.060135394 -0.0033935027 0.099373735 0.66870666 -0.73685575 0.017297385
-0.067959726 0.060035389 -0.0034632317 0.099373318 0.66870725 -0.73685515 0.017295698
0.06551411 0.061247628 -0.0034831788 -0.66134906 0.31094071 -0.68259305 0.01848826
0.067479238 0.061612573 -0.0044815973 -0.31891465 0.25797701 -0.91199851 0.02465328
0.070406616 0.061563063 -0.0045735477 0.16316995 0.13561831 -0.9772324 0.029062355
0.07251168 0.061894268 -0.0034298589 0.39672509 0.023628168 -0.91763335 0.017058704
0.065850995 0.063427396 -0.0030019376 -0.80223525 0.24812329 -0.5430041 0.020438518
0.067615829 0.064484991 -0.0038612001 -0.430446 0.20080101 -0.87999719 0.021592977
0.070490889 0.064480193 -0.0043441071 0.19029412 0.036399294 -0.98105204 0.026430255
0.072619557 0.064495303 -0.0034837611 0.31364563 -0.019414028 -0.9493416 0.025264269
0.068037927 0.067326687 -0.0036995232 -0.51919413 0.093449064 -0.84953207 0.017502934
0.07052812 0.06741222 -0.0043939217 0.020168111 -0.014671697 -0.99968892 0.022897914
0.072980076 0.067505971 -0.0037021574 0.48115581 -0.092178099 -0.87177539 0.012891236
0.068348736 0.070426971 -0.0034927053 -0.65698367 0.064525433 -0.75113839 0.020230919
0.070457675 0.070419252 -0.0044189119 -0.24334352 -0.036606196 -0.96924913 0.028456667
0.073194578 0.070581071 -0.0040950081 0.34526721 -0.1871894 -0.91964704 0.021478714
0.075194485 0.071872801 -0.0031825914 0.55463606 -0.21856354 -0.80287528 0.0049551581
0.068548001 0.073328726 -0.003427122 -0.67511833 0.058081269 -0.73541957 0.021673305
0.070383668 0.073464014 -0.004557569 -0.38632473 -0.010332634 -0.92230499 0.027060464
0.073473237 0.073530607 -0.0047428473 0.28815252 -0.15952469 -0.94420332 0.029891549
0.075658001 0.073543936 -0.0035500003 0.30306783 -0.2523675 -0.91894531 0.02941595
0.068733402 0.075815164 -0.0033367956 -0.61652684 0.14540561 -0.77379054 0.043861795
0.070288964 0.075766601 -0.0044771726 -0.46734101 0.11953406 -0.87595892 0.038379271
0.072893456 0.075374365 -0.0051352666 0.044725794 -0.15772101 -0.98647034 0.057933483
0.075017028 0.075025715 -0.0042647966 0.29685298 -0.23873524 -0.92459929 0.034422789
-0.015907465 0.0028544329 -0.0014000231 -0.2505413 -0.95561087 -0.1550383 0.0010396476
-0.013474653 0.00221391 -0.0016146634 -0.22867379 -0.95670563 -0.18006274 0.001476003
-0.010885059 0.0016957956 -0.0020269055 -0.16713747 -0.97012883 -0.17582704 0.0016514786
-0.0078019574 0.0012112457 -0.0016548863 -0.14514844 -0.96918845 -0.19901155 0.0023109994
-0.0043081157 0.00072984229 -0.0017256904 -0.10672709 -0.97477806 -0.19600281 0.0029200297
-0.0018213264 0.00060384907 -0.0019830698 -0.071826898 -0.97592366 -0.20594652 0.0027107878
0.0014152769 0.00040889636 -0.0015732455 -0.026212642 -0.98983991 -0.13974901 0.0041736118
0.0048810439 0.00043169211 -0.0021453078 0.022186968 -0.97744274 -0.21003196 0.0043420512
0.0073307804 0.00046521239 -0.0015516527 0.040653862 -0.98010427 -0.19427575 0.0012235078
0.010419804 0.00061613158 -0.0016340724 0.07536643 -0.9901036 -0.11838417 0.0040097032
0.013411395 0.00089237792 -0.0015453278 0.11635346 -0.98644906 -0.11567264 0.0034344383
0.01651793 0.0013037253 -0.0014775706 0.14661619 -0.98254931 -0.11445736 0.0027890832
0.019540697 0.0017765097 -0.0016318179 0.16475278 -0.97697973 -0.13552547 0.0022025821
0.022519372 0.0023973826 -0.0015603735 0.20220585 -0.97075272 -0.12942934 0.0013674857
0.024802655 0.0028733481 -0.0013913622 0.21235754 -0.97014266 -0.11716443 0.0015670537
-0.024787441 0.0058107548 -0.001555567 -0.34808907 -0.91813201 -0.18938757 0.00063214585
-0.02247867 0.0049286853 -0.0016066028 -0.33691892 -0.92109817 -0.19509977 0.00047409139
-0.019509586 0.003874114 -0.0016324484 -0.29192963 -0.94127268 -0.16965528 0.00063428952
-0.017382173 0.0033182267 -0.0019476343 -0.27262986 -0.94669724 -0.17157301 0.00083404942
0.026080549 0.0032229875 -0.0019151007 0.25535822 -0.95932275 -0.12038262 0.0015757742
0.028483268 0.0038759855 -0.0015213962 0.284127 -0.95282108 -0.10678907 0.0012031777
0.031432614 0.0047479128 -0.0014549401 0.2899445 -0.95212126 -0.096940078 0.00094367331
0.034073971 0.005637005 -0.0014699027 0.32441637 -0.94134122 -0.092901886 0.0015822111
-0.031378809 0.0084688962 -0.0015800698 -0.37437913 -0.90020674 -0.22241418 0.00045470204
-0.028471693 0.0072614974 -0.0017303393 -0.35687131 -0.90976995 -0.21204123 0.000983548
-0.026219623 0.0063797119 -0.0017332471 -0.35199809 -0.9124192 -0.20877862 0.0011459159
0.035488635 0.0062154918 -0.0018268123 0.3646526 -0.92639494 -0.093920022 0.0014989013
0.037567303 0.0069763423 -0.0015171735 0.36974138 -0.92444915 -0.093194433 0.0014562833
0.040517371 0.008202984 -0.0015011964 0.40256006 -0.90952897 -0.10345321 0.0015871509
0.042211093 0.0089069931 -0.00067871454 0.4184185 -0.90162414 -0.1095439 0.001360049
-0.039074954 0.011992519 -0.0014630585 -0.47297576 -0.8487792 -0.23636386 0.0012901105
-0.037459977 0.011254317 -0.0018113001 -0.42293251 -0.87560415 -0.23333555 0.00068099308
-0.034521546 0.0098055946 -0.0016621804 -0.40344068 -0.88449299 -0.23432411 0.00070909742
-0.032775044 0.0091165574 -0.00235837 -0.37447727 -0.89748311 -0.2330039 0.000956406
0.043551255 0.0096416492 -0.0015595362 0.43778631 -0.89229465 -0.11024261 0.0014012393
0.046388891 0.011056336 -0.0014844881 0.46614361 -0.8795321 -0.095569097 0.0014713292
-0.043000657 0.014213304 -0.001496398 -0.50630701 -0.83398956 -0.21935043 0.0025806006
-0.040463287 0.012832024 -0.0017436341 -0.46212715 -0.85453546 -0.23708171 0.00076458231
-0.038819399 0.012030683 -0.0021100487 -0.46487242 -0.85271049 -0.23828252 0.00038937354
0.047966953 0.012064634 -0.002372554 0.48027012 -0.87170595 -0.097311176 0.0019711473
0.049514197 0.012859581 -0.0016499446 0.50160772 -0.85966599 -0.096768133 0.0015917354
0.051961869 0.014281485 -0.0014298747 0.52721727 -0.84453422 -0.093828946 0.0016824324
-0.048351843 0.017862443 -0.0012750817 -0.57450885 -0.78531253 -0.23070286 0.0010356273
-0.046559427 0.016687408 -0.0016421735 -0.55912626 -0.794366 -0.23740384 0.002333198
-0.044513255 0.015308701 -0.0020418093 -0.55425465 -0.7983042 -0.23561028 0.0027369529
0.053343453 0.015271641 -0.0017988391 0.56772792 -0.81814229 -0.0912591 0.0016270078
0.055588529 0.016789561 -0.0014823135 0.57155067 -0.81368995 -0.10601202 0.0020187437
0.057205711 0.017876601 -0.0012091631 0.58912051 -0.80115974 -0.10526211 0.0025026686
-0.05175155 0.020454595 -0.0015811544 -0.59565216 -0.77709889 -0.20326272 0.0010725957
-0.049795549 0.018979864 -0.0015567726 -0.57288605 -0.78556901 -0.23384386 0.00088581181
0.058682807 0.019103928 -0.0015964045 0.61531603 -0.78094727 -0.1072735 0.0022740285
0.060439289 0.020549951 -0.0014384286 0.64973277 -0.75022721 -0.12250096 0.0032528038
-0.055024806 0.022972517 -0.001743049 -0.61043632 -0.7674225 -0.19603644 0.0009986168
-0.053101819 0.021482075 -0.0017633215 -0.59923863 -0.77365142 -0.20585562 0.00099366403
0.061871611 0.021929869 -0.0016286087 0.68929398 -0.71040285 -0.14213246 0.0016819946
0.063517027 0.023566317 -0.0014627508 0.72286147 -0.67035311 -0.16762479 0.0025734217
-0.058350757 0.025713667 -0.0017066328 -0.64394099 -0.73788071 -0.20216839 0.00083229627
-0.056637112 0.024256589 -0.0014792982 -0.62333113 -0.75258684 -0.21230005 0.0013873
0.064948313 0.025222829 -0.0016343091 0.75454432 -0.63435745 -0.16808744 0.0027484568
0.066159435 0.026619792 -0.0010677709 0.79697472 -0.59027433 -0.12809226 0.0030592883
-0.061422836 0.028594382 -0.0012701896 -0.71442246 -0.67615122 -0.18005572 0.0010943149
-0.059939478 0.027151309 -0.0024738968 -0.68174684 -0.71020186 -0.17559758 0.0008264815
0.067517102 0.0286278 -0.0014005564 0.80996346 -0.55209482 -0.19786477 0.0024467357
-0.064042516 0.031575929 -0.0019659379 -0.75224185 -0.62891626 -0.19645998 0.0017190459
-0.062847368 0.030310214 -0.0026586929 -0.74270672 -0.63547564 -0.21108638 0.0021968731
-0.00034695346 0.032927923 -0.0026690229 0.083832122 0.97356856 -0.21245363 0.00068193825
0.001621586 0.032942936 -0.001555606 0.058312964 0.95207298 -0.30026117 0.0016797566
0.004505367 0.032957979 -0.00078820065 0.022799283 0.95668709 -0.29022405 0.0027687098
0.0076073376 0.032967053 -0.00084576086 -0.056774653 0.95302969 -0.29750818 0.0022057237
0.010686619 0.032964833 -0.0022972638 -0.11806665 0.94257432 -0.3124325 0.002330245
0.068781517 0.030881774 -0.0022919907 0.83548516 -0.49657398 -0.23532705 0.0029441076
0.069467209 0.031881809 -0.0015307463 0.88483149 -0.44503728 -0.13789529 0.0037326426
-0.066698141 0.034858212 -0.0018132689 -0.7895124 -0.56918108 -0.22957143 0.0022174951
-0.065606073 0.033421919 -0.0017437345 -0.78434277 -0.60389423 -0.14183855 0.0017970207
-0.014031716 0.035512716 -0.0018315649 0.27097854 0.9116056 -0.30910501 0.0010150556
-0.010104572 0.034326814 -0.0028687764 0.18992028 0.92637831 -0.32519782 0.0023808805
-0.0075822785 0.034033235 -0.0014867013 0.16943884 0.95330596 -0.24999656 0.00075436709
-0.0044926475 0.033566266 -0.0014044262 0.1433216 0.96238399 -0.23081605 0.0012176938
-0.0027161138 0.03341781 -0.00075874449 0.11830176 0.97009271 -0.21195464 0.00062605954
0.013931858 0.033469442 -0.0014156261 -0.15195832 0.95784092 -0.24382274 0.00079467474
0.016726185 0.033893742 -0.0018611461 -0.19460563 0.96214998 -0.19077767 0.0022640519
0.019596666 0.03465347 -0.0013160252 -0.26249126 0.95530003 -0.1360158 0.0014611899
0.022388943 0.035376724 -0.0016870216 -0.28053877 0.95096201 -0.1302662 0.0012050038
0.024434606 0.035959695 -0.0016934378 -0.28938347 0.94789398 -0.13324505 0.0012324771
0.070617273 0.034449108 -0.0016003747 0.90597248 -0.37942818 -0.18774499 0.0030050082
-0.069247834 0.038451556 -0.0013360227 -0.85043645 -0.49866396 -0.16760695 0.0051980773
-0.068194695 0.037066069 -0.0019679854 -0.81114078 -0.5308041 -0.24555573 0.002852835
0.026090747 0.036462188 -0.0015835161 -0.27905598 0.95145172 -0.12987457 0.0011758428
0.028467089 0.037243467 -0.0015472006 -0.31809965 0.93435663 -0.16059379 0.0018601025
0.031576168 0.038375877 -0.0013744332 -0.36232701 0.92342991 -0.126477 0.0017566233
0.033266444 0.038960628 -0.0024228946 -0.43729794 0.89069992 -0.12419426 0.0017006716
0.071607843 0.037326239 -0.0017589347 0.92853802 -0.29937845 -0.21952154 0.0035372095
0.072278775 0.038906571 -0.00034429974 0.94703108 -0.26229626 -0.18529136 0.0046367431
-0.070232503 0.040379383 -0.0018481078 -0.8626253 -0.42810756 -0.26944664 0.0039001163
0.034696959 0.039729752 -0.0016701784 -0.43084753 0.89444858 -0.11971733 0.0017808228
0.037316378 0.041074101 -0.0017027986 -0.4892562 0.86147678 -0.13596378 0.001745378
0.071928382 0.039332695 -0.0028526997 0.91884536 -0.17853123 -0.35192302 0.0042890189
0.072398767 0.040473931 -0.0016087437 0.93963552 -0.16531518 -0.29959327 0.0022332885
-0.072190627 0.04452816 -0.0013710603 -0.91586095 -0.34526244 -0.20492077 0.0069628381
-0.07139691 0.043117087 -0.002099891 -0.88526517 -0.34040666 -0.31690526 0.0049601267
0.038753189 0.042012051 -0.0011648422 -0.52778846 0.83951461 -0.12905279 0.0018262465
0.040598452 0.043100003 -0.001515985 -0.52813953 0.83712995 -0.14241558 0.0019447609
0.04253304 0.044329546 -0.0016484711 -0.52349818 0.84807807 -0.081935227 0.0027467802
0.072768517 0.043468997 -0.0015835968 0.95754951 -0.10230731 -0.26950368 0.0017185813
-0.072732531 0.046650711 -0.0020268238 -0.8847965 -0.29921213 -0.35722172 0.0071823299
0.044044469 0.045368593 -0.0013135482 -0.53435802 0.8409788 -0.084948435 0.0029865261
0.046383467 0.046881836 -0.0016450087 -0.55534524 0.81783104 -0.15081154 0.0034148574
0.072905652 0.046474691 -0.0016043644 0.92867309 -0.01709315 -0.37050518 0.0012574729
-0.073819794 0.049654651 -0.0019126957 -0.83304316 -0.28932035 -0.47152176 0.0068100304
0.049428526 0.048918758 -0.0016577076 -0.5612005 0.81269491 -0.15678339 0.0029267373
0.051588513 0.050370626 -0.0016580991 -0.56353182 0.81383276 -0.14180365 0.0026325092
0.073041081 0.049528763 -0.0015231824 0.90411514 0.0020031519 -0.42728433 0.0021105255
-0.075413719 0.052915361 -0.0015096399 -0.85223931 -0.19570556 -0.48516738 0.025249779
-0.074612029 0.051831823 -0.0022948503 -0.78245068 -0.26351359 -0.56420875 0.009869569
-0.051133156 0.052736487 -0.0027969012 0.3729673 0.80873287 -0.45480388 0.00077108841
-0.04930523 0.051703349 -0.0029685032 0.40550247 0.7957691 -0.44979918 0.00097716227
0.053198207 0.051438749 -0.0016328514 -0.53588766 0.82126653 -0.1958206 0.0046159001
0.055537414 0.05293363 -0.0017382941 -0.54126161 0.81476384 -0.20783575 0.0046365522
0.057143457 0.053721182 -0.0026983586 -0.52668601 0.80627114 -0.26931185 0.0063385423
0.073176362 0.052608728 -0.0014073976 0.8584137 0.013276329 -0.51278627 0.0036863235
-0.075700872 0.055094033 -0.0020363785 -0.75318956 -0.076105416 -0.65338618 0.028579256
-0.060310315 0.056717876 -0.0023040634 0.36452073 0.77522355 -0.51590037 0.0019314343
-0.057990976 0.055573069 -0.0026282184 0.32839003 0.81039363 -0.48520324 0.0017387172
-0.054874368 0.054376606 -0.0025896595 0.30143553 0.84035802 -0.45048308 0.00085731928
0.058575656 0.055046152 -0.0016544395 -0.5861581 0.76279974 -0.27304819 0.0068032406
0.060739089 0.056614518 -0.0017444885 -0.62692326 0.73173374 -0.26745647 0.0092476867
0.073124237 0.055675112 -0.0017595637 0.7734803 0.0315773 -0.63303334 0.0083529139
-0.075324327 0.057143264 -0.002035703 -0.7864787 0.37741834 -0.48888317 0.12282041
-0.073882163 0.058184832 -0.0018878212 -0.49297065 0.71696854 -0.49288544 0.029474355
-0.07103774 0.05965019 -5.4938264e-05 -0.29422233 0.89638573 -0.33155084 0.013607102
-0.06600064 0.059549242 -0.0029547336 0.30164739 0.70173693 -0.64542556 0.0019007853
-0.064364098 0.059147246 -0.0022555967 0.33963585 0.70902574 -0.6180048 0.0027299505
-0.061793104 0.05753747 -0.0023208621 0.37569106 0.75540483 -0.53686112 0.0019957416
0.062500246 0.058166418 -0.0021558935 -0.68190652 0.55260605 -0.47919729 0.011604789
0.063629277 0.059526149 -0.0023787271 -0.66381538 0.53862101 -0.51888001 0.013249782
0.073249109 0.058564406 -0.0017812379 0.71746904 -0.012358987 -0.69648075 0.0054867025
-0.069207899 0.060456052 -0.0022898475 -0.16694219 0.92254728 -0.3479037 0.024526238
-0.067101926 0.060383275 -0.002406613 0.12362535 0.79758602 -0.59040093 0.023181675
-0.06596563 0.060092106 -0.0022017495 0.23361295 0.88183302 -0.40962863 0.037825156
0.064561486 0.061598077 -0.0019495286 -0.73711413 0.34894535 -0.57870531 0.017164536
0.073295087 0.061272297 -0.0023227301 0.45193475 0.062340435 -0.88987005 0.011369005
0.065422505 0.064350985 -0.0017275527 -0.79844874 0.24815775 -0.54854101 0.010669895
0.066292956 0.065166473 -0.0027246804 -0.74360317 0.2259755 -0.62927693 0.016081955
0.07388676 0.064955026 -0.002190239 0.52679485 -0.049217597 -0.84856629 0.0060981777
0.06580963 0.067054369 -0.0010941406 -0.78132677 0.19741166 -0.59207863 0.01046892
0.066588283 0.067649707 -0.002303631 -0.75668663 0.18163605 -0.62803954 0.010616067
0.074358016 0.067621537 -0.0024715418 0.52057779 -0.15064822 -0.84041888 0.0098048039
0.075246416 0.068258747 -0.0012708758 0.63408303 -0.18929289 -0.74973786 0.0060876608
0.06704741 0.070458949 -0.00191837 -0.75801867 0.13880709 -0.63729131 0.011966116
0.07476794 0.06974297 -0.0026576121 0.59002811 -0.23497893 -0.77243233 0.0085234111
0.075549521 0.070795774 -0.0021822164 0.58314282 -0.23663698 -0.7771405 0.0075395009
0.067505606 0.07343816 -0.0018295111 -0.7826187 0.1285989 -0.60907328 0.014033959
0.076454259 0.072907291 -0.0022339046 0.50106746 -0.23862368 -0.83185953 0.010683761
0.06788367 0.075873852 -0.0019644883 -0.75650686 0.13400996 -0.64010835 0.016754225
-0.018373115 0.0029116541 0.0022625935 -0.22742359 -0.97378498 0.004619129 0.0075799436
-0.016566409 0.002659579 0.0015140247 -0.24234077 -0.96846032 -0.057927445 0.0025380126
-0.013670515 0.0020028392 0.0014194305 -0.21836202 -0.97348046 -0.068218865 0.0011207527
-0.010513224 0.0014337066 0.0015687358 -0.16659179 -0.98600614 0.0062476657 0.0031990255
-0.0075577204 0.0010899864 0.0017173458 -0.13372572 -0.99089891 0.015388217 0.0038607002
-0.0046707755 0.00067369197 0.0010095192 -0.10754063 -0.99420065 0.00031233989 0.0035718572
-0.0014986921 0.00048531135 0.001452132 -0.046984475 -0.98518848 0.16491279 0.0058455714
0.0019628659 0.00030837249 0.0007106656 -0.0082303723 -0.99978292 -0.019139389 0.0018180369
0.004505448 0.00028181504 0.00089821138 0.032311447 -0.99947619 -0.0017893396 0.0020158391
0.0071167992 0.00044649921 0.0015267287 0.042207699 -0.99905622 0.010256826 0.0019068175
0.010526726 0.00056953868 0.001051354 0.059739076 -0.99759036 0.035279974 0.0039250185
0.01375458 0.00091407815 0.0012485951 0.11684959 -0.99313807 0.0047853668 0.0014875614
0.016656909 0.0013146672 0.0013488962 0.15033998 -0.98825884 0.027247621 0.002016685
0.019433055 0.0016721326 0.0008871234 0.17701001 -0.98405051 0.017665304 0.002392102
0.022459622 0.0023307824 0.0011312494 0.19704422 -0.98013866 0.022401603 0.0017201854
0.024795182 0.0028110528 0.00077476189 0.22789234 -0.97361052 -0.012151106 0.0010984823
-0.027398214 0.005838553 0.0018800184 -0.34156945 -0.92721498 -0.1536317 0.0057241987
-0.025301918 0.0053701284 0.0014582523 -0.31393695 -0.93553489 -0.16192017 0.0023838673
-0.022427334 0.0044350126 0.0013448616 -0.31768653 -0.9393031 -0.12955676 0.0016640754
-0.019544194 0.0034806363 0.0014623409 -0.29029438 -0.95207918 -0.09630347 0.0012317024
-0.017763687 0.0032128906 0.00053788052 -0.26634631 -0.95756644 -0.11011896 0.0015138583
0.026361756 0.0032121786 0.0011572948 0.25885624 -0.96591562 0.00067666656 0.0015272002
0.028637426 0.0038843378 0.0011703973 0.29049101 -0.95687771 -3.7993352e-05 0.0012841956
0.031538006 0.0047686612 0.0012297982 0.30611345 -0.95156229 0.028700138 0.0018084912
0.033968858 0.0055543995 0.00099295913 0.3269977 -0.9443602 0.035444666 0.0020417569
-0.034130964 0.0085538635 0.0016315616 -0.38653052 -0.90436816 -0.18086588 0.0026837683
-0.031526107 0.0077789766 0.0013550293 -0.36283064 -0.91292197 -0.18688884 0.0018677824
-0.028674668 0.0067148209 0.0012406027 -0.35441875 -0.91475719 -0.19392419 0.0022289518
-0.026449278 0.0062320251 0.00059281423 -0.33729443 -0.92365646 -0.18191001 0.0021141644
0.035425059 0.0061608474 0.0014686505 0.35747573 -0.93233967 0.054349281 0.0011779476
0.037379485 0.006900575 0.0013612148 0.37309933 -0.92587841 0.059548587 0.0011945838
0.040471047 0.0081675034 0.0012126758 0.38854146 -0.92123538 0.018997928 0.0015688252
0.042245131 0.0089346459 0.0004776495 0.4134576 -0.9023602 0.12165071 0.0021352465
-0.040077772 0.011443197 0.0016314167 -0.46498933 -0.86260176 -0.19925646 0.0035923824
-0.037482858 0.010394176 0.0012858796 -0.43603656 -0.87436903 -0.21295793 0.0018882025
-0.03489 0.0094566578 0.00091060996 -0.40681231 -0.88851726 -0.21222824 0.0013861912
0.043531649 0.0096221939 0.0013087525 0.44495982 -0.89532042 0.020300053 0.0016599927
0.046481166 0.011141714 0.0015677521 0.47942308 -0.87677926 0.037571337 0.001436721
0.048131622 0.01199725 0.0010216027 0.48611522 -0.87386477 -0.0072427788 0.00021043629
-0.04557009 0.014500454 0.0019090729 -0.534545 -0.81215346 -0.23381272 0.0038009286
-0.043457191 0.013530135 0.0014352339 -0.51391292 -0.82241309 -0.24398832 0.0034141988
-0.040987976 0.012496565 0.00096223346 -0.48268768 -0.84658837 -0.22427824 0.0032862152
0.049604423 0.012903046 0.0013523471 0.50570524 -0.86099464 0.054318797 0.0012492578
0.05194157 0.014300071 0.001398563 0.52188438 -0.85299033 0.0066529843 0.0028547603
-0.049103726 0.017197246 0.0017519338 -0.56126815 -0.7930153 -0.23686466 0.0033662077
-0.04678278 0.015924912 0.001358395 -0.55416471 -0.79512465 -0.24632971 0.0036499789
-0.044758122 0.015130294 0.00076839811 -0.51900947 -0.82113212 -0.23742628 0.0035444878
0.053596452 0.015396828 0.001161406 0.55106753 -0.83445805 0.0020870352 0.00025461146
0.055393584 0.016705483 0.0015776163 0.57900119 -0.8153072 0.0056425761 0.00029266847
0.057148673 0.017852936 0.0010481696 0.59933078 -0.80050147 -1.1740639e-05 0.00050560141
-0.054322969 0.020649135 0.0025124908 -0.60869151 -0.75894785 -0.23128518 0.0069370531
-0.052325711 0.019771624 0.0016850572 -0.58741486 -0.7606982 -0.27619201 0.0037311539
-0.050208554 0.018610945 0.0011852087 -0.57766116 -0.76882958 -0.27424207 0.0023058902
0.058683373 0.019151725 0.0015772978 0.62791228 -0.77823651 -0.0086104115 0.00079495506
0.060395859 0.020505622 0.0013022124 0.66299331 -0.74827403 -0.02293138 0.00088525249
-0.057487715 0.023707518 0.0022243548 -0.65832645 -0.71699071 -0.22919546 0.0026324152
-0.055586461 0.022493465 0.0016184417 -0.62361681 -0.73550558 -0.26482761 0.0044968883
-0.053601403 0.021471271 0.00096317753 -0.58627975 -0.76323986 -0.27155304 0.0036977783
0.061573602 0.02154216 0.00067249633 0.67925608 -0.73282129 -0.039801471 0.0018038271
0.06331268 0.023364279 0.0015093251 0.72778773 -0.68572766 -0.010131679 0.00052772119
-0.06037854 0.026494553 0.0023472707 -0.71453285 -0.67195511 -0.19472885 0.001002441
-0.058696106 0.02525766 0.0016461468 -0.67215598 -0.70811456 -0.21628727 0.0017426759
-0.056951676 0.024284801 0.00068682962 -0.64714468 -0.73407346 -0.20576689 0.0022877175
0.065024987 0.025361022 0.0017307348 0.76332963 -0.6459583 -0.0081125526 0.00094366691
-0.063122794 0.029656269 0.0024221856 -0.76672059 -0.62849551 -0.1308931 0.00063809316
-0.061629195 0.028244106 0.0017710282 -0.73062414 -0.66432327 -0.15767998 0.001077052
0.067188717 0.028194821 0.0015603321 0.82025647 -0.56828403 -0.065059185 0.0021311543
-0.06417504 0.031187812 0.0018644215 -0.77487254 -0.6218695 -0.11336153 0.0011267329
-0.062934242 0.030002473 0.00098629599 -0.75775647 -0.64029282 -0.12581865 0.00085112959
0.06852787 0.030278811 0.0015931189 0.869232 -0.49196541 -0.049048454 0.0017491847
0.069066636 0.030969119 0.00072648731 0.86785364 -0.48783875 -0.09403991 0.0035344663
-0.066865668 0.034789719 0.0014887357 -0.81921482 -0.57320619 -0.017938029 0.00075172685
-0.065787472 0.033364411 0.0016574836 -0.80724841 -0.58872175 -0.041914355 0.00054577773
0.020753434 0.03499959 0.0015738934 -0.26730359 0.95577574 -0.12264424 0.0013608843
0.023917804 0.035983611 0.00020206305 -0.28133121 0.95781136 -0.058738701 0.0003133869
0.070602439 0.034226328 0.0010768843 0.91255158 -0.39746016 -0.096307494 0.0025265762
