# .PCD v0.7 - Point Cloud Data file format
VERSION 0.7
FIELDS x y z normal_x normal_y normal_z curvature
SIZE 4 4 4 4 4 4 4
TYPE F F F F F F F
COUNT 1 1 1 1 1 1 1
WIDTH 554
HEIGHT 1
VIEWPOINT 0 0 0 1 0 0 0
POINTS 554
DATA ascii
-0.062128007 0.043620106 -0.011640263 -0.40325725 0.026739027 -0.91469592 0.0044041974
-0.048613597 0.044748902 -0.011842729 0.21159768 0.61057168 -0.76317012 0.002283188
-0.046252962 0.044329543 -0.011394498 0.26819342 0.64435291 -0.71615756 0.0017983128
-0.043413177 0.043661792 -0.010768566 0.30658573 0.66071904 -0.68516827 0.001231054
-0.040701948 0.042961035 -0.010120436 0.34846336 0.70670682 -0.61574239 0.0016149405
-0.038316563 0.042329121 -0.0094843833 0.36759326 0.71893871 -0.58991724 0.001331698
0.044793468 0.042150635 -0.00928145 -0.42086351 0.68745273 -0.59184682 0.0024588013
0.046819117 0.042756647 -0.0098163681 -0.38235724 0.67659289 -0.62930524 0.0015279794
0.049550395 0.04349051 -0.010481939 -0.30871886 0.63605624 -0.70719528 0.0013146572
0.052334208 0.043999109 -0.01118745 -0.25248328 0.58479476 -0.77088737 0.0013982385
0.055236783 0.044521824 -0.011671699 -0.17520566 0.54423845 -0.82043129 0.0024158692
0.058365267 0.044819444 -0.01190543 -0.040096465 0.45369598 -0.89025402 0.0039816266
0.062053245 0.044446737 -0.011835809 0.15815042 0.30216074 -0.94004649 0.0052851294
0.06451346 0.043576028 -0.011265378 0.38620588 0.18009637 -0.90466034 0.0049136425
0.067067854 0.043493968 -0.0098564876 0.54175532 0.096583314 -0.83496875 0.0034966816
-0.066471696 0.046501417 -0.009302401 -0.52872038 0.038300887 -0.84793144 0.0053698495
-0.064492099 0.046522439 -0.01033092 -0.38843948 0.14886612 -0.90936995 0.0064402572
-0.06154504 0.046628565 -0.011357144 -0.23596576 0.27501547 -0.93203366 0.005747491
-0.058585566 0.047144581 -0.011632047 -0.042315874 0.41866097 -0.90715623 0.0046204808
-0.055454135 0.047182065 -0.011529959 0.082792722 0.51203912 -0.85496277 0.0027547311
-0.052412391 0.046912353 -0.011215216 0.17642672 0.57742822 -0.79715121 0.0018808317
-0.049506668 0.046510648 -0.010647435 0.24171358 0.62415332 -0.7429719 0.0011164296
-0.046670523 0.045947164 -0.010014305 0.32280546 0.67990369 -0.65842807 0.0017522176
-0.044217754 0.04535237 -0.0094000837 0.35649452 0.70203424 -0.61648965 0.0015369271
0.050582539 0.045302588 -0.0092500271 -0.3675895 0.66655761 -0.64852047 0.0020893777
0.052745897 0.04588756 -0.0097609675 -0.32002404 0.64576864 -0.69322968 0.0019328948
0.05554967 0.046490509 -0.010330441 -0.23943287 0.58344358 -0.77605766 0.0022615569
0.058458973 0.046563406 -0.010953862 -0.093290932 0.50070494 -0.86057615 0.002929847
0.06146488 0.046571087 -0.011066414 0.080844805 0.40720585 -0.90975136 0.0061061033
0.064469583 0.04648599 -0.010547708 0.29243186 0.29508904 -0.90961862 0.0075619058
0.066880926 0.046454355 -0.0095241964 0.47897512 0.19474503 -0.85595405 0.0045878943
-0.066342436 0.048741344 -0.009151266 -0.38239998 0.21637501 -0.89830518 0.0083992248
-0.064403504 0.049472254 -0.0096588479 -0.25675428 0.29385856 -0.92071956 0.0059297136
-0.06149238 0.04950941 -0.010232384 -0.1347506 0.43010581 -0.89266521 0.006522316
-0.058496904 0.049533188 -0.010289603 0.063218936 0.55693501 -0.82814652 0.0032674484
-0.055548195 0.049271356 -0.010077629 0.14879045 0.61530131 -0.77412254 0.0033101225
-0.052647382 0.048754394 -0.0097304583 0.23813277 0.65989369 -0.71262413 0.0024050488
-0.050355744 0.048299257 -0.0093161901 0.30312246 0.6842944 -0.6632179 0.0018439289
0.056450088 0.048292335 -0.0092118084 -0.29145879 0.63034099 -0.71952891 0.00265187
0.058715448 0.048760872 -0.0095458003 -0.18721478 0.58223629 -0.79117101 0.0038488721
0.061573099 0.049197733 -0.009692831 -0.034331162 0.49968553 -0.86552632 0.004881578
0.064348437 0.049247961 -0.0095429858 0.16896683 0.38587609 -0.90694541 0.0064320969
0.066399634 0.048675507 -0.0092057735 0.39727527 0.29037347 -0.87054902 0.0061026253
-0.063530251 0.051274609 -0.0091027468 -0.15321094 0.4771125 -0.86538434 0.010018016
-0.061448116 0.051245186 -0.0092163691 -0.022596845 0.56887883 -0.82211077 0.0049244114
-0.058965471 0.051169816 -0.0091612469 0.09237688 0.64206666 -0.76106304 0.0028542457
-0.0099038249 0.0028490678 -0.0062790178 -0.1714244 -0.88679934 -0.42918605 0.0017656643
-0.0075380993 0.0026943171 -0.006660895 -0.12323657 -0.85182685 -0.50912064 0.0012122489
-0.0044408771 0.0026759226 -0.0072696824 -0.090085223 -0.83996373 -0.53511274 0.00139309
-0.0014681281 0.0025645331 -0.0074826684 -0.054924712 -0.8479833 -0.52716941 0.0013676924
0.0015319138 0.0023678234 -0.0074001937 -0.022850854 -0.85042912 -0.5255931 0.0015908586
0.0043601594 0.0022001001 -0.007170137 -0.0030529359 -0.85332948 -0.52136308 0.0016879925
0.0074370103 0.0025490858 -0.0077200704 0.030642308 -0.86364019 -0.50317651 0.0015605374
0.010123022 0.0022161785 -0.0068626115 0.054486178 -0.88198578 -0.46811557 0.0012324714
0.013005924 0.0025675015 -0.0071123978 0.073103927 -0.86728239 -0.4924196 0.001331878
0.016111506 0.0027122854 -0.0067232251 0.10317733 -0.87985182 -0.4639129 0.0011031764
0.018902417 0.0028753551 -0.0063173585 0.15826176 -0.8977831 -0.41102144 0.00082909106
-0.021331683 0.0058648596 -0.0062764385 -0.31797454 -0.8366226 -0.44604349 0.0015849886
-0.019225284 0.0055148676 -0.006853112 -0.26923323 -0.82133734 -0.50291002 0.0012163065
-0.016379481 0.0051031369 -0.0076018199 -0.22593512 -0.82639259 -0.51577967 0.0010455728
-0.01340923 0.0043926728 -0.0076543768 -0.1859611 -0.82908642 -0.52728939 0.0017276935
-0.010565164 0.0038998527 -0.0078235073 -0.15337308 -0.82208502 -0.54831827 0.0014121896
-0.0075483844 0.0037367917 -0.0083264131 -0.11513302 -0.81516343 -0.56767321 0.0015244205
-0.0044832458 0.0034082823 -0.0084247384 -0.084148772 -0.81944931 -0.56694067 0.0011000262
-0.0016479495 0.0033891625 -0.0087468075 -0.062186532 -0.81761956 -0.57239068 0.001882633
0.0014658658 0.0032888921 -0.0087922085 -0.027096594 -0.81584662 -0.5776332 0.0014902788
0.0047756 0.0032234211 -0.0088476809 -0.0019357428 -0.8281005 -0.56057632 0.0014446146
0.0070013823 0.0030856787 -0.0086119594 0.023771744 -0.84042615 -0.54140455 0.0015552879
0.01073039 0.0032686086 -0.0086410437 0.050022669 -0.83598357 -0.54646975 0.0013916491
0.013695577 0.00342615 -0.0085205939 0.075784579 -0.83813477 -0.54017287 0.0014853821
0.016592469 0.0035763842 -0.0082280794 0.10316687 -0.8442384 -0.52594495 0.0012426222
0.019399991 0.003824105 -0.0079107629 0.13830465 -0.84271336 -0.52029419 0.0010152997
0.022418087 0.004393178 -0.0079284906 0.17395353 -0.84055001 -0.51304573 0.00094816502
0.025239853 0.0049840594 -0.0078626405 0.19628042 -0.83861941 -0.50812542 0.00092257222
0.02786717 0.0055401083 -0.0076300632 0.22250515 -0.83764321 -0.49884397 0.00094744877
0.030638084 0.0057589212 -0.0064322045 0.27604437 -0.86081147 -0.42755479 0.00098754955
-0.028049948 0.008696747 -0.0066094957 -0.3262668 -0.8202371 -0.46985212 0.0010396052
-0.025279835 0.0081683304 -0.0075537772 -0.30772448 -0.80454469 -0.50795031 0.0014676
-0.02251116 0.0072456351 -0.0077708336 -0.29580113 -0.80223489 -0.51857579 0.0013049642
-0.019729625 0.0065241107 -0.008229618 -0.26271746 -0.7984997 -0.54164356 0.0016588945
-0.017565804 0.0062541715 -0.008812529 -0.23980629 -0.78392714 -0.57267028 0.0015234087
0.028675035 0.0062445793 -0.0085395705 0.22012988 -0.81856894 -0.53055418 0.0010422322
0.031417154 0.0067910869 -0.0080174692 0.25963488 -0.82295698 -0.50530344 0.0007341046
0.034511719 0.0078180255 -0.0079513006 0.29474387 -0.8090381 -0.50851101 0.00080312823
0.037481904 0.008696802 -0.0074902847 0.32224372 -0.80451953 -0.49890614 0.00073004549
0.039187104 0.0087813418 -0.0063056173 0.3743113 -0.83606446 -0.40110755 0.0019054689
-0.03623499 0.011886639 -0.0061325887 -0.39745829 -0.82234257 -0.40716031 0.0019051034
-0.034076329 0.011498312 -0.0071347351 -0.36001351 -0.79695755 -0.48502463 0.0010499763
-0.03152474 0.010834032 -0.007834564 -0.3328712 -0.79470509 -0.50758308 0.0011533246
-0.028653547 0.0097533204 -0.0079985894 -0.31599396 -0.79718971 -0.51442826 0.0015039846
-0.026534958 0.0093655037 -0.0086714393 -0.3022382 -0.77632737 -0.55314356 0.0015182014
0.038133796 0.0094917174 -0.0084594646 0.32552612 -0.79668081 -0.50924695 0.00095433724
0.04052623 0.010335301 -0.0080985595 0.35219806 -0.78893876 -0.50351971 0.00079173164
0.043199789 0.011423816 -0.0077815088 0.38646549 -0.78035909 -0.49161384 0.00077198335
0.045355693 0.011809352 -0.0064648916 0.4333466 -0.80112833 -0.4128004 0.00091298716
-0.042030748 0.014925138 -0.0060813637 -0.50704283 -0.7794466 -0.36792737 0.0035622846
-0.039936341 0.014376532 -0.0071154987 -0.43097371 -0.76405239 -0.48008928 0.0011871053
-0.037503682 0.013451149 -0.0077086678 -0.39287177 -0.78225571 -0.48345408 0.001058084
-0.034921259 0.012573976 -0.0082805585 -0.35508499 -0.77679551 -0.5200994 0.0012069781
0.04422158 0.0123577 -0.0085503887 0.4022513 -0.77945167 -0.48025915 0.0011937034
0.046257596 0.013265475 -0.0081793144 0.42826486 -0.75786048 -0.49217552 0.00069858698
0.048796792 0.014484718 -0.0077604363 0.45191634 -0.73947555 -0.49894643 0.00065431732
-0.045485344 0.017646234 -0.0066512851 -0.50613803 -0.72594595 -0.46564668 0.00092079875
-0.043287545 0.016800623 -0.0076813377 -0.47188482 -0.71955901 -0.50946999 0.0010971952
-0.040923517 0.015610218 -0.0081828358 -0.43599144 -0.74363768 -0.50686729 0.0016676779
0.050014012 0.015612386 -0.0083922343 0.45808005 -0.71726823 -0.52506095 0.00094759621
0.052029599 0.01660776 -0.0078494428 0.49236238 -0.71302885 -0.49916846 0.00081680546
0.054545809 0.017645545 -0.0066413968 0.53012961 -0.7160368 -0.45415181 0.00094392255
-0.048654687 0.020358607 -0.0072633368 -0.5250755 -0.69377762 -0.49291825 0.00089078076
-0.046582613 0.019240776 -0.0078762267 -0.50262034 -0.69404662 -0.51543391 0.0010409916
-0.044537254 0.018270897 -0.0085706115 -0.48656124 -0.68687052 -0.53987688 0.0015758609
0.053509172 0.018191572 -0.0086889081 0.49326873 -0.67363602 -0.55036396 0.0010535808
0.055674646 0.019404156 -0.0080097718 0.53205252 -0.66104704 -0.5290907 0.0012737748
0.057552673 0.020364899 -0.0071416795 0.56846434 -0.66182047 -0.48871458 0.0012199045
-0.054337688 0.02387416 -0.0061054286 -0.55557585 -0.71188533 -0.42959839 0.00061735505
-0.05222372 0.023174746 -0.0074413018 -0.53022903 -0.6863206 -0.49781653 0.001046659
-0.049922742 0.021912474 -0.0081302309 -0.52180791 -0.68109858 -0.51363522 0.0014759138
-0.047982257 0.021137424 -0.0089011174 -0.51157326 -0.66841716 -0.53991801 0.00070248102
0.05679274 0.021158675 -0.0089970967 0.53527766 -0.6054492 -0.58898997 0.00094297633
0.059028223 0.022017533 -0.0076418989 0.58348727 -0.60320014 -0.54377598 0.0010474368
0.060760938 0.023347093 -0.007184661 0.60740632 -0.57362199 -0.54955918 0.0010704144
-0.057266276 0.026727227 -0.0067001153 -0.59311455 -0.65501648 -0.46815449 0.0010535533
-0.055494267 0.025830969 -0.0075438991 -0.56153637 -0.65660113 -0.50353938 0.0012077129
-0.053291619 0.024548495 -0.008231679 -0.53324783 -0.66985232 -0.51666683 0.00097608799
0.061938494 0.02538066 -0.0080082975 0.62423223 -0.53901768 -0.56550336 0.0012258396
0.063576519 0.026584188 -0.0072228843 0.66750866 -0.5081113 -0.54429322 0.0011886164
-0.06036571 0.029805694 -0.0067388532 -0.63973361 -0.58963692 -0.4930205 0.001519659
-0.058349621 0.028553154 -0.0076579205 -0.60762602 -0.60696518 -0.51223409 0.0015308746
-0.056539379 0.027460745 -0.0084360084 -0.57203758 -0.61054158 -0.54773355 0.0013188042
-0.00085157785 0.029969946 -0.0089671705 0.079842903 0.78448093 -0.61499166 0.0007595747
0.002147441 0.029858047 -0.0089211222 0.025989724 0.78516579 -0.61874008 0.00078566303
0.0044691795 0.029884372 -0.0088752592 0.0047113984 0.82163799 -0.56999022 0.0021416238
0.0073750345 0.029942511 -0.008883534 -0.025375249 0.80583966 -0.59158981 0.0024870455
0.0098828757 0.029934816 -0.0089562871 -0.075142168 0.8060959 -0.58699495 0.00046802344
0.062770233 0.027238226 -0.0086812824 0.63168663 -0.50934899 -0.58441049 0.0021374789
0.064452574 0.028484019 -0.00785085 0.68715757 -0.45410118 -0.56710374 0.0015167866
0.066133477 0.029271688 -0.0062752855 0.71887934 -0.44202811 -0.53649205 0.0015009635
-0.063207589 0.032727432 -0.0063224952 -0.68546116 -0.56080514 -0.4643712 0.0019828153
-0.061359245 0.031713631 -0.0074888491 -0.65681124 -0.53558266 -0.53080148 0.0020309351
-0.059618454 0.030422797 -0.0082745468 -0.61916733 -0.56036896 -0.55010778 0.0013799777
-0.015304908 0.03289606 -0.0089273369 0.2491035 0.75719285 -0.60382646 0.0015421212
-0.013011989 0.032643128 -0.0084879445 0.22756892 0.80055726 -0.55436498 0.0012997087
-0.010364707 0.032341819 -0.007918369 0.19265147 0.83883679 -0.50915444 0.0015800182
-0.0074773845 0.031916045 -0.0076015089 0.15980612 0.85535914 -0.49277049 0.0014177555
-0.00451488 0.031438429 -0.007613136 0.12115072 0.85148501 -0.51019192 0.0026438606
-0.0015084525 0.031093845 -0.0075639263 0.088357992 0.85298115 -0.51440841 0.0022204083
0.0014962779 0.030877113 -0.0075500212 0.048545141 0.85922408 -0.50929105 0.0021342149
0.0044988194 0.030786859 -0.0075543113 0.0052610356 0.8619417 -0.50698024 0.0021062836
0.007517057 0.030815924 -0.0075584301 -0.039330147 0.85867423 -0.51101047 0.0020181013
0.010528482 0.030993057 -0.0076231095 -0.072749972 0.86265618 -0.50053138 0.0018934914
0.013465467 0.031337868 -0.0075691049 -0.12540329 0.86420041 -0.48726961 0.0027535551
0.016468214 0.031867426 -0.0075640935 -0.18508616 0.86613393 -0.46427915 0.0016337264
0.019346116 0.032375053 -0.0079123573 -0.21939674 0.84281772 -0.49145019 0.0015136056
0.021881564 0.032711204 -0.0085348198 -0.2399196 0.82119191 -0.51776683 0.0013264543
0.024103394 0.032920551 -0.008976277 -0.25526014 0.76880372 -0.58633024 0.0012809322
0.065621465 0.031004958 -0.0083364556 0.69629109 -0.35683218 -0.62277561 0.001430781
0.066841625 0.031870332 -0.007369651 0.72355801 -0.37003759 -0.58269715 0.00185663
-0.063976444 0.03489127 -0.0073160618 -0.67822087 -0.47103196 -0.56404364 0.0018243075
-0.062373161 0.033897918 -0.0083608059 -0.65061015 -0.4576236 -0.60604215 0.0023171282
-0.024265271 0.035984781 -0.0089665446 0.3353453 0.74566323 -0.57578629 0.0017830133
-0.022021534 0.035638455 -0.0083624553 0.3074778 0.8077991 -0.50290954 0.0017194735
-0.019389255 0.035059206 -0.0077135582 0.29560274 0.83066082 -0.47182798 0.0015142775
-0.016481807 0.03415532 -0.0076022167 0.25437707 0.83455491 -0.48868242 0.0018570164
-0.013677284 0.033605572 -0.0071648299 0.22567117 0.84853393 -0.478605 0.0017972809
-0.010952969 0.033258345 -0.0064933915 0.19623606 0.8654201 -0.46102002 0.0015032726
0.01989576 0.033279572 -0.0065106978 -0.22538637 0.86495256 -0.44839504 0.0014670184
0.022694053 0.033666261 -0.0072465953 -0.24206817 0.85427231 -0.46002379 0.0016778
0.025502622 0.034325723 -0.0075946879 -0.25909334 0.84580952 -0.46634424 0.0016334887
0.028388815 0.035151113 -0.0077901767 -0.28562441 0.84175533 -0.45811206 0.0014570971
0.030874653 0.035656933 -0.0084542679 -0.30415404 0.82124192 -0.48275459 0.0015894287
0.067581579 0.034403883 -0.0078958878 0.72507453 -0.27099639 -0.63310963 0.0017156925
0.069146499 0.035654806 -0.0063861571 0.7988379 -0.30550373 -0.51819444 0.0035361862
-0.066607296 0.038153984 -0.0067026974 -0.70750916 -0.42355454 -0.565714 0.002262726
-0.06493111 0.037391286 -0.0080843642 -0.66748136 -0.38175216 -0.63932306 0.0026122162
-0.030283425 0.038902845 -0.0087436726 0.36331651 0.7740072 -0.51856917 0.0025502273
-0.028190115 0.038411576 -0.0080531249 0.36357561 0.79427779 -0.48676032 0.0017255704
-0.025479103 0.037478816 -0.0075787636 0.34075618 0.81081045 -0.47589043 0.0019920797
-0.02274129 0.036602829 -0.0071678758 0.32123038 0.82499295 -0.46497065 0.0015490282
-0.020439567 0.036158942 -0.0062995031 0.31489709 0.84176499 -0.43848771 0.0014604653
0.029405104 0.036205735 -0.0064501241 -0.30732349 0.85121745 -0.42541865 0.0013634888
0.031777535 0.036631111 -0.0072711129 -0.31287333 0.83784735 -0.44735011 0.0017191215
0.034525052 0.037576221 -0.0075948392 -0.36134255 0.81688684 -0.44958591 0.0026167855
0.037010763 0.038460582 -0.0081382534 -0.41191801 0.78455108 -0.4634687 0.0025156515
0.039041914 0.03898238 -0.008947541 -0.39887038 0.70564234 -0.58563763 0.0014766988
0.068371579 0.037325758 -0.0081233997 0.73741311 -0.17401639 -0.65264088 0.0018132022
0.069566771 0.037987031 -0.0068405634 0.76614797 -0.17367989 -0.61875081 0.0018275786
-0.069053113 0.041877285 -0.0061349394 -0.75089824 -0.32964364 -0.57226467 0.0076566814
-0.067148641 0.04075643 -0.0075751301 -0.68831092 -0.27869755 -0.66974312 0.0022728746
-0.065644853 0.039756514 -0.0086910343 -0.63919568 -0.26077348 -0.72348189 0.0025412256
-0.036293283 0.041826602 -0.0087889461 0.3833718 0.74782246 -0.54202175 0.0022122471
-0.034244921 0.041315164 -0.0079903835 0.39295948 0.78561622 -0.47790164 0.0015258443
-0.031567235 0.040255185 -0.0075766626 0.37250301 0.79224539 -0.4833101 0.0016382037
-0.029014992 0.039435599 -0.0068766535 0.37594193 0.80783933 -0.45394191 0.0012891522
0.035940476 0.03912992 -0.0061735935 -0.47579825 0.80815399 -0.34713575 0.0031844047
0.037992883 0.03960222 -0.0071126148 -0.43172759 0.78324401 -0.44737005 0.0017123047
0.04043074 0.040715959 -0.0076065683 -0.45369074 0.77152652 -0.44599506 0.0014026448
0.04274055 0.041570112 -0.0083858138 -0.44022101 0.72691941 -0.52706128 0.0019725405
0.06859608 0.040342879 -0.0084983325 0.70968747 -0.07207036 -0.70082068 0.0020440104
0.069874242 0.040733725 -0.0071009076 0.76466358 -0.094460934 -0.63746899 0.0018367138
-0.069430158 0.044036876 -0.0064276485 -0.72386277 -0.21927655 -0.65417165 0.0022275709
-0.067732044 0.043481294 -0.0079841632 -0.6622811 -0.18168776 -0.72689295 0.0030221168
-0.042334307 0.044880763 -0.0087615419 0.3696138 0.73174644 -0.57265413 0.0014168674
-0.040186688 0.044312928 -0.0080173705 0.3929345 0.76801836 -0.50571746 0.001850477
-0.037546944 0.043238889 -0.0075617475 0.37956885 0.78714836 -0.48613268 0.0016289153
-0.035263389 0.042403787 -0.0070015867 0.40363115 0.79219174 -0.45772713 0.0012824914
0.041674953 0.042235151 -0.0062978561 -0.47689855 0.76317239 -0.4360455 0.0012243829
0.043755766 0.042900141 -0.0073025306 -0.45311874 0.75186437 -0.47893983 0.0019028853
0.046294164 0.04407531 -0.0078235669 -0.43496698 0.74013871 -0.51283365 0.0022689938
0.048542086 0.044717211 -0.0086799469 -0.4006812 0.69779915 -0.59374315 0.0018419805
0.068548493 0.043437507 -0.008684596 0.68978107 0.031289071 -0.72334146 0.0026596854
0.069867425 0.043590974 -0.0073206439 0.74410939 -0.00062174263 -0.66805738 0.0027883814
-0.069663726 0.04660384 -0.0067703151 -0.67637444 -0.10039788 -0.7296834 0.0039873738
-0.067933843 0.046518892 -0.0082813166 -0.59353924 -0.041523013 -0.80373317 0.0027231399
-0.048311837 0.047796298 -0.0088168913 0.32198125 0.70389283 -0.63313746 0.0022856421
-0.046223033 0.047351748 -0.0081034107 0.36773252 0.75238413 -0.54652631 0.0027056395
-0.043562099 0.046361934 -0.0075705484 0.38423154 0.77599484 -0.50019807 0.0015748832
-0.041074265 0.045497674 -0.0068832557 0.4114036 0.77847844 -0.47404468 0.0013924595
0.047284845 0.045462471 -0.0066635287 -0.4565247 0.74604553 -0.48476928 0.002011365
0.049599633 0.046230529 -0.0074894261 -0.39666998 0.73670268 -0.54765147 0.0017151391
0.052165616 0.047211718 -0.0080802208 -0.37366685 0.69341934 -0.61607033 0.0025846299
0.054451343 0.047819149 -0.0087802457 -0.32310539 0.65861809 -0.67957723 0.0021663706
0.0682979 0.046567187 -0.0085795661 0.54241163 0.14206025 -0.82801479 0.0033705151
0.069950715 0.046517011 -0.0070666121 0.68488717 0.087161139 -0.72341728 0.003175165
-0.069909953 0.049565628 -0.0068191732 -0.61192858 -0.0087046605 -0.79086506 0.0080307387
-0.067619808 0.04962923 -0.0083067277 -0.48167631 0.1003136 -0.8705889 0.0063251741
-0.065609083 0.050729655 -0.0088978624 -0.22704864 0.29463235 -0.92824602 0.0070641395
-0.057234749 0.050911997 -0.0089673093 0.09761592 0.67825061 -0.7283181 0.0037590645
-0.055067122 0.050706778 -0.008718309 0.2076783 0.67945617 -0.70371097 0.0022847613
-0.052342799 0.050187916 -0.0081067383 0.29209122 0.73028302 -0.61755115 0.0027385224
-0.04957423 0.049362537 -0.0075891069 0.33882368 0.7636261 -0.54961234 0.0017335275
-0.047024462 0.048586857 -0.0069163418 0.38611561 0.76552218 -0.51467526 0.0017479312
0.050840314 0.048047323 -0.0062316135 -0.44516394 0.73918414 -0.50540662 0.0029055027
0.052968755 0.048687845 -0.0069014714 -0.42240831 0.71576995 -0.55609763 0.0023225306
0.055516422 0.049502119 -0.0075989049 -0.34050417 0.69248104 -0.63602442 0.002190463
0.058323368 0.050165448 -0.0082660774 -0.25838935 0.64077973 -0.7229358 0.0027043063
0.06123763 0.0506455 -0.0087292362 -0.13185529 0.58008146 -0.80381572 0.0045431061
0.064928673 0.050653826 -0.0088401604 0.10752492 0.42537507 -0.89860696 0.0092369132
0.067606322 0.049658451 -0.0083037587 0.43221721 0.22557954 -0.87309915 0.0064797942
0.069701165 0.049376816 -0.0069595003 0.59940255 0.1592046 -0.78445554 0.0052283234
-0.070068084 0.052543506 -0.0066302903 -0.47399971 0.10174026 -0.87462747 0.010075453
-0.067502327 0.052547153 -0.0076921005 -0.27087879 0.29052919 -0.91772407 0.01409997
-0.064535916 0.05260158 -0.0081820739 -0.060619473 0.4924078 -0.86825103 0.0088640554
-0.061494678 0.052776959 -0.0079819625 0.080323488 0.6258679 -0.77578187 0.0043292157
-0.058507413 0.052593604 -0.0076849577 0.15523502 0.72321582 -0.67294949 0.0026660517
-0.055645257 0.052094284 -0.0073653548 0.24703187 0.75092369 -0.612445 0.0024009428
-0.052865971 0.051522035 -0.0067285411 0.3428767 0.75900155 -0.553491 0.0015027928
-0.050828986 0.051045675 -0.0060922718 0.35757056 0.76543856 -0.53502077 0.0012364628
0.056582116 0.051213551 -0.0062882756 -0.40672743 0.71366584 -0.57031018 0.0028520713
0.058747638 0.051829457 -0.0068609938 -0.33753762 0.68332547 -0.6474061 0.003333505
0.061516102 0.052480686 -0.0073924083 -0.21880424 0.60875177 -0.7625916 0.0034826619
0.064471774 0.052539468 -0.0079140319 0.013011048 0.45009905 -0.8928839 0.0084102051
0.067430481 0.052502688 -0.0075191353 0.2963908 0.31683272 -0.90098256 0.011733494
0.069524616 0.052574977 -0.0064748251 0.52691025 0.20404838 -0.82506347 0.0072912066
-0.069899701 0.055124354 -0.0063015763 -0.29122448 0.29589111 -0.90974545 0.013016065
-0.06750638 0.055296808 -0.0066391737 -0.085749328 0.43185541 -0.89785749 0.010228545
-0.064627111 0.054967523 -0.0066922382 0.099175185 0.58132744 -0.80760306 0.010389267
-0.061761554 0.054466691 -0.006466595 0.17859441 0.68380868 -0.70746702 0.0057436465
-0.059442744 0.054130159 -0.0061356602 0.23545641 0.75244808 -0.61512774 0.0030401458
0.062460016 0.054339435 -0.0062845168 -0.33356252 0.61816263 -0.71176606 0.0067946673
0.064681932 0.054998491 -0.0065529211 -0.16463038 0.495379 -0.85293406 0.010682563
0.067384817 0.055361569 -0.0065245777 0.12818462 0.34027991 -0.93154621 0.016166123
0.069304049 0.054692965 -0.0061509353 0.41608757 0.24192035 -0.87655324 0.011403213
0.067384668 0.057243481 -0.0060253348 0.0042297086 0.30968529 -0.95082974 0.021129733
-0.01549659 0.0029539112 -0.003423932 -0.26791841 -0.92896318 -0.25543517 0.0016881169
-0.013291711 0.0026438555 -0.0040582637 -0.19832098 -0.91898662 -0.34078199 0.0018716009
-0.010055684 0.0023843404 -0.0050761877 -0.16574106 -0.88756186 -0.42984161 0.0012926757
-0.0072082779 0.0018710997 -0.0048984839 -0.12543423 -0.91375577 -0.38641524 0.0015578688
-0.0042943791 0.001535832 -0.0048945374 -0.093718402 -0.91353786 -0.39580986 0.0015623112
-0.0014337404 0.0011797114 -0.004574616 -0.063992359 -0.9203167 -0.38590437 0.0015849035
0.0013115103 0.0010952973 -0.0046698162 -0.033016957 -0.90812725 -0.41739038 0.0017111262
0.0049526775 0.0011932289 -0.0049822056 0.014513554 -0.90262181 -0.43018976 0.00085759902
0.0071279909 0.0012472484 -0.0050591123 0.033837285 -0.90026355 -0.43402824 0.0010888271
0.010488857 0.0014060583 -0.0049913786 0.061803207 -0.90628916 -0.41811517 0.0010751094
0.013415623 0.0018079273 -0.0053308266 0.076389596 -0.89471489 -0.44005668 0.0012344024
0.016579658 0.0019833047 -0.0048208637 0.12737377 -0.91860348 -0.37409025 0.0013416482
0.019493984 0.0025495249 -0.005081994 0.15078305 -0.90833986 -0.39010659 0.0013305341
0.021838732 0.0026574668 -0.0040508863 0.19364087 -0.9376269 -0.28871945 0.0009490528
-0.024410715 0.0059327693 -0.0034576992 -0.35023889 -0.89202315 -0.28570509 0.0016244613
-0.022193443 0.0056178053 -0.0048302561 -0.31701571 -0.85847962 -0.40312985 0.0012724522
-0.019463511 0.0047760643 -0.0051040039 -0.28640246 -0.86144924 -0.41937906 0.0013811439
-0.016525397 0.0037923299 -0.0049641565 -0.23824343 -0.8749063 -0.42163849 0.0010561076
-0.013771177 0.0032460541 -0.0053638779 -0.21162058 -0.87966335 -0.4259215 0.0014698288
0.02077869 0.0030625011 -0.0058873142 0.17304927 -0.93307811 -0.315308 0.0018459423
0.02307887 0.0032396577 -0.0050565787 0.19603924 -0.90075499 -0.38756824 0.0010510013
0.025550256 0.0038166814 -0.0050383699 0.22099371 -0.89837617 -0.37958148 0.00083137292
0.028296685 0.0045096427 -0.0049874536 0.24466997 -0.89580977 -0.37102762 0.0011907377
0.03144813 0.0053805676 -0.0047182953 0.28844479 -0.89969158 -0.32765019 0.0014067437
0.03336538 0.0056699645 -0.003537233 0.32260883 -0.9087044 -0.26491499 0.0016227179
-0.030694909 0.0088027157 -0.0043855449 -0.34725311 -0.8678171 -0.35539949 0.001446441
-0.028039645 0.0080333762 -0.0051364866 -0.33018583 -0.84893596 -0.41265607 0.00092594215
-0.025276702 0.006730244 -0.0046818969 -0.33547819 -0.8568536 -0.3914797 0.00096140569
-0.02354301 0.0064175096 -0.0055599459 -0.32914788 -0.84718424 -0.41706187 0.0016179498
0.032717995 0.006111389 -0.0056925197 0.31430784 -0.90566444 -0.28457436 0.0020004944
0.034687433 0.0065343864 -0.0048673637 0.33764046 -0.88658893 -0.31616297 0.00090844306
0.03756953 0.0076921685 -0.0050002588 0.34465843 -0.86421913 -0.36651865 0.0012791047
0.039956171 0.0085692443 -0.0046162619 0.37659875 -0.87108749 -0.31524587 0.0010404802
-0.036987089 0.011637807 -0.0045413873 -0.40223169 -0.83358043 -0.3786203 0.0011398854
-0.034699999 0.010816664 -0.0051335646 -0.37998554 -0.82954645 -0.40922326 0.0011954224
-0.031778373 0.0096359272 -0.0053572133 -0.3520138 -0.84213054 -0.40853697 0.00091756432
-0.029943362 0.0090014525 -0.0057347179 -0.32757565 -0.88019407 -0.34344223 0.0026381717
0.041301552 0.0092498735 -0.0049174014 0.40910771 -0.87093049 -0.27223331 0.0012499331
0.043523315 0.010368026 -0.0050612371 0.40838325 -0.84361666 -0.34861732 0.00082719169
0.04601508 0.011492136 -0.0046208301 0.43631896 -0.8357895 -0.33328894 0.0010952809
-0.04245444 0.014673627 -0.0047471435 -0.48286864 -0.78670114 -0.38462865 0.0010831795
-0.040433101 0.013510697 -0.0047435793 -0.45553148 -0.80693847 -0.37595385 0.0011044202
-0.038193788 0.012514484 -0.0053081596 -0.42244545 -0.82030165 -0.38554502 0.0012061897
0.047197904 0.01234046 -0.0052310466 0.45317557 -0.81505984 -0.360984 0.00095025776
0.049453169 0.01355401 -0.0049880017 0.48459014 -0.79847896 -0.3572166 0.0011472312
0.051664904 0.014652668 -0.0042491509 0.50840306 -0.80860341 -0.29611978 0.0015400207
-0.046167616 0.017204007 -0.0048084413 -0.53630394 -0.76200628 -0.36293864 0.0010650756
-0.043938216 0.015783828 -0.0050429585 -0.51151603 -0.77448428 -0.37219012 0.00089077797
0.052786503 0.015722215 -0.0050991937 0.52521706 -0.78022873 -0.33969137 0.0012261543
0.055038113 0.017158367 -0.0047939941 0.54859585 -0.74329674 -0.38282195 0.0012273852
-0.051378876 0.020710582 -0.003919343 -0.56896526 -0.76512671 -0.30142948 0.0016507
-0.049699586 0.019834198 -0.0048332261 -0.55648142 -0.7355907 -0.38630915 0.00078532257
-0.047441356 0.018408788 -0.0054250276 -0.54095817 -0.74694097 -0.38657919 0.0010785286
0.05640021 0.018345304 -0.0052590678 0.57819849 -0.75620347 -0.30633774 0.0017190066
0.058421332 0.019765759 -0.0047154422 0.60344642 -0.71044809 -0.36209944 0.0017516391
0.060181148 0.020851977 -0.0038052732 0.62634152 -0.71723384 -0.30540442 0.0019925879
-0.054532148 0.023519564 -0.0048895157 -0.56724256 -0.72469312 -0.39122337 0.0010477667
-0.052559357 0.022097906 -0.0050507048 -0.55858493 -0.73239326 -0.38933671 0.00086060184
-0.050746609 0.021045052 -0.0057148603 -0.54602611 -0.72254604 -0.4240078 0.00029178191
0.059774518 0.021176515 -0.0053768484 0.63448811 -0.70147341 -0.32459199 0.0021242015
0.061483353 0.022540389 -0.0047166641 0.66187507 -0.65449125 -0.36546212 0.0011538396
-0.057929464 0.026200432 -0.0046985233 -0.62074745 -0.6801039 -0.39004004 0.001004866
-0.055892043 0.024667917 -0.0051249652 -0.58680797 -0.71001363 -0.38927758 0.00092840154
0.062840328 0.024155501 -0.0050807428 0.68289077 -0.60658622 -0.40707904 0.001321773
0.064196214 0.025709137 -0.0049929009 0.70909852 -0.57298303 -0.41093782 0.0011743432
-0.060783945 0.029002681 -0.0047214897 -0.6652143 -0.62486589 -0.40869623 0.0010597003
-0.0593553 0.027766436 -0.0051068268 -0.64206797 -0.64453667 -0.4151158 0.0011115181
0.065473363 0.027549274 -0.0052882824 0.74100822 -0.5212121 -0.42337307 0.0016871607
0.066685587 0.028785873 -0.0045707393 0.77059072 -0.49930772 -0.39608297 0.0019710248
-0.063626878 0.03223031 -0.004751015 -0.70795715 -0.56474704 -0.42409599 0.0012952224
-0.062187392 0.030731849 -0.0050477083 -0.68599027 -0.5903669 -0.4253051 0.0012160782
-0.0069305468 0.032839533 -0.0056518647 0.16317922 0.91205657 -0.37619865 0.0022546612
-0.0043290411 0.0326415 -0.0051659835 0.14090073 0.91912591 -0.36790553 0.0021571775
-0.0014553219 0.032459211 -0.0046853214 0.10491189 0.93254793 -0.34546766 0.002335486
0.0015860881 0.03220395 -0.004747191 0.050654292 0.93074244 -0.36214998 0.0022479659
0.0043630511 0.032148663 -0.0046622679 0.015976928 0.93536484 -0.35332337 0.0026072038
0.0075309779 0.032160614 -0.0046579139 -0.040339481 0.94186759 -0.33355376 0.0027039337
0.010497686 0.032340668 -0.0046816245 -0.088861518 0.93713599 -0.33746079 0.0024265372
0.013520231 0.032610476 -0.0048272177 -0.13724889 0.92714351 -0.3486656 0.0021781947
0.01607527 0.032839045 -0.0054016975 -0.19649722 0.92081857 -0.33687094 0.0022564665
0.067637004 0.030764097 -0.0051572723 0.77032483 -0.42157593 -0.47840703 0.0013523453
0.069121778 0.032401614 -0.0037836689 0.82122964 -0.41296223 -0.39375636 0.0019579933
-0.066537872 0.035568528 -0.0040387684 -0.75514501 -0.51411694 -0.40674296 0.00208457
-0.064954996 0.034167733 -0.0050833561 -0.72118884 -0.53850818 -0.43576998 0.0011812017
-0.018507376 0.035831325 -0.0055527175 0.30804023 0.89728099 -0.31622452 0.0025974629
-0.016365271 0.035391521 -0.004824731 0.28889981 0.9040283 -0.31507093 0.0021135062
-0.013457912 0.034652535 -0.0046137059 0.24011575 0.91183323 -0.33302343 0.0019672599
-0.010436867 0.033860192 -0.0047703176 0.19647983 0.91746569 -0.34590816 0.0018045366
-0.0077174511 0.033428967 -0.0044415384 0.16308703 0.92950392 -0.3307946 0.0019260412
-0.0049794954 0.033250932 -0.0036459661 0.13528623 0.94336897 -0.30290696 0.0026415177
-0.0026819154 0.033024359 -0.0033112776 0.096831679 0.95993298 -0.26296827 0.0015540158
0.014150121 0.033115912 -0.0035067962 -0.13709116 0.94637406 -0.29254425 0.0018563527
0.016725462 0.033407431 -0.0041258903 -0.19102652 0.93419707 -0.30130479 0.0021972458
0.019493138 0.033908114 -0.0046607489 -0.22591138 0.91940737 -0.32195356 0.0018366766
0.022525661 0.034730542 -0.0046483022 -0.26518479 0.9101907 -0.31816655 0.0014350392
0.025277376 0.035470691 -0.0048902449 -0.29380956 0.9020229 -0.31627613 0.001535542
0.027460389 0.035846613 -0.0056951451 -0.29262447 0.89322674 -0.34134573 0.0018306234
0.068717256 0.033455636 -0.005676677 0.8245005 -0.34491223 -0.44859162 0.0026682285
0.069570869 0.034951199 -0.0052047418 0.81378114 -0.30982664 -0.4916988 0.0024854878
-0.069099545 0.038777556 -0.0032719569 -0.80685681 -0.46277925 -0.36717498 0.0025365774
-0.067393087 0.037437811 -0.0048196614 -0.76148224 -0.4723967 -0.44383118 0.0023739166
-0.065911651 0.036083929 -0.0058645774 -0.70919806 -0.4968372 -0.50019091 0.0022457067
-0.027065776 0.038881097 -0.0059724064 0.40368614 0.82736081 -0.3905274 0.0017890708
-0.025156301 0.03855275 -0.00492618 0.38034847 0.87488598 -0.29984927 0.0017436536
-0.022524862 0.037612159 -0.0045951023 0.34989175 0.88443488 -0.30878922 0.0019381869
-0.019659219 0.036590107 -0.0044608931 0.31191134 0.90334558 -0.29441127 0.0022768395
-0.017505115 0.036143862 -0.0036336638 0.27890152 0.92100215 -0.27197239 0.0011279091
0.026451401 0.036183383 -0.0037681966 -0.28238636 0.9194935 -0.27347693 0.0017284541
0.02855093 0.036644869 -0.0045216568 -0.30019605 0.90331525 -0.30643743 0.0018888962
0.031507719 0.037649136 -0.004626906 -0.34367806 0.88582546 -0.31176713 0.0020109054
0.033981815 0.038551372 -0.0049287169 -0.39767179 0.86139876 -0.31598943 0.0024153071
0.070572689 0.037487444 -0.0049567972 0.82598197 -0.20488685 -0.52514303 0.0020494889
-0.069611944 0.041032467 -0.0044376832 -0.80249894 -0.37404567 -0.46484959 0.0027103459
-0.068617441 0.040066935 -0.0053442665 -0.78236115 -0.37315699 -0.49866304 0.0029218527
-0.033110891 0.041831616 -0.0058211894 0.42784938 0.82601309 -0.36694309 0.0036690254
-0.031267069 0.041379653 -0.0048353784 0.41436929 0.85622334 -0.30851182 0.0020738081
-0.028491259 0.040121019 -0.0046638772 0.3925944 0.86760885 -0.30516332 0.0018921845
-0.026308518 0.03933502 -0.0041175513 0.3728452 0.88037956 -0.29311824 0.001734267
0.03525966 0.039359514 -0.0043328037 -0.40088731 0.85752845 -0.32238847 0.0023169282
0.037475761 0.040441416 -0.0046393792 -0.46341655 0.82682568 -0.31875429 0.0024676241
0.039640695 0.041606497 -0.0049685985 -0.50173885 0.80991089 -0.30381325 0.0017927438
0.071236417 0.040590122 -0.0049280813 0.84194988 -0.11828943 -0.52642947 0.0017826225
0.072119661 0.041381296 -0.0031774631 0.91888922 -0.1457673 -0.3665984 0.004394976
-0.070352636 0.043541349 -0.0048736692 -0.79985005 -0.26468852 -0.53868341 0.0029183708
-0.039039921 0.044925734 -0.0056338692 0.48689541 0.79500628 -0.36179826 0.0034928485
-0.037262186 0.044408645 -0.004871509 0.44492075 0.83713961 -0.31818664 0.0019808302
-0.034536861 0.043082941 -0.004616661 0.42794937 0.85041136 -0.30603886 0.0020803302
-0.032468744 0.042275071 -0.0039463816 0.41064805 0.86058074 -0.30127886 0.0018692774
0.040988829 0.04264307 -0.00436563 -0.48887557 0.81254601 -0.3174423 0.0020465467
0.043401297 0.044050753 -0.0046825525 -0.50578958 0.79920483 -0.32472849 0.0019768709
0.045337509 0.044866838 -0.005623837 -0.48013198 0.78441322 -0.39264378 0.0034643225
0.071333237 0.043337766 -0.0053254645 0.81050605 -0.027527245 -0.58508301 0.0022524635
0.072216883 0.043894369 -0.0036809023 0.85688329 -0.034081902 -0.51438254 0.0018293014
-0.072274446 0.047297537 -0.0035600024 -0.81500995 -0.23930889 -0.52772141 0.0036466022
-0.071096055 0.046613138 -0.0050486787 -0.78214943 -0.18510593 -0.59496057 0.0043673352
-0.043075353 0.047515389 -0.00495994 0.43913135 0.8183403 -0.37078673 0.0021693981
-0.040552039 0.046261575 -0.0046676169 0.4479419 0.8211478 -0.35364425 0.0020230787
-0.038449563 0.045334388 -0.004077787 0.43665478 0.84006763 -0.32189906 0.002217473
0.044685461 0.045272324 -0.0036728464 -0.51389891 0.80191207 -0.30470464 0.0020061459
0.046595316 0.046139378 -0.0045202984 -0.50054145 0.79104573 -0.35171703 0.0023966434
0.048949417 0.047395717 -0.004989286 -0.49740964 0.78154922 -0.37651616 0.0026706699
0.071592361 0.046487968 -0.0049925633 0.79650033 0.032145511 -0.60378301 0.002164992
0.072256543 0.046794139 -0.0037590459 0.88388503 0.0070351241 -0.46765131 0.0026755992
-0.072617933 0.049787711 -0.0041026473 -0.73866242 -0.19928201 -0.64394444 0.0051211882
-0.071390957 0.049556445 -0.0054550045 -0.7102825 -0.11464854 -0.69451743 0.0057560764
-0.048906874 0.050558943 -0.0051417314 0.4179652 0.81575584 -0.3998093 0.0022224078
-0.04655014 0.049511276 -0.0047127833 0.42249236 0.81817859 -0.3899796 0.0023505215
-0.044211194 0.048463292 -0.0041501829 0.43510315 0.82948691 -0.35019502 0.0022736099
0.05014031 0.048542131 -0.0041764039 -0.49756953 0.77991182 -0.37968692 0.0022453235
0.05239458 0.049755577 -0.0047049201 -0.49105284 0.77256674 -0.40250188 0.0028697124
0.054509524 0.050630271 -0.005497755 -0.46416849 0.7594924 -0.45576197 0.0043492881
0.071217671 0.049678657 -0.0052902875 0.73220855 0.10776643 -0.67250061 0.0040092496
0.072306313 0.049478579 -0.0036079704 0.84231037 0.045185477 -0.53709531 0.0032108636
-0.075048253 0.053656287 -0.0030527883 -0.88947171 -0.18104769 -0.41959724 0.020714704
-0.073209412 0.05268817 -0.0044153477 -0.65832824 -0.11203302 -0.74434716 0.007460257
-0.07159365 0.052543525 -0.0056974348 -0.56899941 -0.019240223 -0.82211274 0.0069952272
-0.057534516 0.053874016 -0.0057758638 0.24185339 0.80485225 -0.54195917 0.0033194376
-0.055146024 0.053444896 -0.0051662396 0.30967429 0.83555621 -0.4538146 0.0035703757
-0.052564297 0.052596897 -0.004705165 0.36311132 0.82295412 -0.43691728 0.0025098396
-0.050032116 0.051505052 -0.0043198937 0.41762805 0.82501233 -0.38071188 0.0023530589
0.053662185 0.051177386 -0.0035153923 -0.48729113 0.78825974 -0.37575769 0.0028112419
0.055727828 0.051944632 -0.0044466578 -0.46121112 0.77784121 -0.42690447 0.0035853526
0.058223713 0.05311906 -0.0049226196 -0.43233144 0.74664938 -0.50557309 0.0054029585
0.060374774 0.053735662 -0.005703079 -0.39025262 0.67048812 -0.63099021 0.0055898032
0.070975378 0.052657783 -0.0051770108 0.67857945 0.12303769 -0.72414893 0.0064951694
0.072421901 0.052718632 -0.0032820767 0.76459616 0.060895327 -0.64162654 0.0036248486
-0.075174108 0.055196971 -0.0031190373 -0.82182461 0.052596793 -0.56730771 0.031852502
-0.073506303 0.055549372 -0.0045215674 -0.61529213 0.16963856 -0.76983005 0.019389903
-0.071030751 0.055893514 -0.0057451655 -0.34036866 0.19534318 -0.91977727 0.01391488
-0.06734433 0.056759279 -0.0058564753 0.041448567 0.54139102 -0.83974862 0.0079985335
-0.064244419 0.056402709 -0.0054587573 0.22616793 0.67728388 -0.70009607 0.0066089313
-0.061474416 0.055836286 -0.0047186301 0.31079423 0.76329601 -0.56637985 0.0073069227
-0.058641296 0.05488139 -0.0045848829 0.25803605 0.82350475 -0.50522995 0.003327013
-0.056078125 0.054345179 -0.0040686703 0.30847135 0.85232025 -0.42236909 0.0025116715
0.059258923 0.054450605 -0.003870901 -0.4808481 0.72945672 -0.48649564 0.0046000588
0.061535072 0.055440824 -0.0046147783 -0.43105525 0.678864 -0.59441996 0.006169437
0.06415315 0.056338254 -0.0054899226 -0.30578184 0.55598527 -0.77290219 0.0096853292
0.067859977 0.056697056 -0.0059129572 0.049915433 0.39476365 -0.91742587 0.016556209
0.070469469 0.055604335 -0.0051689357 0.47825688 0.18081336 -0.85940504 0.011833236
0.072232217 0.055431254 -0.0034608408 0.72984463 0.048014872 -0.68192488 0.0052091251
-0.073056236 0.057796616 -0.0042126533 -0.50917 0.53674436 -0.67279363 0.023749968
-0.070440732 0.05850013 -0.0047988868 -0.20262025 0.63147527 -0.74845445 0.024596745
-0.067506634 0.058458164 -0.0046544825 0.16001421 0.66546142 -0.72907931 0.0088511845
-0.064720593 0.057936642 -0.0041341214 0.3210018 0.70746666 -0.62964177 0.0061356798
-0.062542349 0.057347227 -0.0034352485 0.41909459 0.75389379 -0.50596821 0.0080764564
0.062637717 0.057334106 -0.0034981936 -0.53830636 0.60812485 -0.58344698 0.01079117
0.064649798 0.058373675 -0.0042989901 -0.49070752 0.47433791 -0.73089647 0.017070226
0.067439832 0.058554936 -0.0053377789 -0.060318127 0.32367018 -0.9442454 0.018954422
0.070301004 0.058590934 -0.0048214514 0.34993145 0.16847496 -0.92150104 0.015772151
0.072245114 0.05862093 -0.0033726236 0.56788093 0.056013957 -0.82120258 0.012866511
-0.069480881 0.06008859 -0.0032569291 -0.15733817 0.89402229 -0.41948643 0.025164314
-0.068210453 0.060136363 -0.0033099672 0.059672207 0.84841108 -0.52596372 0.031219877
0.065506659 0.06097104 -0.0034718944 -0.6368137 0.31227896 -0.70494682 0.01662828
0.067410223 0.061521899 -0.0043493812 -0.29938835 0.24287497 -0.92270172 0.02580628
0.070378803 0.061575461 -0.0044189566 0.20254396 0.12977129 -0.97063655 0.022853257
0.072413191 0.061642397 -0.0032839924 0.46564499 0.0045092227 -0.88496017 0.01980246
0.067628734 0.064432733 -0.0037745473 -0.41214281 0.16801003 -0.89549482 0.020463917
0.070360161 0.064502418 -0.0042349352 0.098001979 0.055673286 -0.99362773 0.021299014
0.072500326 0.064728722 -0.0034667172 0.2996819 -0.03198766 -0.95350277 0.018945033
0.068099163 0.067376427 -0.0035633317 -0.53375715 0.10191157 -0.83947444 0.017508667
0.070399262 0.067488618 -0.0041924124 -0.045632642 0.00063587463 -0.99895811 0.025634276
0.072773971 0.067681216 -0.0036769991 0.31820863 -0.086331263 -0.9440816 0.011227709
0.068423294 0.070333607 -0.0034333412 -0.60408944 0.072551131 -0.79360718 0.024931302
0.070455916 0.070503429 -0.0042882762 -0.22396687 -0.032923862 -0.97404045 0.03092763
0.073194109 0.070609532 -0.0040271059 0.23340572 -0.17181973 -0.95707875 0.016426736
0.075182445 0.071735263 -0.0031569756 0.68662292 -0.10987608 -0.7186628 0.033057652
0.068634003 0.073363446 -0.0033413516 -0.70620525 0.11425994 -0.69872659 0.023772247
0.070454858 0.073495448 -0.0044481014 -0.33031395 -0.0069380533 -0.94384563 0.025533155
0.073407739 0.073525392 -0.0046712295 0.23959368 0.021666389 -0.97063148 0.048140552
0.075593814 0.073893078 -0.0036090123 0.58739948 0.020894866 -0.80902737 0.082564972
0.068783373 0.075752355 -0.003282629 -0.55352402 0.4866828 -0.67583358 0.079690948
0.070422955 0.075914323 -0.0042852019 -0.34334919 0.45236626 -0.8230893 0.078221917
0.073188603 0.07553187 -0.0046324893 0.17651597 0.51561034 -0.83844382 0.06202057
0.075373881 0.075174317 -0.0034858664 0.63797766 0.32544169 -0.69790566 0.098709457
-0.016074045 0.0027834708 -0.0017549492 -0.25201222 -0.95625907 -0.14852071 0.0016471917
-0.013415809 0.0021667008 -0.0018696423 -0.20395941 -0.95799077 -0.20162879 0.0015229833
-0.01065233 0.0016131435 -0.0020147171 -0.18103722 -0.95938033 -0.21636763 0.001976232
-0.0077715646 0.0011607686 -0.0020737478 -0.15006539 -0.96614003 -0.20988989 0.001786489
-0.0046874313 0.00082565186 -0.0023463552 -0.091883942 -0.95234114 -0.29086712 0.0017563298
-0.0017192211 0.00056525151 -0.0021061276 -0.070123158 -0.96116585 -0.26691368 0.0016976176
0.0010858907 0.00047252589 -0.0024129238 -0.04162018 -0.95817149 -0.28315207 0.0027959314
0.004934161 0.00037532102 -0.001981586 0.011324493 -0.96635389 -0.25696659 0.001156427
0.0073323939 0.00042210374 -0.0018139648 0.046472859 -0.97099513 -0.23453937 0.00086319342
0.010760824 0.00070557726 -0.0022777149 0.074368894 -0.95660985 -0.28172126 0.0010504244
0.013016158 0.00083115458 -0.001837229 0.1064207 -0.9560563 -0.27318677 0.0015669806
0.016325794 0.0013017604 -0.0021013638 0.12887073 -0.95866972 -0.25366247 0.0014719752
0.01979794 0.0018403963 -0.0019606268 0.18462445 -0.96490288 -0.1867519 0.0014727035
0.022640476 0.0023897509 -0.0018903186 0.19696569 -0.96577322 -0.16877978 0.0012443205
0.024926294 0.0028782762 -0.0014959702 0.23230165 -0.95972985 -0.15796997 0.0011826509
-0.024824545 0.0057418593 -0.0014915168 -0.35357121 -0.91733545 -0.18298374 0.0013087314
-0.022452757 0.0048805145 -0.0017466871 -0.33258963 -0.92256033 -0.19561841 0.00051033258
-0.019488284 0.0038223611 -0.0016168257 -0.30350214 -0.93783009 -0.16840748 0.00081382535
-0.017598758 0.0032958481 -0.0020895367 -0.28561538 -0.94501549 -0.15927812 0.0010522975
0.025934737 0.0032122578 -0.002133264 0.24074641 -0.953237 -0.182703 0.001878095
0.028441887 0.0038226892 -0.0016453686 0.26736549 -0.95017493 -0.16025978 0.0010359066
0.031407617 0.0047220392 -0.0017102609 0.29923263 -0.9388876 -0.17014679 0.0011846829
0.034026906 0.0055939029 -0.0015782334 0.31953263 -0.93554002 -0.150545 0.00099026796
-0.031380385 0.0084069576 -0.0015823031 -0.36406955 -0.90359068 -0.22578153 0.00048857025
-0.02844278 0.0072266334 -0.0017908914 -0.35954747 -0.9093805 -0.20917174 0.0011772364
-0.026154036 0.0063757501 -0.0021195696 -0.3599672 -0.90592492 -0.22298822 0.0015830055
0.035307895 0.0060965978 -0.0019972157 0.33765563 -0.92082548 -0.19511317 0.001812432
0.037560508 0.0069204806 -0.0015688166 0.36806092 -0.91733176 -0.15176824 0.00076827366
0.040346008 0.0081077758 -0.0016924272 0.399555 -0.90275782 -0.15932411 0.0011043556
0.042190615 0.0088994354 -0.0015273811 0.42499474 -0.89527082 -0.13367741 0.00096880062
-0.03906706 0.011822449 -0.00079685618 -0.45404887 -0.85656148 -0.24523877 0.0014624584
-0.037520483 0.011173015 -0.0017401733 -0.41211686 -0.88110369 -0.23198274 0.00085874763
-0.034585502 0.0098008132 -0.0017312951 -0.39816731 -0.88766044 -0.2313474 0.00052198907
-0.032632839 0.0090661002 -0.0026452858 -0.38215199 -0.89506483 -0.22982366 0.00046799253
0.043660127 0.0096457507 -0.0018554803 0.43127754 -0.89169538 -0.13740106 0.0010336097
0.046640094 0.011157269 -0.001608128 0.468128 -0.87074447 -0.15053308 0.00058408629
-0.04305461 0.014218302 -0.0016617294 -0.52965343 -0.82437754 -0.19967212 0.0017702751
-0.040596206 0.012773168 -0.0016750535 -0.46837002 -0.85214126 -0.23341976 0.00097230141
0.049620882 0.012880991 -0.0019938748 0.50206172 -0.84830689 -0.16825417 0.00042213136
0.051995642 0.014283712 -0.0016551703 0.52462071 -0.83504951 -0.16572705 0.00068254303
-0.048327461 0.017848799 -0.0015477408 -0.58294225 -0.77912402 -0.23053007 0.00086915673
-0.046540398 0.016564401 -0.001603812 -0.55277169 -0.80322802 -0.22196437 0.0018217912
-0.044567201 0.015237618 -0.0018733271 -0.54782379 -0.8029592 -0.23483121 0.0034282876
0.05353184 0.015340446 -0.0018959828 0.55670434 -0.81163013 -0.17702207 0.00083212025
0.055375081 0.016581848 -0.0018033492 0.5730477 -0.79772455 -0.18775499 0.00072674308
0.057283714 0.017898088 -0.0011778697 0.59849757 -0.78075361 -0.17951159 0.00076137856
-0.051709056 0.020386739 -0.0015491043 -0.59505159 -0.77699268 -0.20541666 0.0011632998
-0.049758226 0.018947585 -0.0017628296 -0.5812099 -0.77972633 -0.23285608 0.00087840366
0.05879081 0.019198831 -0.001876869 0.61611831 -0.76281029 -0.19626179 0.00090487674
0.060496375 0.020619543 -0.001843259 0.65207589 -0.73440838 -0.18825884 0.0022073404
-0.055158433 0.022992283 -0.0016019774 -0.60102159 -0.776528 -0.18914886 0.0011282394
-0.053178269 0.021515606 -0.0017737917 -0.59508276 -0.77578306 -0.20985042 0.0010027429
0.06188044 0.02200629 -0.0021920737 0.69448835 -0.68602026 -0.21693824 0.002138163
0.063374877 0.02348062 -0.0020170333 0.71204251 -0.66133374 -0.23586692 0.0015761815
-0.058489513 0.025707245 -0.0015841051 -0.65031284 -0.73467934 -0.19323413 0.00082343444
-0.056695636 0.024239963 -0.0019745452 -0.63067937 -0.74686009 -0.2108164 0.0017051379
0.064947978 0.025259148 -0.0019799699 0.74170595 -0.62940711 -0.23177326 0.0018505214
0.066289589 0.02676709 -0.00096484041 0.78818536 -0.58423269 -0.19348395 0.0012448675
-0.061542451 0.028649561 -0.0016163316 -0.71292597 -0.67922145 -0.17434114 0.00096541713
-0.059913252 0.027174942 -0.0025705213 -0.67236829 -0.71119809 -0.20522726 0.0020531234
0.067808114 0.029111676 -0.0018982012 0.81414551 -0.49699986 -0.30026376 0.0012107249
-0.064272344 0.031760663 -0.0018094524 -0.76386744 -0.62365872 -0.16600098 0.0019801813
-0.062918507 0.030346662 -0.0026702024 -0.74080545 -0.63050491 -0.23166957 0.0022624556
-0.00074869522 0.032931514 -0.0027761911 0.094456449 0.97254634 -0.21267708 0.0016377758
0.0017426998 0.032896396 -0.0021327566 0.061891809 0.97687018 -0.20468019 0.0021542304
0.0045422064 0.032872781 -0.0017383532 0.017737102 0.98019111 -0.19725801 0.0020330618
0.0074298056 0.032866951 -0.0017691915 -0.039710432 0.98338836 -0.17711709 0.0029268616
0.010278075 0.032916602 -0.0025783505 -0.077125996 0.97465646 -0.20999148 0.0020418609
0.012241633 0.032976601 -0.0028628204 -0.10126764 0.98412263 -0.14576526 0.002377942
0.0686443 0.030564595 -0.0019958278 0.83999854 -0.4791773 -0.25454178 0.0013908128
0.069519058 0.03208176 -0.0018568687 0.85927767 -0.42738643 -0.28103864 0.0027788768
-0.066777065 0.034896031 -0.0017233264 -0.7947073 -0.5861913 -0.15754385 0.0026228246
-0.06563738 0.033469107 -0.0018455051 -0.78459388 -0.60407174 -0.13967717 0.0019064614
-0.015584667 0.03587028 -0.0018161612 0.3056345 0.94530654 -0.11394398 0.0024885098
-0.013588408 0.035360303 -0.0017237461 0.25607783 0.95591313 -0.14371602 0.0024348511
-0.010509517 0.034614034 -0.0016957324 0.20889316 0.96314615 -0.16944966 0.0032351986
-0.007446005 0.034026921 -0.0015834682 0.16746755 0.97234112 -0.16281083 0.0024430207
