# .PCD v0.7 - Point Cloud Data file format
VERSION 0.7
FIELDS x y z normal_x normal_y normal_z curvature
SIZE 4 4 4 4 4 4 4
TYPE F F F F F F F
COUNT 1 1 1 1 1 1 1
WIDTH 566
HEIGHT 1
VIEWPOINT 0 0 0 1 0 0 0
POINTS 566
DATA ascii
0.048040286 0.011939181 -0.00047947123 0.47918609 -0.87313831 -0.089500397 0.0031538226
-0.042046826 0.013787247 -0.002548371 -0.45433852 -0.84424579 -0.28429851 0.0031923391
-0.04105597 0.013070926 -0.0012695161 -0.42140397 -0.86534989 -0.27127153 0.0031261335
-0.038806703 0.012067639 -0.0025291038 -0.44362199 -0.86802709 -0.22299892 0.0015773876
0.047872078 0.012082465 -0.0021158913 0.49228781 -0.8623246 -0.11852855 0.0018075561
0.049563225 0.012980439 -0.0015321281 0.5048992 -0.85407335 -0.12504227 0.0015368344
0.051940694 0.014384565 -0.0014157231 0.52870888 -0.8423515 -0.10445532 0.0016766501
0.053384546 0.015411763 -0.001691742 0.56605858 -0.81773484 -0.10434317 0.0014694839
0.055486102 0.016842211 -0.0014713559 0.56233996 -0.81662899 -0.12996478 0.0017907916
0.057263583 0.017958881 -0.0009131867 0.59281379 -0.79400599 -0.13463427 0.0023553704
0.058613349 0.019186122 -0.0015430422 0.62058109 -0.77324998 -0.13024412 0.0020514899
0.060399909 0.020646999 -0.001260096 0.66276127 -0.73793697 -0.12726501 0.0035246934
0.061885733 0.022105925 -0.0015642074 0.70072722 -0.70469409 -0.11130045 0.0021691283
0.063365676 0.023576559 -0.0013613431 0.72674888 -0.67444432 -0.13023438 0.0030078774
0.064892672 0.02535239 -0.001518492 0.7690469 -0.62430978 -0.13712852 0.0027146991
0.066100128 0.026778353 -0.0010295407 0.7984004 -0.5875591 -0.13164738 0.0033124238
0.067221992 0.028455788 -0.0014982601 0.83369261 -0.53159362 -0.14954884 0.0029092703
0.068574734 0.030666774 -0.0016292915 0.85525006 -0.50156671 -0.13030028 0.0026226013
0.069433413 0.032149758 -0.0013673237 0.88994789 -0.43312058 -0.14282635 0.0038844098
-0.014705998 0.035484053 -0.0029546197 0.23644862 0.88798535 -0.39442894 0.0011129322
0.070470385 0.034524541 -0.0015151248 0.9180851 -0.35595354 -0.17440398 0.0041603125
-0.024141477 0.038847908 -0.0018685688 0.38067606 0.92209488 -0.069475152 0.002428377
-0.023009079 0.038515888 -0.00088331924 0.35242867 0.93523294 -0.033666652 0.0011224617
-0.018691815 0.036748342 -0.0023111689 0.29372889 0.90098137 -0.31930548 0.0024076218
0.07148084 0.037460532 -0.0015099332 0.94121242 -0.27730855 -0.19292271 0.0038063668
0.072046682 0.038760819 -0.00072057376 0.96044731 -0.23055369 -0.15615973 0.0077552292
-0.030501582 0.041630961 -0.0018456369 0.43824106 0.89426804 -0.090716213 0.0018329076
-0.028656613 0.040798217 -0.0014685583 0.40181231 0.91141385 -0.088722214 0.0017431881
-0.025834598 0.039634146 -0.0012719025 0.36996111 0.92833561 -0.036355559 0.0012926367
0.071854852 0.039813191 -0.0025525093 0.95996577 -0.19400766 -0.20205636 0.0042590653
0.072259255 0.040670794 -0.0012949576 0.9758423 -0.16140868 -0.14723843 0.003771723
-0.036596939 0.044751264 -0.0017552602 0.47451317 0.87084472 -0.12832293 0.0020918534
-0.034333143 0.043630667 -0.0015257889 0.45636958 0.88281536 -0.11119298 0.001300763
-0.032014102 0.042493857 -0.0012115631 0.44092464 0.89249438 -0.095074952 0.0013732754
0.072604112 0.043499541 -0.0014720395 0.98383093 -0.085653387 -0.15729009 0.0037583197
-0.042337034 0.047790967 -0.0023662953 0.50229603 0.85428023 -0.1338059 0.0015903242
-0.040492848 0.046918027 -0.0015299681 0.47821978 0.86810738 -0.13302422 0.0018935527
-0.038097724 0.045599833 -0.001332056 0.45399761 0.88035649 -0.1373267 0.0020796955
0.072738148 0.046522051 -0.0014911665 0.9835183 -0.033019111 -0.17776826 0.005083038
-0.046327397 0.050201841 -0.0015368052 0.46650609 0.87128061 -0.15245397 0.0024850341
-0.043538213 0.048655666 -0.0013754239 0.48296061 0.86607057 -0.12911561 0.002710795
0.07284496 0.049526971 -0.0014869099 0.97753191 -0.023284031 -0.20949784 0.0069764792
-0.052143589 0.05336171 -0.0014929373 0.42144418 0.89459258 -0.14862359 0.0029185601
-0.049536824 0.051979955 -0.0014281091 0.46454456 0.8730042 -0.14853305 0.0030808998
-0.047970988 0.051043481 -0.0017320251 0.45881936 0.87267536 -0.16710041 0.0026112974
0.072934136 0.052539811 -0.0014852853 0.96642333 -0.0019950352 -0.25694737 0.010077602
-0.060385302 0.056730084 -0.0018059961 0.49288297 0.85698467 -0.15047836 0.0082611479
-0.058627989 0.056045122 -0.00128423 0.38761255 0.91115183 -0.13985291 0.0065998193
-0.055148005 0.054638445 -0.0011751418 0.37438586 0.91885108 -0.12469149 0.0047900523
-0.053868297 0.054328792 -7.0307606e-06 0.42146105 0.90157771 -0.097612716 0.0092395395
0.072965652 0.055542182 -0.0015613761 0.95432413 -0.011004822 -0.29857042 0.012602459
-0.066442855 0.059531536 -0.0029286486 0.31888172 0.82859784 -0.4601523 0.023679156
-0.064099312 0.059021011 -0.0016339854 0.53103185 0.83007735 -0.17022562 0.0067492053
-0.062006898 0.057781469 -0.0012797517 0.49522761 0.85523134 -0.15273842 0.0087912194
0.073079653 0.05856384 -0.0015491876 0.94693154 -0.03582307 -0.319433 0.020879248
-0.066841632 0.060795113 -0.00067615404 0.50828189 0.86109376 -0.012925452 0.01769118
-0.065524079 0.06006626 -0.0011043372 0.48533097 0.87167943 -0.068036057 0.014510502
0.073404394 0.061536919 -0.0015425495 0.9421109 -0.096005067 -0.3212634 0.025962636
0.073837146 0.064518064 -0.0014825709 0.86233115 -0.22844313 -0.45188355 0.026696088
0.074359246 0.067294449 -0.0017546212 0.88077748 -0.25761607 -0.39732221 0.027790988
0.075195961 0.068279095 -0.0006166845 0.93562913 -0.26533979 -0.23279381 0.04196845
0.07457041 0.069923528 -0.002483855 0.76924431 -0.26351967 -0.58208299 0.016844416
0.075664245 0.070650645 -0.0012291088 0.90781331 -0.2697202 -0.32113239 0.027719282
0.074898049 0.072025202 -0.0029402883 0.85963976 -0.27072936 -0.43327257 0.020096032
0.07653939 0.073218673 -0.0015265163 0.91839886 -0.22841914 -0.3230606 0.0433052
-0.01647822 0.0025775444 0.0018616812 -0.2302198 -0.97310805 -0.0077208579 0.0042396463
-0.013424968 0.0019229952 0.0014395179 -0.19655287 -0.98047763 -0.0055306563 0.0015940273
-0.010324067 0.0013827634 0.0014311271 -0.15320623 -0.98524982 0.076227978 0.0050507588
-0.007484654 0.0010185661 0.0014235892 -0.12733786 -0.98666698 0.10135788 0.0058321813
-0.0038517322 0.00059706037 0.001630097 -0.057644475 -0.99734038 0.044600397 0.0035047133
-0.0023020559 0.00045626433 0.00088526914 -0.042290822 -0.99866152 0.029778341 0.0048413104
0.0019104028 0.00039693192 0.0019843481 -0.005834776 -0.99657589 0.082476236 0.0034606976
0.0043502785 0.00029101226 0.0012761278 0.016292909 -0.99888885 0.044219699 0.0073948833
0.0073402091 0.00042977495 0.0014365442 0.061190624 -0.98561084 0.15756582 0.005322047
0.010344195 0.00057352736 0.001427245 0.071991958 -0.98475504 0.1583502 0.0051305373
0.013463534 0.00087870657 0.0014067771 0.10616268 -0.97927511 0.1724813 0.0068415632
0.016488109 0.001295688 0.0015248908 0.12934282 -0.98122698 0.14305264 0.0045778966
0.019473156 0.0017510365 0.0015025194 0.17296171 -0.97762632 0.11971226 0.0037113593
0.022520529 0.0023851919 0.0014429291 0.18925741 -0.97668779 0.10130453 0.0030809995
0.024818057 0.0028605976 0.0011905184 0.22221081 -0.97155023 0.081929371 0.0027894678
-0.027509958 0.0057019247 0.0027144137 -0.26126531 -0.96481216 -0.029630264 0.018147526
-0.02520342 0.0052847555 0.0017432977 -0.27769673 -0.95247293 -0.1252194 0.0047516767
-0.022373961 0.0044048987 0.0014666514 -0.32591185 -0.94299984 -0.067325786 0.0018684294
-0.019446224 0.0034498142 0.0014578117 -0.2918945 -0.95538348 -0.045167621 0.0014970889
-0.01736336 0.0030646923 0.00048637472 -0.25561807 -0.96371943 -0.076839134 0.00071892131
0.026203813 0.0032314602 0.0016554444 0.27093694 -0.95795774 0.094393529 0.0026346173
0.028528621 0.0038917686 0.00143828 0.28029877 -0.95479286 0.099010952 0.002376633
0.031599656 0.0048063253 0.0014398537 0.29192451 -0.95204329 0.091616973 0.0019941821
0.034024049 0.0056299218 0.0013810978 0.32032123 -0.94390297 0.080258578 0.0026751633
-0.034408972 0.0085730832 0.0020056586 -0.3797631 -0.91405559 -0.14241628 0.0040354365
-0.031674612 0.0078891627 0.0014583647 -0.35487384 -0.92274386 -0.1503609 0.003865069
-0.028707189 0.0066427081 0.0015421388 -0.37518227 -0.91262895 -0.16231658 0.0038642369
-0.02671171 0.0063351877 0.00049627898 -0.33505219 -0.93256181 -0.13441925 0.0060991077
0.035546899 0.006231491 0.0015673236 0.37148568 -0.92466944 0.083575308 0.0024493148
0.037508931 0.0069689373 0.0014543162 0.37397373 -0.92333162 0.087191917 0.0022885138
0.040429328 0.0081891045 0.0014101412 0.39019969 -0.9154833 0.098155983 0.0025094312
0.042112306 0.0089200726 0.00082907313 0.42189023 -0.90125853 0.09869995 0.0030464965
-0.040052701 0.011306778 0.0020315207 -0.4122009 -0.88966447 -0.19643737 0.010124507
-0.037096899 0.010312358 0.0012629536 -0.42976794 -0.88579798 -0.17510436 0.0051583298
-0.034580205 0.0096222656 0.00050503091 -0.41235673 -0.89442724 -0.17309497 0.0032992295
0.041950569 0.0090284226 0.0025264265 0.42845777 -0.89792222 0.1007952 0.0032705674
0.043643843 0.0097172307 0.0015040423 0.43858457 -0.89224714 0.10741821 0.0024646842
0.046469584 0.01114573 0.0014350234 0.4647679 -0.88038272 0.094429985 0.0027937863
0.0480326 0.011858199 0.00043929697 0.47697031 -0.87617064 0.069457442 0.0041606748
-0.042358391 0.012133361 0.0025511938 -0.41741061 -0.90813792 -0.032463852 0.032414176
-0.040268559 0.012501691 0.00051166693 -0.40254137 -0.88077337 -0.24939676 0.005271967
0.047926158 0.012087044 0.0026794374 0.47150365 -0.87345886 0.12146582 0.0025367138
0.049457181 0.012855888 0.0014259791 0.51262403 -0.8539741 0.08913333 0.0018564843
0.051955849 0.014343009 0.0013897031 0.52831119 -0.84475875 0.085263543 0.0021698289
-0.048366267 0.017082516 0.0012981775 0.62821925 0.77064925 0.10695969 0.014092724
-0.047809906 0.017317176 0.0010388601 0.63334519 0.75447983 0.17214549 0.0052812989
0.05347145 0.015400681 0.0015419457 0.55764818 -0.82554793 0.086597413 0.0021443607
0.055528998 0.016816935 0.0014311754 0.56094176 -0.82004756 0.11343071 0.002539247
0.057305027 0.01793603 0.00057888706 0.60159487 -0.79216361 0.10276405 0.0026777501
0.058639925 0.019154238 0.0015168441 0.62114143 -0.77561569 0.11226544 0.0026791738
0.060434263 0.020621827 0.0012213766 0.66685528 -0.73901576 0.095706813 0.0032882716
0.061920833 0.022076836 0.0015056202 0.70548791 -0.70369548 0.084257752 0.0026957626
0.063405253 0.023548767 0.001269787 0.73153901 -0.6734823 0.10617112 0.0039210166
0.064916693 0.025311755 0.0014858213 0.76596522 -0.63665026 0.089296341 0.0025984899
0.066133581 0.026777303 0.0010989953 0.79522741 -0.59562123 0.11335239 0.0037080466
0.065986536 0.02705105 0.0026978911 0.79642743 -0.56507778 0.21538466 0.0034504202
0.067294247 0.028470829 0.001410022 0.82973957 -0.54740196 0.10901085 0.0035151888
0.068622939 0.03063946 0.0015714228 0.85637873 -0.50618458 0.10194395 0.0029053465
0.06946262 0.032106284 0.0013700755 0.89367974 -0.4339948 0.113952 0.004274419
-0.013603302 0.035298072 0.0027639908 0.21748176 0.90410089 0.36783594 0.0008249844
0.070542134 0.034531947 0.0014364849 0.93044621 -0.35046145 0.10698826 0.0027884969
-0.022737782 0.038485631 0.0008369963 0.36289111 0.93145889 -0.026349016 0.0011975849
-0.019659858 0.037212975 0.0017677211 0.31153449 0.92559659 0.21498196 0.0035652004
-0.01747347 0.036538869 0.0021487621 0.27698368 0.90685344 0.31764272 0.0015080967
0.07154154 0.037448216 0.0014843874 0.94916958 -0.28614837 0.13113494 0.0049815648
0.072074696 0.03874059 0.00074357947 0.96976209 -0.22764729 0.087966874 0.0078004808
-0.030303465 0.041598901 0.0024994472 0.42167905 0.90399069 0.070622414 0.0037149764
-0.028731877 0.040994558 0.0012269553 0.408838 0.91240716 0.019096244 0.002752176
-0.025643438 0.039678209 0.0012122511 0.36310413 0.93147206 -0.022698401 0.0014837673
0.07187856 0.039591506 0.0026259506 0.96126056 -0.2066575 0.1824028 0.003279529
0.072300874 0.040616106 0.0013417638 0.98173583 -0.16134454 0.1008102 0.0047255955
-0.03638038 0.044853296 0.00094088522 0.4799031 0.87417227 0.074269205 0.0031597482
-0.034200601 0.043684233 0.0016084539 0.43816429 0.89644235 0.066355795 0.0021603592
-0.031736132 0.042448323 0.001432274 0.4301433 0.90136379 0.05019911 0.0022916091
0.072689243 0.043483566 0.0013809856 0.98922056 -0.082378604 0.12106363 0.0044575981
-0.042070627 0.047768604 0.0028528634 0.44200656 0.8732217 0.20521733 0.0063440078
-0.040354174 0.046987064 0.0013990671 0.46463853 0.88123077 0.086852603 0.0035465299
-0.03792277 0.045605727 0.0016446391 0.45489943 0.88727617 0.076206952 0.0031812242
0.072830684 0.046511542 0.0014014995 0.99055594 -0.033868112 0.13286038 0.0054546618
-0.046211917 0.050283834 0.0013515467 0.46995515 0.87688625 0.10105804 0.003399
-0.043300778 0.048633482 0.0014920469 0.48204234 0.86968273 0.10624077 0.0033649225
0.072956324 0.049522381 0.0013809769 0.98800886 -0.028559834 0.15173259 0.0070664422
-0.051885441 0.053328328 0.0015877951 0.43513805 0.89163345 0.1250785 0.004191047
-0.049320392 0.051971473 0.0014599029 0.46305072 0.87990278 0.10656063 0.0039407108
-0.047611106 0.051000997 0.0021988514 0.45255244 0.87886184 0.15099083 0.0053891111
0.073066697 0.052545276 0.001383192 0.98599136 -0.017563259 0.16586937 0.0089866295
-0.060272008 0.05671427 0.002232746 0.44332224 0.88090003 0.16577265 0.012110936
-0.058612943 0.056104843 0.0014886409 0.39400813 0.91114795 0.12069332 0.0067699431
-0.05530075 0.054759428 0.0014206845 0.35912383 0.92603683 0.11612805 0.0043638502
-0.053970166 0.054297432 0.00083625095 0.39916047 0.90279931 0.16007604 0.0032945478
0.073153205 0.055541411 0.0014089871 0.97607601 -0.016182045 0.21682681 0.01529565
-0.06413199 0.059259515 0.0014823063 0.56705838 0.81432837 0.12374999 0.0075377859
-0.06183283 0.057781391 0.0014311778 0.47057658 0.87346745 0.12494928 0.010637057
0.073280782 0.058566589 0.0014017886 0.96555179 -0.044682711 0.25634563 0.023125725
-0.066725336 0.060661599 0.001601245 0.49927121 0.847534 0.18003993 0.024078587
-0.065418333 0.060051903 0.0015316542 0.52986705 0.83962679 0.11944737 0.015145404
0.073566139 0.061494771 0.001419317 0.95277876 -0.10290342 0.28569847 0.026578372
0.074015647 0.064507894 0.0014065827 0.90638089 -0.22558677 0.35718951 0.035542075
0.074456871 0.067226179 0.0018141413 0.8867839 -0.29132378 0.35881004 0.037756901
0.075207524 0.068107493 0.0006795458 0.95335668 -0.27227926 0.13028793 0.043622807
0.074737795 0.069708444 0.0025626365 0.80822939 -0.3206566 0.49390757 0.028094977
0.075748771 0.07065732 0.0013166502 0.91826785 -0.27142435 0.2882933 0.018998748
0.076731861 0.073224232 0.001441111 0.96357381 -0.14153449 0.22692186 0.0533912
-0.01807406 0.0029921455 0.0038697976 -0.27095658 -0.94183588 0.198816 0.010849048
-0.016245913 0.0026528176 0.0041445661 -0.23064861 -0.95940256 0.16232039 0.0095077474
-0.014092663 0.0024247032 0.0047433292 -0.15609664 -0.91797203 0.36463839 0.0021897429
-0.010298116 0.0018324617 0.0048069875 -0.12464666 -0.93116939 0.34261745 0.0022440406
-0.0073999399 0.0014343983 0.0046329712 -0.079793364 -0.94414246 0.3197313 0.004234462
-0.0044217175 0.0011778938 0.0046504904 -0.060908906 -0.94844896 0.31102201 0.0047005857
-0.00143706 0.00096639729 0.0043695811 -0.038812336 -0.95508486 0.29377976 0.0040209508
0.0011501767 0.0010944089 0.0048101251 -0.0014262717 -0.9592942 0.28240502 0.0023609914
0.0047139027 0.0010060802 0.0043081166 0.035517801 -0.95898759 0.28121373 0.0025185216
0.0077514537 0.0011941727 0.0043579782 0.065028057 -0.94906503 0.30829686 0.0029643315
0.010736182 0.001449619 0.0046237409 0.069899954 -0.92812204 0.36565477 0.0026211964
0.013547882 0.001657865 0.0044706203 0.10218651 -0.926166 0.36300755 0.0030419845
0.016602362 0.0020363163 0.0044869464 0.12183752 -0.91812557 0.37709546 0.0034460931
0.019575298 0.0024047776 0.0043037212 0.16278294 -0.93470436 0.31595805 0.0060111093
0.022228694 0.0027155289 0.0036454012 0.20512602 -0.92401153 0.32268563 0.0043202327
0.02410876 0.0029312957 0.0031454521 0.18333261 -0.96950507 0.16263185 0.0041999728
-0.027706845 0.0058455435 0.0034555751 -0.28878227 -0.95474601 0.071168154 0.01245725
-0.02539311 0.0054289182 0.0044709984 -0.26606393 -0.92673045 0.26529357 0.0051527601
-0.022559276 0.0045987424 0.0046402225 -0.2843115 -0.92579734 0.24913096 0.0069332854
-0.019594191 0.0036549168 0.0045923335 -0.29792297 -0.9217909 0.24807957 0.0068353219
-0.017083 0.0033356838 0.0054097315 -0.23311448 -0.93138206 0.27961594 0.0075489958
-0.014807136 0.0030688564 0.0059289588 -0.1500445 -0.86206561 0.48407596 0.00061845762
0.020112351 0.0031963454 0.0058819875 0.15174961 -0.84384376 0.51468414 0.0014508003
0.02266475 0.0033181235 0.0050615338 0.19252059 -0.90861911 0.3706038 0.0046899649
0.025520211 0.0037359195 0.0044936524 0.24536201 -0.91728187 0.31367403 0.0025640049
0.028467985 0.0045543942 0.0044863359 0.24770723 -0.90828478 0.33713478 0.0031797949
0.031443805 0.0053739003 0.0043534236 0.28502211 -0.90799057 0.30710828 0.0031142414
0.033441871 0.0057892189 0.0035752133 0.32470062 -0.89861876 0.29504877 0.0030281327
-0.034094371 0.0084770797 0.0042192363 -0.35705194 -0.93185031 0.064567894 0.015773917
-0.031502679 0.0076932572 0.0047301492 -0.32961971 -0.91428918 0.23542769 0.0084265405
-0.028702961 0.0066395155 0.0047289208 -0.33812267 -0.90131992 0.27073142 0.0077956282
-0.026238931 0.0061911903 0.0057457048 -0.29187489 -0.88373524 0.3658157 0.0010597369
0.032488719 0.0062156394 0.0056956694 0.28104135 -0.87183696 0.40114355 0.0019512108
0.034676623 0.0065996014 0.0046236818 0.34542283 -0.88930339 0.29970399 0.0024874855
0.037532192 0.0076291976 0.0044918279 0.34078911 -0.88969171 0.30382809 0.0025811698
0.040028948 0.0085626207 0.0041746814 0.37912241 -0.8817746 0.28060618 0.0029389195
-0.042033393 0.011899993 0.0030581313 -0.41736239 -0.90816021 -0.03246123 0.032413762
-0.039921369 0.011212138 0.0043126973 -0.39995831 -0.9083277 0.12236936 0.027053431
-0.037296232 0.0099400105 0.0042869509 -0.42893648 -0.88871342 0.16187045 0.0083625633
-0.035353936 0.0092570605 0.0050210538 -0.40496111 -0.90746725 0.11184677 0.016977359
0.041263361 0.0093795918 0.0048688827 0.40952384 -0.86374927 0.29364511 0.0024599822
0.043502379 0.010296386 0.0044786423 0.41626266 -0.86149037 0.29079154 0.0026421149
0.046036344 0.011460662 0.0041503184 0.44034389 -0.84866041 0.29304028 0.0023777978
-0.046214785 0.014902445 0.0046350169 0.65696758 0.7335794 -0.17393962 0.0094887828
-0.043575317 0.013216705 0.0044364836 -0.47909075 -0.8156575 0.32430699 0.0011618952
-0.041838668 0.012384617 0.0050962078 -0.37916693 -0.88305765 0.27648076 0.0050998647
0.047242459 0.01240738 0.0048551285 0.47144556 -0.8295033 0.29943824 0.0024970295
0.049539968 0.013582342 0.004449937 0.50030351 -0.81012458 0.30560517 0.0023196281
0.051556528 0.0146194 0.0040282155 0.50519997 -0.80877119 0.30110157 0.0025034023
0.052852776 0.015757689 0.0046172435 0.53557765 -0.79249895 0.29172233 0.00231053
0.055135857 0.017200531 0.0042439438 0.55524725 -0.77898741 0.29134002 0.0023970716
0.0564196 0.01844774 0.0050553493 0.56408077 -0.76842523 0.30221784 0.0028487921
0.058401674 0.019728016 0.0043565999 0.6155408 -0.73172784 0.29271805 0.0022699172
0.060171291 0.020760125 0.0033839352 0.64122415 -0.71292377 0.28385082 0.0021779537
0.059708979 0.021364704 0.0054550855 0.62878639 -0.6779505 0.38080275 0.00255091
0.061479215 0.022531977 0.0043806201 0.67933249 -0.68133414 0.27256384 0.0020203043
0.063243896 0.023770608 0.0032652218 0.70788592 -0.65087306 0.27433893 0.0036267664
0.062727153 0.024317896 0.0053058933 0.69064558 -0.62218398 0.36864057 0.0033468781
0.064294368 0.02559332 0.0043620076 0.73350734 -0.60583055 0.3081173 0.0026393209
0.066027001 0.026903342 0.0030242461 0.76788539 -0.56991351 0.29249057 0.0021463905
0.065571226 0.027583262 0.0049174111 0.75870347 -0.56345111 0.32694319 0.0028069476
0.06677264 0.028837791 0.0042344439 0.78918582 -0.51329881 0.3372094 0.0028809819
0.068105608 0.031311598 0.0045589744 0.82378453 -0.45537195 0.33766171 0.0026062934
0.069188766 0.032520737 0.0035464333 0.84446573 -0.41998523 0.33240041 0.0027274473
-0.016202275 0.035422344 0.0049199578 0.25105834 0.90134984 0.35289982 0.0016634691
-0.013581131 0.034772515 0.0045086718 0.23505807 0.90163952 0.36303428 0.00076396996
-0.010653527 0.033890475 0.0049304795 0.21902998 0.89697015 0.38401881 0.00084946357
-0.0081685763 0.033172343 0.0053995047 0.17202182 0.86957151 0.46287575 0.0011408899
0.068792365 0.033521485 0.0055122073 0.846223 -0.36043397 0.39242068 0.0037431319
0.069781691 0.03460376 0.0042862375 0.86472529 -0.34492785 0.36506823 0.0036451162
-0.024894219 0.038628317 0.0046255589 0.37626889 0.8743062 0.30661109 0.0015300929
-0.022384401 0.037596151 0.0045860545 0.36201334 0.88126075 0.30385178 0.0018295003
-0.0196344 0.036526546 0.0046837879 0.29687506 0.90196657 0.31356263 0.0015209612
0.070699565 0.037475865 0.0044381632 0.89381796 -0.25528875 0.36866936 0.0031016164
-0.031154271 0.04133546 0.0047919173 0.42841718 0.85467565 0.29323772 0.0020456503
-0.028539995 0.040141836 0.004642087 0.38399014 0.87528509 0.29398561 0.0021410668
-0.026632896 0.03951396 0.0041528721 0.35992482 0.88229012 0.30334517 0.0018032823
0.071344078 0.04041924 0.0045590303 0.8995921 -0.17539443 0.39996362 0.0028354842
0.07209491 0.041666165 0.0031551875 0.94925034 -0.16212341 0.26951772 0.0029819589
-0.037126981 0.044488534 0.0045153378 0.44103366 0.85497522 0.27295905 0.0019081652
-0.034491219 0.043262184 0.0042783418 0.42422682 0.87049586 0.24953683 0.0012968492
-0.031972975 0.042185839 0.0037203995 0.4250927 0.89157212 0.15619019 0.0018407715
0.071530469 0.043441299 0.0050225859 0.89030284 -0.064694613 0.4507499 0.0032816173
0.072225921 0.043692205 0.0034830759 0.94330293 -0.077925973 0.32265636 0.0022614179
-0.042996187 0.047413435 0.0051097535 0.45534796 0.82713735 0.32939655 0.0017615352
-0.040470488 0.046400316 0.0042227111 0.46619502 0.83335704 0.29694831 0.0016344388
-0.038605556 0.04540506 0.0041078939 0.44484651 0.85265464 0.27402848 0.0021990407
0.071559772 0.046569061 0.0051073558 0.8841064 -0.0035930765 0.46727192 0.0038957773
0.072292805 0.046515748 0.0035579351 0.9199599 -0.023741346 0.39129284 0.0037828851
-0.049104959 0.050794467 0.0049182754 0.42738253 0.8211512 0.37822592 0.0036464981
-0.046487957 0.049607903 0.0044303248 0.45627999 0.83139318 0.31716543 0.00157914
-0.043986559 0.048442908 0.003958324 0.44883096 0.8378759 0.31066826 0.0016379899
0.071480066 0.049469505 0.005191837 0.84633785 0.027611559 0.53193027 0.0043020989
0.072313428 0.049493235 0.0036273915 0.9064278 -0.0090301856 0.42226434 0.0043240115
-0.055109847 0.053476661 0.0051032896 0.3210943 0.84426904 0.42907846 0.005770646
-0.052441888 0.052778605 0.0043177605 0.38945812 0.86421728 0.31851345 0.0026034138
-0.050280012 0.051721193 0.0041913572 0.43770099 0.8369416 0.32855248 0.0020334951
0.071448162 0.052573603 0.0050730878 0.83304513 0.057280701 0.55023146 0.0061930367
0.072368599 0.052481752 0.0035581198 0.88407898 0.010297114 0.46722412 0.0048921918
-0.066073284 0.056982566 0.0058951606 0.23683631 0.6484558 0.72347331 0.003118743
-0.063987181 0.056386162 0.0056672078 0.23472826 0.66632247 0.70775497 0.0047026495
-0.061616376 0.056435756 0.0042156707 0.43866932 0.8259182 0.35415861 0.0080771148
-0.058684252 0.055232398 0.0041400637 0.35690936 0.8773976 0.32060739 0.0054882672
-0.056401521 0.05461359 0.0035772643 0.39259115 0.87331098 0.28844431 0.0062365173
0.071168616 0.055480853 0.004995978 0.7716561 0.070911542 0.63207477 0.0068978821
0.072351284 0.05552936 0.0034876287 0.84019333 0.024384173 0.54173839 0.0070565189
-0.069455557 0.058258414 0.005607802 0.22941358 0.70185536 0.67436522 0.0060714176
-0.067567855 0.058851011 0.0046578404 0.22949637 0.70184475 0.67434818 0.0060599199
-0.063886985 0.058071241 0.0036510117 0.47480825 0.80902559 0.34646025 0.0070039481
-0.062632114 0.057358697 0.0036946824 0.43473107 0.82163125 0.36868814 0.0069745155
0.065622866 0.05723935 0.0059352308 0.19699872 0.33048409 0.92302322 0.0055562207
0.068196908 0.058563042 0.005678725 0.35904562 0.24425085 0.9007929 0.018371079
0.071154289 0.058301777 0.00447851 0.73189539 0.060781218 0.67870092 0.0061314716
0.072384574 0.058417678 0.003281703 0.9206627 0.0052570081 0.39032373 0.025782639
-0.067869008 0.060386226 0.003144447 0.33012277 0.80505979 0.49284661 0.017449146
0.068657391 0.061549734 0.0047328519 0.41822904 0.14319946 0.89698297 0.0075117024
0.071009956 0.061022948 0.004113954 0.69375569 0.042380568 0.71896243 0.0085130911
0.072329335 0.061461434 0.0032875708 0.82854313 -0.040832095 0.55843443 0.021921569
0.068717018 0.064225398 0.0040610153 0.33268288 0.07855653 0.93976116 0.023630235
0.070974894 0.0646623 0.0036841184 0.51523113 0.0021393504 0.85704863 0.016579671
0.072671138 0.064930759 0.0032018516 0.77846879 -0.12321628 0.61547065 0.026845789
0.068581529 0.06718269 0.0034275844 0.27760985 -0.035659742 0.96003187 0.020413756
0.071196422 0.067076996 0.0036209624 0.51419324 -0.1763871 0.83934081 0.018339684
0.073008023 0.067341261 0.0032978759 0.7386902 -0.24664526 0.627298 0.018646106
0.071401678 0.070312202 0.0040059825 0.37521622 -0.29356483 0.87922269 0.021106444
0.073832907 0.070517324 0.0035991471 0.67669708 -0.30626756 0.66953814 0.01244277
0.075131834 0.071604431 0.0031924429 0.72986293 -0.27775297 0.6246227 0.0064910045
0.071689144 0.073584445 0.0048298971 0.53546226 -0.2188766 0.81570411 0.017770682
0.073976576 0.073321499 0.0044264984 0.79414868 -0.2807593 0.53898251 0.022805309
0.075560533 0.073518753 0.0035561358 0.86323839 -0.22165094 0.45353085 0.038969163
0.073657766 0.075460047 0.0045182956 0.71563804 -0.2197929 0.66298819 0.061838534
-0.012536033 0.0028489244 0.0063856947 -0.16949631 -0.87781978 0.44799948 0.0010691477
-0.010173133 0.0026657516 0.0067372438 -0.12498352 -0.87678236 0.4643617 0.0012012467
-0.0071980134 0.0024417301 0.0069858544 -0.084014818 -0.87512028 0.47655648 0.0015065875
-0.0043739211 0.0023506398 0.0072249961 -0.046678107 -0.87805116 0.47628489 0.0017685241
-0.0014399363 0.0022691083 0.0072761402 -0.01939529 -0.87395775 0.48561472 0.0020529078
0.0015925553 0.0022334235 0.0072210645 0.0058908537 -0.87414426 0.48563069 0.0020221432
0.0045011169 0.0023008171 0.0071964869 0.04306601 -0.87317461 0.48550129 0.0015245618
0.0075138537 0.0024171225 0.0069954544 0.057338204 -0.86640006 0.49604771 0.0016141199
0.010642665 0.002549225 0.0068452395 0.078137301 -0.8643769 0.49673644 0.0008485752
0.013013056 0.0027301777 0.0065852385 0.10228422 -0.85685384 0.50531119 0.00070343749
0.015936358 0.0028975066 0.0063464623 0.11341929 -0.84664017 0.51993901 0.00060426304
-0.024499362 0.0059266072 0.0063811052 -0.29616657 -0.85648483 0.42275193 0.0010684767
-0.022142861 0.0055518034 0.0071459818 -0.26213041 -0.85644966 0.44472647 0.0013107121
-0.018780561 0.0048499163 0.0077144466 -0.20720522 -0.84922999 0.48566908 0.0011105683
-0.016304389 0.0044148788 0.0079587931 -0.17531759 -0.84782672 0.50045329 0.001564626
-0.013802465 0.0037914626 0.0077726962 -0.1540494 -0.85371941 0.49742529 0.00093951647
-0.010790119 0.0035338961 0.0081941076 -0.11428639 -0.84427315 0.52358526 0.0013614674
-0.0075543695 0.0033211103 0.0085030189 -0.079558142 -0.84984291 0.52099669 0.0016995698
-0.0044302763 0.0032610064 0.0087681236 -0.042132556 -0.8448227 0.53338498 0.0019392916
-0.0015319854 0.0032318858 0.0088450173 -0.013408308 -0.84693223 0.53153175 0.0025341236
0.0013119061 0.0031536059 0.0088096391 0.0061534857 -0.84151578 0.54019749 0.0020826985
0.0048302943 0.0031798184 0.0086779967 0.043166596 -0.84251833 0.53693533 0.0021279482
0.0074488162 0.0033594477 0.0085592978 0.062978126 -0.82399082 0.56309223 0.0012647696
0.010956247 0.0034407135 0.0082329195 0.087959483 -0.84704953 0.52418524 0.00084307423
0.013879287 0.0036233701 0.0078583974 0.11390414 -0.84251875 0.5264864 0.00047226544
0.016925996 0.0041851941 0.0080518844 0.1240278 -0.83422834 0.5372898 0.0003971165
0.019541852 0.0041621369 0.0074287117 0.14288284 -0.82932913 0.54018301 0.00079352042
0.022333881 0.0047754622 0.007558852 0.17384085 -0.80934882 0.56101149 0.0021117025
0.025270151 0.0050328239 0.0071010068 0.18831061 -0.81590176 0.54666573 0.0027583267
0.028246025 0.0055499338 0.0067784726 0.21812326 -0.81849235 0.53150028 0.0032663681
0.030274428 0.0058064815 0.0062395125 0.27417397 -0.85216635 0.44569176 0.0029391048
-0.031223264 0.0086733149 0.0073308419 -0.30983669 -0.84218901 0.44126979 0.0012447658
-0.028579745 0.0078874724 0.0076316493 -0.29384792 -0.84384251 0.44898036 0.0010216392
-0.025630163 0.0069108247 0.0077150241 -0.28699419 -0.85186958 0.43812391 0.00080324517
-0.023049306 0.0064850491 0.0083515299 -0.23458737 -0.79846483 0.55445707 0.00074207317
-0.020522526 0.0060163555 0.0087767206 -0.22415955 -0.80042541 0.55594218 0.00050728855
0.02332291 0.0060577691 0.0088540753 0.17012443 -0.73321074 0.65837657 0.00016917197
0.025982579 0.0063696075 0.0085651902 0.18354131 -0.74813467 0.63765752 0.0013768851
0.028724179 0.0066895564 0.0081644282 0.19836459 -0.78720409 0.58391887 0.003160459
0.03162289 0.007001685 0.0074809701 0.25118163 -0.80360544 0.53956097 0.0034429284
0.034391552 0.0078930678 0.00740453 0.2750203 -0.79157186 0.54569012 0.0034428025
0.037142798 0.0085173408 0.0068346751 0.31354511 -0.8125394 0.49139509 0.0027896899
0.039024651 0.0088300649 0.0061750668 0.33669674 -0.80207479 0.49326608 0.0030734395
-0.039357614 0.01184315 0.0065927315 -0.38553354 -0.82151341 0.4200947 0.0011977577
-0.037258275 0.011211167 0.0073572979 -0.37520263 -0.81931764 0.4335224 0.0014022741
-0.034296647 0.0097245499 0.0070835333 -0.34420356 -0.83766896 0.42406911 0.0012246858
-0.032000136 0.0095927343 0.0084908074 -0.31799066 -0.82335997 0.47006413 0.0014076543
0.035171829 0.0091915093 0.0088177603 0.24156497 -0.71249408 0.65878564 0.0014576332
0.037837159 0.0096579799 0.0081640156 0.30588481 -0.76328105 0.56906635 0.0036806569
0.040507689 0.010328323 0.0074281343 0.3459397 -0.80463946 0.48257762 0.0020169232
0.043263927 0.011341094 0.0070333439 0.38461104 -0.79100049 0.47580725 0.0024483847
0.045251366 0.011722552 0.0060668988 0.45241007 -0.80027014 0.39356428 0.0041943556
-0.042587418 0.013550217 0.0066425758 -0.46924591 -0.82043964 0.32663003 0.0012669393
-0.040733598 0.012963099 0.0075338865 -0.41685465 -0.80460495 0.42289853 0.0015266892
-0.038612876 0.012550722 0.0086182617 -0.38394901 -0.77435988 0.50294143 0.00071751844
0.044030383 0.012471791 0.0082451431 0.36004278 -0.76772088 0.53006977 0.0032185803
0.046522066 0.013363414 0.0074979025 0.4171122 -0.77219248 0.47930804 0.0021873771
0.049023371 0.014379851 0.0068678469 0.46206114 -0.75424951 0.46648395 0.0016971845
-0.046400666 0.015983477 0.0067042517 0.6679706 0.70414227 -0.24082999 0.013684027
-0.044326168 0.015435028 0.008218538 -0.46117365 -0.76721907 0.44575089 0.0011916396
0.049913693 0.015660306 0.0080032414 0.4448362 -0.74233651 0.50105619 0.0031764328
0.052326962 0.016806595 0.0072948672 0.4841311 -0.73111612 0.48071438 0.0025354542
0.054407682 0.017680658 0.0064676199 0.51357317 -0.72343552 0.46139306 0.0013077343
0.053445641 0.018391961 0.0083800526 0.47815722 -0.66087526 0.57845438 0.0012750356
0.055608273 0.01933836 0.0075417683 0.51681966 -0.7026369 0.48907951 0.0021646786
0.057734806 0.020390341 0.0066955327 0.56804591 -0.66560847 0.48403442 0.0016300335
0.056649182 0.021161938 0.0087769357 0.51316106 -0.60366791 0.61012363 0.0022722592
0.058776241 0.022170022 0.0077340542 0.56699288 -0.64367968 0.51399964 0.0026074778
0.060745139 0.023246652 0.0067851301 0.61474001 -0.60037547 0.5115115 0.0014100227
0.059818387 0.024055054 0.008646721 0.5719173 -0.57257533 0.58742499 0.0029185796
0.061819058 0.02526425 0.007708089 0.64306933 -0.53575277 0.54720265 0.003740048
0.063532047 0.026233308 0.006664909 0.6717388 -0.53737396 0.50989836 0.0020517791
0.062751152 0.027279383 0.0086078653 0.62197435 -0.50396967 0.59930164 0.0032746519
0.064527035 0.028467104 0.0074742693 0.70113826 -0.45408222 0.54974037 0.0028476939
0.066203795 0.029596718 0.0063444283 0.72405434 -0.46197784 0.51217359 0.002224568
-0.012799873 0.032807454 0.0084520765 0.22074474 0.85437858 0.47043487 0.0016038812
-0.010266826 0.032390028 0.0080096135 0.20130192 0.85721987 0.47397429 0.001189798
-0.0078872396 0.031986929 0.0077918586 0.14855902 0.85154533 0.50279301 0.0016046531
-0.0042379983 0.031345647 0.0078750113 0.098269835 0.83339983 0.54386371 0.0012170835
-0.0018334569 0.030904109 0.0082690511 0.098567016 0.77466142 0.62464726 0.0012638135
0.0014382418 0.030308744 0.0087174876 0.05137964 0.76095241 0.64677012 0.00084910064
0.065472618 0.030947842 0.0082895933 0.67646104 -0.36116305 0.64184242 0.0019928983
0.066872798 0.03175908 0.007046578 0.73751241 -0.40779507 0.53831089 0.002653636
-0.021522181 0.035730388 0.0080110971 0.32279256 0.8341639 0.44718635 0.0012082767
-0.019322339 0.035196647 0.0075158053 0.28226686 0.85273039 0.43951818 0.00078748842
-0.016332751 0.034170419 0.0076507181 0.25075555 0.85290933 0.45789433 0.0014289191
-0.013798241 0.033642098 0.0072199851 0.23587808 0.86354893 0.44569588 0.001367925
-0.01173767 0.033210728 0.0069448277 0.19175979 0.86526757 0.46318489 0.0014360701
0.065934099 0.033093903 0.0088551873 0.64855182 -0.3400003 0.68101424 0.002614432
0.067763306 0.034425367 0.0075333272 0.7514686 -0.30509847 0.5849871 0.0024923647
0.069221489 0.035546511 0.0061319005 0.78719515 -0.31484473 0.53027976 0.0029633597
-0.028210161 0.038533621 0.0079841213 0.36811686 0.82420647 0.43031818 0.0013341617
-0.025413299 0.037574138 0.0074328003 0.35940084 0.82416588 0.43770045 0.0011410798
-0.02281782 0.036558777 0.0073451973 0.319915 0.83722508 0.4435184 0.0012457052
0.068273775 0.037318606 0.0081837 0.76292485 -0.20405769 0.61343801 0.0026703107
0.069503494 0.037654698 0.0067335307 0.80186802 -0.22844201 0.5521068 0.0023245995
-0.034024492 0.041444764 0.007675421 0.39970297 0.80664718 0.4353826 0.0017858912
-0.031498704 0.040304806 0.007470428 0.40208352 0.81245691 0.42218792 0.0015582158
-0.028925579 0.03950727 0.0065339534 0.37313882 0.84178627 0.3900812 0.0015177281
0.068634428 0.040261608 0.008549233 0.69218343 -0.10876426 0.7134791 0.0035027005
0.069868185 0.040528346 0.0071152933 0.79490137 -0.13269883 0.59204978 0.0029079982
-0.042183101 0.044928938 0.0087055666 0.34964141 0.75753433 0.55126458 0.0020870222
-0.040099774 0.04427338 0.0081028016 0.40404943 0.77173102 0.49109599 0.0018297293
-0.03822986 0.043959416 0.0070022224 0.42644361 0.81817943 0.38565308 0.0012705789
-0.03532603 0.042335998 0.0072653792 0.39762184 0.80520427 0.43993518 0.0016331465
0.068747044 0.043548346 0.0087419813 0.69153041 -0.020400064 0.72205925 0.0029755374
0.070072562 0.043451194 0.0072665419 0.78170139 -0.044530421 0.62206107 0.0028077494
-0.046068318 0.047331706 0.0081048962 0.37901208 0.75788534 0.53099871 0.0024158778
-0.043549776 0.046705052 0.0071983961 0.40617007 0.80073094 0.44029066 0.0016222043
-0.041043926 0.045657925 0.0066221026 0.43869311 0.81726623 0.37366331 0.0016394145
0.06869062 0.046662074 0.008678359 0.65735835 0.071890458 0.7501412 0.0048338319
0.070122525 0.046432007 0.0071998625 0.75941879 0.033571567 0.64973533 0.0034071309
-0.05447375 0.050560251 0.0088487295 0.2238671 0.68365711 0.69461966 0.0019664979
-0.052352805 0.050350077 0.0081197703 0.29828721 0.73828536 0.6049459 0.0033257988
-0.049139529 0.049742885 0.0069091879 0.39303839 0.77840763 0.48949191 0.0023821036
-0.046495244 0.048534364 0.0067324489 0.40124622 0.79459858 0.45564753 0.0020562692
0.068226196 0.049376693 0.0085145654 0.61187702 0.12093829 0.78165233 0.0049634078
0.070095867 0.049471851 0.0069624293 0.74823081 0.076698475 0.6589902 0.00479599
-0.064592555 0.053134456 0.0082471352 0.2082257 0.6520074 0.72905993 0.0038156922
-0.061701197 0.053295232 0.0078518419 0.20931679 0.67913246 0.70353788 0.0057212762
-0.05862515 0.052803151 0.0076295817 0.1844233 0.72223431 0.66660756 0.0054319105
-0.055595569 0.052191757 0.0073754336 0.25971627 0.78606379 0.56093782 0.0025925431
-0.052196112 0.051528268 0.0064447727 0.39820319 0.79799783 0.45236441 0.0029357797
0.065192342 0.052245378 0.0085790707 0.2744033 0.30699626 0.91129369 0.0036511184
0.068268389 0.051850919 0.0078997128 0.6042738 0.15262687 0.78202182 0.0035327058
0.070034742 0.05227707 0.0066539887 0.72387534 0.08026997 0.68524545 0.0048730173
-0.066923298 0.055765927 0.006814769 0.23975414 0.62855679 0.73988807 0.0031909563
-0.064614423 0.055209413 0.006831082 0.23470011 0.66631699 0.70776945 0.0047129435
-0.061381303 0.054583404 0.0065220031 0.21623296 0.70512938 0.67530423 0.0041782088
0.065406062 0.054084402 0.0076732421 0.24180444 0.35230744 0.90410733 0.0062013818
0.067968458 0.055269022 0.0069006211 0.29051852 0.31695971 0.9028486 0.01177342
0.069710225 0.054904088 0.0063436213 0.68207639 0.12478901 0.72055495 0.0032207591
-0.069167502 0.057012971 0.0062489463 0.22028613 0.68537402 0.69407237 0.0049142041
0.068303689 0.05714798 0.0062046451 0.28011575 0.25676888 0.92498916 0.009751671
-0.01827338 0.005851137 0.0094696991 -0.21421425 -0.79134613 0.57261127 0.0013056489
-0.016009133 0.0055420552 0.0097347135 -0.16595587 -0.78846115 0.59227329 0.00090884673
-0.013439318 0.0053084958 0.010103988 -0.13820373 -0.78778273 0.6002484 0.00084855361
-0.010272933 0.0049297772 0.01023582 -0.099825688 -0.78737229 0.60834169 0.0016832119
-0.0073521845 0.0048360685 0.010511396 -0.071472131 -0.77725148 0.62511748 0.0018130329
-0.0044889152 0.0046623191 0.010536216 -0.034935072 -0.76580203 0.64212686 0.0018285145
-0.001510035 0.0047040051 0.010648955 -0.010227421 -0.74671674 0.66506356 0.0017649489
0.0014330237 0.0046656383 0.010596093 0.014322729 -0.73845035 0.67415571 0.0015311823
0.0043762689 0.0046210196 0.010490246 0.024291573 -0.75906926 0.6505565 0.0019479685
0.0073723919 0.0048333532 0.010454953 0.06495861 -0.75742656 0.64968097 0.0020600217
0.010898024 0.004672803 0.0099657075 0.089463189 -0.80279469 0.58950579 0.0012811748
0.013842002 0.0049495827 0.009777111 0.1156114 -0.79092979 0.60088599 0.00098373729
0.016401865 0.0053617624 0.0097958185 0.1317537 -0.76859874 0.62601668 0.00080190471
0.0192561 0.0056375414 0.0093845464 0.15411137 -0.74753886 0.64609236 0.0006726092
0.021393392 0.0058561461 0.0090938322 0.14742635 -0.7531051 0.64116943 0.00087996293
-0.027032351 0.0084029958 0.0093968771 -0.2609868 -0.82270348 0.50501972 0.00079978252
-0.024977989 0.0082604848 0.010163756 -0.25589919 -0.78703624 0.56132841 0.0010721913
-0.02229923 0.0077756448 0.010570178 -0.20746543 -0.76846385 0.60532755 0.0013814073
-0.019413665 0.0070854588 0.010749293 -0.20493971 -0.77231741 0.6012699 0.0011064427
-0.016771916 0.0067273313 0.011157829 -0.1607497 -0.77208197 0.61485684 0.00097563514
-0.013712885 0.006462222 0.01155174 -0.11983679 -0.71796477 0.68568629 0.0012405961
-0.010851931 0.0062037208 0.011733962 -0.086695485 -0.72313565 0.68524355 0.0015069668
-0.008314536 0.0060851611 0.011902098 -0.041421503 -0.70766455 0.70533335 0.0022610393
0.0072610229 0.0060942015 0.011810949 0.046926051 -0.68000782 0.73170167 0.0032561668
0.0106722 0.00620378 0.011642888 0.072352841 -0.69856083 0.71188331 0.0024248927
0.013727631 0.0065860501 0.01161084 0.10160134 -0.64583033 0.75669044 0.002353942
0.0166476 0.0067851236 0.011345668 0.13300002 -0.6932776 0.70829177 0.0017976493
0.019551951 0.0069929743 0.010906277 0.15604462 -0.70558578 0.69122988 0.0011787089
0.022547735 0.0073926561 0.010553459 0.17298982 -0.7048493 0.68794042 0.0012448888
0.025494734 0.0078159319 0.010170189 0.18948439 -0.70378166 0.68468028 0.00067096227
0.028376251 0.008226648 0.0098618288 0.19435437 -0.69044483 0.69678712 0.00071791251
0.031276941 0.0085795587 0.0094795534 0.20885953 -0.69367576 0.68934149 0.00086205173
0.033248495 0.0088313939 0.0091055846 0.25071028 -0.71966857 0.64747322 0.0033495664
-0.033833236 0.011304828 0.010042696 -0.34222314 -0.77499408 0.5312885 0.00056247471
-0.031411476 0.010704488 0.010494711 -0.29135486 -0.77798468 0.55664366 0.0014367714
-0.028509671 0.0098001659 0.010680221 -0.26347792 -0.77858073 0.56955379 0.00085573446
-0.025606658 0.0094440244 0.011576876 -0.22416645 -0.72462034 0.65167081 0.0017300621
-0.023922969 0.0091595929 0.01182067 -0.22734499 -0.74309242 0.62938696 0.0016816756
0.02392146 0.0090735871 0.011901697 0.18283749 -0.678765 0.71123034 0.0008232008
0.025951168 0.0093822191 0.011628445 0.18435283 -0.68148065 0.70823592 0.00052048761
0.028921092 0.010104649 0.011419338 0.19510475 -0.67770535 0.70897794 0.00037851211
0.031878661 0.010111419 0.010646294 0.1980681 -0.66551524 0.7196238 0.00064828323
0.034444422 0.010483958 0.010289631 0.21874344 -0.6732409 0.70632708 0.0014539356
0.037243437 0.010841612 0.0097833546 0.2677795 -0.69002968 0.67242342 0.001658935
0.039854351 0.011544497 0.0094007319 0.30774155 -0.69954681 0.64492595 0.0019594752
-0.03982133 0.014054758 0.010009727 -0.38532814 -0.7562288 0.52881026 0.0017401542
-0.037469517 0.013145363 0.010273256 -0.35802677 -0.76457375 0.53595138 0.00058941048
-0.035125073 0.012499921 0.01092066 -0.33127195 -0.75742882 0.56263715 0.0013357874
0.035010748 0.012316281 0.011639796 0.20798858 -0.61321467 0.76204228 0.00040869552
0.03781819 0.012735584 0.011186964 0.2456277 -0.6432637 0.72517502 0.00084151281
0.040644828 0.013251715 0.010658422 0.27374065 -0.62722933 0.7291429 0.00074947992
0.043516222 0.013819709 0.010026642 0.33533159 -0.66344905 0.66887069 0.0026122918
0.045959789 0.014540173 0.0094362404 0.38145399 -0.6669395 0.64006609 0.0018976977
-0.045849066 0.017170193 0.0092897229 -0.4621273 -0.73487115 0.49638975 0.003305401
-0.043758374 0.016604405 0.010280635 -0.44942379 -0.71540678 0.53498733 0.0014173931
-0.040587049 0.015555175 0.011488479 -0.4052597 -0.70958161 0.57641882 0.0009739605
0.041640028 0.01513265 0.011868608 0.24736331 -0.56810343 0.7849012 0.00061749283
0.043853879 0.015781527 0.011505173 0.30410713 -0.58380675 0.75278723 0.0016636132
0.046609741 0.016281841 0.010714843 0.33005071 -0.58918822 0.73751193 0.0014142498
0.049228102 0.016930072 0.0099345921 0.40873536 -0.63968158 0.65095538 0.0027289996
0.05138104 0.017632909 0.0092478115 0.44862083 -0.65451789 0.60856038 0.0021647965
0.04753118 0.018250262 0.011859002 0.30318999 -0.52303904 0.79655892 0.0012005145
0.049848277 0.01890015 0.011216179 0.37626523 -0.54146487 0.75182468 0.0015364127
0.052409317 0.019556092 0.010279685 0.41939828 -0.58793396 0.69169265 0.0032560236
0.054862201 0.020410225 0.0094997287 0.48608753 -0.61781061 0.61808497 0.001635065
0.053225517 0.021717003 0.011506465 0.39204681 -0.48484698 0.78180736 0.0011070779
0.055592611 0.02248591 0.010572359 0.46583173 -0.49040878 0.73654604 0.0017357132
0.05790149 0.023136443 0.0095320335 0.53427148 -0.55467892 0.63787556 0.0019403988
0.056329727 0.024668222 0.011561166 0.42607138 -0.43322325 0.79421717 0.0013249541
0.058655143 0.025433809 0.010588971 0.48277536 -0.44289324 0.75549549 0.0012712012
0.060735408 0.026129693 0.0095576644 0.57588327 -0.49928382 0.64735931 0.0017993964
-0.010344803 0.029688843 0.011702523 0.17526327 0.68071175 0.71127659 0.0011191659
-0.0074705118 0.029477542 0.011226768 0.1384169 0.75591934 0.63986468 0.0019775957
-0.0042544128 0.029300969 0.010812211 0.12211744 0.76139396 0.63668406 0.0013632911
-0.0014229354 0.028813627 0.010908027 0.08806435 0.75391662 0.65104103 0.00058120169
0.0016345329 0.028433356 0.011027809 0.046565894 0.70797777 0.70469797 0.0021620879
0.0050491588 0.028337594 0.011013334 0.0056466418 0.69310987 0.72080988 0.0010518784
0.059320021 0.027855093 0.011552698 0.46818557 -0.35028547 0.81123513 0.0016763353
0.061537202 0.028501937 0.010353115 0.54461235 -0.38858786 0.74323404 0.0019190687
0.063389435 0.029350093 0.0093470188 0.62880802 -0.42316544 0.65232778 0.0019715496
-0.019299656 0.032489873 0.011578248 0.25636065 0.69972348 0.66683304 0.0012388366
-0.016378162 0.032021128 0.010971832 0.23799014 0.768341 0.59414881 0.0012821273
-0.013372487 0.031509019 0.010470181 0.20265116 0.80537617 0.55704737 0.0012835045
-0.0105517 0.030948505 0.010294206 0.1725093 0.78402478 0.59627658 0.0030829061
-0.0073993248 0.030531248 0.0099758366 0.14438775 0.78140974 0.60708404 0.0017613909
-0.0041166055 0.030233927 0.0096366955 0.1039951 0.78234529 0.61410177 0.0013581782
-0.00021693941 0.030075876 0.0092423409 0.082660064 0.76762331 0.63554841 0.0010374004
0.062000487 0.031228149 0.01128756 0.5125441 -0.29877922 0.80500287 0.0014540019
0.064163744 0.031644072 0.0098729366 0.6159299 -0.34347463 0.70898199 0.0020841081
-0.027822156 0.035774365 0.011663638 0.30749461 0.68299532 0.66254395 0.00091189827
-0.025074543 0.035154954 0.011017161 0.30633399 0.73342305 0.60683614 0.0032993068
-0.022411805 0.034492373 0.010498244 0.29307914 0.75859708 0.5819236 0.0027971286
-0.019612988 0.033731535 0.010164672 0.26920786 0.77987134 0.56509101 0.0016218136
-0.017190222 0.033527181 0.0092977565 0.24397054 0.79328549 0.55783206 0.0014932069
0.062645458 0.033843741 0.011768188 0.50224352 -0.21360432 0.83792877 0.002180381
0.064646788 0.0344215 0.010538585 0.58899689 -0.25561288 0.76664519 0.0019898906
0.066402055 0.035148542 0.0093665859 0.66864878 -0.26493639 0.69477874 0.0028227938
-0.033539373 0.038547948 0.011495081 0.31986329 0.67315984 0.66674083 0.0010614287
-0.031242818 0.03794549 0.010933194 0.34029117 0.75190657 0.56465781 0.0014573272
-0.028529493 0.037223045 0.01027716 0.34482524 0.74421448 0.57204932 0.001704425
-0.025930859 0.036504757 0.0097051971 0.33056074 0.77239925 0.54233658 0.0011463077
0.064711154 0.037464119 0.011211495 0.53466332 -0.13097335 0.83485395 0.0011498457
0.066841483 0.037538495 0.0096763829 0.65365767 -0.17723107 0.73574507 0.0026608335
-0.039938703 0.041660581 0.011455714 0.31591928 0.7011807 0.63917184 0.0018468577
-0.037263021 0.040923044 0.010776605 0.34699205 0.74165767 0.57405609 0.0015243795
-0.034694508 0.039985474 0.010413049 0.34739774 0.75227511 0.55981869 0.0015430031
-0.031871952 0.039347675 0.0094789583 0.36983457 0.76769757 0.52331907 0.0013905761
0.06484995 0.040365137 0.011435372 0.52408695 -0.05799247 0.84968799 0.0028211642
0.067189448 0.040502924 0.0098702339 0.62615323 -0.078251906 0.77576333 0.0025662959
-0.046008989 0.044682503 0.011268906 0.28624707 0.68086618 0.67415416 0.0018614528
-0.043467361 0.043826286 0.010869955 0.32870981 0.71198958 0.62050033 0.0012663378
-0.040792402 0.043010674 0.010252072 0.34004587 0.71203846 0.6143046 0.0007679601
-0.038520336 0.042396411 0.0096613588 0.37600568 0.72139168 0.58156157 0.0013280567
0.056728654 0.044478305 0.0119904 0.010192158 0.33984679 0.94042563 0.0010232874
0.062522531 0.044589132 0.011803581 0.17904833 0.23945674 0.95425481 0.0033422217
0.064787775 0.042823821 0.011394254 0.49345976 0.029460797 0.86926955 0.0030209681
0.067390122 0.043423574 0.0098456768 0.6000104 0.0072451434 0.79995942 0.0033266086
-0.058385972 0.047800191 0.011753295 0.046152111 0.53931135 0.84084088 0.0011930078
-0.055369593 0.047513768 0.011671083 0.11339697 0.59217691 0.79778928 0.0030958341
-0.052657545 0.047302615 0.011243065 0.19941415 0.64210343 0.74022782 0.0013545671
-0.048794851 0.04715284 0.0099403923 0.3436901 0.72938013 0.59150803 0.0014677995
-0.046556819 0.046035804 0.010066624 0.31820655 0.71377909 0.62391031 0.0015442516
-0.044013835 0.045373119 0.0093218377 0.37686545 0.72316843 0.5787918 0.00091912819
0.056425236 0.045473009 0.01143703 0.010188107 0.33985862 0.9404214 0.0010209306
0.059386957 0.046086937 0.011507186 0.032057598 0.35481548 0.93438661 0.0017563476
0.061710879 0.046349671 0.011345303 0.085034363 0.31072158 0.94668967 0.0042488906
0.064852804 0.046490543 0.010742914 0.44642124 0.14761269 0.88256359 0.0041140663
0.067488045 0.046206057 0.0095903967 0.59255713 0.081279479 0.80141723 0.0043815849
-0.062329251 0.050915007 0.0096573969 0.09853185 0.62906575 0.77108222 0.0010067819
-0.05809319 0.049484394 0.010606701 0.093287602 0.59824902 0.79586154 0.0030051551
-0.055322062 0.049411252 0.010177144 0.18149987 0.6254158 0.75888926 0.0022743854
-0.052623123 0.048929341 0.0097612757 0.25563601 0.69034624 0.67681038 0.0022820439
-0.050086558 0.048430927 0.0092844879 0.3582651 0.7352125 0.5754205 0.0015070967
