# .PCD v0.7 - Point Cloud Data file format
VERSION 0.7
FIELDS x y z normal_x normal_y normal_z curvature
SIZE 4 4 4 4 4 4 4
TYPE F F F F F F F
COUNT 1 1 1 1 1 1 1
WIDTH 558
HEIGHT 1
VIEWPOINT 0 0 0 1 0 0 0
POINTS 558
DATA ascii
-0.010516423 0.02241629 -0.015647491 0.075505465 0.23150724 -0.96989858 0.001987082
-0.0075195879 0.021928275 -0.015561182 0.046578363 0.25657013 -0.9654026 0.0018711213
-0.0045232773 0.021879354 -0.015387026 0.045322839 0.35063022 -0.93541664 0.0027114674
-0.001628627 0.021738047 -0.015298034 0.026758302 0.37289613 -0.92748713 0.0027305598
0.0013435005 0.021653185 -0.015278324 0.0068376535 0.38798964 -0.92163837 0.002626519
0.0044933627 0.021631017 -0.015301733 -0.016440775 0.39324149 -0.91928822 0.002591843
0.0075504775 0.021759605 -0.015354756 -0.038089849 0.3887485 -0.92055625 0.0023716581
0.010657597 0.021954274 -0.015475657 -0.057725485 0.38222331 -0.92226523 0.0022631262
0.013616182 0.022024041 -0.015673392 -0.077717885 0.36769015 -0.92669511 0.0022222891
0.016777687 0.022539511 -0.015793879 -0.10053671 0.31521788 -0.94367892 0.0028272385
0.019609476 0.022333041 -0.016192473 -0.10742436 0.30400774 -0.94659352 0.0023915737
0.022431539 0.022461727 -0.016477225 -0.10395334 0.2653442 -0.95853341 0.0027827315
0.025640097 0.022159752 -0.016913151 -0.070160076 0.14268282 -0.98727864 0.0027643437
0.028445635 0.022204418 -0.01711564 -0.054928571 0.1006001 -0.99340951 0.003913207
0.031589676 0.022480208 -0.017262461 -0.028177219 0.045827731 -0.99855185 0.0036732759
0.034874275 0.022195328 -0.017295059 0.039181873 -0.061345927 -0.99734724 0.0044945842
0.037907615 0.021876739 -0.0171021 0.12018029 -0.23728867 -0.9639765 0.0034058027
0.040603362 0.022317868 -0.016884418 0.16033225 -0.25652716 -0.95314604 0.0028415141
0.043528095 0.022332424 -0.016343862 0.21842606 -0.30562988 -0.92675799 0.0022138199
0.046477862 0.022479575 -0.015644498 0.29176423 -0.36510983 -0.88406354 0.0019563842
0.048717249 0.023329858 -0.015247131 0.33339694 -0.3792353 -0.86314946 0.0021393674
-0.042843878 0.0262287 -0.015268641 -0.2681565 -0.37186748 -0.88871068 0.0028318635
-0.040346723 0.02544135 -0.01560985 -0.17820649 -0.22087571 -0.95888287 0.0024780296
-0.037415404 0.02596629 -0.01627137 -0.081377126 -0.11093576 -0.99049026 0.003944546
-0.034516182 0.025537841 -0.016520876 -0.037241243 -0.058796205 -0.99757516 0.0049053137
-0.031505968 0.025561186 -0.016622538 -0.0079782279 0.019652827 -0.99977505 0.0075501213
-0.028527943 0.02539386 -0.016590992 0.044901513 0.12289513 -0.99140334 0.0051674009
-0.025543123 0.02561008 -0.016350865 0.075020038 0.18842225 -0.9792186 0.0038933223
-0.022526108 0.025455471 -0.016067479 0.099840023 0.23270385 -0.96740937 0.0029061902
-0.019699447 0.025495112 -0.015693268 0.11131126 0.27924648 -0.95374584 0.0022317667
-0.016735241 0.024953943 -0.015481547 0.10908301 0.30082476 -0.94742036 0.0026806262
-0.013970855 0.024504492 -0.015243608 0.11816444 0.4107869 -0.90404165 0.0025433002
-0.011641156 0.024190838 -0.015114844 0.10832172 0.44063222 -0.89112836 0.0013394819
0.016839582 0.024210477 -0.015091498 -0.10984972 0.48877096 -0.86546862 0.0014609304
0.019291025 0.024469854 -0.015252916 -0.13643712 0.46689659 -0.87372333 0.0022071451
0.022704547 0.024961799 -0.01557958 -0.13159849 0.35845166 -0.92422628 0.0021313494
0.025864309 0.024946742 -0.016071334 -0.12073866 0.30882809 -0.94342321 0.0020962574
0.028663209 0.025224997 -0.016382551 -0.11124701 0.27015823 -0.95636743 0.0026293315
0.031534825 0.025516724 -0.016656704 -0.090807997 0.24430318 -0.96543765 0.0030924112
0.034528993 0.025073923 -0.017070664 -0.032714441 0.12083951 -0.99213284 0.0031236878
0.037597254 0.025357775 -0.017173782 -0.0055191657 0.061114144 -0.99811554 0.0058306372
0.040682305 0.025288526 -0.017148968 0.073155545 -0.051011689 -0.99601507 0.0048438944
0.043586992 0.025268745 -0.016903765 0.17728676 -0.16903491 -0.96953422 0.0039841845
0.046586271 0.025357161 -0.01640093 0.21651067 -0.20185259 -0.95518517 0.0029644133
0.049408332 0.025473341 -0.015686585 0.2788499 -0.25860149 -0.92486113 0.0026596843
0.051657636 0.026194798 -0.015211209 0.35624883 -0.30071121 -0.88468045 0.003235918
-0.045863483 0.029118583 -0.015307811 -0.2088725 -0.1967182 -0.9579531 0.0033481766
-0.043215822 0.028816206 -0.01581992 -0.13591014 -0.10799204 -0.9848178 0.002917761
-0.040038645 0.028302316 -0.016279502 -0.088282011 -0.063699469 -0.99405664 0.004994737
-0.0371757 0.028569486 -0.016524587 -0.022046056 0.011947057 -0.99968559 0.0062482888
-0.034314424 0.028730806 -0.016466057 0.030195702 0.12786151 -0.99133229 0.0041188439
-0.03149575 0.028321724 -0.016333755 0.066547893 0.17748687 -0.98187059 0.0040957588
-0.028493449 0.028556153 -0.015924079 0.11098585 0.24761719 -0.96248007 0.0027708653
-0.025609909 0.028382299 -0.015524797 0.12761004 0.31121427 -0.94173312 0.0024115625
-0.022790451 0.027671278 -0.015339918 0.13725513 0.36610517 -0.92039555 0.0024629384
-0.019971583 0.027136341 -0.015076297 0.15962245 0.43790966 -0.88473487 0.0013704491
0.026928511 0.027099159 -0.015226492 -0.17766376 0.51997542 -0.8355006 0.001882589
0.028588651 0.02758177 -0.015312208 -0.16495124 0.48790705 -0.8571685 0.0020792014
0.031611145 0.028121816 -0.015619601 -0.14332712 0.42796546 -0.89235806 0.0015285065
0.034465257 0.028151872 -0.016102051 -0.10637334 0.3051534 -0.94634354 0.0018530298
0.037387762 0.02841544 -0.016412249 -0.093553625 0.27803299 -0.95600492 0.0032221824
0.04055116 0.028215988 -0.016798561 -0.02001214 0.1575176 -0.98731339 0.003790597
0.043562226 0.028328381 -0.01684751 0.036472157 0.11644316 -0.99252748 0.0041869846
0.046406388 0.028098248 -0.016677288 0.18077123 -0.095384538 -0.97888893 0.0038151115
0.049761489 0.028406125 -0.016158622 0.2237924 -0.11048423 -0.9683544 0.0023194386
0.052500848 0.028541317 -0.015435982 0.27896664 -0.16110317 -0.94669074 0.0024376009
0.054163992 0.029687664 -0.015129586 0.28814539 -0.13229539 -0.94840401 0.0025423637
-0.049014322 0.032225214 -0.01517096 -0.24612556 -0.16515416 -0.95506346 0.0061787874
-0.046301544 0.031786121 -0.015685381 -0.12481568 -0.028123571 -0.99178123 0.0032166769
-0.042918649 0.031492751 -0.016136583 -0.072781451 0.039458301 -0.99656707 0.004774238
-0.040388335 0.031447969 -0.016272947 -0.022641661 0.10194524 -0.99453235 0.0058959723
-0.037477724 0.0315051 -0.016161814 0.040757075 0.17173444 -0.98429978 0.0037384727
-0.034519885 0.031453568 -0.015871421 0.092249446 0.2324995 -0.96821183 0.0027277272
-0.031747218 0.030858921 -0.01562823 0.13362807 0.31643954 -0.93915367 0.0024109764
-0.028922895 0.030581409 -0.015201292 0.17500347 0.44140521 -0.88007683 0.0027401326
0.034936078 0.030170029 -0.01519979 -0.19649945 0.52680194 -0.82696289 0.0024050942
0.037632026 0.030830273 -0.015425939 -0.16701117 0.44934598 -0.87760782 0.0022842058
0.040521733 0.031092308 -0.015849525 -0.10154044 0.31032673 -0.9451915 0.0020149294
0.043949001 0.03111713 -0.016238704 -0.027043076 0.2159986 -0.97601908 0.002809843
0.046708114 0.031482983 -0.016296213 0.035501972 0.17276128 -0.98432374 0.0028510198
0.049875155 0.030977134 -0.016166443 0.17909953 -0.0099574802 -0.98378056 0.0023992879
0.0525667 0.031404167 -0.015674282 0.23145629 -0.052885033 -0.97140676 0.0027892711
0.054758847 0.031528272 -0.015172621 0.30472296 -0.08435645 -0.94869798 0.0025912628
-0.049607854 0.034481946 -0.015304119 -0.15085165 0.033272866 -0.98799628 0.0032777076
-0.046360001 0.034571216 -0.015709199 -0.039713468 0.14132297 -0.98916668 0.0033758222
-0.043310679 0.034542549 -0.015783114 0.011952674 0.17951299 -0.98368299 0.0035293382
-0.04059555 0.034345165 -0.015682137 0.05484524 0.22261441 -0.97336262 0.0030882065
-0.037670411 0.033903327 -0.015443482 0.13828856 0.37188455 -0.91792059 0.003509125
-0.035190281 0.033455677 -0.015178606 0.1854915 0.44676295 -0.87521183 0.0026283683
0.044319425 0.033623423 -0.015391464 -0.11015628 0.35778764 -0.92728293 0.0019306955
0.046664421 0.034225758 -0.015451446 -0.060977645 0.31358919 -0.94759881 0.0021490923
0.049795173 0.034327805 -0.015611921 0.033045128 0.21585166 -0.97586685 0.0034383251
0.052445367 0.033741724 -0.015586816 0.18913271 0.050755147 -0.98063892 0.0012329961
0.054674234 0.034108326 -0.015177161 0.2507275 0.033583608 -0.967475 0.0024700856
-0.049051706 0.037116241 -0.015162881 -0.067977332 0.1775288 -0.98176503 0.004625075
-0.046480663 0.036698751 -0.01533772 -0.014160931 0.21135736 -0.97730625 0.0045184433
-0.043794051 0.036679849 -0.015231576 0.053641099 0.29245767 -0.95477283 0.0029821871
-0.041361082 0.036153726 -0.015111286 0.12504837 0.3467333 -0.92959076 0.0027266224
0.05049099 0.036335461 -0.015028971 -0.039958317 0.34242424 -0.93869531 0.0024596006
0.052474119 0.036268562 -0.015085482 0.084424391 0.23833659 -0.96750617 0.0033641064
-0.015081553 0.00884239 -0.012063824 -0.14382486 -0.62341022 -0.76855326 0.0025712317
-0.012931299 0.0086340439 -0.01233606 -0.14899446 -0.64516556 -0.74937451 0.0013418716
-0.010990403 0.0083607482 -0.012457447 -0.12550552 -0.63627291 -0.7611866 0.001153348
-0.0076590134 0.0079651643 -0.012558334 -0.088782996 -0.61509544 -0.78343803 0.0015860335
-0.0045801932 0.0079208557 -0.012865359 -0.069936901 -0.59680313 -0.79933399 0.0013764707
-0.0015083919 0.007529343 -0.012786172 -0.049325056 -0.59429401 -0.8027339 0.0017654954
0.0015744861 0.0076280651 -0.013011184 -0.034579635 -0.58299714 -0.81173807 0.0017039765
0.004517118 0.0074982899 -0.013028722 -0.01561208 -0.58536083 -0.81062269 0.0021454396
0.0074199322 0.0075532775 -0.013084259 -0.0016131991 -0.59001237 -0.80739254 0.0018885133
0.010458097 0.007517803 -0.013044436 0.020258095 -0.60523522 -0.79578894 0.0016132836
0.013431181 0.0076736677 -0.013027356 0.036504515 -0.62932801 -0.77628195 0.0013697925
0.016566863 0.00775907 -0.012905254 0.065922953 -0.64599234 -0.76049197 0.0012533343
0.01945569 0.0080363341 -0.012832713 0.09888792 -0.66143191 -0.7434575 0.0012056688
0.022295197 0.0083274553 -0.012674237 0.12640752 -0.67087811 -0.7307145 0.0017634806
0.025056794 0.0086427443 -0.012446735 0.16395788 -0.68925375 -0.70572448 0.0014831765
0.027458817 0.0088829482 -0.012141302 0.17526847 -0.68628079 -0.70590341 0.0013892009
-0.024140375 0.011600534 -0.012085111 -0.24110034 -0.65043652 -0.72027981 0.00076739996
-0.022171533 0.011463075 -0.012438203 -0.21081907 -0.61408287 -0.76056403 0.0011664266
-0.019318154 0.010780482 -0.0126865 -0.18897471 -0.60670006 -0.77214229 0.0012723092
-0.016494434 0.010442263 -0.0130246 -0.076020628 -0.63608235 -0.76786727 0.0034876247
-0.013149503 0.010299787 -0.013479847 -0.13046461 -0.56263566 -0.81634557 0.0024957806
-0.010003063 0.010426785 -0.01399205 -0.090571404 -0.49784347 -0.86252457 0.0018165638
-0.0074172085 0.010130175 -0.014044538 -0.069989674 -0.49183387 -0.86787146 0.0017864776
-0.0048613995 0.010454734 -0.014417972 -0.053263146 -0.48214358 -0.87447155 0.0016649861
-0.0015154436 0.0099840928 -0.014357827 -0.041035805 -0.48584434 -0.87308151 0.0018043994
0.0012580057 0.010083163 -0.014524769 -0.037113577 -0.47386226 -0.87981653 0.0019355381
0.0045112874 0.0098755294 -0.014526703 -0.025201367 -0.47275212 -0.880835 0.0017518396
0.0075957403 0.0097154342 -0.014492571 -0.0076939026 -0.47985455 -0.87731433 0.0018731257
0.01058676 0.0099167181 -0.014632444 0.0084110387 -0.49074015 -0.87126529 0.0018631648
0.013707961 0.0098369727 -0.014536194 0.024954623 -0.49806362 -0.86678135 0.0021479013
0.016638951 0.0097623253 -0.014396563 0.045608241 -0.52230197 -0.85154009 0.0016879397
0.019555667 0.0099226264 -0.014259247 0.071151696 -0.5420962 -0.83729869 0.0013246341
0.022603787 0.010187588 -0.014122716 0.1013495 -0.56693375 -0.81750506 0.0012714376
0.025585521 0.010345818 -0.013766071 0.13823684 -0.5961315 -0.79089683 0.0013466547
0.028518448 0.010429699 -0.013226743 0.17733251 -0.63793004 -0.74939871 0.0012875139
0.031399071 0.010873456 -0.01289802 0.2202111 -0.67054647 -0.70843095 0.0014385657
0.034169376 0.011425367 -0.012496211 0.24629664 -0.67649353 -0.69404209 0.0012277581
0.036494792 0.011810448 -0.012140119 0.28456873 -0.67773795 -0.67800581 0.0012516315
-0.030879885 0.014653344 -0.012376389 -0.25329134 -0.6072368 -0.75306505 0.0010659824
-0.028589481 0.014053443 -0.012616379 -0.23184501 -0.59797835 -0.76724821 0.0013103872
-0.025447974 0.013502139 -0.013132937 -0.21551038 -0.59019142 -0.77796489 0.00086344173
-0.022710107 0.0133263 -0.013657157 -0.18458912 -0.54924017 -0.81502271 0.001275379
-0.019696198 0.013284821 -0.014283494 -0.15656662 -0.48983639 -0.8576405 0.0014709174
-0.016624177 0.012715405 -0.014485119 -0.12445257 -0.46109304 -0.87858111 0.0018178064
-0.013769496 0.012444414 -0.014700088 -0.10762007 -0.41699633 -0.90251428 0.00255248
-0.010803699 0.012172566 -0.014908251 -0.067039989 -0.40070003 -0.91375333 0.0026200016
0.026443409 0.012194679 -0.014942067 0.12181386 -0.51456416 -0.84875506 0.0024332847
0.028756443 0.012425667 -0.014719552 0.14727511 -0.53814495 -0.8298856 0.0021765595
0.031624168 0.012851353 -0.014411028 0.18220823 -0.55006868 -0.81499976 0.001823167
0.034499858 0.01313212 -0.013869973 0.22282863 -0.59649724 -0.77106321 0.0011206067
0.037410222 0.013519478 -0.013267371 0.27109554 -0.62313724 -0.73362601 0.00172255
0.040230386 0.014215636 -0.012752185 0.30869305 -0.64199942 -0.70181566 0.0012760328
0.042476512 0.014790471 -0.012320766 0.34358841 -0.65797079 -0.67009073 0.0013320252
-0.036951512 0.017470058 -0.012360536 -0.32494515 -0.61340773 -0.71982062 0.001035065
-0.034504864 0.016990237 -0.012926482 -0.28631449 -0.58617198 -0.75790924 0.0013262146
-0.031464137 0.016261192 -0.013421567 -0.23931275 -0.56035781 -0.79292405 0.0014793196
-0.028478149 0.016004836 -0.014061594 -0.2147577 -0.54244137 -0.8121801 0.0011009097
-0.025485059 0.01578741 -0.014606306 -0.18146248 -0.46478564 -0.86662894 0.0020065899
-0.022748835 0.015279578 -0.014863345 -0.15353476 -0.45171851 -0.8788501 0.0019764707
0.037931912 0.015504771 -0.014594181 0.23241454 -0.52666056 -0.81768715 0.0022278503
0.040819053 0.016070442 -0.014042554 0.27999941 -0.54477787 -0.79045397 0.0010971365
0.043517914 0.016551908 -0.013320461 0.33631387 -0.57724875 -0.74409473 0.0013109631
0.046145063 0.017261233 -0.012611441 0.37666038 -0.61113876 -0.69615835 0.0015503706
0.048219219 0.017909555 -0.012140426 0.41039005 -0.58650649 -0.69827652 0.001931861
-0.042358115 0.020939685 -0.012502649 -0.34924644 -0.56632465 -0.74652749 0.0021876269
-0.040540043 0.020188779 -0.012810242 -0.3479346 -0.56463987 -0.74841392 0.0017627041
-0.037379891 0.019443354 -0.013611875 -0.29213473 -0.52223849 -0.8012017 0.0020818412
-0.034788091 0.019192688 -0.014284351 -0.23691855 -0.4690952 -0.85077566 0.0023499383
-0.031706084 0.018351834 -0.014689635 -0.19757263 -0.4382658 -0.87686265 0.0023018343
0.043867506 0.018678134 -0.014642486 0.29706395 -0.4771513 -0.82709104 0.0017222094
0.046645779 0.019254563 -0.013882322 0.3426201 -0.50376117 -0.79299188 0.00098686351
0.049243703 0.01973556 -0.012946198 0.41183442 -0.5608198 -0.71824342 0.0014568224
0.051484682 0.020591674 -0.012283336 0.44062859 -0.56871676 -0.6945557 0.0016289167
-0.045783505 0.023556594 -0.012627922 -0.40324 -0.54407841 -0.73578274 0.0011396204
-0.043398064 0.022843117 -0.013322093 -0.38152754 -0.54605591 -0.74582827 0.0032125704
-0.040653933 0.022502417 -0.014239463 -0.31721327 -0.45454392 -0.8323254 0.001005584
-0.038097806 0.021670582 -0.014713544 -0.2622337 -0.40829986 -0.87437105 0.0024876166
-0.0091016674 0.023847962 -0.014881442 0.088697143 0.39638329 -0.91379052 0.0058829384
-0.0073064822 0.023638373 -0.014855693 0.090515986 0.37188733 -0.92385423 0.0025549547
-0.0043990053 0.023434868 -0.014723697 0.067401484 0.4019284 -0.91318703 0.0026082129
-0.0014056839 0.023220217 -0.014658594 0.041520137 0.42681447 -0.90338558 0.0023709564
0.0014524377 0.023174547 -0.014606173 0.013664856 0.43742806 -0.89914954 0.0023293316
0.0042502698 0.023201006 -0.014595713 -0.011375612 0.44658619 -0.89466834 0.0024211712
0.0072016236 0.023128217 -0.014709304 -0.046156712 0.44571719 -0.89398307 0.0024724018
0.010305309 0.023436204 -0.014759569 -0.073193684 0.43156162 -0.89910918 0.00238936
0.013214208 0.023629447 -0.014903011 -0.091682486 0.43630385 -0.89511633 0.0035068856
0.047499157 0.02135193 -0.014803529 0.33672225 -0.43524814 -0.83497137 0.0020169574
0.049742546 0.022193519 -0.014234091 0.3746818 -0.43608013 -0.81819785 0.0014722547
0.052446894 0.022559956 -0.01310723 0.42946053 -0.49124125 -0.75778997 0.0015501482
0.054534007 0.023333674 -0.012384519 0.47968706 -0.50100046 -0.72034633 0.0015793212
-0.048954338 0.026211407 -0.012755818 -0.41654766 -0.50660509 -0.75487703 0.0010395567
-0.046391547 0.025488421 -0.013544842 -0.37377095 -0.45331612 -0.80919695 0.0019851099
-0.043698564 0.025051422 -0.014456511 -0.31866091 -0.41596425 -0.85172117 0.0015680876
-0.018317649 0.02677799 -0.014931111 0.15588985 0.45644197 -0.87599033 0.0015947297
-0.016123137 0.026487358 -0.014736183 0.16691311 0.43120202 -0.88668191 0.0020466836
-0.013458847 0.025907097 -0.014542555 0.15594009 0.45466176 -0.87690675 0.0018093591
-0.010470516 0.025608713 -0.014225646 0.12549226 0.48590398 -0.86495602 0.0011200322
-0.0075042672 0.025483677 -0.013880788 0.096944675 0.49433538 -0.86384851 0.0010114992
-0.0044059712 0.025580784 -0.01348779 0.07929074 0.52782464 -0.84564424 0.0012079701
-0.0014845416 0.025489613 -0.013306913 0.057726312 0.55614799 -0.82907611 0.0033219634
0.0015017224 0.025451705 -0.013203765 0.027419932 0.57589716 -0.81706214 0.0028302309
0.0045938254 0.025402794 -0.013221919 -0.0069386046 0.58173883 -0.81334609 0.0023521539
0.0073463968 0.025568539 -0.013184781 -0.045276508 0.57140088 -0.81942117 0.0023627561
0.01028159 0.025371911 -0.013555597 -0.076448292 0.56403697 -0.8222031 0.0022918989
0.013286237 0.025229422 -0.01393317 -0.11056452 0.51202834 -0.85182297 0.0024222005
0.016641879 0.025284855 -0.014404908 -0.12920113 0.46090108 -0.87799621 0.0011508969
0.019048311 0.025912916 -0.014412157 -0.15724905 0.50067008 -0.85123569 0.0018206749
0.022334825 0.026544563 -0.014693337 -0.16352893 0.50889593 -0.8451528 0.0014346663
0.024570696 0.02677441 -0.014962254 -0.16827659 0.48407108 -0.85869563 0.0019411965
0.050746027 0.024235547 -0.014824484 0.36376786 -0.36751559 -0.85592365 0.0020803399
0.052835684 0.025208265 -0.014314143 0.39618734 -0.36569491 -0.84220117 0.0014896581
0.055430401 0.025490629 -0.013043672 0.46696895 -0.4238216 -0.77608967 0.0016265522
0.057543363 0.026525797 -0.012339031 0.50421882 -0.43237805 -0.74753773 0.0021440638
-0.052164722 0.029060215 -0.012734933 -0.42586601 -0.45168373 -0.78397697 0.0015877686
-0.049520176 0.0286244 -0.013799835 -0.35247275 -0.3747941 -0.85749191 0.0014475705
-0.046689376 0.027847102 -0.01463995 -0.32709986 -0.3559297 -0.87539691 0.001850439
-0.024731085 0.02966384 -0.014801502 0.18981814 0.44120207 -0.87710303 0.0024427003
-0.022345589 0.029167444 -0.014514856 0.1953074 0.46535727 -0.86330622 0.0021644728
-0.019464679 0.028663563 -0.014117585 0.18802734 0.5079481 -0.84061545 0.0015281424
-0.016487924 0.028494997 -0.013544843 0.19199015 0.52652997 -0.82819438 0.0010902368
-0.013545179 0.028215727 -0.013072379 0.17749682 0.59915245 -0.78071201 0.0015001181
-0.010625128 0.028005414 -0.012669269 0.1475938 0.61728239 -0.77277327 0.0016458789
-0.0077258297 0.027514599 -0.012546994 0.11808666 0.63875526 -0.76029414 0.001825558
-0.0046950355 0.027307106 -0.01232184 0.088713974 0.64141339 -0.76204902 0.0017569354
-0.0013296189 0.027122265 -0.012113337 0.083428308 0.62861764 -0.77322668 0.0027064122
0.010608388 0.027236879 -0.012137033 -0.086422987 0.65782267 -0.74819815 0.0031210878
0.013578635 0.027479181 -0.012310043 -0.11180095 0.64315993 -0.7575261 0.0014129018
0.01692247 0.027716808 -0.012688011 -0.1404909 0.63013524 -0.76366997 0.0014569578
0.019679585 0.027873468 -0.013101816 -0.17036729 0.60258776 -0.77965564 0.0018606585
0.022353373 0.028212406 -0.013481637 -0.17685872 0.56647557 -0.80487669 0.0012305233
0.025541116 0.028472126 -0.014054329 -0.17387281 0.53470457 -0.82695788 0.0010397128
0.028409569 0.029031089 -0.01439045 -0.18914498 0.52400434 -0.83044785 0.0015800791
0.030878853 0.029524788 -0.014687457 -0.19361459 0.54028994 -0.81890178 0.0023073091
0.053576328 0.027449038 -0.014810542 0.35585535 -0.2406736 -0.90301889 0.0029058079
0.055690005 0.028352683 -0.014116535 0.42339957 -0.29130372 -0.85783148 0.0012833348
0.058362149 0.028671313 -0.012842957 0.49009728 -0.33444583 -0.80495381 0.0020934467
0.060187291 0.029778698 -0.012188608 0.54546994 -0.3360987 -0.76778919 0.001753995
-0.054624513 0.031810768 -0.012825198 -0.42954072 -0.38163775 -0.81844205 0.0028342609
-0.05245823 0.031307101 -0.013668316 -0.37789357 -0.3152132 -0.87053835 0.0023894154
-0.049923234 0.031293921 -0.014690675 -0.31264737 -0.2377519 -0.91963345 0.0044580335
-0.030944288 0.032490548 -0.014734558 0.21262318 0.42709932 -0.8788501 0.0026381128
-0.028514868 0.032192174 -0.014195584 0.24269529 0.53724045 -0.80775726 0.0019099979
-0.025539327 0.031659715 -0.013696624 0.23972739 0.5676142 -0.78761977 0.0012500298
-0.022822235 0.031553447 -0.012960758 0.2485573 0.61402339 -0.74912918 0.0017714174
-0.020067461 0.031003172 -0.012599879 0.23118889 0.64685845 -0.7267226 0.001513747
-0.016793536 0.030283047 -0.012265481 0.20438646 0.66312224 -0.72006595 0.0014089694
0.023388105 0.030008994 -0.012255593 -0.22543988 0.66899276 -0.70825535 0.0019562214
0.026419593 0.030793592 -0.012447767 -0.23000486 0.66814703 -0.70758551 0.0011125886
0.028636442 0.030926747 -0.012969103 -0.21357673 0.60537529 -0.76675016 0.001444927
0.031322546 0.031544723 -0.013250218 -0.22876279 0.59881932 -0.76751745 0.0015891837
0.034303192 0.031276461 -0.014347456 -0.22442029 0.55332804 -0.80216187 0.0012135823
0.037440453 0.03234639 -0.014497766 -0.21473852 0.4956139 -0.84157842 0.0037179419
0.039984979 0.032675337 -0.014918765 -0.19841084 0.42727494 -0.88208234 0.002577422
0.0562585 0.031450376 -0.01461812 0.36955756 -0.14955987 -0.91709274 0.0022569771
0.058713917 0.031427708 -0.013468477 0.45539004 -0.20984034 -0.86520922 0.002047417
0.060706124 0.031803831 -0.012455827 0.51668108 -0.259215 -0.81599528 0.0020797553
-0.057298601 0.034597695 -0.012498921 -0.45537266 -0.26830357 -0.84891045 0.0026329025
-0.055410035 0.034218676 -0.013281874 -0.40824854 -0.23784012 -0.88134283 0.0048874659
-0.052443061 0.034294337 -0.014503323 -0.31918475 -0.11796784 -0.94032156 0.0037520907
-0.050885051 0.034492213 -0.014920189 -0.17682759 0.03853523 -0.98348713 0.0026343344
-0.039454348 0.035847202 -0.014912665 0.16531357 0.44280714 -0.88124532 0.002858575
-0.037209414 0.035295565 -0.014729466 0.19925191 0.4542357 -0.86831367 0.0023350585
-0.034308776 0.034927107 -0.014158458 0.24955358 0.5327183 -0.808662 0.0012120407
-0.031423353 0.034668721 -0.013412135 0.27503997 0.57192677 -0.77282131 0.0019268949
-0.028601157 0.034211673 -0.012795333 0.27875718 0.61656493 -0.73630303 0.0018268863
-0.025646487 0.033426858 -0.012398919 0.26164344 0.65565646 -0.7082777 0.0012696767
0.032447882 0.033053141 -0.012352376 -0.22996745 0.57168257 -0.78758752 0.0005669223
0.034655087 0.033838868 -0.012404109 -0.24231897 0.57960945 -0.77803242 0.00060522818
0.037678983 0.034204572 -0.01320642 -0.23125488 0.55138373 -0.80155921 0.00095152122
0.040603772 0.033981733 -0.014320893 -0.22151405 0.51981962 -0.82505703 0.0012795761
0.043070301 0.034851186 -0.014475751 -0.21997553 0.47981474 -0.84934592 0.0019215384
0.04682228 0.035691336 -0.014843333 -0.10833997 0.37745318 -0.91966921 0.001829256
0.056292228 0.034460172 -0.014745038 0.27663952 -0.0011216274 -0.96097314 0.0033971891
0.058647268 0.034307912 -0.013953242 0.3669742 -0.073078483 -0.92735618 0.0026079123
0.061390884 0.034500889 -0.012731689 0.47054201 -0.13933764 -0.87130654 0.0027980902
0.06312985 0.035912063 -0.01210781 0.55473673 -0.07655894 -0.82849616 0.0030042049
-0.058643043 0.03791406 -0.012619595 -0.4550063 -0.20539701 -0.86647636 0.0047689043
-0.055752099 0.037253119 -0.013787466 -0.31748024 -0.13096611 -0.93917739 0.0057994379
-0.052319646 0.037351951 -0.014705278 -0.16303833 0.089548528 -0.98254752 0.0054619857
-0.049748335 0.038422167 -0.014860961 -0.039132547 0.21260312 -0.97635472 0.0051924414
-0.046642102 0.038499415 -0.014815127 0.049629051 0.29121467 -0.95536953 0.0033399616
-0.043340549 0.038107358 -0.014514793 0.16377854 0.43331259 -0.88623738 0.0028624507
-0.040478803 0.037779931 -0.014084933 0.21526355 0.51960289 -0.82684606 0.0014254937
-0.037492476 0.037567232 -0.013354379 0.26627278 0.56691736 -0.77955341 0.0015092616
-0.034709945 0.037063107 -0.012786403 0.28112018 0.61749518 -0.73462313 0.0017282288
-0.032243162 0.036438853 -0.012364984 0.30166969 0.6517083 -0.69589627 0.0014160139
0.040712886 0.036578223 -0.012434317 -0.24469104 0.5394935 -0.80565071 0.00043864714
0.043973118 0.037284765 -0.01317236 -0.2357661 0.5157904 -0.82363492 0.0011698031
0.046530873 0.03715118 -0.014013197 -0.16870539 0.48926622 -0.85566175 0.0017742724
0.049464237 0.037510622 -0.014402901 -0.086841419 0.37807021 -0.92169493 0.0013814693
0.052693058 0.037706878 -0.01458278 0.011446591 0.29899162 -0.95418704 0.0052182632
0.055579465 0.036903154 -0.014634268 0.2315408 0.10571381 -0.96706432 0.0027755932
0.058634255 0.037293985 -0.013946901 0.34322345 0.015906917 -0.9391191 0.0026210402
0.061872136 0.037302312 -0.01273091 0.44934115 -0.047102641 -0.89211762 0.0026966901
0.063284524 0.037749581 -0.012107133 0.52825558 -0.071723178 -0.84605074 0.0027362814
-0.060145866 0.041038375 -0.012334072 -0.34304339 0.0038441294 -0.93931174 0.0072977892
-0.058020432 0.040486131 -0.01312497 -0.3296873 0.0038496691 -0.94408232 0.0074275951
-0.055408753 0.040504694 -0.013774579 -0.15490636 0.1669887 -0.97371393 0.0032618609
-0.052273344 0.040645596 -0.014161177 -0.018409878 0.30639473 -0.9517265 0.0034016687
-0.049425934 0.0404852 -0.014190018 0.046218641 0.36907488 -0.92824972 0.0037262132
-0.046411365 0.040583614 -0.013775244 0.11769787 0.42701137 -0.89655364 0.002239912
-0.043522716 0.040620666 -0.01306805 0.24842866 0.55606139 -0.79314494 0.0020201216
-0.040563762 0.039954294 -0.01262739 0.26990616 0.60769105 -0.74690181 0.0019503993
-0.038068436 0.03925788 -0.012311383 0.28175861 0.62995535 -0.7237184 0.0018547215
0.04759071 0.039226864 -0.013033213 -0.20843516 0.51378798 -0.83221191 0.0012472315
0.049931958 0.040279221 -0.012968753 -0.18517476 0.49675775 -0.8479045 0.0021252991
0.052683923 0.040410053 -0.01341185 -0.07317777 0.40710154 -0.91044682 0.0029937131
0.055722516 0.040135313 -0.01372991 0.068071172 0.30746436 -0.94912171 0.0028016139
0.059042308 0.039976329 -0.013388018 0.25466967 0.1614763 -0.95345098 0.0028594446
0.061794143 0.04018667 -0.012603808 0.39246121 0.075938597 -0.91662842 0.0026533944
0.063319936 0.040493034 -0.012105866 0.44160551 0.096174054 -0.8920399 0.0032089008
-0.06057559 0.042753957 -0.012121614 -0.27521428 0.10738438 -0.95536679 0.0061365133
-0.058102354 0.043846294 -0.012626916 -0.063469455 0.34257129 -0.93734545 0.0038015209
-0.055208515 0.043647718 -0.013047083 -0.015565129 0.36845595 -0.92951488 0.0039143343
-0.052319717 0.043585256 -0.013008866 0.10100237 0.45253056 -0.88601053 0.003649703
-0.049548417 0.04326706 -0.01284158 0.14119717 0.49936357 -0.85480952 0.0032968868
-0.046753332 0.042768098 -0.012530753 0.23416197 0.58563453 -0.77601564 0.0027125012
-0.044606324 0.042427301 -0.012129859 0.27360108 0.61662942 -0.73818058 0.0021617266
0.052769363 0.042381912 -0.012309772 -0.16940473 0.50012672 -0.8492204 0.0018201114
0.055923078 0.042845342 -0.012546442 -0.037342917 0.41411197 -0.90945965 0.0017953292
0.058975093 0.043323111 -0.012409009 0.10616198 0.31505209 -0.94311816 0.0038161275
0.061832946 0.04261462 -0.012168358 0.32763231 0.18619016 -0.9262777 0.0038666609
-0.057665002 0.045671612 -0.012108266 -0.046684831 0.42603102 -0.90350324 0.0031507995
-0.05553291 0.045491181 -0.012284961 0.01582606 0.469143 -0.88298041 0.0032595308
-0.053326994 0.045370582 -0.012198863 0.10713474 0.51979023 -0.84754962 0.0036102876
-0.050927229 0.045132779 -0.012046165 0.2056914 0.59158224 -0.77956498 0.002290881
-0.015251358 0.0059776944 -0.0091077425 -0.20846435 -0.75118011 -0.62631553 0.0016824678
-0.013480282 0.0057613621 -0.0093408097 -0.18443944 -0.75993156 -0.62328649 0.001375868
-0.010707479 0.0054091117 -0.0096846726 -0.13693275 -0.76059341 -0.63462359 0.0017765893
-0.0076123355 0.0051942682 -0.0099371951 -0.10986061 -0.75983244 -0.6407693 0.0015796956
-0.0044004084 0.0049274126 -0.010147182 -0.088771962 -0.74670649 -0.65920323 0.0013408555
-0.0015593627 0.0046819882 -0.010133958 -0.052485712 -0.74620062 -0.6636489 0.0015942871
0.001541142 0.0047799158 -0.010434932 -0.033350721 -0.74434727 -0.66695946 0.0016257401
0.0045553539 0.0046759504 -0.01043912 -0.008186725 -0.74070609 -0.67177939 0.0011862596
0.0075349319 0.0047100564 -0.010429329 0.014028758 -0.75320244 -0.65763921 0.0018826112
0.010533143 0.0048617488 -0.010513446 0.043193895 -0.74797583 -0.66231912 0.0014776041
0.013542364 0.0048867655 -0.010265046 0.072187141 -0.76806319 -0.6362924 0.001757191
0.01656504 0.0050880909 -0.010140004 0.10023543 -0.7799052 -0.61781937 0.0014251111
0.019466808 0.0052517024 -0.0098095965 0.13712309 -0.79880172 -0.58575863 0.0013124547
0.022346724 0.0056242896 -0.0095579345 0.16198106 -0.80049127 -0.57704061 0.0011564649
0.02474454 0.0058256919 -0.0092040189 0.19324985 -0.79743618 -0.57162046 0.0011744072
-0.022184709 0.008496644 -0.0095399227 -0.26923031 -0.72905993 -0.62927473 0.0011966006
-0.019327927 0.0079449425 -0.010041288 -0.24454713 -0.7392022 -0.62751633 0.0012527336
-0.016763987 0.0075937822 -0.010431059 -0.18874468 -0.71659797 -0.67146325 0.0017289134
-0.013702971 0.0071377121 -0.010788478 -0.17828032 -0.70499003 -0.68644392 0.0018161148
-0.010538032 0.0067214333 -0.01110794 -0.13766608 -0.69371432 -0.70697141 0.0024498517
-0.0073773526 0.0065497681 -0.01141097 -0.10048594 -0.6820479 -0.72437096 0.0020091692
-0.0041445969 0.0063090669 -0.011636375 -0.081619278 -0.70381957 -0.70567435 0.0011517396
-0.0013724854 0.0061138775 -0.011674016 -0.052729353 -0.70283806 -0.70939291 0.0013901141
0.0016766549 0.0061417045 -0.011884176 -0.032059964 -0.68164527 -0.7309801 0.0017463632
0.0047171414 0.0060420372 -0.011862856 -0.0099849422 -0.68743229 -0.72617978 0.0013188715
0.006741982 0.0060366285 -0.011846714 0.027438942 -0.68697566 -0.72616231 0.0024724777
0.010979058 0.0060978751 -0.01186811 0.025075974 -0.70403308 -0.70972437 0.0017556679
0.013616465 0.0061969641 -0.011704963 0.054143231 -0.71434766 -0.69769323 0.0012316615
0.016735625 0.0063202102 -0.011536134 0.081712581 -0.70932752 -0.70012683 0.0012701547
0.019607617 0.0065899016 -0.011390559 0.11683869 -0.70389694 -0.70062679 0.0013742954
0.022643188 0.0068698456 -0.01109407 0.14565367 -0.74958819 -0.64567983 0.0014555844
0.025661224 0.0070441193 -0.010492333 0.19107564 -0.78160501 -0.59378761 0.0012805174
0.028450534 0.0077551426 -0.010438673 0.21023467 -0.77517235 -0.59574252 0.0016727432
0.031489886 0.0083396742 -0.010050824 0.25954932 -0.78025872 -0.56906104 0.0012559809
0.033927515 0.0087039983 -0.0093928212 0.29119539 -0.78707105 -0.54380554 0.00099493971
-0.030857034 0.011734945 -0.009399022 -0.3123472 -0.74214965 -0.59300345 0.0011940119
-0.028132146 0.011167474 -0.010016006 -0.29130763 -0.72254854 -0.62694776 0.0014954553
-0.025433684 0.010487507 -0.010415316 -0.26833138 -0.70833546 -0.6528852 0.0017037462
-0.022663571 0.009948737 -0.010911942 -0.25944707 -0.70484155 -0.66021627 0.0016966803
-0.019560026 0.0093808519 -0.011446462 -0.20895842 -0.68380612 -0.69910336 0.001336404
-0.017676789 0.0091939773 -0.011892681 -0.18321542 -0.67336428 -0.71624905 0.0020445203
0.029613385 0.0091386857 -0.011741193 0.19703831 -0.70615637 -0.68008763 0.0024124573
0.03181731 0.0094617363 -0.011360416 0.23646249 -0.73314977 -0.63763386 0.0014876302
0.034686282 0.010032644 -0.01076817 0.28278083 -0.75520742 -0.59135157 0.0013061498
0.037505545 0.010822009 -0.010417117 0.30193007 -0.75984788 -0.57573384 0.0016044979
0.040071275 0.011482599 -0.0098021179 0.35330048 -0.75479937 -0.55268145 0.0011792243
0.042148326 0.011928068 -0.0091650654 0.38011727 -0.75076163 -0.54024792 0.0012884182
-0.036589418 0.014371968 -0.0094029456 -0.37886024 -0.72355098 -0.57700866 0.0012085531
-0.034244884 0.013705689 -0.0099887932 -0.32984075 -0.70784646 -0.6246267 0.0012784209
-0.031658262 0.013228061 -0.010706334 -0.30464756 -0.70691663 -0.63832492 0.00159281
-0.028904118 0.012575093 -0.011197774 -0.27165532 -0.68578619 -0.67520422 0.0024110274
-0.026461676 0.012175553 -0.011772233 -0.25638622 -0.68079984 -0.68613243 0.0012796506
0.038363688 0.01221071 -0.011688841 0.29238492 -0.69217807 -0.65984893 0.0013443861
0.040738109 0.012768923 -0.011020306 0.32800671 -0.71215308 -0.6206848 0.00093016069
0.043492261 0.013646076 -0.010465174 0.37495294 -0.72991294 -0.571522 0.0012615189
0.045966476 0.014387029 -0.0096832281 0.4277384 -0.72454625 -0.54043752 0.0012726254
-0.042640097 0.017818658 -0.0094633959 -0.44972813 -0.69864351 -0.55645472 0.0015735492
-0.04001205 0.016933661 -0.01023814 -0.39743057 -0.6921134 -0.60251802 0.0017752538
-0.037519719 0.015933085 -0.010594388 -0.36574328 -0.68612415 -0.62886053 0.0014165817
-0.035236605 0.015621795 -0.011490259 -0.32165092 -0.67113817 -0.66791785 0.0013814097
0.044461377 0.015268192 -0.011768277 0.35696563 -0.65255022 -0.66839647 0.0015434375
0.046801511 0.01590273 -0.010882384 0.41359174 -0.68045855 -0.60491157 0.0018614022
0.049324453 0.016869346 -0.010233357 0.4402706 -0.68521076 -0.58021373 0.0016933767
0.051533625 0.017619712 -0.0093631512 0.49185321 -0.67130882 -0.5544591 0.0013818551
-0.04579683 0.020327937 -0.0097751813 -0.4800742 -0.67638916 -0.55859321 0.0012539541
-0.043855656 0.019757712 -0.010539432 -0.42869982 -0.62661821 -0.6508196 0.0017326883
-0.041118592 0.018588696 -0.011231555 -0.38125193 -0.64129949 -0.6658693 0.001177517
0.050244793 0.01853125 -0.011357672 0.4454011 -0.63613772 -0.63003707 0.0010011067
0.052500974 0.019396925 -0.010471354 0.47875771 -0.62074107 -0.62086356 0.0016641347
0.05483241 0.020346453 -0.0096247913 0.51881939 -0.6303314 -0.57750219 0.0016037459
-0.049032599 0.023242276 -0.010285634 -0.48437238 -0.62278724 -0.61442614 0.0013090839
-0.046582431 0.022348607 -0.01119284 -0.44346565 -0.5981009 -0.66754293 0.0023870859
-0.044478022 0.021356422 -0.011712387 -0.40401176 -0.58000267 -0.70736933 0.0010303534
0.053546984 0.02137302 -0.011633258 0.48045442 -0.57951033 -0.65827906 0.0012029918
0.055730183 0.022255555 -0.01067374 0.51852673 -0.54876453 -0.65573436 0.0016425407
0.057793159 0.023235722 -0.009755169 0.56082851 -0.57980859 -0.59101045 0.0013041022
-0.054232717 0.026351988 -0.0092657283 -0.52999598 -0.62437761 -0.57380915 0.0011326809
-0.052153628 0.025879592 -0.010446213 -0.48156705 -0.59743792 -0.64121842 0.002062554
-0.049748 0.024968879 -0.011375058 -0.46675682 -0.58390808 -0.66422087 0.002308856
0.056613125 0.024516802 -0.011725763 0.51843035 -0.49323177 -0.69853592 0.0010484557
0.058710042 0.025276974 -0.010664669 0.54244792 -0.48063418 -0.68901461 0.0012127847
0.060686398 0.026167981 -0.009697888 0.59356171 -0.51522362 -0.61824679 0.0014805547
-0.057131052 0.028961953 -0.0092817154 -0.55714232 -0.56838447 -0.6054185 0.0024431392
-0.055153273 0.028576698 -0.010480088 -0.47926509 -0.48703584 -0.73013771 0.0007244898
-0.053282637 0.028106172 -0.011455297 -0.45876029 -0.48341846 -0.74555051 0.0010698589
-0.013323749 0.029698031 -0.011784315 0.18785065 0.70048267 -0.68850285 0.0017810782
-0.010491047 0.029414663 -0.011359303 0.16337493 0.72155797 -0.67280221 0.0017062073
-0.0075353715 0.029007027 -0.01110265 0.13647711 0.71412003 -0.68659055 0.0016530505
-0.0044257538 0.028828993 -0.010771398 0.10453566 0.72822106 -0.67732286 0.0022041861
-0.0014874 0.028621046 -0.010594145 0.079663232 0.72338963 -0.68582875 0.0023145217
0.0016371012 0.028333111 -0.010673984 0.036743075 0.7130931 -0.70010591 0.0027145324
0.004571097 0.028232386 -0.01073969 0.0067841946 0.7287522 -0.68474394 0.0018611073
0.0072788261 0.028089916 -0.010944441 -0.04712132 0.67825335 -0.73331571 0.0020950341
0.010725636 0.028624192 -0.010714175 -0.088272661 0.72221577 -0.68601191 0.0026715095
0.013395568 0.028833501 -0.010859037 -0.12688343 0.71670866 -0.68573266 0.0013770281
0.016790047 0.029157259 -0.011236507 -0.1608275 0.67776138 -0.7174775 0.0011733533
0.019107942 0.029572284 -0.011361986 -0.1897929 0.73269624 -0.65355563 0.0017159923
0.059495319 0.027736278 -0.011691234 0.53814369 -0.37590605 -0.75438452 0.0016657597
0.06155752 0.028414635 -0.010400298 0.58544445 -0.39684764 -0.70694178 0.0014872975
0.063356362 0.029379675 -0.0093892701 0.64993727 -0.4228659 -0.63147908 0.001949097
-0.060443249 0.032727785 -0.0092065409 -0.59465688 -0.47856209 -0.64603531 0.0037325863
-0.057974339 0.031166041 -0.010182436 -0.54805678 -0.47981122 -0.6851387 0.0020267412
-0.056081958 0.031547941 -0.011809593 -0.47180697 -0.40792629 -0.78166127 0.001783733
-0.022361238 0.032748446 -0.011747165 0.25455683 0.685386 -0.68223667 0.001658114
-0.019464441 0.032320589 -0.011131083 0.24537446 0.72648531 -0.64188045 0.0012389775
-0.016483268 0.031960398 -0.010401079 0.23406637 0.7501688 -0.61843336 0.0010303367
-0.013782499 0.031423822 -0.010074162 0.20633452 0.77465457 -0.59777617 0.0020649955
-0.010478288 0.030721119 -0.0099875247 0.17701225 0.7472797 -0.64049959 0.0014678516
-0.0076567642 0.030426478 -0.0096200639 0.14219417 0.75520909 -0.63987505 0.0015471502
-0.0049144817 0.03026635 -0.0092143873 0.1057912 0.75749153 -0.64421648 0.0010988523
0.010945386 0.030011462 -0.0090205325 -0.092712097 0.78439349 -0.61329544 0.001036758
0.014254111 0.030134806 -0.0095178122 -0.1342155 0.77497178 -0.61757994 0.0012453835
0.016738391 0.030423859 -0.0097746179 -0.16835749 0.76626122 -0.62008029 0.0012089789
0.019931184 0.030877436 -0.010152815 -0.20431161 0.75169522 -0.62706554 0.001277698
0.023170618 0.031290255 -0.010746039 -0.2436177 0.73594803 -0.63168901 0.0017506183
0.026472386 0.032117568 -0.011029973 -0.24778488 0.73554754 -0.63053352 0.00068003772
0.030428309 0.032632925 -0.011999385 -0.22288854 0.66026407 -0.71719742 0.0011272099
0.062077343 0.031243511 -0.011346134 0.55601186 -0.29650393 -0.77648973 0.0012128146
0.064123131 0.031623919 -0.0098830843 0.64496255 -0.34460235 -0.68210888 0.0018279998
-0.058707081 0.033884492 -0.011265721 -0.5104441 -0.34713027 -0.78673214 0.0025398105
-0.027922301 0.035447199 -0.011364472 0.29404578 0.66114199 -0.69023788 0.002160565
-0.025280591 0.034956224 -0.010673019 0.29951271 0.72845799 -0.61615026 0.0012512519
-0.022629358 0.034180526 -0.010348471 0.27756688 0.73410851 -0.61971062 0.0019339633
-0.019663457 0.033612255 -0.0097433245 0.26103622 0.75710315 -0.59887803 0.0013162214
-0.017584231 0.033203635 -0.0092996564 0.24476936 0.77287334 -0.58545256 0.0010377448
0.026022526 0.033127539 -0.0096965954 -0.252509 0.74122083 -0.62195736 0.00079419848
0.02958818 0.033993371 -0.010081593 -0.26188159 0.71321481 -0.65018672 0.00092435972
0.030110899 0.033223141 -0.011191625 -0.2493899 0.66223693 -0.70657414 0.0013847499
0.038022704 0.03577105 -0.011994427 -0.26791182 0.55987471 -0.78406858 0.00041240966
0.062716283 0.033884328 -0.011836554 0.5396387 -0.18621422 -0.82104462 0.0020531185
0.064630695 0.034325141 -0.010465833 0.61889744 -0.24184249 -0.74731392 0.0015290729
0.066287182 0.03506564 -0.0092923315 0.68913466 -0.25917214 -0.67670023 0.0019380719
-0.060861021 0.036694624 -0.010962046 -0.51687676 -0.27731463 -0.80989814 0.0020329882
-0.036086738 0.038837314 -0.011808405 0.32055667 0.67382455 -0.66573566 0.0011292816
-0.034208 0.038371671 -0.011380043 0.31941035 0.66907716 -0.67105347 0.0012063407
-0.031418804 0.037740137 -0.01063594 0.33369374 0.69842148 -0.63313186 0.0018113917
-0.028719526 0.036968861 -0.010110931 0.32751295 0.73465496 -0.59415263 0.0017582043
-0.026245307 0.03631141 -0.0095422585 0.31924605 0.74369878 -0.58736193 0.0012011317
0.064642005 0.037329957 -0.011117189 0.56296057 -0.10047074 -0.82035416 0.0020220641
0.066641159 0.03766273 -0.0096240556 0.66514027 -0.14550488 -0.73240477 0.0024846629
-0.061476015 0.039463993 -0.011474593 -0.45850149 -0.17920215 -0.87043834 0.0055269916
-0.04204502 0.041602783 -0.011870159 0.28932875 0.6331929 -0.71788275 0.0018903979
-0.040093955 0.041304465 -0.011275438 0.30819353 0.6703406 -0.67502606 0.0019087517
-0.037292887 0.040651906 -0.010529639 0.33081311 0.69708574 -0.63610864 0.0015092968
-0.034612548 0.039867658 -0.0099710105 0.34547433 0.71982467 -0.60207963 0.0016281225
-0.032352399 0.039304309 -0.0092964238 0.36363137 0.74520999 -0.55895823 0.0013243199
0.044208556 0.039895043 -0.011171669 -0.2684328 0.54768389 -0.79245579 0.00042786836
0.047082223 0.040826201 -0.011622413 -0.23192096 0.5376358 -0.81065428 0.00062721065
0.048729561 0.041540056 -0.011705137 -0.24317168 0.52895463 -0.81306493 0.0010231761
0.064716563 0.040450789 -0.011229128 0.50269604 0.030440044 -0.86392713 0.002998821
0.066931799 0.040439565 -0.0097052725 0.63824648 -0.045237266 -0.76850182 0.0025845058
-0.061141971 0.044061534 -0.011810598 -0.30750871 0.10780346 -0.94541889 0.0049175862
-0.049083881 0.044634737 -0.0118198 0.23171782 0.61513835 -0.75359917 0.0016746977
-0.04622316 0.044166222 -0.011256792 0.27697095 0.61842626 -0.73541558 0.0017482786
-0.043455228 0.043548942 -0.010622502 0.31249952 0.66146922 -0.68176425 0.0017203713
-0.040721416 0.042875055 -0.0099517554 0.35473198 0.70415467 -0.61508656 0.0017940993
-0.038534004 0.042400692 -0.0092504621 0.36929774 0.70841926 -0.601466 0.0014374382
0.050431207 0.043464273 -0.010779891 -0.21962847 0.54714555 -0.80770981 0.00044337221
0.052798875 0.043489844 -0.011609009 -0.18438233 0.52016437 -0.83392578 0.00096311769
0.055833492 0.044554442 -0.011585732 -0.07969176 0.44923064 -0.88985461 0.0013622624
0.058270216 0.044755604 -0.011763164 0.010311974 0.40854743 -0.91267884 0.00194161
0.062387869 0.044026125 -0.011651505 0.33902583 0.1781961 -0.92374653 0.0034944497
0.064808413 0.04344305 -0.010884821 0.47599673 0.11094822 -0.87242049 0.0029123048
0.066955514 0.043374259 -0.0096472949 0.58742166 0.069307536 -0.80630785 0.0028951303
-0.063663468 0.047467299 -0.010347382 -0.16547385 0.36178005 -0.91746044 0.0014624037
-0.061491892 0.046604007 -0.011195634 -0.11435204 0.3969394 -0.91069359 0.002598031
-0.058764983 0.046996072 -0.011465155 -0.054031827 0.42092362 -0.90548545 0.0027399214
-0.055462513 0.046997149 -0.011431315 0.082787685 0.5089103 -0.85682935 0.0030734011
-0.052090626 0.046643432 -0.011102142 0.19644614 0.59605491 -0.77854192 0.001475052
-0.049321551 0.046501514 -0.010330734 0.28062853 0.65074372 -0.70553541 0.0018234531
-0.046579551 0.045774948 -0.0098729208 0.31797451 0.68444848 -0.65606588 0.0016313093
-0.044496261 0.045294449 -0.009335869 0.35599539 0.6931026 -0.62679827 0.0018914831
0.053064503 0.045414768 -0.010182676 -0.19329546 0.55875313 -0.80649358 0.00089695188
0.056001645 0.04616937 -0.010576517 -0.13419046 0.51672083 -0.84557235 0.0014932381
0.058879673 0.046326339 -0.01096151 0.0033670231 0.43132034 -0.90219259 0.002005049
0.061608966 0.046338122 -0.010933415 0.12185479 0.36544847 -0.9228211 0.003872508
0.064897694 0.046351124 -0.010174426 0.43614325 0.18826659 -0.87996292 0.0033506893
0.066662215 0.046094034 -0.0094373627 0.556885 0.13484508 -0.8195706 0.0035866234
-0.064346716 0.049491215 -0.0094799465 -0.099439651 0.44095126 -0.89200544 0.0026180143
-0.06147024 0.04998767 -0.0097309016 0.015696861 0.54302573 -0.83956933 0.0024799246
-0.058318306 0.049486 -0.010082764 0.059448883 0.56544405 -0.82264137 0.0043671755
-0.055587988 0.049349301 -0.0098059475 0.18425776 0.64475912 -0.74184549 0.0031092798
-0.052627657 0.048638746 -0.0095933238 0.26116744 0.66514713 -0.69955045 0.0018018925
-0.050319701 0.048133764 -0.0092453891 0.30954909 0.68445539 -0.6600759 0.0016748862
0.058963813 0.048402704 -0.0096962973 -0.095243476 0.51855242 -0.84972471 0.0015149855
0.061706532 0.048874173 -0.0096969483 0.03672047 0.43746838 -0.89848375 0.0031950872
0.065096192 0.048812605 -0.0093307858 0.37709787 0.2625224 -0.88818872 0.0040729893
0.066283435 0.048303001 -0.0091062514 0.41424444 0.25674152 -0.87320411 0.0048558014
-0.061125152 0.051172387 -0.0090467259 0.041666344 0.59036344 -0.80606133 0.0056031961
-0.058805969 0.051000968 -0.0090883514 0.097206987 0.63401717 -0.76718521 0.0017312388
-0.0095188906 0.0028811954 -0.006136551 -0.16096002 -0.86303371 -0.47881606 0.0013776086
-0.0069958805 0.00268902 -0.0064010597 -0.13112018 -0.87445533 -0.46704966 0.00261787
-0.0042244997 0.0024889342 -0.006779443 -0.094020076 -0.86573356 -0.49159497 0.0017470028
-0.0015578464 0.0024175958 -0.0069751656 -0.050883502 -0.87034118 -0.48981336 0.0017485125
0.0014527622 0.0023473082 -0.0070973649 -0.029626545 -0.8684665 -0.49486181 0.0019260666
0.0044780746 0.0022681903 -0.0071105082 0.00089641678 -0.87460357 -0.48483792 0.0017082638
0.0074686389 0.0023438069 -0.0070838276 0.031194258 -0.87497717 -0.48315811 0.0019294693
0.010529542 0.002446749 -0.0070606763 0.056905124 -0.87857914 -0.47419465 0.0018117182
0.013453189 0.0025745789 -0.0067558894 0.094284162 -0.89085203 -0.44440192 0.0015692688
0.016330248 0.0028160363 -0.00653644 0.12152478 -0.89004475 -0.43937683 0.0014416206
0.01887846 0.0029546239 -0.0061748587 0.15979061 -0.89205378 -0.42273751 0.0012341853
-0.018758174 0.0056173694 -0.0070623085 -0.2360844 -0.86083126 -0.45081446 0.00164561
-0.016791839 0.0051513053 -0.0071096537 -0.22452627 -0.84180856 -0.49086288 0.0017340595
-0.013337479 0.0045240452 -0.0076200408 -0.19628945 -0.83452868 -0.51481289 0.002338402
-0.01042815 0.0038611325 -0.0075487755 -0.14664005 -0.84165317 -0.51972753 0.0012058301
-0.0075037838 0.0036068643 -0.0078423377 -0.12323795 -0.82573181 -0.55043566 0.001951697
-0.00443003 0.0034741203 -0.0082978485 -0.094153062 -0.8317945 -0.54704034 0.0015729913
-0.0014296662 0.0033171976 -0.0084097767 -0.051450152 -0.81822842 -0.57258642 0.0015375846
0.0014510746 0.0033001779 -0.0085953884 -0.03355179 -0.79871678 -0.60077107 0.00088071876
0.0047448971 0.0032490664 -0.0086655701 -0.0047574984 -0.8148281 -0.57968313 0.0012492391
0.0075421333 0.0033007031 -0.0086367428 0.021576066 -0.81772852 -0.57519954 0.0013122046
0.01050722 0.0033832099 -0.0086149089 0.053258091 -0.81481385 -0.5772711 0.0009640971
0.013550604 0.0034737636 -0.008352072 0.083786853 -0.8468557 -0.52518117 0.0019488545
0.016498145 0.0035358581 -0.007872331 0.11511559 -0.86187285 -0.4938862 0.0014775516
0.019650307 0.0038004993 -0.0074766618 0.16349578 -0.87433374 -0.45695686 0.0011957019
0.022593869 0.0043892618 -0.0074729528 0.18146919 -0.879251 -0.44043911 0.0013106529
0.02558372 0.0050273938 -0.0074619991 0.20777401 -0.87065655 -0.4458555 0.0012137301
0.028273247 0.0055213254 -0.0069714636 0.24525803 -0.87050283 -0.4267005 0.001639282
0.030478111 0.0057924064 -0.0062864423 0.28839564 -0.86676031 -0.40688375 0.0015162067
-0.02765975 0.0086062057 -0.0066265604 -0.33823887 -0.82375532 -0.45499635 0.0015278397
-0.025330659 0.0082147177 -0.007442208 -0.30675828 -0.81097609 -0.49821398 0.0014077428
-0.022555871 0.0072763157 -0.0075848913 -0.30423492 -0.81216109 -0.49783072 0.0016136833
-0.019057365 0.006696756 -0.0085331202 -0.19024561 -0.78992897 -0.5829398 0.0044029457
-0.017173147 0.0062660766 -0.0087201847 -0.21476507 -0.78070039 -0.5868414 0.00093251956
0.026724758 0.0060895951 -0.0088216783 0.21594857 -0.82082516 -0.5287838 0.0013303329
0.028856803 0.0064098015 -0.0083608236 0.2396789 -0.84335858 -0.480937 0.0015490606
0.0316425 0.0068414318 -0.0076151593 0.28082344 -0.85009879 -0.44549996 0.0012221172
0.034534365 0.0078066229 -0.007495983 0.30943072 -0.83841032 -0.44868782 0.0015308899
0.037159871 0.0084866351 -0.0069244835 0.33625275 -0.84342861 -0.41900137 0.0013550613
0.039324708 0.0089283828 -0.0061892639 0.39087588 -0.84119183 -0.37364736 0.0020932562
-0.036075205 0.011981399 -0.0061173523 -0.41107965 -0.80280489 -0.43187723 0.0015386709
-0.033933185 0.01139188 -0.0069361995 -0.36694816 -0.80530506 -0.46565306 0.0013647199
