# .PCD v0.7 - Point Cloud Data file format
VERSION 0.7
FIELDS x y z normal_x normal_y normal_z curvature
SIZE 4 4 4 4 4 4 4
TYPE F F F F F F F
COUNT 1 1 1 1 1 1 1
WIDTH 556
HEIGHT 1
VIEWPOINT 0 0 0 1 0 0 0
POINTS 556
DATA ascii
0.019370047 0.032530222 -0.0080015576 -0.22321515 0.84940672 -0.4782083 0.0014274124
0.021740505 0.032837134 -0.0086138248 -0.24563569 0.81487954 -0.52500904 0.0006726922
-0.064129449 0.034719493 -0.0072915312 -0.69625002 -0.48602062 -0.52822334 0.0025703688
-0.062475674 0.033640996 -0.0083461888 -0.6518206 -0.49698421 -0.57283205 0.001308238
-0.022111161 0.035720244 -0.0084414501 0.30751425 0.81745702 -0.48703086 0.001643052
-0.019293558 0.035180856 -0.0075882408 0.29257995 0.83896947 -0.45883247 0.0017355767
-0.016497033 0.03423468 -0.0076463032 0.26493636 0.83539534 -0.48158434 0.0018244021
-0.01369588 0.033659536 -0.00722714 0.22823115 0.8546347 -0.4663797 0.0020412861
-0.010887936 0.033310961 -0.0065294043 0.19013049 0.86510408 -0.46416086 0.0017390376
0.019955596 0.033359837 -0.0067250724 -0.22323306 0.86727899 -0.44496527 0.0017006536
0.022669399 0.033801515 -0.0073152543 -0.23959309 0.86286622 -0.44503593 0.0016982099
0.025644334 0.034608196 -0.0075019952 -0.28258497 0.84616673 -0.45182699 0.0019586517
0.028399812 0.035346087 -0.0078160912 -0.29361248 0.84703571 -0.44308269 0.0015635928
0.030511633 0.035816472 -0.0083297854 -0.31245795 0.82046801 -0.47875077 0.0011029178
-0.066681728 0.037978224 -0.0067941709 -0.71677071 -0.43260178 -0.54689616 0.0023460197
-0.065168589 0.037269771 -0.0080851819 -0.69262695 -0.38386044 -0.61067092 0.0026559802
-0.02802299 0.03832107 -0.0082353065 0.36217523 0.79227251 -0.49105331 0.0022060629
-0.025397709 0.037485462 -0.0076498697 0.35155359 0.81944859 -0.45267442 0.002407613
-0.022700915 0.036686022 -0.0071370662 0.32501456 0.83062363 -0.45213929 0.0016707572
-0.02048043 0.036205657 -0.0063922717 0.29137462 0.86836296 -0.40130606 0.0024646195
0.029169055 0.036280259 -0.0064864717 -0.29959464 0.86904126 -0.39371344 0.0027728165
0.031698968 0.036768992 -0.0073177037 -0.30387712 0.84390271 -0.44213903 0.0019928403
0.034540113 0.037797078 -0.0076017324 -0.37713999 0.81519341 -0.43957388 0.0030200016
0.036853891 0.038535256 -0.0082882643 -0.40739676 0.76753461 -0.49489251 0.0016466406
-0.069085248 0.041836418 -0.0062427139 -0.73996437 -0.34699151 -0.57623756 0.0038212561
-0.067464679 0.040630382 -0.0075055999 -0.7201131 -0.29908487 -0.62608743 0.0026054303
-0.065828204 0.039643284 -0.0087751551 -0.66386259 -0.28409123 -0.6917938 0.0021946493
-0.036098886 0.041742135 -0.0089216214 0.35144117 0.74217051 -0.57067692 0.0016234195
-0.03403366 0.041443609 -0.0077109518 0.4085902 0.80114633 -0.43728551 0.0013908804
-0.031487484 0.040216293 -0.0077157519 0.37478358 0.80662274 -0.45705265 0.0015930739
-0.028914258 0.039463069 -0.0068680476 0.37737712 0.81932545 -0.43161607 0.0012071204
0.035677128 0.039089933 -0.0061930362 -0.41412631 0.8114211 -0.41242608 0.001724107
0.037825584 0.039735924 -0.0071184714 -0.42821258 0.78978503 -0.43917364 0.001914049
0.040327247 0.040847328 -0.0077077667 -0.45172989 0.76345253 -0.46160626 0.0020044523
0.042555511 0.041690275 -0.0084557766 -0.44425964 0.725245 -0.52597815 0.0015478603
-0.069501176 0.043840982 -0.0066007767 -0.73703015 -0.23188899 -0.63483393 0.0030870021
-0.068011627 0.043436401 -0.0080326563 -0.65191329 -0.168661 -0.7392987 0.0019425162
-0.040237471 0.04439117 -0.008066982 0.39622182 0.7793684 -0.48537946 0.0023159257
-0.037324 0.043150093 -0.0076587875 0.37743926 0.79137665 -0.48089769 0.0017855786
-0.035102967 0.042519022 -0.0067679151 0.40413845 0.80102658 -0.44162038 0.0013422059
0.041567679 0.04231384 -0.0064539057 -0.45435286 0.77498269 -0.43927816 0.0011279128
0.043675274 0.043090221 -0.0073342281 -0.4473334 0.76205838 -0.46814516 0.0018004356
0.046190768 0.044216722 -0.0079382332 -0.42237139 0.73995125 -0.52352142 0.0027771287
0.048408516 0.044832282 -0.0087809572 -0.3827228 0.6820963 -0.62311149 0.0013672338
-0.0698402 0.046576515 -0.0069002593 -0.70901722 -0.11987162 -0.69492829 0.0051590828
-0.068150595 0.046441048 -0.0084040901 -0.59372842 -0.045137376 -0.80339861 0.0030255227
-0.046230834 0.047315035 -0.0082987286 0.35876742 0.74053037 -0.56824356 0.0025847896
-0.043465894 0.046329431 -0.0076642814 0.40304279 0.75823015 -0.51248765 0.0019100485
-0.041334912 0.045784939 -0.0067531345 0.40980434 0.78432244 -0.46572396 0.0011887593
0.047076475 0.045552466 -0.006729722 -0.45924219 0.75474942 -0.46845481 0.0017439333
0.04954106 0.046446417 -0.0075392965 -0.42126837 0.73448193 -0.53204262 0.0023750607
0.05205271 0.047297295 -0.0082842484 -0.37153032 0.6878581 -0.62355143 0.0022612025
-0.070110291 0.049471378 -0.006939895 -0.62971753 -0.019341765 -0.77658337 0.0090121217
-0.067900427 0.049601432 -0.0084308218 -0.44965535 0.1431352 -0.88165891 0.010794451
-0.054778457 0.050730832 -0.0087367874 0.20937662 0.68536925 -0.69744563 0.0023674248
-0.052446906 0.050242886 -0.0082351845 0.30300367 0.75083596 -0.58688509 0.0030511289
-0.049716033 0.04947846 -0.0076539945 0.34296322 0.74472117 -0.57250905 0.0015166183
-0.047084678 0.048608772 -0.0070555671 0.40594754 0.77154833 -0.4898161 0.002014338
0.050933149 0.04825351 -0.0060002031 -0.49988848 0.72530901 -0.47332692 0.0017017706
0.052815851 0.04880086 -0.0070126015 -0.42235103 0.72275943 -0.54702687 0.0030027137
0.055287004 0.049683165 -0.007631809 -0.35554916 0.69551355 -0.6243763 0.0026775401
0.058093537 0.050366897 -0.0083282106 -0.29244074 0.65788078 -0.6940254 0.003161937
0.060768563 0.050725456 -0.0087872446 -0.14230539 0.60584235 -0.7827543 0.0043850308
0.064869836 0.050901353 -0.0089534381 0.088469051 0.45552668 -0.88581526 0.011055107
0.066868939 0.050500613 -0.0086334767 0.24670804 0.33991012 -0.90752202 0.001945227
-0.070388012 0.052469052 -0.0067102695 -0.48846284 0.087797225 -0.86815655 0.010227093
-0.067626484 0.052400663 -0.0079336418 -0.29646209 0.25767973 -0.9196257 0.010195729
-0.064856805 0.052583963 -0.0083752051 -0.12673347 0.40181693 -0.90690786 0.0073205922
-0.061817013 0.052564334 -0.0083872555 -0.038504593 0.51871556 -0.85407937 0.0029635606
-0.058484435 0.052790128 -0.0075965351 0.18296187 0.74800199 -0.63797969 0.0037789089
-0.055770468 0.052134067 -0.0074988855 0.25444633 0.75428247 -0.60523975 0.0025736007
-0.052934907 0.051659863 -0.0066979104 0.33963335 0.76278341 -0.55028242 0.0010972122
0.056483243 0.051273424 -0.0065380125 -0.40762451 0.71015435 -0.57404101 0.003299959
0.058693569 0.051986236 -0.0070128576 -0.36598516 0.68054312 -0.63475668 0.0033219771
0.061404224 0.052643273 -0.0075461059 -0.25382677 0.61172783 -0.74924028 0.005275439
0.064077891 0.05277076 -0.0080673797 -0.2024124 0.54919487 -0.81081086 0.003601742
0.067048453 0.052738719 -0.007763457 0.19001381 0.36219832 -0.91252786 0.0056059565
0.069006823 0.051549956 -0.0072568539 0.19395956 0.37578815 -0.90618044 0.0047988719
-0.070318043 0.055189651 -0.0063679353 -0.34317183 0.23458025 -0.90950823 0.011998754
-0.067714609 0.055351034 -0.0067967633 -0.21515782 0.31680682 -0.92376435 0.008354336
-0.065235034 0.054653831 -0.0071395412 -0.045660768 0.44288439 -0.89541531 0.0079069734
-0.061763559 0.054474492 -0.0065948335 0.18287466 0.68226904 -0.70785999 0.0059515764
-0.059420116 0.054183669 -0.0061712787 0.22911982 0.77893615 -0.58374882 0.0027574175
0.062237695 0.054546744 -0.0063467636 -0.34741798 0.63036245 -0.69422179 0.0058536897
0.064483047 0.055188715 -0.0066951369 -0.29039773 0.56018937 -0.77579445 0.0061596427
0.06685631 0.056029219 -0.006593552 -0.25301477 0.46187189 -0.85009289 0.0080775628
0.06924253 0.054626793 -0.0063909837 0.13759394 0.31851277 -0.93787926 0.0044524348
0.067028046 0.057466581 -0.006045958 -0.29122373 0.41366479 -0.86259502 0.010730503
-0.015357491 0.0028547791 -0.0034956653 -0.29356733 -0.91234714 -0.28537855 0.0042060819
-0.013385059 0.002599396 -0.0041840924 -0.19658862 -0.93741673 -0.28740704 0.0020972518
-0.010121058 0.0023512479 -0.0051642978 -0.15946953 -0.89511514 -0.41633934 0.0013133348
-0.0075667319 0.0016766321 -0.0045319931 -0.12695341 -0.94208336 -0.31042188 0.0024183167
-0.004371292 0.0013218552 -0.0045765289 -0.087282471 -0.94050139 -0.32838842 0.0025133949
-0.0013578623 0.0011023514 -0.0046053538 -0.057127833 -0.9398613 -0.33674496 0.0026749033
0.0014706373 0.00094134838 -0.0044435631 -0.041304126 -0.93715364 -0.34646362 0.0024129597
0.0044506234 0.00095921487 -0.0046100593 0.012998072 -0.94325501 -0.33181483 0.0030509541
0.007347818 0.0010222053 -0.0045463899 0.049018785 -0.94206566 -0.33182746 0.002162256
0.010649765 0.0012291165 -0.004644664 0.054172184 -0.9428218 -0.32886553 0.0024783087
0.013609099 0.001668492 -0.0051260721 0.087464586 -0.93599355 -0.34097815 0.0014890924
0.016230192 0.0018867301 -0.0047830753 0.10552038 -0.94031584 -0.32352978 0.0016725105
0.020169577 0.0025638856 -0.0049213129 0.16085611 -0.9071067 -0.38895079 0.0038691908
-0.024183642 0.0058011543 -0.0035288096 -0.35605457 -0.89027101 -0.28397653 0.003203216
-0.022535574 0.0055087106 -0.0045088218 -0.32473364 -0.87497348 -0.35912311 0.0019855017
-0.019554671 0.0046749683 -0.0050596185 -0.29473165 -0.88620239 -0.35746133 0.0016032464
-0.016676055 0.0038572825 -0.0052344119 -0.25390619 -0.87379885 -0.41473758 0.001400101
-0.013917702 0.0032277834 -0.0054910756 -0.20861363 -0.88353771 -0.41933456 0.0011943467
-0.031078098 0.0087030102 -0.0040274807 -0.371169 -0.88996923 -0.2649309 0.0021757062
-0.028276265 0.0077124154 -0.0043368218 -0.34127793 -0.8755796 -0.34189126 0.0013088314
-0.025793448 0.00702267 -0.0051667341 -0.35791251 -0.87284875 -0.33171335 0.001262788
-0.023254722 0.0062249787 -0.005773759 -0.31697768 -0.8582778 -0.4035894 0.00047176785
-0.037338492 0.011417057 -0.0036531868 -0.41831261 -0.86333787 -0.2822451 0.001647678
-0.034827359 0.010593787 -0.0047191349 -0.38448739 -0.86648011 -0.31840491 0.001463833
-0.031871997 0.0093830135 -0.0049134865 -0.36056867 -0.8644976 -0.35019147 0.0015185243
-0.042776231 0.014444025 -0.0038988851 -0.5069707 -0.81392574 -0.28373507 0.0018483589
-0.040546313 0.013427528 -0.0047135693 -0.4673385 -0.83344001 -0.29491091 0.00172347
-0.038103551 0.012199283 -0.0049538515 -0.44502008 -0.84387934 -0.29970795 0.0015400818
-0.048143364 0.017976947 -0.0035509777 -0.56530702 -0.78010803 -0.26806623 0.0015638849
-0.046335571 0.017060723 -0.0045072045 -0.54741216 -0.7847141 -0.29079831 0.0018887896
-0.044053465 0.015582999 -0.0047458839 -0.53157347 -0.79700768 -0.28672004 0.0016225397
-0.051284395 0.020520065 -0.0038889041 -0.58018583 -0.76451129 -0.28090385 0.0013823194
-0.049494691 0.019444115 -0.0046049808 -0.57457173 -0.77115035 -0.27421603 0.0015271411
-0.047622781 0.018313691 -0.0053211064 -0.55627435 -0.76690561 -0.320023 0.0021678549
-0.054757416 0.023316285 -0.0043787416 -0.58223093 -0.75354618 -0.30524623 0.0017516844
-0.052736841 0.021912865 -0.0047076275 -0.5852524 -0.75516254 -0.29531202 0.0016363574
-0.058151219 0.026059425 -0.0043345615 -0.61448455 -0.72381759 -0.31384203 0.0029793694
-0.05621564 0.024634965 -0.004853907 -0.60677123 -0.7392453 -0.29213881 0.0025801118
-0.061062407 0.028891638 -0.004362864 -0.6849063 -0.6423986 -0.34384227 0.0019010096
-0.059433863 0.027539331 -0.0049641789 -0.66219431 -0.6843785 -0.30516368 0.0019077073
-0.063855737 0.032038063 -0.0043324037 -0.72939199 -0.59346277 -0.34027812 0.0022515347
-0.062378928 0.03062107 -0.0048910622 -0.70507824 -0.62877619 -0.32787964 0.0026406837
-0.0067897933 0.032853007 -0.0057510119 0.16266648 0.9238857 -0.34637392 0.0024214031
-0.0045432737 0.032723162 -0.0052269967 0.13680138 0.92818642 -0.34605694 0.0023917472
-0.0014477872 0.032528564 -0.0046884846 0.11348595 0.93832499 -0.32659945 0.0027071789
0.0014566763 0.032308593 -0.0046897917 0.043819718 0.94566208 -0.32218489 0.0021192497
0.004977284 0.03208806 -0.005084143 -0.013338792 0.93332231 -0.35879186 0.003685324
0.0078071025 0.032241814 -0.0047288253 -0.042036876 0.95054126 -0.30774057 0.002452201
0.010578675 0.032457817 -0.0046596522 -0.099281408 0.94284111 -0.3181099 0.001955186
0.013300037 0.032659411 -0.0048977956 -0.13655329 0.93651807 -0.32293507 0.0023560277
0.015913289 0.032845788 -0.0056397393 -0.19302139 0.92500049 -0.32728726 0.002500196
-0.06650193 0.035352498 -0.0041600494 -0.76045138 -0.54954183 -0.34600213 0.0019794381
-0.06524609 0.034092672 -0.0048076874 -0.7420845 -0.58216435 -0.33225772 0.002425951
-0.01632922 0.035434723 -0.0048699295 0.28954229 0.91007644 -0.2965233 0.0016064157
-0.013504332 0.034693472 -0.0047182748 0.24400157 0.91659194 -0.31673729 0.0028750775
-0.010523639 0.034037389 -0.0044926456 0.1930168 0.93377501 -0.30134496 0.0023365233
-0.0075992276 0.033422437 -0.0046145245 0.15941468 0.94345731 -0.29064631 0.0020643659
-0.0046778917 0.033253379 -0.0036650407 0.1311418 0.94560093 -0.29772609 0.0025376545
-0.0028429141 0.03303054 -0.0036310265 0.10674056 0.95322609 -0.28278357 0.0023200193
0.014199082 0.033152137 -0.0037457386 -0.13349527 0.9457987 -0.29604697 0.0026399523
0.016925765 0.033395775 -0.0046848548 -0.19554821 0.9189195 -0.34256062 0.0018808827
0.01944636 0.03398928 -0.0047821309 -0.22860914 0.9103511 -0.34496185 0.0017206492
0.02265477 0.034970697 -0.0044279792 -0.26731154 0.91552365 -0.30060107 0.0014227695
0.025282672 0.035638783 -0.0048274812 -0.29324064 0.9063639 -0.30416176 0.0019382377
0.027164569 0.03589201 -0.005722546 -0.29622653 0.89370418 -0.33696097 0.0017798599
-0.069122717 0.038753413 -0.0033714776 -0.80775601 -0.46636534 -0.3606016 0.0024855905
-0.067781389 0.0375228 -0.0045797732 -0.78328788 -0.508757 -0.35724849 0.0033887599
-0.025219399 0.038542993 -0.0052261096 0.36465842 0.87172329 -0.32729623 0.0012632617
-0.022539468 0.037605114 -0.0048187468 0.35334143 0.88602257 -0.3001897 0.0014161312
-0.019361407 0.036550984 -0.0044262316 0.31927857 0.90200335 -0.29060495 0.0013004827
0.026282441 0.036250804 -0.003707736 -0.28963736 0.92277181 -0.25416991 0.0021669974
0.028380515 0.036754947 -0.0044109444 -0.30279434 0.90831947 -0.28856781 0.0018759208
0.031404212 0.037822533 -0.0044225249 -0.35759008 0.89347738 -0.27171209 0.0027406316
0.033735182 0.038640372 -0.004830061 -0.40442097 0.86610144 -0.29378891 0.0027797886
-0.069770649 0.040814437 -0.0043271403 -0.83340138 -0.37911206 -0.40213951 0.0029703784
-0.068656176 0.039762378 -0.0054189949 -0.80107796 -0.40480787 -0.44091347 0.0051596491
-0.030930713 0.041236684 -0.0049500009 0.41767082 0.84761971 -0.32724896 0.00088685536
-0.028290261 0.040036753 -0.0048126997 0.38710669 0.86319286 -0.32410878 0.0013825992
-0.026123889 0.039285127 -0.0042091343 0.37140962 0.87771428 -0.3027747 0.0010853924
0.035083797 0.039489109 -0.0041451086 -0.41294751 0.86718905 -0.27831176 0.0021870437
0.037503343 0.040703215 -0.004460128 -0.46807763 0.84131497 -0.270356 0.0023208004
0.039476644 0.04157079 -0.0053185704 -0.48771852 0.81986505 -0.29992002 0.0022450637
-0.07204698 0.044917915 -0.0031889742 -0.87229818 -0.31978831 -0.36990723 0.015412814
-0.070811644 0.04356692 -0.0045172586 -0.84815055 -0.29152048 -0.44233069 0.004319516
-0.037225723 0.044290617 -0.0052885176 0.42681271 0.80072647 -0.42031908 0.00051262608
-0.034379181 0.043074116 -0.0045138602 0.42989331 0.81679463 -0.3847574 0.00085518142
-0.032599717 0.042077359 -0.004883335 0.41797271 0.83950526 -0.34717399 0.00068365125
0.040781517 0.042724669 -0.0043185335 -0.49387482 0.82169783 -0.28442994 0.002032893
0.043189179 0.04413712 -0.0046340358 -0.52029181 0.80162728 -0.29443198 0.002355444
-0.07233499 0.046873502 -0.0036173905 -0.84569955 -0.26775086 -0.46162948 0.0041862493
-0.071344353 0.046334393 -0.0049953335 -0.82830518 -0.20980594 -0.51951134 0.0067629227
-0.04315063 0.047681857 -0.0047878069 0.42349055 0.78886288 -0.44536623 0.00077649445
-0.040474534 0.046183217 -0.0048833448 0.40570471 0.80274898 -0.43703297 0.00072269398
-0.038340323 0.045177121 -0.0045044064 0.42661902 0.80125159 -0.41951409 0.00041436098
0.044465218 0.045258325 -0.0038456328 -0.5033074 0.80813837 -0.30593136 0.0021039967
0.046505917 0.046303045 -0.0044973609 -0.50892037 0.79690588 -0.325486 0.002748884
0.04878388 0.047479998 -0.0050833453 -0.50912505 0.79278123 -0.33509621 0.0031667768
-0.072828814 0.049588189 -0.0040821461 -0.78936094 -0.24715847 -0.56198031 0.0069810268
-0.071568601 0.049241342 -0.0055346834 -0.7234658 -0.14229044 -0.67553723 0.0064881491
-0.049028296 0.050584819 -0.0053311787 0.4008342 0.78658593 -0.46969625 0.0026137109
-0.046378359 0.049447514 -0.0047269976 0.42515105 0.80573905 -0.41234836 0.0007668013
-0.044084895 0.048613556 -0.0036889275 0.42263663 0.81181705 -0.40290374 0.00054508471
0.049951524 0.04863767 -0.0041562407 -0.52215552 0.78869909 -0.32451099 0.0035165297
0.052322071 0.04995754 -0.0046863612 -0.49815819 0.77349937 -0.39183822 0.0042116833
0.054422319 0.050714124 -0.0057122856 -0.44813433 0.76753885 -0.45832279 0.0061887614
-0.075037003 0.053668283 -0.0033369348 -0.86456609 -0.20695801 -0.4579235 0.027794534
-0.073420629 0.052552503 -0.0044715814 -0.70315641 -0.14959653 -0.6951201 0.0075936676
-0.071802676 0.051851023 -0.0057591689 -0.59745574 -0.058282062 -0.79978114 0.0080342498
-0.055159595 0.053610612 -0.0049769389 0.2965019 0.84450501 -0.44597974 0.003078124
-0.052777011 0.05272577 -0.0047673299 0.34459963 0.83041507 -0.43779209 0.0023958618
-0.050283931 0.051442999 -0.0048851734 0.39391628 0.81554198 -0.42393544 0.0017662412
0.053547699 0.051253635 -0.0036539927 -0.4895317 0.78972161 -0.36972761 0.0029221887
0.055559069 0.052081604 -0.004450555 -0.45354861 0.79414386 -0.40451112 0.0039288406
0.058039319 0.053304594 -0.0048922882 -0.45577499 0.76079929 -0.46201041 0.0062362407
0.060227595 0.053925302 -0.0057568005 -0.38616732 0.65029854 -0.65420681 0.0035069329
-0.075248897 0.055495214 -0.0032857391 -0.85193479 0.12566017 -0.50834697 0.041469723
-0.073611617 0.055461772 -0.0047300821 -0.62767845 0.20520888 -0.75093883 0.020440759
-0.071411818 0.056241732 -0.0058333478 -0.38505143 0.18825066 -0.90349162 0.015808703
-0.06635052 0.05692368 -0.0057871416 0.093824893 0.64287722 -0.76020122 0.013967259
-0.064212851 0.056470532 -0.0055346871 0.25222349 0.68614399 -0.6823414 0.009043999
-0.061598111 0.055814926 -0.004945491 0.29772949 0.74713534 -0.59426087 0.0055157994
-0.058633536 0.054922335 -0.0046405597 0.290512 0.83656627 -0.46449941 0.0040956344
-0.056131784 0.054489937 -0.0039007452 0.29206204 0.84945482 -0.43946135 0.0031818103
0.059133887 0.054603864 -0.0039177951 -0.50510526 0.7264213 -0.46602666 0.005094293
0.061372455 0.055667717 -0.0046076006 -0.44447595 0.70423132 -0.55362374 0.0071260608
0.063806318 0.056451898 -0.0055877697 -0.35690686 0.56169301 -0.74640375 0.0059436713
-0.073284201 0.057909638 -0.0041635074 -0.54790145 0.60158134 -0.58129495 0.021393755
-0.070713438 0.058517218 -0.0048731156 -0.31404299 0.65895879 -0.68348396 0.031027921
-0.067643084 0.05844529 -0.0048272316 0.17744943 0.68300837 -0.70852762 0.0091650384
-0.064752176 0.05798259 -0.0041960166 0.3209731 0.6918754 -0.64674932 0.0029905532
-0.062908359 0.057203621 -0.004055337 0.3367523 0.71185821 -0.61632442 0.0043047499
0.062476661 0.057459679 -0.0035819302 -0.51664448 0.63028604 -0.57949793 0.010126441
0.064418547 0.058517903 -0.0043860273 -0.55358392 0.46232992 -0.69267303 0.017163059
0.067022651 0.058879614 -0.0054492638 -0.40062168 0.42647901 -0.81093651 0.008993879
0.069800809 0.058692485 -0.0052914335 -0.22331458 0.28608188 -0.93181962 0.010662545
-0.069512062 0.060183518 -0.0032152003 -0.15506376 0.94175541 -0.29841581 0.032072939
-0.068254083 0.060197961 -0.0033382785 0.018861949 0.89685017 -0.44193217 0.029765682
0.06534759 0.061229933 -0.0035735939 -0.58455139 0.31216702 -0.74890018 0.016121417
0.067194588 0.061665967 -0.0045503541 -0.52594435 0.30414397 -0.79427892 0.015102704
0.069623917 0.062169399 -0.0047775572 -0.34630489 0.22232059 -0.91139805 0.0088370088
0.065894425 0.06338276 -0.0033091868 -0.70844626 0.22519398 -0.66887337 0.022962961
0.067285217 0.064521186 -0.0038798098 -0.54150349 0.2111143 -0.81375962 0.012918077
0.070202276 0.064632945 -0.0045480784 -0.45429838 0.17820449 -0.87284368 0.017253986
0.067807369 0.067424528 -0.0036832094 -0.6247502 0.14920311 -0.76643687 0.013520385
0.069633953 0.067905761 -0.0043906374 -0.52586007 0.11855484 -0.84226835 0.0094886422
0.07202059 0.067849152 -0.0042287712 -0.3075256 0.024180185 -0.95123255 0.015198526
0.068064012 0.070527904 -0.0034733627 -0.64179265 0.094850115 -0.7609899 0.01478801
0.069928847 0.070615105 -0.004453016 -0.56551355 0.066036418 -0.82209098 0.014292193
0.072714239 0.070837095 -0.0044737682 -0.2568585 -0.045205187 -0.96539128 0.0063661239
0.068437509 0.07345777 -0.0035103087 -0.73688614 0.098046027 -0.66886908 0.021287119
0.070122264 0.073526375 -0.0046304632 -0.57863903 0.068259947 -0.81272227 0.013761061
0.072661549 0.073823921 -0.0051443479 -0.47815105 0.056746915 -0.87644243 0.017001158
0.068624459 0.075910985 -0.0034495362 -0.83670586 0.21914878 -0.50189346 0.057735294
0.070152156 0.075805828 -0.0045994152 -0.75024927 0.1503001 -0.6438446 0.039649513
0.072834708 0.075616606 -0.0051220055 -0.46312255 0.059056673 -0.88432449 0.02876156
-0.016048178 0.0026799957 -0.0014533423 -0.24517548 -0.96053308 -0.13139725 0.0012429731
-0.01355223 0.0021006742 -0.0015919141 -0.19371672 -0.96966004 -0.14910863 0.001753423
-0.010422522 0.0014355972 -0.0013029508 -0.16249841 -0.97453284 -0.15453172 0.0027319528
-0.0075008045 0.00099813216 -0.0014615986 -0.12607899 -0.9795956 -0.156514 0.0036791053
-0.0045768255 0.00065875257 -0.001544869 -0.077081919 -0.99398875 -0.07774803 0.003317826
-0.0015360429 0.00045700217 -0.00170523 -0.066328794 -0.99506962 -0.073735617 0.0032692959
0.0015434375 0.00030687262 -0.0014510095 -0.018244728 -0.99384403 -0.10927613 0.0015368367
0.0039510112 0.00037892879 -0.0023791031 0.016091427 -0.98122174 -0.19221102 0.0039670253
0.0075180782 0.00032919124 -0.0010301943 0.03438529 -0.99154323 -0.12513882 0.0010348958
0.010724359 0.00064084318 -0.0020814261 0.062298845 -0.96931112 -0.23781267 0.0031180426
0.013664032 0.00095482578 -0.0022139363 0.076288566 -0.95603883 -0.28314289 0.00134792
0.016573818 0.0012822985 -0.0018541092 0.11926748 -0.95329571 -0.27749348 0.00054914254
-0.024505455 0.0056619118 -0.0021751958 -0.34526208 -0.91606683 -0.20399937 0.0017839889
-0.022471342 0.0047783758 -0.0015140848 -0.32057258 -0.93207806 -0.16871217 0.0002681574
-0.019575331 0.0037751675 -0.001650046 -0.30674896 -0.93661457 -0.16928741 0.0005428525
-0.017539468 0.0031287875 -0.0015415474 -0.28569984 -0.94619906 -0.15193076 0.00085914938
-0.033064209 0.0089130178 -0.00026626003 -0.38534039 -0.90245944 -0.19256097 0.0024483998
-0.03152604 0.0083657904 -0.001580768 -0.38684535 -0.89371073 -0.22722648 0.0011176697
-0.028779 0.0073382594 -0.0020440361 -0.3422505 -0.91332424 -0.22068836 0.00095636863
-0.026343316 0.0062777251 -0.0016979959 -0.36441901 -0.90952498 -0.19990781 0.0014520072
-0.039421454 0.011964682 -0.001494477 -0.47752893 -0.84770745 -0.23099394 0.0016553495
-0.037441857 0.011080923 -0.0018258083 -0.4270412 -0.87730813 -0.21901216 0.00095645624
-0.034567915 0.009681738 -0.0016461367 -0.38717154 -0.89365321 -0.22689679 0.0011450938
-0.032926783 0.0091744922 -0.0025528751 -0.38882637 -0.89212549 -0.23005687 0.00028985957
-0.043263197 0.014247696 -0.0014430254 -0.51369423 -0.83019429 -0.21655419 0.0019044545
-0.040746786 0.0127785 -0.0015861259 -0.47223341 -0.8502869 -0.2323958 0.0011858605
-0.04836135 0.017802311 -0.0017377116 -0.58601147 -0.77784103 -0.22705479 0.0013220191
-0.046585843 0.016512331 -0.0016326956 -0.55260956 -0.79858571 -0.23850261 0.0020611919
-0.04475151 0.015233057 -0.0016268431 -0.55192327 -0.79876459 -0.23949088 0.0022179254
-0.051782697 0.020340009 -0.0015521036 -0.59726703 -0.77664512 -0.20023587 0.001554262
-0.049911328 0.018941889 -0.0015352054 -0.58145076 -0.77920717 -0.23398966 0.0013711711
-0.055284835 0.022994369 -0.0015983933 -0.60220212 -0.77596855 -0.18768422 0.0011503573
-0.053211279 0.021442346 -0.0017225326 -0.5948891 -0.77643734 -0.20797122 0.0013526235
-0.060066566 0.026820512 -0.0007293509 -0.67728484 -0.71556479 -0.17103331 0.00089570152
-0.058488488 0.025607191 -0.001615633 -0.64486724 -0.73924094 -0.19408529 0.00085025188
-0.056851957 0.024148948 -0.00096970401 -0.60781258 -0.76358783 -0.21793908 0.0022609145
-0.061528832 0.02849545 -0.001515148 -0.71327031 -0.67669588 -0.18255986 0.00072113553
-0.059992082 0.027130267 -0.0029331977 -0.68184197 -0.68689108 -0.25153971 0.0015845774
-0.064260423 0.03154406 -0.0015384639 -0.75972581 -0.63063377 -0.15848559 0.0014257175
-0.062903352 0.030009406 -0.0024020281 -0.74164057 -0.65258169 -0.1552625 0.00099098054
0.0018912858 0.032896355 -0.0023211672 0.053994566 0.99115402 -0.12123688 0.003983777
0.004414021 0.032869603 -0.0020509819 0.014443457 0.99426812 -0.10593572 0.0032645778
0.0071856463 0.032846622 -0.0021622907 -0.031508368 0.98873055 -0.14635283 0.0022077174
0.0097049866 0.032922748 -0.0026772469 -0.09001638 0.98752987 -0.12915808 0.0026528239
-0.066931598 0.034879431 -0.0014764939 -0.79958171 -0.58401942 -0.1399661 0.0026586906
-0.065730259 0.033409916 -0.0017163487 -0.77470213 -0.61666799 -0.13984695 0.0017980523
-0.015550033 0.035868362 -0.0019798046 0.25945657 0.9251132 -0.27721447 0.0016095093
-0.013584892 0.03540799 -0.0015116952 0.23528467 0.93048686 -0.28077623 0.0010725196
-0.010457325 0.034665156 -0.0014355187 0.23607895 0.94851309 -0.21116273 0.0012911133
-0.007295005 0.034007024 -0.001727668 0.16953409 0.97116202 -0.16763811 0.0029937068
-0.0044246577 0.03360112 -0.0016154805 0.14031886 0.98117405 -0.13269559 0.0023624422
-0.0015952885 0.033231083 -0.0018034537 0.096096374 0.98392773 -0.1505051 0.0027301931
0.00085310126 0.03312334 -0.0010132632 0.029515086 0.99418467 -0.10356483 0.0034446905
0.0045077223 0.033024333 -0.00046460572 0.0088147614 0.99993318 -0.0074788085 0.00099944614
0.0084785186 0.033013515 -0.0013810688 -0.087978683 0.99549758 -0.035275988 0.0025143449
0.010681679 0.03314352 -0.0015407302 -0.071463585 0.99421334 -0.080203794 0.0028320989
0.013500992 0.033417806 -0.0016524404 -0.12260915 0.98696256 -0.10426883 0.0027364367
0.016423311 0.033931874 -0.0016323179 -0.2027715 0.97257257 -0.11395715 0.0030373163
0.019383684 0.034651391 -0.0015992105 -0.2527217 0.96077812 -0.11418004 0.0027504615
0.022448832 0.035479479 -0.0015393581 -0.27266109 0.95730656 -0.096021362 0.0027461839
0.024254799 0.035918944 -0.0023393258 -0.28004444 0.95364386 -0.11017486 0.003452735
-0.06938082 0.038360618 -0.0013445938 -0.85208422 -0.50682163 -0.13070703 0.0040581324
-0.068366647 0.036908016 -0.0016811616 -0.81441891 -0.56739026 -0.12161448 0.0025408547
-0.024366429 0.038861889 -0.0027748877 0.38107747 0.88229758 -0.27628055 0.0004216056
-0.022307795 0.038109489 -0.0025738426 0.36251843 0.88972372 -0.27743846 0.00086214673
-0.019890977 0.037313577 -0.001699801 0.32156202 0.90617061 -0.27468681 0.00083366118
-0.017152043 0.036384463 -0.0018716822 0.29880506 0.91154194 -0.28250095 0.0014444949
0.023980888 0.036037184 -0.00050341338 -0.29244256 0.95411021 -0.064428873 0.0029002349
0.025844255 0.036480036 -0.0017697219 -0.29449305 0.94436991 -0.14642155 0.0027700032
0.028815091 0.037476193 -0.0016037788 -0.32009307 0.93839526 -0.13020994 0.0016951101
0.031829618 0.038556661 -0.001560155 -0.35099116 0.93111461 -0.099150084 0.002240394
-0.07054837 0.040502727 -0.0015831992 -0.88166404 -0.43964916 -0.17139745 0.0044806246
-0.030859869 0.041792285 -0.002854672 0.41328603 0.85433173 -0.31513795 0.00096008682
-0.028098758 0.040593248 -0.0023172628 0.40333316 0.87250125 -0.2757971 0.00060739304
-0.026217952 0.039722666 -0.0025275976 0.37719604 0.88357162 -0.27753264 0.0004684825
0.0347008 0.039830755 -0.0014722379 -0.4469724 0.88974315 -0.092589147 0.0027704407
0.037421688 0.041286502 -0.0016785496 -0.49881488 0.85894358 -0.11575703 0.0026594794
-0.07225582 0.04432898 -0.0012172071 -0.93377042 -0.32413217 -0.15169439 0.0069922842
-0.071642444 0.042938225 -0.0017061436 -0.90666193 -0.39629355 -0.14462192 0.0050561209
0.038722008 0.042140644 -0.0011904431 -0.52699512 0.84582841 -0.082767054 0.0030671332
0.040515285 0.04319486 -0.0015444692 -0.51132762 0.85316932 -0.10317973 0.0026181145
0.042528722 0.044488501 -0.0016001641 -0.53712404 0.83878452 -0.089097157 0.0023527965
-0.072907627 0.046486489 -0.0015748043 -0.93192321 -0.2976687 -0.20715334 0.0085044876
0.044100881 0.045532364 -0.0014797073 -0.53702956 0.83818376 -0.095117234 0.0024754459
0.046393592 0.047013491 -0.0015654986 -0.54987246 0.82526678 -0.12874369 0.003357732
0.048127476 0.047814902 -0.0029406918 -0.50999421 0.81577277 -0.2728017 0.0018045591
-0.074013606 0.049465552 -0.0015674094 -0.91820186 -0.34511968 -0.19441654 0.014876494
0.047932815 0.048122521 -0.00068554241 -0.54079729 0.83355367 -0.11281209 0.0043444359
0.049513575 0.049073976 -0.0015642239 -0.52634495 0.83840197 -0.14157368 0.0038085794
0.051565308 0.050481528 -0.0016150723 -0.54543126 0.83052307 -0.11285478 0.0036641366
-0.075555079 0.052739907 -0.0014067407 -0.93559754 -0.30987576 -0.16921687 0.019079003
-0.074748442 0.051548958 -0.0022585862 -0.90162796 -0.3632305 -0.2347991 0.015539333
-0.052897532 0.053685352 -0.0023264904 0.38635522 0.86263144 -0.32649142 0.0010488298
-0.048053052 0.051111139 -0.0025813847 0.42170635 0.82130778 -0.38421005 0.00065928791
0.053125184 0.051549897 -0.0015490375 -0.53239554 0.83593082 -0.13332145 0.0048707598
0.055510182 0.053082306 -0.0016050272 -0.5287075 0.83306718 -0.16268817 0.005054248
0.057044856 0.053993713 -0.0018336532 -0.59109044 0.79534727 -0.13429403 0.0099338898
-0.07605654 0.055476606 -0.0015852067 -0.95100874 0.14404079 -0.27355933 0.04285039
-0.060420912 0.056488119 -0.0028976754 0.37334564 0.77856487 -0.50443023 0.0037503068
-0.058468636 0.05592192 -0.0019609167 0.34862727 0.83798057 -0.41981864 0.0032892171
-0.055645164 0.054921579 -0.0017635851 0.31565681 0.85128605 -0.41913345 0.0021782634
0.058517892 0.055128083 -0.001514166 -0.58967274 0.79240507 -0.15614152 0.011770244
0.060522396 0.056597501 -0.0017520195 -0.6840778 0.71048081 -0.16508976 0.01191017
-0.075421378 0.057304785 -0.0015227832 -0.84187526 0.47190046 -0.26183209 0.042510837
-0.0735697 0.058420934 -0.0015689449 -0.58024716 0.7882269 -0.20496707 0.023198385
-0.070956305 0.05971862 -0.0019689973 -0.41857326 0.88319719 -0.21156344 0.014846729
-0.066423796 0.05991419 -0.0028665813 0.20091318 0.80049461 -0.56466126 0.016962219
-0.064814642 0.05930306 -0.0024855332 0.34063375 0.76796639 -0.54239857 0.0042110793
-0.062179796 0.05767728 -0.0025558062 0.41511065 0.75656307 -0.50526768 0.001480712
0.061999619 0.058201164 -0.0014525574 -0.76931685 0.61369622 -0.17756253 0.022144372
0.06331116 0.059444781 -0.0022314051 -0.75748676 0.60393065 -0.24795446 0.021428009
-0.069919318 0.060217731 -0.00129146 -0.35436943 0.90861684 -0.22099262 0.02198318
-0.067997567 0.060749579 -0.0016024245 0.025861776 0.99128675 -0.12915803 0.024098197
-0.065600656 0.06030947 -0.00098085648 0.30388856 0.91340983 -0.27080294 0.020220079
0.064151704 0.061428219 -0.0015866399 -0.87702662 0.41717544 -0.23830445 0.028341854
0.065162726 0.064397514 -0.0015454987 -0.91527718 0.25927255 -0.30829427 0.025428921
0.066155232 0.06557133 -0.0027354045 -0.89164466 0.1774206 -0.41652352 0.021700628
0.065675743 0.067263372 -0.00096551096 -0.95418948 0.21487923 -0.20820521 0.038820181
0.066412441 0.067815334 -0.0022642147 -0.86282134 0.23154391 -0.4493627 0.017417291
0.065945745 0.069279015 -0.00028936999 -0.93764699 0.24045117 -0.251001 0.037089933
0.066700898 0.070570737 -0.0015641457 -0.91155994 0.17636758 -0.37142015 0.020637145
0.067291044 0.073503204 -0.0016848323 -0.92595327 0.1672961 -0.33855945 0.029568233
0.067647658 0.07612481 -0.0015390826 -0.96967256 0.17931604 -0.16607502 0.07787513
0.069381401 0.077076346 -0.0028322099 -0.63309115 0.34856987 -0.6911546 0.071538888
-0.016568182 0.0025779575 0.0014987662 -0.22502342 -0.97393656 0.028497079 0.0028683802
-0.013573839 0.0019342564 0.0015344388 -0.19729665 -0.98002136 0.02514381 0.0016766707
-0.010743329 0.0014313341 0.0014018959 -0.15634826 -0.9805724 0.11846115 0.0047712629
-0.0073441565 0.00094791385 0.0014556765 -0.11744643 -0.98920172 0.087671272 0.0011845012
-0.004243582 0.00064895139 0.0016181469 -0.11561842 -0.99312657 0.018223858 0.0049147862
-0.0010824002 0.00043294797 0.0013049779 -0.07626643 -0.99703074 -0.010639588 0.0033572502
0.0022029974 0.00030695304 0.0010963368 -0.032914519 -0.99795449 -0.054803871 0.0026315432
0.0070311297 0.00034022145 0.00084712979 0.034385327 -0.99154323 -0.12513876 0.0010348958
-0.027420606 0.0057028099 0.0021201645 -0.33781838 -0.93982762 -0.051018059 0.013396545
-0.025610544 0.0055207228 0.0012938783 -0.32091218 -0.93546915 -0.14803006 0.003177094
-0.022462554 0.0043422538 0.0013662246 -0.31897178 -0.94708794 -0.035798118 0.0026220004
-0.019529585 0.0034063945 0.0014089856 -0.30289283 -0.95284486 -0.018509792 0.0015917415
-0.01793116 0.0031498175 0.00026244676 -0.27178964 -0.96163577 -0.037244298 0.002113332
-0.034147855 0.0085416427 0.0015168681 -0.38561553 -0.90853918 -0.16080181 0.0031724074
-0.031354591 0.0075612245 0.001338362 -0.35399407 -0.92175066 -0.15831564 0.00230714
-0.028711516 0.0066591352 0.0011736585 -0.36200887 -0.91799945 -0.16194613 0.0027380222
-0.026673732 0.006139209 0.00079149078 -0.34196112 -0.92481858 -0.16665301 0.0029446143
-0.040205523 0.011341283 0.0016059161 -0.45693123 -0.87201512 -0.17550923 0.0035208918
-0.037441477 0.010195725 0.0012855597 -0.43701738 -0.87751973 -0.19742063 0.002462117
-0.034867208 0.0093823578 0.00084019935 -0.39708811 -0.8972429 -0.19307034 0.0018547457
-0.045767844 0.01447852 0.0018940249 -0.52124792 -0.82099843 -0.23294242 0.0042879591
-0.043471817 0.013390286 0.0013929351 -0.50868344 -0.83071941 -0.22615589 0.0039916676
-0.041027643 0.012514465 0.00077606353 -0.48022938 -0.85003716 -0.21637158 0.0020950083
-0.051064055 0.017829508 0.0029296109 -0.57047945 -0.81555682 -0.097058706 0.014520952
-0.049158826 0.017071761 0.0017312435 -0.56294554 -0.79367894 -0.23057787 0.0067926617
-0.046796266 0.015887279 0.0011149137 -0.56480932 -0.78893644 -0.24201177 0.004323761
-0.044935085 0.01518463 0.00029868857 -0.52057135 -0.81979388 -0.23862837 0.0051394426
-0.054275714 0.020472011 0.00250819 -0.61481488 -0.74319631 -0.26393536 0.0050095557
-0.052380405 0.019686464 0.0016351785 -0.59098119 -0.75764376 -0.27697873 0.0064240578
-0.050174758 0.018615887 0.00095933385 -0.56544447 -0.77674955 -0.27736747 0.0040329732
-0.057698786 0.023561046 0.0022813026 -0.66315436 -0.72374803 -0.19082755 0.0055820262
-0.055634007 0.022344332 0.0015893496 -0.60743546 -0.74953753 -0.26308864 0.005266286
-0.053630985 0.021490607 0.00078403181 -0.60871565 -0.75077647 -0.25651497 0.0046902578
-0.060505975 0.026562706 0.0020713771 -0.7265535 -0.67040569 -0.15058631 0.0012819113
-0.058765542 0.025229894 0.0014263496 -0.66818881 -0.71561873 -0.20350327 0.00279315
-0.056905322 0.024052959 0.00062391994 -0.60574144 -0.76456869 -0.22025453 0.0035599163
-0.06329973 0.0297645 0.0023421496 -0.77115339 -0.6285879 -0.10099315 0.00071316172
-0.061870784 0.02836116 0.001579721 -0.75014788 -0.64834726 -0.13009271 0.0012939711
-0.064438432 0.031435736 0.0015568631 -0.79187632 -0.60731554 -0.064028822 0.0010243487
0.0022177913 0.032909773 0.0017534918 0.05353874 0.98783952 0.14596808 0.0013693213
0.0046917289 0.032890402 0.0015061238 0.010485561 0.99317205 0.11618691 0.0034190244
0.0079986807 0.032777522 0.0023053763 -0.067675583 0.98415738 0.16387251 0.0048476318
0.010327374 0.032871991 0.0027212335 -0.08621756 0.97910935 0.18415068 0.0019821543
0.012210023 0.03298087 0.002888815 -0.12309727 0.95272243 0.27778959 0.0020042134
-0.06688749 0.034698248 0.0015461874 -0.82434207 -0.56516969 0.032302037 0.0016630976
-0.065800577 0.033205234 0.0014465281 -0.81162971 -0.58404177 -0.012345582 0.0011681952
-0.0051624323 0.033707384 0.0012095385 0.16195461 0.98678553 0.0050103618 0.002877807
-0.00080988352 0.033192601 0.0012515412 0.10003518 0.99358302 0.052780855 0.0015992133
0.0027900026 0.033021785 0.00036191288 0.034060184 0.99841267 0.044855975 0.0032801058
0.005197329 0.033026934 5.8811042e-05 -0.0042199995 0.99995208 -0.0088321334 0.00077746756
0.008863816 0.033023946 0.0012298403 -0.092803009 0.99229896 0.082039252 0.0042210692
0.010427531 0.033141628 0.00097316899 -0.085621409 0.99370164 0.072291061 0.0041992301
0.013458442 0.033388451 0.001419825 -0.11745412 0.98573601 0.12053649 0.0032890837
0.016506666 0.0339159 0.0014101146 -0.20099457 0.9709481 0.12984979 0.0030196719
0.019547462 0.03466006 0.0014134636 -0.25247237 0.95823544 0.13432248 0.0025219002
0.022614311 0.035489604 0.0013854899 -0.27392134 0.95781457 0.086938843 0.003083491
0.024520332 0.035917364 0.0023376115 -0.28325051 0.94422138 0.16797359 0.0042257798
-0.069412991 0.038409304 0.0012564375 -0.86562359 -0.48736069 0.11478394 0.0043558828
-0.068411067 0.03689979 0.0015320082 -0.8383832 -0.54242384 0.053759366 0.0014307734
0.023980888 0.036037184 2.3096185e-07 -0.21051003 0.97748476 0.014462714 0.0030692352
0.025770629 0.036444139 0.0012932459 -0.29562303 0.95014769 0.099128008 0.0034426022
0.028583551 0.037359748 0.0012737492 -0.31113616 0.94273281 0.12020456 0.0018870026
0.031792834 0.038546205 0.0009626213 -0.37623122 0.9255681 0.04211618 0.0022896787
0.033127941 0.038867295 0.0024995999 -0.38509357 0.90869612 0.16116555 0.005321194
-0.070542842 0.040511571 0.0013884282 -0.89089656 -0.44435695 0.094075978 0.0019129753
0.034676954 0.039809447 0.0010402125 -0.43645713 0.89722544 0.067019634 0.0028187509
0.037299026 0.041189063 0.0013909637 -0.49573609 0.86211252 0.10491758 0.0021187197
-0.072230622 0.044306844 0.0010363689 -0.9352538 -0.32113546 0.14890392 0.0077858916
-0.0715978 0.043073975 0.00178212 -0.91307962 -0.35785905 0.19550551 0.0050963899
0.038878035 0.042231042 0.00076116406 -0.52611727 0.84330004 0.10975228 0.0021559587
0.040536243 0.043154802 0.0014449833 -0.51542354 0.84888071 0.11721842 0.0023466169
0.042651255 0.04451393 0.0014863303 -0.53351247 0.83823478 0.11281329 0.0022956727
-0.072876751 0.0464998 0.0014174927 -0.92462045 -0.30217019 0.23188396 0.0085663497
0.044169545 0.045536876 0.0013016911 -0.52370352 0.84324998 0.12109533 0.0024985394
0.046454772 0.046999782 0.0014291564 -0.54117495 0.82798725 0.14685613 0.0029183638
0.048537616 0.047959827 0.0029474928 -0.54244918 0.79270101 0.27816206 0.0044078813
-0.074031189 0.049547985 0.0013367494 -0.9110176 -0.37230974 0.17729202 0.011066781
0.047981199 0.048174083 2.1606068e-07 -0.53093773 0.84721315 0.018303858 0.0081014605
0.049533214 0.04904595 0.0013434234 -0.54235727 0.82517201 0.15792346 0.0035555114
0.05176428 0.050529703 0.0015645796 -0.57297385 0.80778831 0.13848825 0.0033568731
-0.075554729 0.052773535 0.0011393146 -0.96099657 -0.24346706 0.13118427 0.01747757
-0.074573606 0.051625114 0.0024034367 -0.88980651 -0.34113982 0.30309755 0.0093527474
0.053190887 0.051584285 0.0011661056 -0.52777845 0.83545345 0.15319085 0.0042863046
0.055469085 0.053002533 0.0014137056 -0.5277614 0.8313446 0.17416658 0.0055720117
0.057222746 0.053802826 0.0025442888 -0.51685137 0.81021851 0.27642485 0.012317205
-0.076049715 0.055594936 0.0012857139 -0.95451891 0.24687034 0.16717841 0.041360609
0.058560405 0.055092931 0.0013369081 -0.56927675 0.79650944 0.20370738 0.0097234501
0.060592309 0.056569338 0.0015784819 -0.67248732 0.71553624 0.18912603 0.010591428
-0.075399771 0.057362683 0.0011662943 -0.76831931 0.61759603 0.16810904 0.04757864
-0.073529035 0.05843886 0.0016100765 -0.55441904 0.81383407 0.17405063 0.018448289
-0.071257472 0.059571438 0.0013428903 -0.47879601 0.87444377 0.078118272 0.0072253272
0.062027734 0.058175921 0.0011516431 -0.7675612 0.6084742 0.20151672 0.018614491
0.063425936 0.059380297 0.0020569274 -0.74304938 0.62076271 0.25006253 0.016273858
-0.069609478 0.060370922 0.00086365407 -0.45132422 0.89118856 -0.04571056 0.0049271602
-0.068541601 0.060764171 0.0010130712 -0.18495159 0.98249537 0.022267742 0.012047824
0.064299077 0.061497226 0.001338149 -0.83938396 0.44089231 0.31788108 0.023602838
0.06515272 0.064386196 0.0010370789 -0.94916892 0.24652739 0.19571055 0.031248743
0.066319726 0.065110572 0.002395869 -0.9214974 0.22760823 0.31470141 0.019386679
0.06567619 0.067178249 0.00062186964 -0.97900999 0.19967043 0.040879667 0.018187428
0.066602148 0.067820102 0.0017058939 -0.95335233 0.23209745 0.19300267 0.022054397
0.066767536 0.07050854 0.00098926004 -0.91207808 0.30189493 0.27743998 0.031935956
0.069388099 0.071212649 0.0026720013 -0.74001718 0.078036763 0.66804546 0.033764169
0.06738016 0.073588371 0.0010120519 -0.90850294 0.15322182 0.38877442 0.035568252
0.069152571 0.073569201 0.0027103741 -0.83292639 0.17294766 0.52566415 0.026110256
0.067858301 0.076164983 0.001214081 -0.97841293 0.069770634 0.19452563 0.058150381
0.069163844 0.076649874 0.0027893819 -0.89093816 0.23463027 0.38881591 0.039992146
-0.016313143 0.002620169 0.0036309834 -0.22477499 -0.94499886 0.23759912 0.0083255256
-0.013372906 0.0023201138 0.0044222116 -0.17843094 -0.94070321 0.2885133 0.0042349733
-0.010697007 0.0018208604 0.0042219264 -0.13209227 -0.94316006 0.30496025 0.0037835748
-0.0079249833 0.0016892591 0.0047994852 -0.10376985 -0.94582677 0.30764198 0.002947364
-0.0049282485 0.0012182904 0.0042156973 -0.11950385 -0.97937381 0.16292879 0.0047765211
-0.0025870171 0.00081398588 0.0033180413 -0.078429058 -0.99310362 0.08714392 0.0013069597
-0.027350741 0.0057610874 0.0033360778 -0.32698569 -0.93368405 0.14599515 0.016077362
-0.02553994 0.0055012438 0.0043197135 -0.28016296 -0.94090563 0.19027704 0.015906831
-0.022571338 0.0045812833 0.0043867575 -0.26473582 -0.92958426 0.25649193 0.0048904028
-0.01957988 0.0037865026 0.0045969309 -0.26299536 -0.92799163 0.26394117 0.0050751381
-0.016754802 0.0032397418 0.0050278949 -0.22108503 -0.93245339 0.28574845 0.0051394119
-0.034179416 0.0085864915 0.0042452109 -0.36429381 -0.92750233 0.083841838 0.017077232
-0.031565558 0.0076269377 0.0043753753 -0.30057472 -0.92648715 0.2264429 0.0064146491
-0.028695527 0.0066478997 0.0045251786 -0.37565449 -0.90338659 0.20682441 0.0070303604
-0.026215628 0.0062292987 0.0056472095 -0.29503566 -0.88512945 0.35986078 0.0018036114
-0.040265542 0.011340119 0.0042502154 -0.44287434 -0.88651621 0.13398273 0.015130708
-0.037373111 0.010020887 0.0044247881 -0.42254701 -0.87283373 0.24416244 0.0068485853
-0.035122015 0.0093133282 0.0051846448 -0.37451223 -0.90263027 0.21213004 0.013884337
-0.046207391 0.014652761 0.0037274107 -0.56968415 -0.81787378 -0.08088503 0.012750091
-0.04349938 0.013189959 0.0044507617 -0.49474835 -0.8318215 0.25158927 0.0069097714
-0.041237283 0.01223339 0.0053058853 -0.43442002 -0.84039086 0.32407168 0.0052224873
-0.051045388 0.017856752 0.0033934445 -0.54241258 -0.84004599 0.010551952 0.022178333
-0.049332432 0.016963331 0.0043352945 -0.57558066 -0.80822617 0.12440827 0.030903626
-0.047114082 0.015576962 0.0047340607 -0.57516819 -0.80601907 0.13969541 0.009982842
-0.054700688 0.02078497 0.0037192607 -0.61778027 -0.77705342 -0.1205632 0.014356412
-0.052761041 0.019392792 0.0039028563 -0.62100267 -0.78261936 -0.043159395 0.0077032223
-0.050517589 0.018268604 0.0054238951 -0.50371802 -0.80997223 0.30035508 0.0068732933
-0.057784662 0.023399606 0.0037415028 -0.67863137 -0.72726256 -0.10270689 0.012056505
-0.056176998 0.022098348 0.004112307 -0.63067913 -0.76999843 -0.096676394 0.0073721856
-0.060648017 0.026317736 0.0039892178 -0.73914796 -0.67166805 -0.050221894 0.0067637428
-0.059125535 0.024835156 0.0041883755 -0.71601051 -0.69723481 -0.034534432 0.0086392639
-0.063365929 0.02955132 0.0039442517 -0.80097795 -0.59423739 0.07291244 0.0074924408
-0.062142536 0.028151464 0.0041830414 -0.77014428 -0.63777244 0.011141096 0.0068658786
-0.064682394 0.031524822 0.0041499147 -0.82193524 -0.56332588 0.084180981 0.0054168869
-0.00076879287 0.032802116 0.0034193895 0.09602093 0.99089873 0.094338007 0.001197685
0.0025040852 0.032537561 0.00350385 0.053539973 0.98783785 0.14597899 0.0014002847
0.005053964 0.031951576 0.004989461 -0.0090435175 0.95585674 0.29369396 0.0020628194
0.0078537874 0.032268886 0.0041903635 -0.029786991 0.95032054 0.30984443 0.0020902213
0.010472229 0.032347642 0.0045036613 -0.10674665 0.9424203 0.31693706 0.0028236951
0.013433995 0.032563262 0.0047253049 -0.13702103 0.92927206 0.3430433 0.0026004915
0.015942238 0.032792885 0.0052238097 -0.18878007 0.91992724 0.34365097 0.003163144
-0.066718012 0.034683775 0.0041250186 -0.83047283 -0.51153898 0.22055115 0.0065884362
-0.065612495 0.033344664 0.0049830638 -0.8340953 -0.50813413 0.21467368 0.0099604893
-0.0050168242 0.033223677 0.0037594847 0.10362441 0.99409783 0.032116577 0.00207064
0.014066454 0.033071667 0.0035507735 -0.13064258 0.94264299 0.30717528 0.0028865193
0.016665088 0.033363029 0.0040919166 -0.19251564 0.93119425 0.30954009 0.0028048977
0.01946111 0.0339306 0.0044157375 -0.22290987 0.9229418 0.31383064 0.00218626
0.022601981 0.034787327 0.004368938 -0.26170638 0.90546912 0.33411878 0.0022140583
0.025302961 0.03551589 0.0046278825 -0.29558355 0.90159786 0.31583485 0.0021270472
0.027573112 0.035886034 0.005488852 -0.30742249 0.89670938 0.3184396 0.0023379568
-0.069146097 0.038666233 0.0033768984 -0.85661024 -0.41891861 0.30120757 0.0070302649
-0.068094589 0.037348639 0.0043997942 -0.83339125 -0.47042572 0.29010129 0.0047974326
0.026291505 0.036191925 0.003478372 -0.28485715 0.91519421 0.28508928 0.0019765338
0.02861448 0.036700733 0.00426606 -0.29824665 0.90516198 0.3028709 0.0023976625
0.031563126 0.037675753 0.0044619609 -0.34621504 0.88561058 0.30956268 0.0024762987
0.034066327 0.03854908 0.0048661022 -0.39719069 0.85663092 0.32927659 0.0033045278
-0.069719158 0.04061038 0.0041670725 -0.85218805 -0.3808904 0.35874513 0.004081104
-0.068728924 0.039746501 0.0054426477 -0.84163827 -0.37543771 0.38819003 0.0050919172
0.035171553 0.039423142 0.0039397394 -0.40471569 0.85781312 0.31679937 0.002795706
0.037932321 0.040959012 0.0039285291 -0.48189795 0.84228611 0.24151303 0.0028006595
0.039612029 0.04156021 0.0049241558 -0.50465453 0.80625027 0.30868152 0.0031151145
-0.070642278 0.043471452 0.0044270041 -0.85484135 -0.30440751 0.42021701 0.0030135969
0.040981513 0.042796772 0.0039432528 -0.50226295 0.82668692 0.25361526 0.0026958182
0.043366503 0.04412806 0.0044152946 -0.51825708 0.79760653 0.30859923 0.0017487466
0.045212775 0.044663854 0.0057388768 -0.4529146 0.79806012 0.39745247 0.0040302263
-0.072293952 0.04697483 0.0034247497 -0.87953717 -0.29175884 0.37588724 0.0058226776
-0.07131204 0.046240017 0.004644176 -0.85346293 -0.26072833 0.45124474 0.0055707279
0.044757199 0.045328815 0.0036975443 -0.51079243 0.80220717 0.30911916 0.0016441332
0.046636816 0.046213832 0.0043863957 -0.49538466 0.79681838 0.34593999 0.0027635868
0.048887093 0.047487795 0.0046614814 -0.49637181 0.78822827 0.36374611 0.002842335
-0.072786018 0.049192168 0.003657876 -0.8490479 -0.31680873 0.42278823 0.0074459999
-0.071727991 0.048714861 0.0049109207 -0.82654089 -0.24740721 0.50558865 0.003539748
0.050200608 0.04868729 0.003972217 -0.51692754 0.78021187 0.35221496 0.0026808195
0.052392248 0.049789935 0.0046087713 -0.49037597 0.78321362 0.38224062 0.0024872094
0.054514885 0.050556831 0.0055362578 -0.45461595 0.74799359 0.48355967 0.0031626732
-0.07352227 0.052440669 0.0041451845 -0.75339448 -0.23506647 0.61411768 0.0055394201
-0.071978346 0.051146183 0.005294872 -0.74158216 -0.21649404 0.63496959 0.005574706
0.053570677 0.051201742 0.0033730112 -0.493155 0.78032732 0.38456133 0.0028925731
0.055640712 0.051970422 0.0042880215 -0.48258957 0.77067769 0.41612878 0.0026370294
0.057990506 0.053179506 0.0046413722 -0.4700599 0.7585367 0.45129353 0.0038348443
0.060241729 0.05359944 0.0057999725 -0.47327819 0.69176507 0.54540706 0.0041876417
-0.075117573 0.055696387 0.0032413348 -0.89439911 0.078532651 0.44032139 0.03569841
-0.07397449 0.055268053 0.0042429813 -0.7353375 0.053520374 0.6755845 0.031336904
