# .PCD v0.7 - Point Cloud Data file format
VERSION 0.7
FIELDS x y z normal_x normal_y normal_z curvature
SIZE 4 4 4 4 4 4 4
TYPE F F F F F F F
COUNT 1 1 1 1 1 1 1
WIDTH 559
HEIGHT 1
VIEWPOINT 0 0 0 1 0 0 0
POINTS 559
DATA ascii
0.024477504 0.026759982 -0.014896403 -0.17109983 0.53030324 -0.83036333 0.0013755319
0.050518379 0.024247192 -0.014896926 0.34693101 -0.35257593 -0.8690967 0.0023335898
0.052731734 0.025429495 -0.014388651 0.37785822 -0.32102066 -0.86842895 0.0020839097
0.055195119 0.025595546 -0.013157167 0.45919639 -0.39221299 -0.79706186 0.0017258156
0.057594992 0.026559874 -0.012268851 0.50572318 -0.43275928 -0.7462998 0.0023500645
-0.046640623 0.028677268 -0.014938173 -0.21944112 -0.22694971 -0.9488622 0.0014985387
-0.024762176 0.029586736 -0.014758577 0.19779906 0.46428952 -0.86331391 0.0020023594
-0.022288144 0.029119568 -0.014438884 0.19809081 0.47962213 -0.85482317 0.001769629
-0.019433925 0.028662013 -0.014021586 0.18405321 0.5124138 -0.83878279 0.0012986728
-0.01647158 0.028498735 -0.013443623 0.19206406 0.54670906 -0.81499732 0.0020603135
-0.013606285 0.028268583 -0.012959052 0.17502664 0.60709506 -0.7751137 0.0017107952
-0.010636386 0.027915772 -0.012661997 0.14641394 0.62585163 -0.76607621 0.0015273475
-0.0077624568 0.02756615 -0.012442285 0.12037178 0.64448637 -0.75508142 0.0017140813
-0.0047379076 0.027260242 -0.012297563 0.097940691 0.63349587 -0.76752239 0.0027748749
-0.0015020035 0.027095133 -0.012115845 0.071319707 0.63289917 -0.77094239 0.0028291463
0.0084971916 0.027061783 -0.01203071 -0.06341093 0.67003447 -0.73961669 0.0035516655
0.010217284 0.027186934 -0.012119946 -0.089454129 0.68317753 -0.72475272 0.0020431101
0.013496928 0.027387405 -0.012339065 -0.10904073 0.66898668 -0.73523259 0.0016717145
0.016680147 0.027693018 -0.01262664 -0.14933421 0.66718566 -0.72976881 0.001429464
0.019548032 0.028108526 -0.012860979 -0.18279085 0.6516692 -0.73614854 0.0013796542
0.022464683 0.02849393 -0.013261532 -0.19916618 0.62378705 -0.75579268 0.0018176425
0.025494471 0.028671008 -0.013884092 -0.19717877 0.59652007 -0.77800024 0.0015008592
0.028191352 0.029222723 -0.014184344 -0.20497836 0.56639326 -0.7982372 0.0018532373
0.031018734 0.02942773 -0.014725749 -0.19539319 0.52040231 -0.83126587 0.0021703877
0.033031907 0.029731521 -0.014920277 -0.19516791 0.51217908 -0.83641028 0.0031340655
0.05352433 0.0275856 -0.014809486 0.34171441 -0.21448125 -0.91500223 0.0029661222
0.055543058 0.028550908 -0.014186872 0.41857666 -0.27477056 -0.86561811 0.001651301
0.058446795 0.028820524 -0.012777282 0.49090603 -0.32487956 -0.8083716 0.0020799709
0.060081121 0.029772962 -0.012220223 0.54462355 -0.34742942 -0.7633335 0.0018901625
-0.051716506 0.032302588 -0.014359003 -0.21377103 -0.05509926 -0.97532868 0.00078326691
-0.049681216 0.031463079 -0.014753974 -0.19254397 -0.088237338 -0.97731316 0.0014269837
-0.030881699 0.032390431 -0.014674793 0.20889264 0.46098316 -0.86247224 0.002525999
-0.028405633 0.031957023 -0.014237104 0.22462519 0.5092724 -0.83077383 0.0017054615
-0.025496203 0.031619035 -0.0136271 0.23382196 0.55377913 -0.79915953 0.0018245291
-0.022689892 0.031455606 -0.01291697 0.24246681 0.61471701 -0.75055498 0.0016097001
-0.019799147 0.030862 -0.01255589 0.22528346 0.6424098 -0.73250055 0.0014281741
-0.01701553 0.030245125 -0.012259541 0.20434752 0.66410166 -0.71917397 0.0015169964
0.023392053 0.030020123 -0.012286708 -0.21549805 0.67462611 -0.70600301 0.0010881501
0.025882417 0.030594921 -0.012461611 -0.22743657 0.6731168 -0.70369482 0.0012663689
0.028633714 0.030976225 -0.012910379 -0.22479391 0.65570462 -0.72077668 0.0016411056
0.031438582 0.031492181 -0.013324769 -0.23876366 0.62236828 -0.74541909 0.0019983647
0.034266159 0.031656224 -0.014021419 -0.23930803 0.57072574 -0.78549594 0.0011532301
0.037038822 0.03227381 -0.014431748 -0.23830989 0.52937746 -0.81422848 0.001893091
0.039915517 0.032721225 -0.014856061 -0.20535317 0.47654292 -0.85483146 0.0019799289
0.056126267 0.031670351 -0.014629557 0.37129197 -0.13816594 -0.91817892 0.0024851148
0.058589034 0.031373221 -0.013451234 0.44804657 -0.20813823 -0.86944401 0.0023320299
0.060720719 0.031785857 -0.012371219 0.51700491 -0.26055148 -0.81536424 0.002220538
-0.054688036 0.035638902 -0.01391549 -0.22677255 0.0089975754 -0.97390622 0.0017012563
-0.052224837 0.034712881 -0.014575004 -0.19334832 -0.021273389 -0.98089957 0.0020981417
-0.05095626 0.035851102 -0.014993446 -0.074049436 0.18708049 -0.97954971 0.0011569842
-0.039856784 0.035848044 -0.01488479 0.15547393 0.39698991 -0.90455896 0.0026457594
-0.037218202 0.035320587 -0.01463158 0.20810339 0.4598853 -0.86324883 0.0027040364
-0.034314997 0.034879617 -0.01411355 0.24237075 0.51865661 -0.81990957 0.001688111
-0.03145422 0.034747984 -0.01328577 0.28294173 0.58663172 -0.7588197 0.0019810009
-0.028576877 0.034119539 -0.012774194 0.27275291 0.62001216 -0.73565668 0.0017242078
-0.025855433 0.033434711 -0.01237945 0.26086113 0.65646517 -0.70781702 0.0014498561
0.032577932 0.033120729 -0.012310399 -0.24517544 0.65214354 -0.71735471 0.0015442622
0.034822144 0.033751972 -0.012530135 -0.26590571 0.64623511 -0.71531409 0.0012614364
0.037669778 0.034278866 -0.013136975 -0.2737332 0.60367191 -0.74876589 0.0015501829
0.040326364 0.034554787 -0.013834584 -0.26362124 0.56673938 -0.78058332 0.0011695893
0.04318497 0.034998666 -0.014383247 -0.22423148 0.48181498 -0.84709775 0.0020454167
0.046456326 0.035600632 -0.01481545 -0.12986387 0.3924605 -0.91055477 0.0023553944
0.048672907 0.035852447 -0.014955489 -0.072154991 0.31364727 -0.94679409 0.0033535706
0.055909298 0.034589224 -0.014770183 0.23909758 0.037939794 -0.97025406 0.0059922067
0.058553632 0.034371652 -0.013920281 0.3692863 -0.069737539 -0.92669535 0.0033401102
0.061469395 0.034556311 -0.012627952 0.47953552 -0.14147161 -0.86604357 0.0025488958
-0.057821207 0.038641002 -0.013085306 -0.2189882 0.092440329 -0.97133875 0.0013443526
-0.055307344 0.038243122 -0.013934682 -0.14508514 0.17306286 -0.97416604 0.0011595755
-0.052418411 0.037725728 -0.014613285 -0.10239594 0.17648731 -0.97896236 0.0020995324
-0.048857097 0.038236789 -0.014858713 0.05782732 0.3456068 -0.93659592 0.0028219689
-0.045972213 0.038378391 -0.014730673 0.12840001 0.39849141 -0.90813982 0.0028866893
-0.043417949 0.037977591 -0.014514878 0.16361725 0.43465078 -0.88561159 0.0027227725
-0.040407725 0.03768573 -0.014040582 0.20882872 0.50406325 -0.83803988 0.0013315594
-0.037463091 0.037515927 -0.01330132 0.26389748 0.56048077 -0.78499651 0.0014807936
-0.034708921 0.037014186 -0.012740987 0.283227 0.61844122 -0.73301625 0.0017188567
-0.032391816 0.036414102 -0.012353482 0.29758659 0.65221161 -0.69718158 0.0014965479
0.040590309 0.036550444 -0.012416783 -0.30913788 0.61881936 -0.72214705 0.0013374749
0.043622386 0.037410438 -0.012945428 -0.30160069 0.5803349 -0.75647098 0.001517907
0.046539977 0.037413903 -0.013813213 -0.19715476 0.49983504 -0.84338301 0.0022075004
0.049489096 0.037547551 -0.014344242 -0.10340877 0.40506539 -0.90842092 0.0021924847
0.052631985 0.037559643 -0.014581707 0.011755385 0.31541947 -0.94887954 0.0053145611
0.05551929 0.037459936 -0.014455696 0.13496158 0.22695225 -0.96450925 0.0057760989
0.058744114 0.037432928 -0.013851497 0.31397822 0.06864091 -0.94694567 0.0040468411
0.061747942 0.0373827 -0.012726203 0.42863268 -0.014648988 -0.90336013 0.0038182102
0.063275605 0.037919514 -0.012027942 0.5344913 -0.073124379 -0.84200472 0.0026242959
-0.058390643 0.041328903 -0.012947489 -0.15859735 0.21481469 -0.96369165 0.0018760199
-0.055050429 0.04070618 -0.013781747 -0.066188768 0.2760464 -0.9588626 0.0021512066
-0.052180223 0.040663294 -0.014125774 0.049958803 0.38161716 -0.9229694 0.0020942942
-0.049207274 0.040704202 -0.014026184 0.10307993 0.43204635 -0.89594108 0.002498752
-0.046317264 0.040565085 -0.013684015 0.15579282 0.47285432 -0.86725861 0.0021003229
-0.043454804 0.040595654 -0.012988853 0.24765098 0.55417722 -0.79470533 0.0022936445
-0.040636204 0.039861314 -0.012633964 0.2580193 0.60553539 -0.75282991 0.0021548453
-0.038274311 0.039287347 -0.012270519 0.28173953 0.63479984 -0.71948034 0.001652354
0.046937693 0.039547369 -0.012566618 -0.26226076 0.56639123 -0.78129399 0.0018646948
0.0497608 0.040304974 -0.012867585 -0.20953734 0.52432495 -0.82533473 0.0024336111
0.052621961 0.040440649 -0.013343735 -0.090464741 0.41768616 -0.90407652 0.003145321
0.055581819 0.040428493 -0.01355733 0.021053126 0.35091972 -0.93616879 0.0034233574
0.058531921 0.040476669 -0.013311362 0.16082257 0.25191319 -0.95429331 0.0048583741
0.061679766 0.040286727 -0.012560942 0.36223155 0.10902119 -0.92569041 0.0038874708
0.063335516 0.039441988 -0.012011334 0.48476061 0.059656214 -0.87261009 0.0056215399
-0.060144208 0.044219725 -0.012061695 -0.14422116 0.28423488 -0.94784534 0.0022348673
-0.058330376 0.043743737 -0.012569204 -0.074949287 0.33668905 -0.93862826 0.0027399673
-0.054862738 0.043869425 -0.012924058 0.045689248 0.43454543 -0.8994903 0.0027785839
-0.052249514 0.043717116 -0.012875336 0.12425955 0.4822984 -0.86714917 0.0025535251
-0.049517225 0.043288656 -0.012742488 0.1570237 0.52864832 -0.83419096 0.0034326492
-0.046642762 0.0426885 -0.012470154 0.22877495 0.57930791 -0.78234535 0.0024677771
-0.044528823 0.042235572 -0.012126173 0.27064267 0.60873991 -0.74578029 0.0016473426
0.052734748 0.042420566 -0.012235674 -0.18494479 0.52878106 -0.82836354 0.002345243
0.0557478 0.042865328 -0.012477783 -0.055030547 0.43491364 -0.89878905 0.0025524255
0.058603872 0.043071099 -0.012453371 0.065575399 0.35431948 -0.93282241 0.0037934897
0.061027579 0.042766262 -0.012274655 0.23455247 0.27467316 -0.93249118 0.0063539133
-0.057705868 0.045653142 -0.012074888 -0.017334105 0.43622854 -0.89966887 0.0019745915
-0.055248581 0.045396693 -0.012264719 0.079962768 0.49888471 -0.8629716 0.0026955109
-0.053445049 0.045236193 -0.012234834 0.12423588 0.53933042 -0.83287936 0.0025191973
-0.01436713 0.005889365 -0.009148417 -0.18237525 -0.75282401 -0.63245177 0.00058837858
-0.010953428 0.0056165652 -0.0098326113 -0.13268311 -0.69486225 -0.70679677 0.00084320386
-0.0079380767 0.0053925882 -0.010061899 -0.10651827 -0.7086134 -0.69751054 0.00084395247
-0.0043048724 0.0049991682 -0.010187176 -0.082563616 -0.71202362 -0.69728446 0.0010746054
-0.0014595592 0.0050820904 -0.010538753 -0.051105469 -0.69107193 -0.72097695 0.0015679118
0.0017678626 0.0049522989 -0.010604946 -0.034247443 -0.71363914 -0.69967586 0.0012625339
0.0045618 0.0049982611 -0.010757298 -0.0060850778 -0.69004083 -0.72374487 0.0012951279
0.0074672224 0.0049352744 -0.010637527 0.019019851 -0.73807842 -0.67444682 0.001715834
0.010575826 0.0049998942 -0.010634015 0.041938029 -0.72435755 -0.68814778 0.0013489794
0.013642664 0.0051059225 -0.010474563 0.071741901 -0.75136894 -0.65597087 0.0013404597
0.016639756 0.0052153277 -0.010244176 0.10348615 -0.7745961 -0.62393236 0.0012594434
0.019452037 0.0052886847 -0.0098021915 0.14432175 -0.81295902 -0.56415319 0.0013923178
0.022292504 0.0056819972 -0.0095904926 0.17002325 -0.80971456 -0.56165332 0.0009699447
0.024329636 0.0059067374 -0.0093948543 0.16524756 -0.7833901 -0.59916043 0.0012388489
-0.016601583 0.008344884 -0.011186928 -0.15427947 -0.64091253 -0.75195009 0.0013370457
-0.014004678 0.0072769984 -0.010797109 -0.18346629 -0.69012499 -0.70004833 0.0016322783
-0.010482506 0.0070105172 -0.011376303 -0.12505518 -0.63974279 -0.75834709 0.0014395518
-0.0077402862 0.0067621446 -0.011521178 -0.097575821 -0.64061433 -0.76163787 0.001553677
-0.0044794241 0.006386729 -0.011630429 -0.082218111 -0.66438061 -0.74285841 0.0012216977
-0.001712687 0.006336729 -0.011816586 -0.0532148 -0.65891892 -0.75032926 0.0013901899
0.0026327609 0.0061821025 -0.011952897 -0.039943382 -0.70285052 -0.71021527 0.0015095285
0.0041156523 0.0060618487 -0.01186769 -0.01139554 -0.64482015 -0.76424938 0.0012258588
0.0074563604 0.0060677952 -0.011860003 0.012226476 -0.71283358 -0.70122665 0.001215519
0.010847053 0.0060791597 -0.011791947 0.032015536 -0.69919556 -0.71421325 0.002045728
0.013628714 0.0062554744 -0.011718483 0.060569245 -0.71222401 -0.69933414 0.00136727
0.016649464 0.0063710292 -0.011552218 0.082146928 -0.70128763 -0.70812958 0.0013216528
0.019401111 0.006585483 -0.011376212 0.11807939 -0.71753895 -0.68643653 0.001387728
0.022567913 0.0069282907 -0.011121918 0.14860408 -0.76066488 -0.63190657 0.0018293686
0.025693426 0.007048687 -0.010427494 0.19974178 -0.78285259 -0.589275 0.0014269432
0.028444149 0.0077812942 -0.010412636 0.21977791 -0.77982467 -0.58614945 0.0019407142
0.031355303 0.0082412949 -0.0099244937 0.25379544 -0.78035825 -0.57151455 0.001423853
0.033680025 0.0087246215 -0.0094846636 0.28292426 -0.78780997 -0.54709172 0.0011048514
-0.018576588 0.0095461234 -0.011868671 -0.18593445 -0.62858403 -0.75518906 0.0018728548
0.029595291 0.0091863154 -0.01174581 0.19761135 -0.70530742 -0.68080187 0.0019748427
0.031774491 0.0094506172 -0.01130122 0.24093567 -0.72535163 -0.6448372 0.0014738929
0.034530338 0.0099934274 -0.010730122 0.28138673 -0.74747974 -0.60174382 0.0015003132
0.037452128 0.01082124 -0.010385882 0.29860172 -0.7569409 -0.5812723 0.0018086769
0.040087633 0.011510481 -0.0097708413 0.35488161 -0.74934375 -0.55905545 0.00122483
0.042118363 0.011918913 -0.0090443492 0.38326493 -0.74850291 -0.54115748 0.0013687364
-0.028661748 0.013169208 -0.011845249 -0.18162784 -0.50190717 -0.84563619 0.0012082115
0.038477942 0.012170562 -0.011537667 0.30021504 -0.70466393 -0.64289939 0.0011737529
0.040759668 0.012771278 -0.010958584 0.33066934 -0.72377539 -0.60564595 0.0014427636
0.04358222 0.013689148 -0.010402689 0.38160071 -0.73241299 -0.56387246 0.00099238916
0.045866322 0.014422777 -0.0097331358 0.42651567 -0.72163373 -0.54527903 0.0011362655
0.044439245 0.015336637 -0.011781126 0.35758147 -0.65612715 -0.66455448 0.001211528
0.046817414 0.015876571 -0.010779611 0.41291735 -0.67955875 -0.60638207 0.0016605316
0.049286343 0.017021779 -0.010374583 0.4381341 -0.68274641 -0.58471859 0.0017311366
0.051485233 0.017690375 -0.0094231125 0.48566487 -0.66650039 -0.56560308 0.0014341979
0.050140221 0.018606622 -0.011455877 0.43076268 -0.61360347 -0.66176605 0.0010595445
0.052430909 0.019403625 -0.010469628 0.47398576 -0.62332237 -0.62193781 0.0016815516
0.054908656 0.02042662 -0.0095888227 0.52432758 -0.61936986 -0.58434719 0.0014462959
0.053446207 0.021399276 -0.011661326 0.47053209 -0.57325661 -0.67080283 0.0013681675
0.055478871 0.022337874 -0.010874469 0.50212806 -0.51913506 -0.69164032 0.0013900376
0.057794362 0.02316496 -0.0096260868 0.56423193 -0.57422251 -0.59322077 0.0013936065
0.0022646708 0.026936833 -0.011881502 0.0067871045 0.65509504 -0.75551599 0.0038967826
0.0040795524 0.026926421 -0.011965079 -0.011651139 0.68339759 -0.72995341 0.0024049059
0.0074650981 0.026964186 -0.011953632 -0.047925387 0.70171857 -0.71084052 0.0016899622
0.056602735 0.024607277 -0.0117202 0.50979745 -0.46833003 -0.72164637 0.0009291133
0.058751006 0.025525734 -0.010746309 0.53363061 -0.4653973 -0.70614713 0.0013914299
0.060633663 0.026235308 -0.0097116875 0.59034348 -0.48444 -0.64561009 0.0019408144
-0.01532033 0.029935077 -0.01195294 0.21892712 0.6506061 -0.72717446 0.0037722886
-0.013115193 0.029617637 -0.011698217 0.18598431 0.66896969 -0.71964544 0.0013617281
-0.010524174 0.029327516 -0.011356 0.16046686 0.68878132 -0.70698708 0.0015016203
-0.0075717163 0.029012492 -0.01101795 0.13475098 0.71703988 -0.68388295 0.001548694
-0.0044863019 0.028774403 -0.010749105 0.11723962 0.71793234 -0.68616909 0.0026248882
-0.001533765 0.028600063 -0.010549952 0.085410975 0.72173524 -0.68687934 0.0021340959
0.0014736583 0.028463509 -0.01047128 0.021219097 0.72397798 -0.6894967 0.0021741625
0.0042753164 0.028314825 -0.010575924 0.00036923451 0.71170539 -0.70247799 0.0022853841
0.0073447279 0.028312659 -0.01065163 -0.049557082 0.71497047 -0.69739622 0.0024100896
0.010521941 0.028709535 -0.010529124 -0.089324169 0.74553049 -0.66045862 0.0022823694
0.013415481 0.028897058 -0.010737591 -0.12888493 0.7478658 -0.65121841 0.0020543248
0.016362768 0.029192384 -0.011064558 -0.15897778 0.73931074 -0.65432847 0.0015248203
0.019183453 0.029498145 -0.011454061 -0.19064848 0.71040195 -0.67748231 0.0014552955
0.021234646 0.029783335 -0.011740077 -0.21293208 0.68275452 -0.69893217 0.0027227132
0.059510615 0.027887303 -0.011669596 0.54627699 -0.37428692 -0.74932683 0.0022633618
0.061525963 0.028600154 -0.01044503 0.58885688 -0.39406148 -0.70566499 0.0019477879
0.063394018 0.029434903 -0.0093058217 0.64680839 -0.42050606 -0.6362496 0.0020233861
-0.022144731 0.032677174 -0.011642912 0.2554439 0.68728119 -0.67999488 0.0015890248
-0.019357631 0.032243565 -0.011071639 0.24449737 0.70387405 -0.66692013 0.0010651185
-0.016404683 0.031845145 -0.010417781 0.23234977 0.75714725 -0.61052573 0.0012245021
-0.013734877 0.031372782 -0.010043909 0.20414986 0.76384234 -0.61226445 0.0021309273
-0.01052927 0.03073173 -0.0098866764 0.17492715 0.75032669 -0.63750327 0.0014420563
-0.0077051572 0.030388054 -0.0095674461 0.14136699 0.75777984 -0.63701272 0.0014452133
-0.0049034129 0.030165814 -0.0092536407 0.10641167 0.76703966 -0.63271374 0.0013734451
0.011489991 0.030052764 -0.0090259481 -0.093592919 0.79511493 -0.59919333 0.00091329351
0.013869936 0.030188074 -0.0093050376 -0.12802134 0.78059286 -0.61178857 0.0013561695
0.016594552 0.030479904 -0.009633746 -0.16873975 0.78048509 -0.60197169 0.0014939184
0.019617034 0.030853679 -0.010071297 -0.20584211 0.75754291 -0.6194818 0.0016215357
0.022685962 0.031297702 -0.010571172 -0.23020659 0.74388927 -0.62740237 0.0015381248
0.025643561 0.032026559 -0.010821531 -0.24205299 0.73355001 -0.63507068 0.0017434864
0.028416326 0.032433461 -0.011405826 -0.2452234 0.69537318 -0.67551583 0.00087660609
0.030644983 0.032783382 -0.011892984 -0.2524828 0.68180645 -0.68658018 0.0011504045
0.062052511 0.031274907 -0.011293799 0.55326915 -0.29857695 -0.77765357 0.0010611863
0.064076252 0.031695645 -0.0098728705 0.64237404 -0.3410157 -0.68634099 0.0017612284
-0.030240236 0.035862278 -0.011895034 0.30665648 0.64829475 -0.69690442 0.0036296472
-0.02810128 0.035391305 -0.011394285 0.29965889 0.66927916 -0.67990434 0.0013093922
-0.025236368 0.034973752 -0.010522434 0.30256182 0.73824042 -0.60287428 0.0011832798
-0.022575438 0.034220275 -0.010159889 0.28072265 0.75131303 -0.59726334 0.0019850116
-0.019691631 0.033628304 -0.0096206842 0.26593649 0.76248175 -0.5898301 0.0012128475
-0.017677005 0.033174254 -0.009264851 0.25094953 0.77046436 -0.58601117 0.0017334303
0.026072402 0.033306472 -0.0094566783 -0.24474406 0.7710827 -0.58781958 0.0010650288
0.028822416 0.033823483 -0.0099347951 -0.26106811 0.75872213 -0.59681171 0.0013320197
0.031251252 0.034160901 -0.01056776 -0.27132392 0.73275149 -0.62406611 0.0015432339
0.03421456 0.035043661 -0.010910606 -0.31202894 0.72092164 -0.61879712 0.0017827401
0.037111193 0.03563673 -0.011732341 -0.30532548 0.64339644 -0.70200956 0.0015603763
0.062685065 0.033882786 -0.011773773 0.55283314 -0.1861679 -0.81222963 0.001981159
0.064543255 0.034471381 -0.010503513 0.60887635 -0.22749051 -0.75994581 0.0014786235
0.06629248 0.035247259 -0.0092558367 0.69139642 -0.25662202 -0.67536372 0.002016329
-0.03634749 0.038822554 -0.01184925 0.31315902 0.65426987 -0.68837667 0.0012957039
-0.034278873 0.038306549 -0.011366579 0.31982878 0.66554195 -0.67436153 0.001006444
-0.031504616 0.037677687 -0.010631817 0.33148926 0.71345055 -0.61733556 0.0015685051
-0.028613167 0.036956269 -0.0099396249 0.33149803 0.73565924 -0.59068984 0.0015997943
-0.026304925 0.036310762 -0.0094398316 0.3218419 0.75521183 -0.57102793 0.001436029
0.034948673 0.036533721 -0.0095423339 -0.33290678 0.75456625 -0.56551111 0.0012214772
0.0375636 0.037121147 -0.010281708 -0.34256563 0.70999962 -0.61526364 0.002071216
0.040295739 0.037987418 -0.010927346 -0.36035907 0.68169701 -0.63673425 0.0020194305
0.042949006 0.038622107 -0.011662629 -0.32209486 0.63973296 -0.69785142 0.0018981798
0.064727329 0.037406992 -0.010989629 0.56950957 -0.09964563 -0.8159225 0.0022580309
0.066612326 0.037689619 -0.0095594227 0.65810406 -0.14138412 -0.73953342 0.0024032635
-0.042342972 0.041708693 -0.011824666 0.28168949 0.64261574 -0.71252799 0.0018865487
-0.040090431 0.041311864 -0.011152669 0.31328133 0.66943383 -0.67358238 0.001663082
-0.037511524 0.04057369 -0.010607993 0.33097598 0.70486188 -0.62739515 0.0014104019
-0.03461149 0.039829154 -0.0098921275 0.35188833 0.71978241 -0.59840441 0.0014054165
-0.032416977 0.039228749 -0.0092986068 0.35795897 0.73554695 -0.57518351 0.0014457479
0.04106655 0.039657168 -0.0095512513 -0.40349126 0.69907385 -0.5903309 0.0015326536
0.043726608 0.040251307 -0.010521116 -0.35864264 0.65260977 -0.66743982 0.0015739698
0.046184588 0.041055929 -0.011024017 -0.3241134 0.62460887 -0.71050286 0.0015392534
0.04879538 0.041600451 -0.011663141 -0.2565946 0.58699477 -0.76785177 0.0017686939
0.062871337 0.041805509 -0.011942919 0.36203575 0.1509829 -0.91985565 0.0084014237
0.064648859 0.040636722 -0.01117998 0.494389 0.03796063 -0.86841148 0.0045372578
0.066860266 0.040515389 -0.0096771121 0.63103563 -0.033390932 -0.77503496 0.0028563463
-0.061382331 0.044301379 -0.011578867 -0.19256166 0.28692317 -0.93840027 0.0015894945
-0.051275786 0.04491654 -0.011984914 0.12202159 0.5725776 -0.81071919 0.0033462031
-0.049012326 0.044592492 -0.011744553 0.22350819 0.60507947 -0.76414853 0.0020225693
-0.046271976 0.044189297 -0.011163748 0.28332824 0.63705367 -0.7168597 0.0014886562
-0.043501586 0.043557487 -0.010522895 0.31125736 0.66037202 -0.68339419 0.0013987444
-0.040701006 0.042826235 -0.0098733744 0.35870668 0.70857543 -0.6076597 0.0016080629
-0.038583316 0.042292077 -0.009295376 0.37014747 0.71315575 -0.59531474 0.0018844318
0.044730268 0.042002928 -0.009263996 -0.3670944 0.70029414 -0.61223346 0.0024822697
0.046961874 0.04281114 -0.0097355582 -0.37518319 0.67933947 -0.63066268 0.0015379981
0.04948248 0.043541979 -0.010280285 -0.32374111 0.63426739 -0.70206594 0.0013717655
0.052530676 0.043721355 -0.011300884 -0.23335245 0.55968142 -0.79517502 0.0012958193
0.055636704 0.044453971 -0.011578756 -0.10841368 0.47711867 -0.87212622 0.0019566931
0.058381449 0.04460619 -0.011793254 -0.0019386495 0.41334853 -0.9105708 0.0027966716
0.061879206 0.043962054 -0.011719529 0.19560507 0.28324252 -0.93888891 0.0066699805
0.064700022 0.043505751 -0.010839683 0.45844722 0.13275391 -0.87875056 0.0049291886
0.066876158 0.043444462 -0.0096094264 0.58761823 0.071113966 -0.80600721 0.0029860742
-0.064100266 0.047225133 -0.010168493 -0.18341953 0.336896 -0.92350328 0.0013064445
-0.061219696 0.04694565 -0.011094943 -0.083216898 0.43533924 -0.89641213 0.0021053217
-0.058375053 0.047000125 -0.011443641 0.051908582 0.5158481 -0.85510594 0.0020550555
-0.05534073 0.047001045 -0.011343434 0.11517526 0.54551393 -0.83015007 0.0021163952
-0.052293926 0.046668202 -0.011050194 0.18663314 0.58478785 -0.7894246 0.0015267116
-0.049502686 0.04651393 -0.010291098 0.28299418 0.65194762 -0.70347613 0.0019225084
-0.046698447 0.045771111 -0.0098243859 0.32884634 0.69351262 -0.64101499 0.0016488648
-0.044640172 0.045267276 -0.0093190223 0.34072527 0.69351721 -0.63477576 0.001832383
0.050722364 0.045238972 -0.0092519764 -0.35592666 0.66490048 -0.65667611 0.00344426
0.052813798 0.04569532 -0.0098218415 -0.27910778 0.61533791 -0.73719615 0.0017730785
0.055669703 0.046375412 -0.010280391 -0.21278943 0.56102258 -0.79998392 0.0030215196
0.058729816 0.046410136 -0.010852221 -0.034642782 0.46064585 -0.88690776 0.0025566262
0.061560798 0.046318974 -0.010893679 0.16681387 0.34939811 -0.92200541 0.0044569778
0.064754866 0.046491079 -0.010121962 0.37270674 0.2451781 -0.8949734 0.0051413318
0.066589311 0.046317615 -0.009349593 0.53360683 0.1650705 -0.829467 0.0034568293
-0.063777573 0.049875479 -0.0094196014 -0.05053594 0.4931232 -0.8684904 0.002253439
-0.06102756 0.050169077 -0.0096108504 0.064546674 0.58993751 -0.80486494 0.0028491421
-0.058298204 0.049649075 -0.0099084536 0.088966817 0.60342181 -0.79244369 0.0034897407
-0.055506099 0.049225803 -0.0098016094 0.17034218 0.63852972 -0.75050873 0.0038489806
-0.052616149 0.048637129 -0.0095002735 0.25194043 0.66887021 -0.69938439 0.0021009198
-0.050591443 0.048182234 -0.009175064 0.30574089 0.68856245 -0.65757453 0.0021538241
0.056794465 0.048134357 -0.0093348483 -0.25160334 0.60955089 -0.75176024 0.0026513443
0.058696747 0.048546851 -0.0094900224 -0.16114436 0.55773723 -0.8142246 0.003454613
0.061658472 0.048951894 -0.0096019059 0.017525174 0.45671853 -0.88943863 0.0040844153
0.06442719 0.048884135 -0.0094124926 0.2596038 0.32156414 -0.91060549 0.0065011494
0.066233173 0.04825367 -0.0091163935 0.39931965 0.26696625 -0.87708199 0.0057648318
-0.061238255 0.051133443 -0.0090366174 0.067956321 0.61916369 -0.78231597 0.0024564557
-0.007397003 0.0027205087 -0.0062795375 -0.1325216 -0.87725627 -0.46136701 0.002507376
-0.0043548075 0.0025993627 -0.0069152522 -0.096331611 -0.86732095 -0.48833865 0.0014333441
-0.0015958332 0.002392936 -0.0068622762 -0.047968466 -0.86466467 -0.500054 0.0019521532
0.0015999101 0.0023983365 -0.0071634669 -0.025861798 -0.86592406 -0.49950653 0.0018649682
0.0045153191 0.0023624103 -0.0072208834 -0.00053028669 -0.87243032 -0.48873827 0.0017084185
0.0075073005 0.0024358039 -0.007188628 0.031813171 -0.87395954 -0.48495638 0.0020361554
0.010754985 0.0024847118 -0.0070478492 0.061927482 -0.87985408 -0.47119185 0.0016697817
0.013183502 0.0026172791 -0.006820763 0.097160347 -0.89020157 -0.44508541 0.0014610589
0.016300634 0.0028521291 -0.0065287794 0.12989178 -0.90026784 -0.41550681 0.0019392965
0.01896441 0.0029704361 -0.0060643731 0.15594673 -0.87801731 -0.45251095 0.0011618997
-0.016342282 0.0056615444 -0.0080755195 -0.18429066 -0.74656254 -0.63928187 0.00063218514
-0.013548231 0.0043692486 -0.0073181805 -0.1712092 -0.84525841 -0.50618744 0.0036225896
-0.010643581 0.003929574 -0.0075337244 -0.14165615 -0.83241999 -0.5357337 0.0018847244
-0.0074321916 0.0035547477 -0.0077449367 -0.1293477 -0.82045352 -0.55688888 0.0023458197
-0.0042982991 0.0035932392 -0.008449086 -0.094034396 -0.7964226 -0.59738481 0.001128633
-0.0018310556 0.0033128925 -0.0083257938 -0.046396717 -0.81874073 -0.57228577 0.0027486817
0.0013615265 0.0033362529 -0.0085916147 -0.033086233 -0.83756608 -0.54533327 0.001910808
0.0049294126 0.0032777907 -0.0086471271 -0.0042130626 -0.79670578 -0.60435277 0.00056331832
0.0077371197 0.0032755912 -0.0085330512 0.030492136 -0.80284745 -0.59540421 0.0018313151
0.010846119 0.0033993046 -0.0085593779 0.055317637 -0.80016881 -0.59721839 0.00069354457
0.013309114 0.0036456387 -0.0085729966 0.09207239 -0.81723237 -0.56890589 0.0023909786
0.016315985 0.003606318 -0.0079661421 0.12018064 -0.85557562 -0.5035345 0.0015183237
0.019754894 0.0038784193 -0.0075069452 0.15815872 -0.85971642 -0.48566809 0.0013331183
0.022661937 0.0044235517 -0.0074390336 0.17726047 -0.8648271 -0.46973696 0.001171789
0.025620412 0.0051192064 -0.0075382409 0.20279515 -0.85977656 -0.46867728 0.0011711892
0.028238337 0.0055775968 -0.0070241801 0.24488147 -0.85603702 -0.45522931 0.0014568885
0.030330179 0.0057385927 -0.0061602304 0.28478464 -0.86678696 -0.409363 0.0016634305
-0.018609727 0.0068965764 -0.0089971246 -0.18076821 -0.70946634 -0.68116111 0.0018082645
0.026648814 0.0060810237 -0.0088046342 0.21382958 -0.83020681 -0.51481414 0.0016349911
0.028890042 0.0063594724 -0.0081778616 0.24216071 -0.84132946 -0.48324218 0.0015946506
0.031664111 0.0068326434 -0.0075132996 0.28809991 -0.84994113 -0.44113326 0.0011221021
0.034511711 0.0078936927 -0.0075994795 0.3081153 -0.83515203 -0.45561609 0.0014963888
0.037061069 0.0084795216 -0.0069050048 0.33779901 -0.83868229 -0.42720455 0.0013233467
0.037915509 0.0094191087 -0.0080571268 0.33724639 -0.81644225 -0.46870771 0.0016487935
0.040508717 0.010282641 -0.0075025484 0.37445962 -0.81702191 -0.43846911 0.001481364
0.043000855 0.011176711 -0.0069608195 0.40827173 -0.81990051 -0.40134427 0.0016941788
0.045212638 0.011854977 -0.006210533 0.43568692 -0.80786765 -0.39689642 0.0018073879
0.044426888 0.012465398 -0.0080580367 0.41171253 -0.79007781 -0.45416924 0.0018480418
0.046649359 0.013379785 -0.0074496279 0.44523492 -0.78205013 -0.43607745 0.0015484279
0.049090005 0.014529817 -0.0069894395 0.46920455 -0.7698012 -0.43272778 0.0013097157
0.050102346 0.015704574 -0.0079448018 0.47381806 -0.75359428 -0.45562276 0.0015133057
0.052283935 0.016854515 -0.0073774708 0.50888711 -0.73447716 -0.44897357 0.0017480126
0.054308631 0.017604057 -0.0062777167 0.53561306 -0.73516893 -0.41550615 0.00086274761
0.053530864 0.018366531 -0.0083201081 0.51436681 -0.68834132 -0.51148129 0.0011656863
0.055599041 0.019376261 -0.0075310445 0.55440164 -0.70084536 -0.44883692 0.0014942763
0.057545759 0.020460064 -0.0067350031 0.58449703 -0.66520751 -0.46460965 0.0011025198
0.056722306 0.021195387 -0.0087323692 0.55761945 -0.62957478 -0.54101402 0.0012229207
0.058705695 0.02221798 -0.0076411269 0.59521598 -0.64185381 -0.48346835 0.0017633147
0.060646873 0.02343406 -0.0068560787 0.61693877 -0.61692399 -0.48866278 0.0012432763
0.059673429 0.024110099 -0.008816774 0.5850606 -0.57711667 -0.56977236 0.0017938884
0.061901253 0.025584826 -0.0077666724 0.6536088 -0.51915509 -0.55070281 0.0025333699
0.063417137 0.02629601 -0.0065782666 0.68311906 -0.53136021 -0.50100368 0.0021048884
-0.00064071675 0.029958379 -0.0088383164 0.073994078 0.79709798 -0.59929937 0.0012133615
0.0016181874 0.029876063 -0.0087354043 0.037872821 0.78360075 -0.62010932 0.0020617631
0.0045338268 0.029807979 -0.0087417457 -0.0013144101 0.81998235 -0.57238722 0.0018510775
0.0074686036 0.029870357 -0.0087321457 -0.045157246 0.82231623 -0.56723607 0.0019630757
0.0098990239 0.029918421 -0.0089222472 -0.083973475 0.78349644 -0.61569613 0.00095741742
0.062697522 0.027580284 -0.0087275086 0.6421057 -0.45581529 -0.61638677 0.0016295011
0.064325877 0.028498098 -0.0074963304 0.71975297 -0.4701952 -0.51075637 0.001936226
0.066097252 0.02968747 -0.0062649483 0.73068541 -0.44415519 -0.5184834 0.0014889515
-0.015539389 0.032881908 -0.0087349517 0.23791942 0.78911686 -0.56629407 0.00090356299
-0.013208148 0.032481693 -0.0083656469 0.21154438 0.8276189 -0.5198999 0.001283681
-0.010312954 0.032263231 -0.0076371878 0.19428438 0.85061413 -0.48857877 0.0011402832
-0.0076704179 0.031807587 -0.0074546505 0.14916298 0.85758007 -0.49224675 0.0013964659
-0.0045588864 0.031283606 -0.0075166463 0.11302713 0.84009701 -0.5305298 0.0015778311
-0.0016522533 0.030776223 -0.0077460655 0.080577441 0.82069969 -0.56564945 0.0014753318
0.0010574699 0.030756421 -0.0074741864 0.048053328 0.85521036 -0.51604849 0.001660184
0.0044936999 0.030786341 -0.0072352206 0.0035630481 0.86695802 -0.49836853 0.0022816644
0.0075206533 0.030806666 -0.0072835363 -0.041842133 0.86863041 -0.49369061 0.0023044362
0.010577581 0.030954096 -0.0074265278 -0.086727701 0.86831522 -0.48837173 0.0019486587
0.013485396 0.031221982 -0.0075689815 -0.13849387 0.8588475 -0.4931536 0.0023559076
0.016407741 0.031749625 -0.0075841509 -0.19126041 0.86064702 -0.47191757 0.0018464423
0.01932482 0.0322823 -0.0078935456 -0.22302142 0.83651543 -0.50050318 0.0018263003
0.02200263 0.032591701 -0.0086421324 -0.24553329 0.8094008 -0.53346407 0.001825034
0.06546177 0.031196589 -0.008156267 0.70937926 -0.3736017 -0.59766454 0.0019175186
0.066725746 0.031774841 -0.0069304714 0.74375081 -0.39553112 -0.53887832 0.001808543
-0.024436265 0.035835441 -0.0088988915 0.32669047 0.74673486 -0.57936198 0.0015381249
-0.022186274 0.035529494 -0.0081443349 0.30991852 0.81288391 -0.49312294 0.001546239
-0.019463537 0.034963135 -0.007459539 0.29276958 0.83387017 -0.4679172 0.0013463735
-0.016585277 0.034069028 -0.007379374 0.24869691 0.83002925 -0.49920061 0.0014323693
-0.013704503 0.033522576 -0.0069526928 0.22218052 0.84467852 -0.48698455 0.0015029819
-0.011201616 0.033123575 -0.006474182 0.19515567 0.86072475 -0.47017774 0.0010218954
0.020034129 0.033262853 -0.006577041 -0.23639765 0.85957563 -0.45304069 0.0017132685
0.02250354 0.033657674 -0.0071751894 -0.24825494 0.84123492 -0.48030537 0.0017745591
0.02553286 0.034261197 -0.0076367506 -0.25907066 0.82634699 -0.50003296 0.0016152322
0.028416805 0.035142064 -0.0076755793 -0.28808475 0.83929497 -0.46107611 0.0013487095
0.031075453 0.035659924 -0.0084068198 -0.30663329 0.80826205 -0.50268137 0.0016475429
0.065888986 0.033168491 -0.0088974228 0.68375582 -0.31404349 -0.65867645 0.0028803777
0.067516074 0.034554496 -0.007525587 0.76654625 -0.28597638 -0.57499945 0.0019971288
0.06913963 0.035867058 -0.0060921488 0.7891888 -0.29754716 -0.53725868 0.0031554694
-0.030530773 0.0387724 -0.0086313877 0.36453676 0.75639313 -0.54312289 0.0011244979
-0.028214192 0.038285606 -0.0077598584 0.366373 0.79950035 -0.47599378 0.0012771786
-0.025542961 0.037319802 -0.007413046 0.33954269 0.80615133 -0.48459333 0.0014162955
-0.022813231 0.036554404 -0.0068601011 0.31987011 0.82325339 -0.4689745 0.0012603032
-0.020901293 0.036085233 -0.0062697516 0.31539264 0.83627242 -0.44852635 0.0012726276
0.02946165 0.03617866 -0.0065082097 -0.29975027 0.84648108 -0.44002226 0.0011772488
0.031683531 0.036617905 -0.0071376995 -0.32402793 0.82758129 -0.45838314 0.0016110903
0.03441935 0.037596621 -0.007482795 -0.36363754 0.81099552 -0.45831639 0.0018888639
0.036923707 0.038431574 -0.0080636321 -0.40728474 0.77113217 -0.48936111 0.0025094582
0.068225831 0.037438028 -0.0078087002 0.78844172 -0.1789193 -0.58851308 0.0026895897
0.069349885 0.037776232 -0.0065093278 0.80752009 -0.21330033 -0.54992199 0.0021077238
-0.036505967 0.041710507 -0.0086008497 0.38664392 0.7460745 -0.54210633 0.0017519036
-0.034302633 0.041162498 -0.007759193 0.38621801 0.79144049 -0.47376955 0.0014038519
-0.031625103 0.040083911 -0.0073987395 0.37193993 0.79055309 -0.48650441 0.0012688368
-0.029229051 0.039352193 -0.0067114015 0.37338257 0.80680472 -0.45787728 0.0010430141
0.037952658 0.039653882 -0.0069811698 -0.42887604 0.77612782 -0.46226713 0.0016539893
0.040614609 0.040841106 -0.0075420882 -0.44446376 0.7531544 -0.48498499 0.0019490458
0.042778388 0.041462425 -0.008535875 -0.43225208 0.71628428 -0.54780936 0.0018641821
0.06833075 0.040474545 -0.0083222529 0.72620374 -0.071408913 -0.68376088 0.0028586823
0.069657579 0.04068689 -0.0068199756 0.80490053 -0.11058269 -0.58301514 0.002454492
-0.042418115 0.044722982 -0.0086245313 0.38139868 0.73636526 -0.55883926 0.0016787446
-0.040208358 0.04418141 -0.0077270009 0.40425718 0.78162217 -0.47501895 0.0020840804
-0.037628882 0.043092392 -0.0073552742 0.39618301 0.78464127 -0.47684073 0.0016141522
-0.035268899 0.042365205 -0.0065682856 0.40944567 0.79696894 -0.44406608 0.0010482977
0.041589703 0.042263865 -0.0061918707 -0.45891181 0.76575512 -0.45057634 0.0014062679
0.043780126 0.042891748 -0.0072976667 -0.44587117 0.7452817 -0.49573591 0.0017677547
0.046334606 0.044042364 -0.0078519639 -0.43569425 0.7255742 -0.53264683 0.0018716503
0.048753586 0.044731006 -0.0087049957 -0.39214429 0.69943124 -0.59751052 0.0018464938
0.068359122 0.043536168 -0.0084105805 0.64066809 0.033522356 -0.76708579 0.0031566804
0.069855355 0.043504599 -0.0068220128 0.78030467 -0.014859303 -0.62522304 0.0029598637
-0.048608471 0.047716036 -0.008683593 0.33308175 0.69649178 -0.63557518 0.0013218212
-0.046227261 0.047176052 -0.0078949006 0.38222826 0.76197773 -0.52277285 0.0021383234
-0.043612886 0.046193238 -0.0073750434 0.38800827 0.77270013 -0.50237846 0.0016630349
-0.041208807 0.045415681 -0.0066466071 0.42272526 0.78594178 -0.45121935 0.0015271995
0.047299046 0.045485973 -0.0065940111 -0.44976926 0.74200648 -0.49712563 0.0017416377
0.049712248 0.046350531 -0.0073837652 -0.41258225 0.71984917 -0.55820531 0.0011835585
0.052455056 0.047283825 -0.0080894828 -0.36555421 0.6951769 -0.61895019 0.0023894783
0.054901823 0.047798663 -0.0088687176 -0.28972939 0.63086927 -0.71976447 0.002961525
0.068074971 0.046681929 -0.0082942629 0.58349276 0.12306902 -0.8027392 0.0038938497
0.069779865 0.04638911 -0.0067927614 0.73248553 0.068496376 -0.67732799 0.0035895994
-0.066282198 0.050626673 -0.0085271792 -0.099986166 0.42869267 -0.89790052 0.0024575088
-0.065300032 0.050349783 -0.0088839214 -0.058372356 0.4789651 -0.87589103 0.0038316774
-0.057443611 0.050887894 -0.0087989541 0.12004921 0.66429353 -0.73776841 0.0039512133
-0.054890282 0.050559681 -0.0084673464 0.22117059 0.68750024 -0.69168419 0.002653274
-0.052267138 0.050167073 -0.0077020526 0.31931308 0.75153375 -0.5772661 0.0027097838
-0.049557909 0.049252104 -0.007291473 0.34590611 0.76190245 -0.54758894 0.0017525225
-0.047100615 0.048407357 -0.0067584254 0.40556109 0.77091634 -0.49112937 0.0016964162
0.052660149 0.048678864 -0.0066516078 -0.45222366 0.72626221 -0.51772285 0.0013807642
0.055723354 0.049264193 -0.0078246649 -0.29879001 0.649306 -0.69937563 0.0010944095
0.058512986 0.050024346 -0.0082856677 -0.2105006 0.59345049 -0.77685654 0.0023160549
0.061634921 0.050432034 -0.0087224562 -0.042305674 0.49994892 -0.86502105 0.0039139446
0.064968616 0.050398976 -0.0086951582 0.20557883 0.35984895 -0.91008025 0.0060326424
0.067768574 0.049567975 -0.0078678345 0.51491219 0.19043073 -0.83582389 0.0051584211
0.069612585 0.049184855 -0.0065866578 0.71692276 0.10170177 -0.68969458 0.0048590698
-0.069278449 0.053455837 -0.0067005716 -0.099565186 0.39881253 -0.91161144 0.0012421269
-0.066904679 0.052801292 -0.0075987177 0.026307683 0.52736199 -0.84923327 0.0020117867
-0.06411612 0.052849445 -0.0078425817 0.11123951 0.61691612 -0.77912796 0.0036750436
-0.061400149 0.05283292 -0.0076351753 0.15552324 0.67286098 -0.72323614 0.0041190642
-0.058362495 0.052575186 -0.0072570206 0.20065613 0.74514055 -0.63600534 0.0028564425
-0.055380452 0.051920138 -0.0070895138 0.27050665 0.7597869 -0.59122747 0.002701038
-0.053114045 0.051458951 -0.0065725688 0.34693718 0.7736755 -0.53015167 0.0016971927
0.05650758 0.051034942 -0.00631784 -0.38548937 0.71174884 -0.58720654 0.0038268147
0.058997408 0.05159764 -0.0070582479 -0.27348804 0.62895679 -0.72774827 0.0029444117
0.061710164 0.052360825 -0.0074144443 -0.21033147 0.56892562 -0.79503727 0.0039616213
0.064702123 0.052380662 -0.0078046122 0.092173308 0.410427 -0.90722311 0.0077990829
0.067744121 0.052412011 -0.0071025835 0.48096114 0.22087584 -0.84846348 0.0089458162
0.069359966 0.05243025 -0.0062389346 0.64353383 0.1397495 -0.75255185 0.0056168474
-0.069544427 0.054968253 -0.0062214117 -0.027883265 0.46902868 -0.8827427 0.0031910434
-0.06689921 0.055231657 -0.0064736558 0.11212257 0.58745241 -0.80145383 0.0034700686
-0.064397037 0.054690339 -0.0065828362 0.18397245 0.65879774 -0.72947907 0.0051379236
-0.061880749 0.054316141 -0.0063879658 0.2046251 0.70270193 -0.68142396 0.003541742
0.062710159 0.054379303 -0.0062453994 -0.23669903 0.56932819 -0.78729856 0.0063143149
0.064831018 0.054806769 -0.0065159714 -0.0097576734 0.40835124 -0.91277283 0.0080406722
0.067671217 0.054868963 -0.0063857636 0.33392689 0.26091897 -0.90576708 0.012479878
0.069193937 0.054202601 -0.0060779555 0.51443005 0.23673429 -0.82420784 0.013653145
-0.010929875 0.002439525 -0.0044760318 -0.15576181 -0.88913858 -0.43031484 0.0017106863
-0.0078072674 0.0020092239 -0.0045449925 -0.1364612 -0.90223771 -0.40907884 0.0011311977
-0.0042773457 0.0015736736 -0.0046611684 -0.087939382 -0.93416077 -0.34584725 0.0030333495
-0.0015668506 0.001392522 -0.0047130664 -0.057707664 -0.93937647 -0.33799651 0.0032595277
0.0013352663 0.0012469742 -0.0045811799 -0.015948975 -0.93116927 -0.3642382 0.0020998977
0.0046797446 0.0010830328 -0.0043572346 0.021162238 -0.97394633 -0.22578888 0.0021002009
0.0077425535 0.0012273444 -0.0044207685 0.060177859 -0.9631654 -0.26208961 0.0022443631
0.010730579 0.0013303324 -0.0043100291 0.076890923 -0.96129352 -0.26457992 0.0022612519
0.013508724 0.0016324443 -0.0043575652 0.12082232 -0.95314217 -0.27734825 0.0029006528
0.016479118 0.0021713069 -0.0048411069 0.12603982 -0.91906989 -0.37339577 0.0012141463
0.019867057 0.0025857971 -0.0044925925 0.16951446 -0.92633498 -0.33640513 0.0014995456
0.021873042 0.0027678502 -0.0037200642 0.19748186 -0.93928879 -0.28060204 0.0019293018
0.020636763 0.0032162443 -0.0058777495 0.15253665 -0.85487926 -0.49589732 0.00062629936
0.022798007 0.0033020682 -0.0048292852 0.20853592 -0.91738522 -0.3389945 0.0014404726
0.025845489 0.0040231035 -0.0049793781 0.23428844 -0.90828687 -0.346589 0.0013154603
0.028575473 0.0047592102 -0.0048312638 0.2540884 -0.89912438 -0.35639086 0.0014814881
0.031368628 0.0055826507 -0.0048296489 0.288232 -0.89847273 -0.33116317 0.0016411524
0.033289 0.0057388786 -0.0033232074 0.31979319 -0.91642237 -0.24062915 0.002541611
0.032713272 0.0062754359 -0.0057031265 0.31778353 -0.8779304 -0.35812259 0.0025497486
0.034574714 0.006619147 -0.004571713 0.33817071 -0.88825262 -0.31088245 0.0014271392
0.037995916 0.0079290224 -0.0045772991 0.37172711 -0.88716257 -0.27342567 0.0020026874
0.039839931 0.0085783908 -0.0041746949 0.39010516 -0.88624305 -0.24978225 0.001929715
0.041292273 0.0095415274 -0.0050129564 0.41202581 -0.86918873 -0.27339658 0.001333897
0.043560617 0.010455247 -0.0045465929 0.42380095 -0.86009514 -0.28395274 0.0012767727
0.045788135 0.011356353 -0.0039324416 0.45444664 -0.8499409 -0.26660588 0.0020032548
0.047056817 0.012397017 -0.0048230281 0.47402853 -0.83098924 -0.29112512 0.0016423824
0.049480982 0.013681745 -0.0044989707 0.49216682 -0.82086051 -0.28975827 0.0016765259
0.051578797 0.014713971 -0.0038916473 0.51464856 -0.80947733 -0.28263643 0.0019724302
0.050898928 0.015022898 -0.0059483279 0.49165577 -0.77561754 -0.39584345 0.0010841173
0.052745599 0.015846407 -0.0047255242 0.53290695 -0.79326534 -0.29451701 0.0017185971
0.05502354 0.017243434 -0.0042024869 0.55647147 -0.77397823 -0.30215415 0.0020297905
0.056348026 0.018501457 -0.0050044842 0.58377916 -0.75183225 -0.30651271 0.0020901538
0.05834214 0.019867104 -0.0043666083 0.62043959 -0.71698534 -0.3177841 0.0022032149
0.06010446 0.02082672 -0.0032072058 0.64913571 -0.72111189 -0.24211679 0.0034331027
0.059530962 0.0213998 -0.0052898629 0.62970132 -0.69013768 -0.35663176 0.0016214192
0.061389983 0.022672333 -0.0043886756 0.67206228 -0.67841172 -0.29679951 0.0014212225
0.063085571 0.02370907 -0.0032402212 0.70031041 -0.64442986 -0.30704328 0.0020336127
0.062645659 0.024344131 -0.0052227993 0.68762463 -0.64273971 -0.33772478 0.0020865791
0.064211719 0.025739191 -0.004322974 0.72942907 -0.59894425 -0.33045271 0.0029678249
0.065506034 0.02778876 -0.0048826966 0.75887793 -0.5333699 -0.3736586 0.0023509841
0.066672459 0.029072583 -0.0042851949 0.7886098 -0.49807665 -0.3605749 0.0023956452
-0.0093180416 0.032940574 -0.0059155142 0.19763078 0.87365305 -0.44460356 0.0015701373
-0.0074161165 0.032713026 -0.0055981302 0.15901034 0.89992017 -0.40602872 0.0016740689
-0.0044086026 0.03255561 -0.0048807352 0.13080241 0.93232298 -0.33714178 0.0018841348
-0.0015484026 0.032421958 -0.0043453821 0.096044131 0.9495725 -0.29847547 0.0023299349
0.0014712448 0.032149404 -0.0044654389 0.04853642 0.95129943 -0.30442327 0.0027925037
0.004559821 0.032064311 -0.0044680336 0.0022638175 0.94404876 -0.32979801 0.0027346006
0.0073763914 0.0321352 -0.0043404424 -0.038028412 0.95284194 -0.30107477 0.0023796263
0.010479935 0.032365795 -0.0043150084 -0.10984616 0.95452797 -0.27714655 0.0023340362
0.013348328 0.03251813 -0.0047585648 -0.15418196 0.92507714 -0.34707379 0.0021075911
0.01616271 0.032763034 -0.005428914 -0.20247614 0.90939742 -0.36331764 0.002279649
0.067988977 0.031519663 -0.0045194379 0.82168734 -0.43331134 -0.37023121 0.0026780353
0.069100961 0.032639474 -0.0034119128 0.84410882 -0.41743067 -0.33649966 0.0028383464
-0.018858895 0.035714768 -0.0054551009 0.29922566 0.8714577 -0.38862005 0.0020099641
-0.016341399 0.035234965 -0.0048695561 0.27095586 0.88737905 -0.37301648 0.0017688139
-0.01346488 0.034385934 -0.0048726178 0.24228477 0.89199221 -0.38163856 0.0019298423
-0.010688933 0.033680949 -0.0048413915 0.20327437 0.90009004 -0.38537967 0.0019393899
-0.0076880418 0.03339101 -0.0040356587 0.15481462 0.93867671 -0.30808821 0.002435355
-0.0047552274 0.033155866 -0.0034556892 0.13013917 0.9450286 -0.29997453 0.0023514959
0.014134835 0.033132311 -0.0034760735 -0.14868312 0.95035851 -0.27333486 0.0014268892
0.0163929 0.033377212 -0.0039410158 -0.186032 0.94323236 -0.2751452 0.0019541313
0.019431394 0.033862337 -0.0046247835 -0.23828897 0.9086054 -0.34300816 0.0020009554
0.022517525 0.034746125 -0.0045840456 -0.27433962 0.90698534 -0.31955495 0.0016758356
0.025308298 0.035410956 -0.0049571143 -0.27711606 0.89763761 -0.34271476 0.0018120923
0.027352232 0.035784192 -0.0055984776 -0.29212993 0.88238204 -0.36886591 0.0016572824
0.068649463 0.033899926 -0.0054883924 0.83444059 -0.33649266 -0.43644196 0.0026174998
0.069677323 0.034832861 -0.0041269488 0.86859876 -0.32921079 -0.37034628 0.0038613363
-0.0274013 0.038907677 -0.0056466656 0.37451205 0.84900248 -0.3727406 0.0027890478
-0.025163729 0.038359191 -0.0049678255 0.36644381 0.85891336 -0.35775244 0.0015906629
-0.022481365 0.037313506 -0.0048143268 0.33946198 0.86686665 -0.36511341 0.001933458
-0.019934205 0.036436014 -0.0045697857 0.29481512 0.88655198 -0.3565242 0.0019801306
-0.017603761 0.036144052 -0.0034904995 0.26892263 0.91651177 -0.29611963 0.0024680637
0.026205525 0.036157385 -0.0035821206 -0.28838786 0.92683202 -0.24044704 0.0020959068
0.02867822 0.03653767 -0.0048119631 -0.30262351 0.89095223 -0.33856052 0.0018861787
0.031522416 0.037548125 -0.0048411633 -0.35470143 0.86755902 -0.34860903 0.0022247038
0.033983711 0.038547233 -0.0050571077 -0.40354431 0.85169518 -0.33431616 0.0019652003
0.070408277 0.037550393 -0.0044744052 0.87845933 -0.24284843 -0.41150206 0.0029848185
-0.033233114 0.041741151 -0.0056545292 0.40782061 0.83596832 -0.36720476 0.0024783926
-0.031249709 0.041253623 -0.0044894814 0.43292728 0.86148787 -0.26535404 0.0017697965
-0.028591271 0.039999574 -0.0044475407 0.38081935 0.87413359 -0.30144164 0.0023856927
-0.026328858 0.039324351 -0.003756565 0.37107745 0.88264638 -0.28850806 0.0022107121
0.035329081 0.039336301 -0.0046181032 -0.40423051 0.84590191 -0.34791893 0.0023410139
0.037316713 0.040328227 -0.0047430131 -0.45053494 0.81574225 -0.36274356 0.0015408399
0.039517496 0.041508682 -0.00506564 -0.47788772 0.79045451 -0.38315123 0.0015620032
0.071046494 0.040535696 -0.0045269448 0.89535785 -0.15503059 -0.41749248 0.0031974639
-0.039328724 0.044862099 -0.0056689209 0.42734525 0.80987638 -0.40184119 0.0020090782
-0.037277997 0.044220608 -0.004669162 0.4476389 0.8437416 -0.29617485 0.0019436431
-0.034752183 0.04302283 -0.0044498448 0.43324348 0.84899163 -0.30251163 0.002084346
-0.032518495 0.042256534 -0.003570579 0.42910656 0.86154377 -0.27131125 0.002341046
0.040991317 0.042617436 -0.0045152367 -0.47872448 0.79054332 -0.38192159 0.0015292763
0.043351296 0.044001367 -0.0048026373 -0.4907476 0.78278559 -0.38264024 0.0010666149
0.045271359 0.044841655 -0.0056249821 -0.47192281 0.75873518 -0.44900978 0.0024720682
0.07135766 0.043511488 -0.0045887404 0.88306665 -0.05742877 -0.46572009 0.0029962736
0.072096996 0.043881413 -0.0032573158 0.90596122 -0.070709608 -0.41741398 0.0032007808
-0.045059267 0.047973819 -0.0058273347 0.42466974 0.79566556 -0.43193981 0.0038642737
-0.043123003 0.047370613 -0.004708766 0.45453867 0.82663447 -0.33176795 0.0022268335
-0.040582273 0.046102967 -0.0044151363 0.45246762 0.83249855 -0.3197175 0.0023977335
-0.03855266 0.045279443 -0.0036999651 0.44721842 0.84308183 -0.29867834 0.0017711842
0.044718999 0.045387432 -0.0035853041 -0.50948167 0.79876798 -0.3199971 0.0020213425
0.04653015 0.046098441 -0.0046464745 -0.48049873 0.77266687 -0.41485769 0.0016875346
0.048894346 0.047343984 -0.0052014627 -0.47824976 0.76640314 -0.42883962 0.0015007607
0.071276635 0.046502095 -0.0047643683 0.86136985 0.013921665 -0.50778753 0.0034369263
0.072109066 0.046583556 -0.0032691297 0.90124375 -0.010132442 -0.43319398 0.004832129
-0.051183507 0.050938904 -0.0059601068 0.36913386 0.78079915 -0.50407618 0.0016322667
-0.049008641 0.050486058 -0.0048145582 0.42565578 0.82415676 -0.37360799 0.0027128865
-0.046503898 0.049309913 -0.0044780909 0.44782111 0.82143819 -0.35312268 0.0021592418
