# .PCD v0.7 - Point Cloud Data file format
VERSION 0.7
FIELDS x y z normal_x normal_y normal_z curvature
SIZE 4 4 4 4 4 4 4
TYPE F F F F F F F
COUNT 1 1 1 1 1 1 1
WIDTH 547
HEIGHT 1
VIEWPOINT 0 0 0 1 0 0 0
POINTS 547
DATA ascii
0.076552168 -0.0074365716 -0.040466141 0.93878227 0.34405443 0.017732481 0.00029829811
-0.015978541 -0.0044240179 -0.040539071 -0.92948574 0.36867881 0.011503438 0.00020220547
0.074807279 -0.0033220754 -0.040634304 0.91155958 0.41063276 0.020968592 0.00052309729
0.075495712 -0.0047082864 -0.040496383 0.92390722 0.3820776 0.020301575 0.00034230764
-0.015211859 -0.0024701629 -0.040546652 -0.90366852 0.42815173 0.0083263172 0.00058909279
-0.014461068 -0.00099291897 -0.040641647 -0.88677359 0.46213192 0.0081652896 0.00053110148
0.073993362 -0.0014691076 -0.040477324 0.88739812 0.46057132 0.019966405 0.00037610799
-0.013078006 0.0014179398 -0.040541489 -0.85389864 0.52029425 0.012292597 0.0004212005
-0.011906138 0.002759818 -0.04051435 -0.82375443 0.56665975 0.018035086 0.00022988557
0.071651891 0.0025865892 -0.040173285 0.84348524 0.5366804 0.022510879 0.00037031292
0.072559126 0.0011000249 -0.04049411 0.86300993 0.50499201 0.014035898 0.00040857945
-0.012100115 0.0031832168 -0.040403411 -0.8234871 0.56700909 0.019224213 0.00029983209
-0.010945427 0.0045454833 -0.040306445 -0.81177956 0.58338064 0.026095683 0.00022972876
0.070353739 0.0045496714 -0.040464912 0.82318354 0.5674628 0.018836159 0.0004320986
-0.0094290068 0.0065465057 -0.040708262 -0.79080588 0.6115045 0.026234813 0.00019749551
-0.0082772123 0.0080462517 -0.04044259 -0.77039933 0.63696718 0.027525268 0.00030722204
0.067968123 0.007774015 -0.040494502 0.76877844 0.63913268 0.022118999 0.00064425118
0.069146842 0.0063308473 -0.040576231 0.79269385 0.60906875 0.025918115 0.00070029841
-0.0068147657 0.0097797271 -0.040356569 -0.75049293 0.66040421 0.025032498 0.00039159678
-0.0052058077 0.01136327 -0.040461466 -0.70293313 0.71090138 0.022455746 0.00026119861
0.064847089 0.011029735 -0.040429715 0.69031405 0.72327816 0.018307934 0.00018123083
0.066456616 0.0094693908 -0.040397733 0.73061955 0.68250966 0.019381618 0.00055931328
-0.0037234426 0.012782887 -0.040508073 -0.66751283 0.74429035 0.021412997 0.00021049316
-0.0019799834 0.01426489 -0.040435627 -0.64014858 0.76785988 0.024514515 0.00021514221
0.061682161 0.0139024 -0.040411551 0.65486103 0.75532931 0.025193902 0.00025221458
0.063309081 0.012414373 -0.040616333 0.67005593 0.74201542 0.020933118 0.00011625758
-0.00054534536 0.015410431 -0.040530208 -0.61095262 0.79109645 0.03005453 0.00025614802
0.0014643928 0.016906623 -0.040446445 -0.57189757 0.81948566 0.03710014 0.00022603219
0.0031016755 0.017898334 -0.039943986 -0.55920452 0.82808989 0.03946409 0.00022956841
0.056417406 0.017893152 -0.039908309 0.53333509 0.84556067 0.024101144 0.00040225236
0.058435097 0.016624799 -0.040499896 0.55723077 0.83012092 0.019827336 0.00033915575
0.06021136 0.015194437 -0.04037958 0.63188851 0.77452058 0.028892433 0.00052358984
0.0028857552 0.018012639 -0.041440994 -0.55224335 0.83290255 0.036063787 0.00028768889
0.0046552392 0.019010987 -0.040425375 -0.51025575 0.85919654 0.037687674 0.0003948471
0.0070733516 0.020356957 -0.040305905 -0.46557969 0.88424033 0.036806688 0.00034866337
0.050800882 0.020890497 -0.040340655 0.43997151 0.89756376 0.028362045 0.0001940365
0.0524561 0.02020302 -0.040405899 0.46636137 0.88407946 0.030174771 0.00017617829
0.055092625 0.018778166 -0.040498231 0.50286293 0.86404121 0.023701116 0.00032391862
0.0085803941 0.021135259 -0.040728599 -0.43576443 0.89916956 0.040043265 0.00041185672
0.010452147 0.021911284 -0.040519979 -0.38290122 0.92295682 0.039209936 0.00031095842
0.013455239 0.023042394 -0.040668987 -0.33763936 0.94046861 0.038966682 0.00024771574
0.015690865 0.02375545 -0.040495135 -0.28594661 0.95748931 0.038062729 0.00025815383
0.044184916 0.023654088 -0.040491465 0.30186111 0.95297933 0.026652506 0.00034487524
0.046573438 0.022940509 -0.040394306 0.358605 0.93297559 0.030967366 0.00037678631
0.049428485 0.021700297 -0.040394582 0.41915742 0.90747094 0.028347446 0.00029007465
0.017178293 0.024188425 -0.040452659 -0.26060706 0.96482992 0.034455795 0.0003107262
0.01951519 0.024733244 -0.040489253 -0.20968868 0.97728598 0.030707018 0.00021914317
0.022507323 0.025319504 -0.040436361 -0.15925001 0.98637712 0.041226193 0.00054435607
0.02550514 0.025673542 -0.040538982 -0.092021309 0.99477661 0.044176389 0.00052587659
0.028451085 0.025975998 -0.0404297 -0.041940771 0.99851376 0.034803554 0.00084355433
0.031502251 0.025927607 -0.040465381 0.03153877 0.99891621 0.034232456 0.00070480746
0.034559105 0.02568244 -0.040477827 0.10005378 0.99442518 0.033284605 0.00036834009
0.037750687 0.025280207 -0.040532392 0.1632617 0.98590302 0.036619373 0.00044294592
0.040475693 0.024755098 -0.040363882 0.20624395 0.97823435 0.022824649 0.00058631535
0.042694267 0.024177888 -0.04059748 0.2700837 0.9625321 0.024221119 0.00057321094
0.017264174 -0.072108939 -0.037613921 -0.27316034 -0.96060044 0.05128653 0.00072167139
0.019303294 -0.07266143 -0.037450828 -0.22324309 -0.97368574 0.045810785 0.00083764392
0.022427235 -0.073192656 -0.037513223 -0.18093298 -0.98221993 0.050073333 0.00087971607
0.025356244 -0.073668517 -0.037572019 -0.097321928 -0.99412692 0.047330964 0.00052139885
0.028369786 -0.073831618 -0.03739509 -0.008010189 -0.99834985 0.056862514 0.00082513574
0.031373486 -0.07388033 -0.037669793 0.04968686 -0.99742824 0.051654231 0.0006513464
0.034090593 -0.073635034 -0.037204381 0.069263473 -0.99695718 0.035762139 0.0014544504
0.037424721 -0.073212862 -0.037527837 0.13577166 -0.99033171 0.028445208 0.00095594244
0.040364478 -0.072748899 -0.037488461 0.21741599 -0.97476244 0.050680861 0.00074562553
0.042627662 -0.072175436 -0.037544288 0.27813333 -0.95909047 0.052795023 0.00045304789
0.0088196006 -0.069138676 -0.037808303 -0.43954194 -0.89709783 0.044925716 0.0010256498
0.010435503 -0.069865949 -0.037741229 -0.40761876 -0.91213703 0.043045569 0.00087837497
0.013456428 -0.070991009 -0.037468996 -0.32472354 -0.94375908 0.062236208 0.00073080545
0.015837736 -0.071702823 -0.037350401 -0.27306226 -0.96034491 0.056344219 0.00058778009
0.04421778 -0.071791254 -0.038046725 0.32254094 -0.94611114 0.029000748 0.00056447845
0.04680191 -0.070931695 -0.03807205 0.35319966 -0.93523741 0.024101395 0.00064631127
0.049842477 -0.069654904 -0.037796013 0.40498987 -0.91402733 0.023178983 0.00086446037
0.0044967486 -0.066782854 -0.037523378 -0.51600146 -0.8559013 0.03428505 0.0012170493
0.0076196236 -0.068447955 -0.037528828 -0.44454211 -0.89399809 0.056122176 0.00059749495
0.05273772 -0.06828177 -0.037572503 0.45215312 -0.89106566 0.039492466 0.00068681384
0.055481479 -0.066736341 -0.037739489 0.52840799 -0.84855247 0.027271068 0.00067706074
-0.00045805066 -0.063454539 -0.037845388 -0.61019999 -0.79016155 0.057450764 0.0010214285
0.0012592043 -0.064615108 -0.037240468 -0.57099134 -0.81937367 0.050947744 0.00066745293
0.0032478012 -0.065961629 -0.037535228 -0.54760498 -0.83556718 0.044229373 0.00087977736
0.056725025 -0.065889284 -0.037000354 0.54750818 -0.83659315 0.01862305 0.00065327936
0.058377981 -0.064838827 -0.037529595 0.56358886 -0.82548791 0.030615246 0.0006634763
0.06033086 -0.063346326 -0.037142087 0.59690124 -0.80202645 0.021503523 0.00034947693
-0.003610506 -0.06074068 -0.037697691 -0.66915482 -0.74084103 0.058191989 0.00078641134
-0.0019215711 -0.062179562 -0.037438296 -0.65360683 -0.75479448 0.055529267 0.00077310251
0.061797 -0.062182058 -0.037321657 0.65025759 -0.7583428 0.045621797 0.00062749058
0.063770689 -0.06049202 -0.037898254 0.67384326 -0.73742658 0.046232153 0.00033563073
-0.0067129517 -0.05766483 -0.037734412 -0.74090564 -0.66935074 0.055030677 0.0010144447
-0.0051513454 -0.059238371 -0.037562754 -0.69438565 -0.71763724 0.053154632 0.00072520715
0.065255947 -0.059040792 -0.038060427 0.72566712 -0.6868034 0.041331567 0.0004169177
0.066672035 -0.057404995 -0.037335783 0.75193 -0.65780544 0.043512028 0.00042828292
-0.0093697589 -0.054480486 -0.037844591 -0.78115565 -0.62155455 0.058871012 0.00081519311
-0.0083448272 -0.055824194 -0.038012393 -0.79618299 -0.60410792 0.033857707 0.00093957456
0.067986958 -0.05592319 -0.037780456 0.76253957 -0.64565176 0.040832892 0.00031625148
0.069279417 -0.054340586 -0.037993118 0.79181224 -0.60913777 0.044547908 0.00044663483
-0.01212176 -0.05114856 -0.038797241 -0.81479812 -0.57797343 0.045286585 0.00057951442
-0.01085793 -0.052435935 -0.037662949 -0.82804102 -0.55942535 0.037299722 0.0014848042
0.070319876 -0.052782889 -0.037665658 0.83338708 -0.55078655 0.045828823 0.00013638922
-0.01292863 -0.049272481 -0.037633158 -0.86163867 -0.50611621 0.037750468 0.0014206433
-0.011828626 -0.050797179 -0.037275605 -0.8319158 -0.55416846 0.028519735 0.0017881735
0.071739301 -0.050699733 -0.037713077 0.84376442 -0.53413218 0.052577857 0.00037354193
0.072808802 -0.049004748 -0.03772708 0.86247283 -0.50321352 0.054006822 0.00061332644
-0.015136838 -0.045276135 -0.037377916 -0.88944209 -0.45560387 0.036302436 0.00096303271
-0.014397923 -0.046635471 -0.037778344 -0.89284146 -0.44852209 0.040767305 0.00064905937
0.074084349 -0.046510305 -0.037441529 0.891747 -0.45012754 0.046609666 0.00031167353
-0.015907522 -0.043345325 -0.037530467 -0.92094374 -0.38750812 0.041233324 0.00065114617
-0.014911054 -0.044725414 -0.036552686 -0.92470527 -0.37937635 0.031525459 0.00064694876
0.074817613 -0.044955742 -0.036876228 0.89673364 -0.44092506 0.038130876 0.00060370885
0.07551448 -0.04343722 -0.037615769 0.9220376 -0.38567004 0.033245295 0.00029045925
-0.01696125 -0.040467083 -0.03754925 -0.94770753 -0.31579325 0.046098229 0.00064571289
0.076633006 -0.04047842 -0.037485689 0.94128013 -0.33543134 0.038439177 0.00032873941
-0.01816434 -0.03673581 -0.037747357 -0.9614411 -0.27200094 0.040577032 0.00068132207
-0.017715322 -0.038011637 -0.037421577 -0.96147394 -0.27135122 0.044003744 0.00067893841
0.077571571 -0.037399471 -0.03758388 0.96537125 -0.25822765 0.037107572 0.00046737737
-0.018670425 -0.034457456 -0.037570551 -0.9748832 -0.21962522 0.036980506 0.00058502133
-0.017875869 -0.035940595 -0.036209259 -0.96779042 -0.24817772 0.042302828 0.0010071218
0.077941999 -0.035534807 -0.03670381 0.97828233 -0.20441745 0.034310497 0.00030306267
0.078289002 -0.034328967 -0.037718549 0.97927141 -0.19980764 0.033234499 0.00030802915
-0.019254703 -0.031491481 -0.037511893 -0.98607749 -0.16255249 0.035041559 0.00095784594
0.078794464 -0.031412974 -0.037484303 0.98893011 -0.14533156 0.029933732 0.00060279761
-0.019523203 -0.028533529 -0.037636753 -0.99454737 -0.1015991 0.023516648 0.00073814543
0.079106204 -0.028431583 -0.037422955 0.99600887 -0.083231822 0.032231025 0.00043798704
-0.019742874 -0.025457429 -0.037530638 -0.99880612 -0.046064533 0.016263315 0.00096100196
0.079241157 -0.025558336 -0.037312523 0.99938262 -0.01689717 0.030803569 0.00087007997
-0.019762311 -0.022481496 -0.037505142 -0.99915308 0.035065006 0.021529721 0.00082298426
0.079235494 -0.022516889 -0.037277739 0.9987905 0.036479969 0.032965519 0.0008638337
-0.019675659 -0.019465139 -0.037509512 -0.9952246 0.096298993 0.015954461 0.00090879144
0.079017051 -0.019467469 -0.03757659 0.99111801 0.12266819 0.051357031 0.0003581589
-0.019307964 -0.016511183 -0.037476204 -0.98512578 0.16935961 0.029061418 0.00040965859
0.078657694 -0.016028259 -0.037484039 0.98327643 0.1800358 0.027470902 0.00026097518
-0.018732093 -0.013441989 -0.037590731 -0.97396868 0.22500065 0.027565047 0.00037516607
0.077893049 -0.012669437 -0.037495106 0.97858077 0.20383492 0.028827138 0.00045953688
0.078383371 -0.014406803 -0.038132504 0.97779059 0.20841473 0.022109605 0.00041359061
-0.018205728 -0.011226595 -0.037710536 -0.96273452 0.26926336 0.02528739 0.00037099706
-0.017773176 -0.0098153781 -0.037428122 -0.95848703 0.28409925 0.0242946 0.00035023276
0.07744091 -0.010395901 -0.037572347 0.96081048 0.27613947 0.024293633 0.00099931739
0.078059778 -0.011288508 -0.03694427 0.96575755 0.25939584 -0.0051157451 0.0012466843
-0.017019808 -0.0075112469 -0.037492868 -0.94543928 0.32503557 0.022282964 0.00027200097
0.07639847 -0.0074256859 -0.037529834 0.93525624 0.35233584 0.033988588 0.00027643316
-0.015917685 -0.0045197471 -0.037545644 -0.93002641 0.36693019 0.020325193 0.00016458749
-0.014967676 -0.0030089433 -0.036611404 -0.92773128 0.37270671 0.02010796 0.00018815776
0.074631624 -0.0034480924 -0.037407201 0.90701962 0.41937989 0.037892774 0.00056270201
0.07535141 -0.0047837687 -0.03754887 0.91860384 0.39429668 0.026403427 0.00057243492
-0.01518664 -0.0024965592 -0.037630297 -0.90168923 0.43202615 0.0176077 0.00084042829
-0.014462098 -0.0010973806 -0.037566416 -0.88980103 0.45602584 0.017166013 0.00075906148
0.07378754 -0.0014578077 -0.037596047 0.88850814 0.45740122 0.0365711 0.00042190013
-0.012996371 0.0013741425 -0.037579842 -0.84826827 0.52909839 0.022266667 0.00061344285
-0.011844261 0.0028941415 -0.036993198 -0.81884927 0.57342702 0.02583285 0.00039184449
0.071646079 0.0023044441 -0.037508816 0.84917116 0.52676553 0.037768193 0.00040217146
0.07255356 0.00080911891 -0.037513494 0.86307669 0.50334638 0.041726794 0.00042128106
-0.01201353 0.0031544347 -0.038118433 -0.82499564 0.56407499 0.034663673 0.00041424352
-0.010865321 0.0044187657 -0.037472449 -0.81099725 0.58429265 0.02975845 0.00033972543
0.068938531 0.0058622034 -0.036711168 0.7902866 0.61106068 0.045297951 0.00073555112
0.070196882 0.0044639036 -0.03751225 0.81805426 0.57327962 0.046235394 0.00078442949
-0.00940511 0.006375304 -0.037679531 -0.79244047 0.60919559 0.030314224 0.00029858417
-0.008077384 0.0079605309 -0.037510455 -0.77087009 0.63609093 0.033876661 0.00041319348
0.067791075 0.007597202 -0.037504494 0.772677 0.63291794 0.048837591 0.00072687236
0.069395706 0.0061591482 -0.038193785 0.79060012 0.61073649 0.044185158 0.00042335936
-0.006605525 0.0097155105 -0.037598398 -0.73224014 0.68027395 0.032429557 0.00052986061
-0.0052224835 0.011158566 -0.037402481 -0.71650475 0.69695586 0.029558282 0.00055038137
0.064844593 0.010889866 -0.037485175 0.70806146 0.70582819 0.021343531 0.00067936681
0.066332228 0.0093761804 -0.037721194 0.7309953 0.68150997 0.034498055 0.00063194137
-0.0037220221 0.01260349 -0.0375035 -0.67697412 0.73533022 0.031552613 0.00034752052
-0.0019581853 0.014101424 -0.03745136 -0.62974417 0.77617502 0.031216258 0.00042719115
0.059893869 0.014970176 -0.036736902 0.61390275 0.78836048 0.040140655 0.00054672413
0.061505459 0.013817966 -0.037473805 0.64285111 0.76561821 0.023900349 0.0006260688
0.063348308 0.012241777 -0.037599199 0.67249054 0.73988581 0.018041996 0.00038100127
-0.00050593232 0.015279806 -0.037547626 -0.611431 0.79080385 0.027953876 0.00047596084
0.0015151314 0.016703602 -0.03753221 -0.55895305 0.82869881 0.028806608 0.00042608258
0.0032707467 0.017805306 -0.037312686 -0.54902434 0.83514512 0.033239815 0.00043865541
0.056645237 0.017675117 -0.037706282 0.52663296 0.84957111 0.029776394 0.00066531065
0.058458582 0.016274758 -0.03751212 0.59545267 0.80229652 0.041910078 0.00075047696
0.060167331 0.015041026 -0.038231153 0.63262808 0.77324694 0.043252625 0.00046215442
0.0046868464 0.018823612 -0.037544593 -0.51210862 0.85788089 0.042249508 0.00067462237
0.0073071495 0.020252408 -0.037608944 -0.4601694 0.88674301 0.043943092 0.00047049235
0.0091518164 0.020945922 -0.037283737 -0.42125648 0.90631068 0.033822909 0.00094622304
0.050564151 0.02092425 -0.037083723 0.43025038 0.90253085 0.017965006 0.0010246219
0.052500684 0.019982923 -0.037640702 0.46785116 0.88342923 0.025848424 0.00040892046
0.054948077 0.01864709 -0.037378777 0.50341374 0.86349505 0.030837102 0.00061500329
0.0088801924 0.021122569 -0.038540259 -0.44229791 0.89555609 0.048495453 0.00041675736
0.01056549 0.021733483 -0.03757298 -0.39016932 0.92010009 0.034403261 0.00057848665
0.013458352 0.022834064 -0.037527125 -0.32296833 0.94568163 0.037117846 0.00039580264
0.016083745 0.023638535 -0.037391383 -0.27851057 0.95957339 0.040629826 0.00034826342
0.041721907 0.0239406 -0.036391061 0.22052541 0.97511131 0.022944309 0.0025288435
0.043640859 0.023693118 -0.037187722 0.29413646 0.95535678 0.027876964 0.0011591379
0.04647411 0.022750134 -0.037513558 0.35276097 0.93541324 0.023701645 0.00035586083
0.049219597 0.021660682 -0.037561581 0.41750151 0.90842336 0.021434691 0.00064619037
0.017534416 0.024141937 -0.03802871 -0.27239436 0.96129107 0.041482542 0.00039319447
0.019416247 0.02454352 -0.037466649 -0.22034077 0.97473365 0.036663793 0.00042302825
0.022424201 0.025104176 -0.03747528 -0.16213161 0.98617262 0.034305971 0.00080763584
0.025558054 0.025389917 -0.037614916 -0.084154867 0.99595523 0.031481348 0.00094215776
0.028545724 0.02562616 -0.037508924 -0.024119779 0.99913168 0.03397315 0.0015558209
0.03152407 0.025690492 -0.037490457 0.031280398 0.99882591 0.036991555 0.0012307663
0.034504026 0.025448114 -0.037553415 0.088660657 0.99540943 0.036046129 0.0007661822
0.037303664 0.025143933 -0.037389826 0.15218955 0.98782474 0.032257084 0.00065603579
0.040563762 0.024529403 -0.037638817 0.20088716 0.97923535 0.027247801 0.00074035808
0.042497847 0.024223095 -0.03812198 0.28641272 0.9576537 0.029446997 0.0010325389
0.017335545 -0.072115645 -0.034380291 -0.2789183 -0.95942444 -0.041343164 0.00099410454
0.019397561 -0.072638795 -0.034526661 -0.22412613 -0.97371167 -0.040658593 0.00061708863
0.022410762 -0.073243603 -0.034462441 -0.17491966 -0.98399323 -0.034064252 0.00089410821
0.025323007 -0.073587343 -0.034539439 -0.097195335 -0.99464691 -0.035081457 0.001217254
0.028283847 -0.073780149 -0.034557387 -0.018960401 -0.99972653 -0.013689625 0.0013117073
0.031424314 -0.073770322 -0.034463868 0.034007151 -0.9992727 -0.017248457 0.0010433852
0.034227617 -0.073558345 -0.034724068 0.084610462 -0.99640596 -0.0040270411 0.001785161
0.037384182 -0.073238783 -0.034492821 0.12800197 -0.99141628 -0.026630824 0.0010082044
0.040484034 -0.072709411 -0.034524322 0.22303978 -0.9742043 -0.034340907 0.00077979063
0.042753793 -0.072086334 -0.034484617 0.28021362 -0.95947033 -0.02995046 0.00063908187
0.0087529505 -0.069105454 -0.03358404 -0.44057053 -0.89708227 -0.033779427 0.0013465433
0.010497717 -0.06972605 -0.034518879 -0.39278492 -0.91895425 -0.035257556 0.0018125824
0.013487998 -0.070901603 -0.034514241 -0.32277155 -0.94518751 -0.049387485 0.0014662679
0.015852591 -0.071706332 -0.034615044 -0.26559255 -0.96291941 -0.047400244 0.0010668827
0.044103604 -0.071678758 -0.034953114 0.27707931 -0.96052122 -0.025020082 0.00045426763
0.046391305 -0.070984438 -0.034247685 0.32470781 -0.94537818 -0.028722994 0.00058747327
0.049232643 -0.069933988 -0.033956148 0.37739086 -0.92576522 -0.023127932 0.00090880663
0.0040839165 -0.06654796 -0.034761336 -0.54002756 -0.84137046 -0.021586394 0.0011734853
0.0073200939 -0.068277158 -0.034654461 -0.44002774 -0.8974334 -0.031447314 0.0011193962
0.0093135592 -0.068967141 -0.035331458 -0.43297675 -0.90072042 -0.035126846 0.0017909316
0.052326292 -0.068417713 -0.03454322 0.45246625 -0.89177877 -0.0022374082 0.00075488159
0.055146873 -0.066951215 -0.034276508 0.510382 -0.85992527 -0.0062263762 0.00066877349
-0.00035363476 -0.063464314 -0.034398306 -0.6112839 -0.79047996 -0.038383797 0.0015551744
0.0014754484 -0.064698182 -0.034424547 -0.57021582 -0.82027984 -0.044665892 0.0010139685
0.003231907 -0.065972961 -0.034592506 -0.55833638 -0.82868409 -0.03928379 0.00090709497
0.058643434 -0.064551771 -0.03452789 0.58858681 -0.80820709 -0.019154588 0.00052055414
-0.0036736545 -0.060653709 -0.034635291 -0.67705679 -0.73578775 -0.014509372 0.00068380981
-0.0021853936 -0.061928574 -0.034831613 -0.65276742 -0.75741869 -0.014548779 0.00079304737
0.061704777 -0.062129531 -0.034778837 0.63324916 -0.77376258 -0.016941741 0.00054801017
0.063583031 -0.060551964 -0.035302754 0.68316424 -0.73022848 -0.0072853733 0.00080677914
-0.0067388462 -0.057656359 -0.034599058 -0.74857432 -0.66144788 -0.046078127 0.0013326843
-0.0051076794 -0.059210025 -0.034884814 -0.6877265 -0.72585601 -0.012857905 0.00062359718
0.065103367 -0.058973584 -0.035661139 0.73410624 -0.67903262 -0.0016533629 0.00073226541
0.066534489 -0.057550371 -0.034545414 0.75873417 -0.65116161 -0.017635962 0.00058814336
-0.0092900163 -0.054434381 -0.034877837 -0.78838253 -0.61466193 -0.025370359 0.0010766766
-0.0082586929 -0.05579624 -0.034514207 -0.77764499 -0.62754232 -0.038196426 0.00083505409
0.067807153 -0.055979002 -0.03480183 0.77151424 -0.63606215 -0.013815571 0.0011550966
0.069083735 -0.054408893 -0.035042726 0.78567743 -0.61852837 -0.011561706 0.00065322011
-0.012147036 -0.05114666 -0.033578143 -0.83375204 -0.54955786 -0.053325504 0.0016315514
-0.010556957 -0.052684225 -0.034495704 -0.81018746 -0.58460075 -0.04287491 0.00098276348
0.070570484 -0.05227663 -0.035160117 0.83677506 -0.54724413 -0.018202145 0.0011098429
-0.013178022 -0.048920795 -0.034126069 -0.87134445 -0.4899219 -0.027117517 0.0011116525
-0.011892564 -0.050783206 -0.035650775 -0.8157506 -0.57728487 -0.035958961 0.0012828211
0.071785465 -0.050328307 -0.035423439 0.84808326 -0.52970308 -0.013018033 0.0011982662
0.072742008 -0.048788384 -0.035092704 0.86768264 -0.49679527 -0.01792554 0.00122975
-0.015098454 -0.045239434 -0.034405321 -0.89329004 -0.44911495 -0.018128941 0.00050140813
-0.014103862 -0.046851721 -0.034862764 -0.89335793 -0.44866824 -0.024665667 0.00062646216
0.074205875 -0.046151496 -0.034250706 0.89684296 -0.44184408 -0.021130342 0.00066675682
-0.015816486 -0.043540128 -0.03446123 -0.91802883 -0.39570111 -0.025370352 0.00098285184
0.074864447 -0.04469005 -0.035370339 0.91069752 -0.41252124 -0.021360802 0.0015067959
0.075498179 -0.043236785 -0.034610067 0.92345834 -0.3834703 -0.013234599 0.0004865331
-0.016922781 -0.040540151 -0.034559272 -0.94523776 -0.32421494 -0.037553292 0.00049308885
0.076518923 -0.040567596 -0.034419447 0.94179386 -0.33576018 -0.017013451 0.00060311315
-0.018174663 -0.036755867 -0.03435 -0.96164054 -0.2716997 -0.037771262 0.00068193942
-0.017638378 -0.038272962 -0.034637127 -0.96057403 -0.27518883 -0.039606705 0.00066900172
0.077524625 -0.037415579 -0.034536775 0.96478695 -0.2622239 -0.020611385 0.00050785008
-0.018615313 -0.034580812 -0.034576848 -0.97498035 -0.22009559 -0.031165529 0.00060233171
-0.01798779 -0.035562351 -0.035540283 -0.97551805 -0.21633315 -0.039554507 0.00064555672
0.077914417 -0.035633855 -0.034871742 0.9782244 -0.20621482 -0.023505829 0.00052925455
0.078315705 -0.034032196 -0.034553915 0.97865903 -0.20422718 -0.022753594 0.00035888224
-0.019228803 -0.031495746 -0.034507722 -0.98675883 -0.15993099 -0.027002439 0.00070228608
0.078818455 -0.031270098 -0.034456789 0.98853302 -0.14905865 -0.02416667 0.00077367312
-0.019549178 -0.028554469 -0.034670629 -0.99495351 -0.098438121 -0.019427452 0.00050710444
0.078988723 -0.028604582 -0.034743026 0.99663544 -0.08094345 -0.012880081 0.00080510578
-0.019844981 -0.025562476 -0.034422122 -0.99845582 -0.04096714 -0.037519395 0.00053585786
0.079129457 -0.025589403 -0.034583412 0.99919415 -0.031949531 -0.024295837 0.00060725596
-0.019876419 -0.022529263 -0.034377396 -0.99893242 0.024474999 -0.039179597 0.00038659378
0.079159483 -0.022526726 -0.034514107 0.99924737 0.035318393 -0.016041785 0.00096086273
-0.019653698 -0.019502277 -0.03448813 -0.99553943 0.089285187 -0.030487465 0.00051307678
0.079131208 -0.019569352 -0.034337785 0.99064165 0.13632064 -0.0067786318 0.00077815057
-0.01920794 -0.016474124 -0.034475897 -0.98485333 0.17228113 -0.019571928 0.00057644962
0.078468882 -0.016329963 -0.034571163 0.98759168 0.15568425 -0.020617459 0.0005635157
-0.018709298 -0.013380575 -0.03459876 -0.97455204 0.22355342 -0.016496884 0.000406918
0.077872396 -0.012452344 -0.034461331 0.97640413 0.2151988 -0.018013483 0.00077442144
0.078120306 -0.013781027 -0.034559369 0.97623086 0.21612853 -0.016180817 0.0006908903
-0.018221451 -0.011319929 -0.034292709 -0.96283013 0.26957113 -0.01701734 0.00048422761
-0.017803881 -0.0099298861 -0.034548026 -0.96115649 0.27571014 -0.012729228 0.00047876066
0.077344164 -0.01027979 -0.034355938 0.95207012 0.30531037 -0.018657804 0.00069680915
0.078191593 -0.011718007 -0.034667339 0.95997721 0.2788493 -0.0262083 0.00098071713
-0.016989602 -0.0075467555 -0.034511633 -0.94607109 0.32359675 -0.015318245 0.00030858564
0.076345049 -0.0074401554 -0.034578901 0.93711656 0.34822521 -0.023490004 0.00051528896
-0.015861133 -0.0044749915 -0.034517001 -0.92960835 0.36828789 -0.013865262 0.00029908106
-0.014990453 -0.0031396602 -0.035018653 -0.9296453 0.36827078 -0.011672111 0.0003748711
0.074663132 -0.0035522876 -0.034552157 0.90781224 0.41813514 -0.032247566 0.00083865394
0.075402617 -0.0049680644 -0.034506869 0.91945744 0.39223188 -0.027425628 0.00094977207
-0.015211388 -0.0026063449 -0.034685098 -0.90219766 0.43126968 -0.0067772181 0.00085194939
-0.014472337 -0.0012229538 -0.034549788 -0.89017552 0.45556054 -0.0072261528 0.00084737223
0.073743492 -0.0015454619 -0.034633826 0.88988584 0.4551034 -0.031369384 0.00090038346
-0.013033335 0.0013063319 -0.034417186 -0.84800047 0.5298366 -0.012975455 0.00068318791
-0.011870147 0.0028490182 -0.034781657 -0.81679559 0.576536 -0.021242471 0.00053129159
0.071635127 0.0021125912 -0.034918763 0.8572709 0.51422107 -0.025755474 0.0010452277
0.072561659 0.00067620259 -0.034518518 0.86875886 0.49437478 -0.029182347 0.00088404032
-0.01074462 0.0045094644 -0.034574419 -0.80648899 0.59061426 -0.027388982 0.00041839754
0.068883575 0.0059368829 -0.035668708 0.77885425 0.62657362 -0.028136542 0.00012239098
0.070177943 0.0044959094 -0.034489222 0.82001412 0.57145888 -0.031805813 0.0010840106
-0.0093165189 0.0064000743 -0.034495648 -0.78637671 0.6172474 -0.02484574 0.00035890719
-0.0080890106 0.0079071224 -0.034554224 -0.77184033 0.6354273 -0.02224192 0.00036653632
0.067835696 0.0074858121 -0.034468751 0.76953816 0.63808358 -0.02569779 0.00079595856
-0.0066799503 0.0096247885 -0.034354653 -0.7440269 0.6677832 -0.022128036 0.00055914186
-0.0051200227 0.011207973 -0.034680091 -0.69991565 0.71400547 -0.01773048 0.00070283678
0.064862601 0.01085852 -0.034282513 0.70152193 0.71194595 -0.031622402 0.00088479149
0.066224545 0.0093539525 -0.034573019 0.73291963 0.67993098 -0.022863094 0.00086212612
-0.0037466106 0.01249666 -0.034576338 -0.67945755 0.73346519 -0.019136345 0.00068133877
-0.0019355179 0.014061157 -0.034527425 -0.64511073 0.76382577 -0.020059817 0.00050498586
0.061576873 0.013798219 -0.034774236 0.64026189 0.76698434 -0.042423759 0.00069994875
0.063295513 0.012348778 -0.03429845 0.68749899 0.72517335 -0.03832392 0.00065157202
-0.0004315555 0.015296794 -0.034663428 -0.61324501 0.78963572 -0.020151099 0.00055705622
0.0015223441 0.016773077 -0.034533538 -0.56119287 0.8273983 -0.021786043 0.00050640729
0.0032843633 0.017822877 -0.034623891 -0.55442226 0.83183777 -0.025725927 0.00046431128
0.056672264 0.01756091 -0.035290048 0.52928597 0.84824651 -0.018281918 0.00084349699
0.058381133 0.016370665 -0.034488253 0.58720493 0.80900419 -0.026508398 0.00080002175
0.060481638 0.015067965 -0.033687096 0.6283108 0.7771278 -0.036026455 0.00080180203
0.0047390074 0.018751809 -0.034667648 -0.50526667 0.86276138 -0.018662259 0.00068399112
0.0074622226 0.020223608 -0.034556065 -0.45440286 0.8904283 -0.025604526 0.0005377612
0.0092675453 0.020943016 -0.035086278 -0.42827141 0.9032867 -0.025628308 0.00074057531
0.050683688 0.020859422 -0.034887865 0.43876112 0.8981722 -0.027848206 0.0010411689
0.052294243 0.020176571 -0.034403425 0.47015476 0.88171613 -0.039130531 0.00037598834
0.055187676 0.018487109 -0.034918137 0.50641495 0.86193341 -0.024792437 0.00093864702
0.0088183433 0.021051323 -0.03353845 -0.42780387 0.90318054 -0.035339992 0.00092944375
0.010539841 0.021704014 -0.034496605 -0.39136249 0.91974527 -0.030067939 0.00066570292
0.013449586 0.022812553 -0.034455229 -0.3233541 0.94578457 -0.030555841 0.00071342173
0.016226131 0.023642099 -0.03458564 -0.27183089 0.96209025 -0.022144506 0.00070244336
0.018241668 0.023994012 -0.035939839 -0.22201841 0.97493064 0.014768866 0.001135733
0.041718703 0.023866657 -0.035891704 0.22047834 0.97512245 0.02292384 0.0025374778
0.043839574 0.023579059 -0.034660995 0.29671714 0.95482475 -0.01639189 0.001250512
0.04645614 0.022749364 -0.034461651 0.33666906 0.94121277 -0.027791105 0.00029170679
0.04930827 0.021665001 -0.034339059 0.40510094 0.91386402 -0.027307337 0.00051158451
0.051139589 0.021080175 -0.033842932 0.4339703 0.90040189 -0.0307611 0.0010347016
0.017705131 0.024100883 -0.034313776 -0.26632115 0.96365857 -0.02086108 0.0006745042
0.01947283 0.024487935 -0.034484733 -0.2225773 0.97469807 -0.020569878 0.00068111747
0.022448268 0.025124861 -0.034471504 -0.1659822 0.98552287 -0.034564503 0.00088149891
0.025511984 0.025451677 -0.034493826 -0.088502847 0.99554163 -0.032620359 0.0004708512
0.028503451 0.02569575 -0.03448464 -0.039996661 0.99894518 -0.022556366 0.0010696028
0.031490941 0.02566544 -0.034470282 0.043619189 0.99879837 -0.022341846 0.00085816585
0.034647562 0.025399482 -0.034606643 0.095700726 0.99540365 -0.0036006742 0.00069981231
0.037469067 0.025130833 -0.034415293 0.159869 0.98679733 -0.025941752 0.00066480448
0.040411707 0.024585325 -0.034360349 0.21289593 0.97687769 -0.01963078 0.00084402331
0.042351149 0.024187597 -0.033982571 0.28167239 0.95934999 -0.017560562 0.0011273472
0.017092861 -0.072299935 -0.031455189 -0.24787739 -0.9672994 -0.053746115 0.0002680613
0.019713726 -0.0729798 -0.031575814 -0.20967913 -0.9766379 -0.047044329 0.00037621817
0.022656577 -0.073516101 -0.03139402 -0.15153584 -0.98743498 -0.044823214 0.00052474567
0.025551327 -0.073807895 -0.03146296 -0.090396188 -0.99500549 -0.042339813 0.00043326779
0.028171502 -0.074043281 -0.031488121 -0.039563116 -0.99836969 -0.04114278 0.00067001302
0.0314002 -0.073998675 -0.031540427 0.03276781 -0.99840909 -0.045886081 0.00051064277
0.034779064 -0.073835231 -0.031452604 0.083861813 -0.99570757 -0.039162621 0.00031642386
0.037414622 -0.073512204 -0.031373359 0.16822849 -0.98474324 -0.044497453 0.00060873904
0.040656216 -0.072865359 -0.031493589 0.22124538 -0.97445059 -0.038686112 0.00035143262
0.043094814 -0.072220363 -0.031656712 0.27016076 -0.96209061 -0.037348557 0.00012592731
0.0086180698 -0.069205984 -0.031471066 -0.43688473 -0.89788508 -0.054167673 0.00066388538
0.010428832 -0.070097305 -0.031497676 -0.39656922 -0.9157052 -0.064936988 0.00075387
0.013387933 -0.07129553 -0.031429857 -0.33653301 -0.93945634 -0.064555146 0.00077497575
0.015512461 -0.071934566 -0.031544894 -0.27740115 -0.95885301 -0.060411416 0.00059191353
0.044544164 -0.071804136 -0.031212233 0.29495987 -0.95477182 -0.037543036 0.0004277757
0.046512671 -0.071137585 -0.031215578 0.34023967 -0.9400751 -0.022267668 0.00026597973
0.04977864 -0.069806866 -0.031333219 0.42750826 -0.90376264 -0.021206088 0.00020403901
0.051364515 -0.069081634 -0.030055458 0.4635129 -0.88592666 -0.017023457 0.00026637947
0.0028455164 -0.066070393 -0.031939805 -0.5438875 -0.83793283 -0.045332514 0.00027342586
0.0044746376 -0.067035049 -0.031602941 -0.49465781 -0.86817002 -0.039930712 0.000430527
0.0072528664 -0.068498045 -0.031536303 -0.45729798 -0.88806456 -0.047116134 0.0004522673
0.052383609 -0.068607479 -0.031090207 0.45077819 -0.8922962 -0.024627607 0.00012563085
0.054986656 -0.067133479 -0.031381562 0.50447631 -0.86314946 -0.021832453 0.00061852636
-0.00072253204 -0.063562952 -0.031188475 -0.60848457 -0.7921223 -0.047841486 0.00068703888
0.0014034756 -0.065112934 -0.031130437 -0.57373691 -0.81775773 -0.045807127 0.00048925052
0.056972738 -0.065879971 -0.031297449 0.55318886 -0.83288139 -0.017052488 0.0004306921
0.058887661 -0.064603128 -0.031252421 0.56433433 -0.82530522 -0.019951565 0.00034601591
0.060410887 -0.063459262 -0.031614412 0.61342704 -0.78888935 -0.036889419 0.00044165502
-0.0039693657 -0.060798205 -0.031187363 -0.67950785 -0.73236269 -0.04374918 0.00050305086
-0.0024259272 -0.062181979 -0.031472467 -0.64579594 -0.76177329 -0.051468711 0.00053759676
0.061903059 -0.062269278 -0.030358452 0.63615751 -0.77129948 -0.020019986 0.00033928439
0.063384406 -0.060850479 -0.032494754 0.67368788 -0.73834264 -0.031540968 0.00015851906
-0.0067685489 -0.057960711 -0.031285498 -0.74015468 -0.67057556 -0.049994521 0.00045505274
-0.0054301489 -0.059348155 -0.03122589 -0.70849282 -0.704328 -0.044271287 0.00033790557
0.06517671 -0.059203193 -0.031956866 0.72215551 -0.69115508 -0.028214796 0.00027218601
0.06664864 -0.057627123 -0.030979658 0.73996687 -0.67181605 -0.033352066 0.00023495563
-0.0094446838 -0.054686226 -0.031489633 -0.78882468 -0.61182994 -0.058478821 0.00024517314
-0.0082866643 -0.056107007 -0.031680942 -0.77572012 -0.62901634 -0.050958928 0.00034243995
0.068245247 -0.055742033 -0.031607177 0.77366489 -0.63261241 -0.03527334 6.8956149e-05
0.069444671 -0.054338761 -0.030304629 0.79886425 -0.60087639 -0.027631817 0.00038271019
-0.012153275 -0.051274519 -0.031156778 -0.82248384 -0.56772524 -0.03476071 0.00092268758
-0.011171521 -0.052370716 -0.031692252 -0.83610231 -0.54717058 -0.03920817 0.00049652666
0.070651732 -0.052589107 -0.031434804 0.82206637 -0.56731868 -0.048543558 0.00029397223
-0.013185953 -0.049269952 -0.031499051 -0.87499845 -0.48322153 -0.029573673 0.00070691603
0.071839713 -0.050869048 -0.030709472 0.85154504 -0.52294081 -0.037469208 0.0003370117
0.072780341 -0.049221598 -0.031248132 0.86479294 -0.50094688 -0.034429293 0.00037684402
-0.015170127 -0.045284286 -0.031794071 -0.8979786 -0.43879664 -0.033044003 0.0003480647
-0.014376525 -0.046830654 -0.031487226 -0.89280993 -0.44922861 -0.032925323 0.00026763053
0.074250527 -0.046493199 -0.031308264 0.89515209 -0.44451255 -0.033337459 0.00033165611
-0.016119663 -0.043232098 -0.031473275 -0.92060465 -0.38898438 -0.034325287 0.00056258345
0.075617224 -0.043450952 -0.031518761 0.92439508 -0.38004768 -0.032520656 0.00027773672
-0.01717641 -0.04044684 -0.031546813 -0.94341308 -0.32819149 -0.047560964 0.00025499682
0.07676594 -0.040280685 -0.03129372 0.94715768 -0.31915423 -0.032138396 0.00014290132
-0.01825498 -0.037058987 -0.031383161 -0.9654662 -0.25677046 -0.044089429 0.00038088916
-0.017876638 -0.038439918 -0.031166868 -0.95861119 -0.2816855 -0.041447878 0.00043085535
0.077614106 -0.037581343 -0.03144367 0.96250886 -0.26966178 -0.029311741 0.00019770605
0.078043967 -0.036094241 -0.030388633 0.96682388 -0.25396013 -0.027493795 0.00030514071
-0.018873697 -0.034401614 -0.031524383 -0.97807205 -0.20449769 -0.039444223 0.00022925029
0.078425705 -0.034311317 -0.031435732 0.98037553 -0.19527461 -0.027048999 0.00025394629
-0.019360982 -0.03148004 -0.031465609 -0.98718297 -0.15494972 -0.038214628 0.00029875719
0.078897297 -0.031507127 -0.031510077 0.98934996 -0.14353079 -0.024199022 0.00042510091
-0.019720878 -0.028533714 -0.031527899 -0.99325109 -0.11117423 -0.033053763 0.00016053658
0.079229467 -0.02865837 -0.031435147 0.99651098 -0.079312742 -0.025988504 0.00050354807
-0.02002457 -0.025457844 -0.031535905 -0.99856037 -0.042412285 -0.032839004 0.00048787202
0.079377398 -0.025561731 -0.031526394 0.9992224 -0.025537556 -0.030040357 0.00030510168
-0.02001985 -0.022500318 -0.031551696 -0.99910909 0.028353941 -0.031259798 0.0002478867
0.079375342 -0.022490446 -0.031519488 0.99889141 0.034704853 -0.031803835 0.00060101302
-0.01983889 -0.019496711 -0.031646822 -0.99516416 0.094244845 -0.027681274 0.00047496156
0.079263911 -0.019322295 -0.032082934 0.98895657 0.1463805 -0.023186095 0.00025975672
-0.019371146 -0.016295496 -0.031366687 -0.984586 0.17254432 -0.028614663 0.00029119846
0.07891956 -0.016794493 -0.031325955 0.9846527 0.17301661 -0.022896567 0.00028280617
-0.018894989 -0.013695883 -0.031535871 -0.97540486 0.2192758 -0.022438962 0.00027563871
0.077920653 -0.012259075 -0.031212419 0.97534555 0.22054304 -0.0078712795 0.00031103543
0.07820484 -0.013617973 -0.031498026 0.97871697 0.20486443 -0.01198773 0.00046482153
-0.018255437 -0.011034472 -0.031536069 -0.96459246 0.26282662 -0.021990132 0.00015033982
-0.01783336 -0.0097940294 -0.031457268 -0.95870972 0.28324938 -0.025404256 0.00020312276
0.07749135 -0.010200184 -0.031538747 0.9558264 0.29327413 -0.019652244 0.00052562641
0.078258023 -0.011396491 -0.032111619 0.95663285 0.29108089 -0.0112052 0.00066880387
-0.017118726 -0.0074601122 -0.03151368 -0.94383931 0.32973349 -0.021054838 0.0001971798
0.076582193 -0.0075417943 -0.031420536 0.94061375 0.3383829 -0.027253155 0.00031957618
-0.01600199 -0.0044998247 -0.03143958 -0.92831832 0.37129831 -0.019044429 0.00021663525
0.074827731 -0.0034109333 -0.031117102 0.91315877 0.40620938 -0.033690061 0.00041018947
0.075528726 -0.0047284742 -0.031504881 0.92316312 0.3827191 -0.036000483 0.00034411877
-0.01524766 -0.0025998326 -0.031592585 -0.90615332 0.4227297 -0.013628763 0.00050431699
-0.014470413 -0.0010822421 -0.031491984 -0.8893109 0.45710337 -0.013513437 0.00041705137
0.073987141 -0.0014677702 -0.031416297 0.88787448 0.45813751 -0.042296469 0.00033234505
-0.013007659 0.0014821568 -0.031504501 -0.85554391 0.51737338 -0.019220121 0.00031997316
-0.011778528 0.0028751628 -0.031633951 -0.82325679 0.56681502 -0.031128744 0.00020272417
0.071654595 0.0024256166 -0.031401906 0.84591776 0.5317297 -0.041070249 0.00032550958
0.072627343 0.001081091 -0.031530343 0.86166114 0.50557762 -0.04394668 0.00047919579
-0.012112956 0.0031665422 -0.030932851 -0.82875597 0.55883867 -0.029374326 0.00028437152
-0.01090775 0.0045940392 -0.031508997 -0.807926 0.58824861 -0.034917939 0.00023061459
0.070389882 0.0045061181 -0.031511903 0.81951076 0.57125062 -0.045550406 0.00047503778
-0.009454065 0.0064976658 -0.031461619 -0.78395975 0.61984891 -0.034562595 0.00012970321
-0.0082187653 0.0080088945 -0.031448722 -0.76617402 0.64188182 -0.031065529 0.00013389703
0.067914329 0.0076483078 -0.031453196 0.7677021 0.63887054 -0.049779564 0.00034774002
0.069236562 0.0061665033 -0.030861303 0.79204541 0.60895509 -0.042868856 0.00036658239
-0.0067073721 0.0097699743 -0.031487331 -0.74347144 0.6681304 -0.029191075 0.00025559744
-0.005263513 0.011302609 -0.031568661 -0.69903421 0.71459413 -0.026578413 0.00028235686
0.064906985 0.011029621 -0.031298574 0.7032699 0.70939845 -0.046532169 0.00016127988
0.066395253 0.0095476266 -0.031258464 0.73747838 0.67352575 -0.049887296 0.00029724327
-0.0037542309 0.012725832 -0.031525746 -0.67162162 0.74033636 -0.02874645 0.00025802801
-0.0020005002 0.014235 -0.031433269 -0.64340627 0.76492852 -0.030212173 0.000199456
0.061762035 0.014085512 -0.031521298 0.63630885 0.77021998 -0.043269422 0.00039112195
0.063467741 0.012465271 -0.031141846 0.6800344 0.73172605 -0.046154771 0.00015329896
-0.00047074712 0.015449693 -0.031394742 -0.61055493 0.7914477 -0.028864577 0.00025794865
0.0013456555 0.016796663 -0.03134153 -0.57071936 0.82063138 -0.029042905 0.00021911047
0.0031189022 0.017922556 -0.031830017 -0.53864127 0.84207124 -0.027957842 0.00038041142
0.056664132 0.017806333 -0.032026142 0.5416708 0.83962184 -0.040347539 0.00044040623
0.058863126 0.016387228 -0.030940073 0.55885309 0.82848269 -0.036051631 0.00022500657
0.060354125 0.015201616 -0.031079097 0.61866689 0.78413999 -0.04874194 0.00047803801
0.0045666192 0.018881088 -0.031422224 -0.50433755 0.86303025 -0.028678821 0.00035468658
0.0072728954 0.020320293 -0.031477887 -0.46325129 0.88567311 -0.031327691 0.00023015552
0.052666418 0.020136684 -0.031438004 0.46489245 0.88460058 -0.036834251 0.00028030391
0.055039495 0.018909544 -0.031397536 0.51018673 0.85919106 -0.038733508 0.00041375431
0.0086752279 0.02108782 -0.031460393 -0.44119585 0.89688331 -0.030766089 0.00030508116
0.010428444 0.021863267 -0.031510841 -0.39514068 0.91811234 -0.030555956 0.00038416841
0.013452483 0.023040723 -0.031504188 -0.3259145 0.94461977 -0.038382143 0.00037048355
0.015910987 0.023770269 -0.031524725 -0.27911139 0.95933241 -0.0421676 0.00021889148
0.044129662 0.023701077 -0.031468686 0.29879162 0.95388663 -0.028703129 0.00027153737
0.046516802 0.022895573 -0.031307351 0.33530682 0.94158602 -0.031387974 0.00023690976
0.049684756 0.021640042 -0.031217244 0.41160893 0.91087937 -0.02961175 0.00040180224
0.051044405 0.021046899 -0.03171479 0.42822671 0.90321201 -0.028808469 0.00040680185
0.017396376 0.024180017 -0.031340569 -0.25583741 0.9657802 -0.042612493 0.00013079977
0.019560549 0.024718519 -0.031497721 -0.21532272 0.97583991 -0.037049133 0.00022703093
0.022458378 0.025301153 -0.03145685 -0.16498382 0.98566097 -0.035395578 0.00055655546
0.025449123 0.025656192 -0.031472933 -0.10009155 0.99456561 -0.028651472 0.00032684658
0.028470917 0.025921898 -0.031490669 -0.038823605 0.99870294 -0.032941174 0.00065131555
0.031557396 0.025828676 -0.031453684 0.047609948 0.99824393 -0.035248514 0.00029845894
0.034583665 0.025582226 -0.031507809 0.095941745 0.99479157 -0.034422714 0.00020224309
0.037507575 0.02527927 -0.031491302 0.16339579 0.98593903 -0.035015542 0.00054840988
0.040381178 0.024718849 -0.031535551 0.2050212 0.97848183 -0.023231121 0.00024788795
0.042622637 0.024149315 -0.03159241 0.27633798 0.96073627 -0.024963858 0.00038498244
0.016955227 -0.072346769 -0.028529799 -0.25436619 -0.96698117 -0.015664533 0.00014625353
0.019589592 -0.073011398 -0.028493898 -0.20855451 -0.97794068 -0.011704515 0.00031154539
0.022668004 -0.073524937 -0.028434174 -0.14187409 -0.98984915 -0.0083851069 0.00039736257
0.025616836 -0.073859841 -0.02851299 -0.094574429 -0.99541432 -0.014356581 0.00011706871
0.028711827 -0.074066669 -0.028497012 -0.035326332 -0.99926615 -0.014806767 0.00050069171
0.031960629 -0.074004009 -0.028552586 0.04431653 -0.99892175 -0.013831524 0.00019100489
0.034772553 -0.073846355 -0.028484175 0.08131434 -0.99655092 -0.016560394 0.00028335609
0.037465949 -0.073522717 -0.02842604 0.17659374 -0.98426872 -0.0054512918 0.00053055229
0.041048996 -0.072793201 -0.027851798 0.19943145 -0.97990948 -0.0021233996 0.0001501946
0.043003064 -0.072255231 -0.028801151 0.27238497 -0.96218765 -0.0012126425 8.781012e-05
0.008507031 -0.069154471 -0.028957015 -0.45080572 -0.89242142 -0.018924845 0.00017588395
0.010128019 -0.069994196 -0.028538898 -0.41595972 -0.9092505 -0.015528484 0.00030144231
0.013407805 -0.071320377 -0.028914526 -0.35610428 -0.93434197 -0.013957445 0.00040441379
0.015438226 -0.071942031 -0.028627887 -0.26803017 -0.96331179 -0.013791555 0.00014249938
0.044440933 -0.071844898 -0.028348356 0.28984609 -0.95707142 -0.0018979606 0
0.046494279 -0.071154326 -0.028192708 0.33102515 -0.9436124 0.0042480128 0.00015666324
0.049380794 -0.070005625 -0.02782489 0.42246777 -0.90633434 -0.0088915024 0.00022485603
0.051569112 -0.069025844 -0.02726387 0.44906259 -0.89348626 -0.0050152051 0.00018041955
0.002905163 -0.066110902 -0.02823516 -0.53533787 -0.84446883 -0.016905533 0.00058864034
0.004654753 -0.067224972 -0.028380767 -0.49261823 -0.87013137 -0.014096905 0.00038751992
0.0071741845 -0.068490356 -0.028893514 -0.45679975 -0.88933045 -0.020622727 0.00021516003
0.053118005 -0.068236932 -0.028870124 0.46363348 -0.88585079 -0.017677501 0.0002536281
0.055789981 -0.066703185 -0.028578635 0.52258819 -0.85254335 -0.0084553203 0.00018482681
-0.00085608836 -0.06344334 -0.028533729 -0.61933035 -0.78512448 -0.0030850256 0.00024941872
0.0013093142 -0.065053783 -0.028530702 -0.57462072 -0.81838906 -0.007092807 0.00041853887
0.058216631 -0.065082811 -0.02830755 0.55616516 -0.83100408 -0.01060658 0.00021990392
0.060323615 -0.06352593 -0.029392172 0.60064495 -0.79950774 -0.0036226821 0.00022344684
-0.0041555371 -0.06067685 -0.028398573 -0.6842593 -0.72920358 -0.0071648653 0.00026062774
-0.0023798682 -0.062189423 -0.02844264 -0.64974177 -0.76014352 -0.0041830037 0.00020726226
0.062089752 -0.062108122 -0.028531801 0.66046202 -0.75080538 -0.0090128109 0.00017353368
0.063730948 -0.060643721 -0.028197404 0.68974698 -0.72397608 -0.010378831 9.5623611e-05
-0.0068497164 -0.057918999 -0.028506914 -0.73784935 -0.67492348 -0.0075279186 9.9559293e-05
-0.0055344421 -0.059310779 -0.02838775 -0.71243954 -0.70168304 -0.008412241 0.00017024858
0.065230846 -0.059178505 -0.028371928 0.71261954 -0.70146918 -0.01069539 0.00035994084
0.066599071 -0.057725001 -0.028272919 0.73996425 -0.67260778 -0.007191841 0.00031504425
-0.0094317757 -0.054906737 -0.028549273 -0.78573465 -0.61846858 -0.010848354 0.00025298906
-0.0083414642 -0.056265656 -0.028511237 -0.76267517 -0.64670181 -0.01017073 0.00024315
0.068300828 -0.055799872 -0.028812293 0.77374029 -0.63345093 -0.008116981 0.00034248974
0.069196932 -0.054673776 -0.027628191 0.78871644 -0.61468983 -0.0091030905 0.00037932798
-0.012172654 -0.05122387 -0.028497981 -0.83732229 -0.54670846 -0.001157618 0.00054065912
-0.011401945 -0.052177425 -0.028519478 -0.83476806 -0.55056232 -0.006593206 0.00061141688
0.070732445 -0.0524984 -0.028808843 0.84113896 -0.54063952 -0.013934254 0.00031969807
-0.013122998 -0.049326867 -0.02852877 -0.87322843 -0.48719624 -0.010577573 0.00039362637
0.071897388 -0.050836556 -0.028344415 0.83766979 -0.54612052 -0.0078603011 0.00036834445
0.072699249 -0.049368866 -0.028566718 0.86720109 -0.49793774 -0.0045079398 0.00032363989
-0.015286849 -0.04549842 -0.028375424 -0.89228731 -0.45098487 -0.020880928 0.00017384761
-0.014332959 -0.046872709 -0.028703075 -0.89160067 -0.45249966 -0.01709868 0.00015138852
0.074287042 -0.046462595 -0.028557364 0.89652258 -0.44289434 -0.0095840991 0.00025266438
-0.016067944 -0.043570206 -0.028482163 -0.91809946 -0.39586604 -0.01958175 0.00061145111
0.075622201 -0.043503806 -0.028647993 0.92357922 -0.38313302 -0.014508527 0.00021510565
-0.017193412 -0.040477574 -0.028445572 -0.94317424 -0.33211032 -0.011186643 0.00013883789
0.076760173 -0.040518899 -0.028459441 0.94879115 -0.31569624 -0.011458375 0.00026249333
-0.018290935 -0.037071519 -0.028548284 -0.96503383 -0.26187006 -0.011571787 0.00034259231
-0.017828245 -0.038611192 -0.028547909 -0.96016812 -0.27924377 -0.010000063 0.00039907801
0.077664316 -0.037552934 -0.028466733 0.96510357 -0.26174897 -0.0079153255 0.00038453712
0.078038439 -0.036073118 -0.028326172 0.97031689 -0.24182664 -0.0022589951 0.00043607177
-0.018908326 -0.034410249 -0.028487891 -0.97863591 -0.20508158 -0.014604511 0.00024346053
0.078395486 -0.034403548 -0.028421041 0.98085028 -0.19475478 0.0018305964 0.00017117742
-0.019428186 -0.031425443 -0.028488249 -0.98790103 -0.1539796 -0.018487984 0.00025703714
0.078904197 -0.031481221 -0.028492678 0.98870099 -0.14989491 0.0013806502 0.0001972332
-0.019809589 -0.028480854 -0.028500419 -0.9938727 -0.10914193 -0.017467849 0.00029684929
0.079217091 -0.028509311 -0.02863731 0.99677646 -0.080216199 -0.0014169348 0.00049575599
-0.020030767 -0.025488069 -0.028626941 -0.99899042 -0.042938542 -0.013207521 0.00034674205
0.079356462 -0.025550591 -0.028749313 0.99985647 -0.014693175 -0.0084327003 0.00036952255
-0.020053433 -0.022449275 -0.028559705 -0.99960029 0.026831506 -0.0089079347 0.00014431751
0.079373494 -0.022534531 -0.028626373 0.99944574 0.031710323 -0.010137504 0.00022131557
-0.019888964 -0.019449372 -0.028631628 -0.99522257 0.096946791 -0.011549788 0.0003431486
0.07916753 -0.019496225 -0.028493114 0.99265313 0.1209479 -0.003379199 0.0005443393
-0.019415379 -0.016570471 -0.028437108 -0.9843303 0.1762341 -0.0059510763 0.00022719531
0.078699082 -0.016352264 -0.028541273 0.98381388 0.1791224 -0.0050510434 0.0002993973
-0.018883381 -0.013463569 -0.02849061 -0.97440314 0.22474794 -0.0051915711 0.00017025386
0.077888623 -0.012557225 -0.028408997 0.97657675 0.21516912 -0.00038646668 0.0002090061
0.078370936 -0.013906308 -0.028623166 0.97663945 0.21478669 -0.0064887935 0.00024133986
-0.018230027 -0.010989515 -0.028531253 -0.96430075 0.26470807 -0.0073318295 0.00018719074
-0.017850894 -0.0095710885 -0.028402923 -0.95993209 0.28012276 -0.0078501375 0.00017810175
0.077511013 -0.010503476 -0.028543046 0.96189135 0.27341795 -0.0027610424 0.00056879403
-0.01715349 -0.0074985735 -0.028488304 -0.94333106 0.3317638 -0.0076969727 0.00020086431
0.076552987 -0.0073667048 -0.028485797 0.94085729 0.3387509 -0.005945229 0.00029472497
-0.015985716 -0.0044720075 -0.028417844 -0.92582262 0.37795797 -0.00048469001 0.00013480558
0.074758299 -0.0032633811 -0.028740639 0.90783113 0.41932821 -0.0025405921 0.00036490048
