# .PCD v0.7 - Point Cloud Data file format
VERSION 0.7
FIELDS x y z normal_x normal_y normal_z curvature
SIZE 4 4 4 4 4 4 4
TYPE F F F F F F F
COUNT 1 1 1 1 1 1 1
WIDTH 546
HEIGHT 1
VIEWPOINT 0 0 0 1 0 0 0
POINTS 546
DATA ascii
0.0074547953 0.02034742 -0.097423434 -0.44622797 0.89480549 0.014276356 0.0003509846
0.050825648 0.020788694 -0.097639419 0.44323525 0.8963756 -0.0073033907 0.00017378545
0.052433494 0.020005202 -0.097594872 0.45807111 0.88889438 -0.0061326958 0.00016737914
0.054861467 0.018670846 -0.097463623 0.51005453 0.86012429 -0.0055316882 0.00023938849
0.008986935 0.021103516 -0.098057233 -0.4084774 0.91271722 0.0096675763 0.00066853053
0.010297015 0.021708751 -0.097554229 -0.40418038 0.914639 0.0085857306 0.00018926155
0.013608459 0.022930974 -0.097444877 -0.33871466 0.94085431 -0.0081001716 0.00013280319
0.016103294 0.023775589 -0.097623706 -0.30541828 0.95208472 -0.015951609 8.8567496e-05
0.043894589 0.0235235 -0.0973894 0.32135397 0.94694495 -0.0051871696 5.1217132e-05
0.046513591 0.022585865 -0.097537801 0.34657246 0.93797308 -0.0096970657 9.8070348e-05
0.049223337 0.021513777 -0.097478129 0.39186084 0.91995841 -0.011026324 0.00015089642
0.017482499 0.024217498 -0.097321779 -0.28766617 0.95762014 -0.014556141 0.0001529346
0.01957171 0.024790706 -0.097476661 -0.23954183 0.97087836 -0.0038544002 0.00023175516
0.022351313 0.025376562 -0.097545192 -0.18748257 0.98224419 0.0068299994 0.0004495852
0.025289746 0.025779311 -0.097431101 -0.10511158 0.99430805 0.017407171 0.00053099112
0.02826694 0.025994632 -0.097534388 -0.035155348 0.99912035 0.022861117 0.0002704449
0.031433903 0.026064334 -0.097691849 0.014705689 0.99960196 0.024077704 0.00037620831
0.033717401 0.025992613 -0.097278938 0.065834224 0.9974618 0.02712564 0.0010757261
0.037130654 0.025530079 -0.097436763 0.15677294 0.9870888 0.032830901 0.00053445669
0.040509325 0.02460341 -0.097458877 0.26549351 0.96408772 0.0069368402 0.00017695884
0.042366955 0.024020325 -0.097629614 0.31355971 0.9495669 0.0017700602 9.2953538e-05
0.015366211 -0.072206452 -0.095101379 -0.39225653 -0.91983819 0.0057089552 2.4636278e-05
0.010562923 -0.070303887 -0.095706902 -0.40354678 -0.91494304 0.0054131765 0.00023418528
0.013084037 -0.071410127 -0.093793578 -0.40344891 -0.91498667 0.0053305859 0.00014859048
0.0043228003 -0.06711103 -0.094536439 -0.52581245 -0.85051709 0.011914155 0.00036066124
0.0062279096 -0.068068184 -0.095430739 -0.52754033 -0.84952611 -0.0026021365 0.00016904701
-0.0012306694 -0.063379548 -0.095428877 -0.62429106 -0.78103924 0.015440759 0.00021640613
0.0010110313 -0.064923927 -0.094588473 -0.58097798 -0.81358451 0.023341369 0.00019786725
-0.003993338 -0.060893796 -0.093888626 -0.68393034 -0.72899801 0.028304888 0.00060822454
-0.0019792514 -0.062631354 -0.094452992 -0.63300663 -0.77387303 0.020571031 0.00020317544
-0.0068490864 -0.057953887 -0.094038501 -0.74607623 -0.66518128 0.030069096 0.00034583721
-0.0057904366 -0.058920823 -0.094565243 -0.72644365 -0.68694746 0.019564791 0.00028508194
-0.0094911885 -0.054811008 -0.094340004 -0.78815782 -0.61493593 0.025709314 0.00027599127
-0.0082241297 -0.056332491 -0.094752908 -0.75977927 -0.64964473 0.026403666 0.00025427283
-0.012126155 -0.051343556 -0.095474727 -0.82368261 -0.5669294 0.011753399 0.0001262125
-0.011049781 -0.05264543 -0.094483212 -0.81920815 -0.57303876 0.022907173 0.00022138542
-0.013120947 -0.049517583 -0.094400473 -0.85885882 -0.51173347 0.022147404 0.00035135186
-0.01516326 -0.045679189 -0.094227403 -0.89378989 -0.44843039 0.0070597059 0.00029286853
-0.014483981 -0.047031634 -0.094553545 -0.88718897 -0.4613367 0.0080070132 0.00035359937
-0.016102798 -0.043591067 -0.09447135 -0.91786295 -0.39683151 0.0072358157 0.00016803888
-0.017362237 -0.04050763 -0.09453056 -0.93929136 -0.34306601 0.0061213267 0.00021357628
-0.018397104 -0.037331697 -0.094526462 -0.96311826 -0.26880836 0.012056005 0.00025158725
-0.017827708 -0.038611151 -0.094354607 -0.9590773 -0.28293473 0.010895132 0.00028544891
-0.019120328 -0.034319051 -0.094465189 -0.9783147 -0.20678487 0.011851261 0.00023426962
-0.019641466 -0.031284764 -0.09449701 -0.99156314 -0.12934162 0.0085614575 0.00046549639
-0.020006884 -0.028421341 -0.094365366 -0.99702483 -0.077075608 0.00091138727 0.00027664797
-0.020133438 -0.025578801 -0.094033793 -0.99925137 -0.038647503 0.001767302 0.00023301061
-0.020159304 -0.022635002 -0.09407527 -0.99972171 0.023491809 0.0021502762 0.00032146848
-0.019949185 -0.019137289 -0.094362415 -0.98973083 0.14286065 0.0048656478 0.00021170343
-0.019510303 -0.016552377 -0.094521031 -0.98472804 0.17404699 0.0042841169 0.00017850037
-0.018885888 -0.013107724 -0.094494782 -0.97221249 0.23380135 0.011818687 0.0002578437
0.078219011 -0.014019256 -0.094489656 0.96994054 0.2433079 -0.0040770341 0.00019230167
-0.018275004 -0.010953853 -0.0944563 -0.96227199 0.27182445 0.012002216 0.00019995311
-0.017867113 -0.0095497845 -0.094386414 -0.95412904 0.29921439 0.010419758 0.00035631796
0.077288546 -0.010257272 -0.094490267 0.95942193 0.28197441 -1.0090367e-06 0.00054506341
-0.017180489 -0.0073574618 -0.094505765 -0.93646359 0.35048434 0.014024446 0.00022434641
0.076505616 -0.0079055708 -0.094552591 0.94298941 0.33281919 -0.0015204663 0.00015063593
-0.016026884 -0.0044951285 -0.094496377 -0.92117614 0.38888836 0.014156553 0.00012685603
0.074968264 -0.0038138323 -0.09341906 0.92052883 0.39061511 0.0068256189 0.00046920186
0.075443193 -0.0050170119 -0.094682015 0.92375118 0.38288364 0.0091620153 0.00048211394
-0.015163768 -0.0025245938 -0.094752006 -0.90429735 0.42676321 0.010927109 0.00032125041
-0.014476519 -0.0011568078 -0.09447971 -0.88788241 0.45987874 0.013277039 0.0002902447
0.073894307 -0.0016288743 -0.094656616 0.89465588 0.44673973 0.0037890866 0.00022569143
-0.013059419 0.0013929467 -0.094569005 -0.85703951 0.5151307 0.011112696 0.00035754751
0.071712203 0.0022467724 -0.094299898 0.8491866 0.52794355 0.012560016 0.00032177096
0.0725917 0.00075258134 -0.094229631 0.86307573 0.50492561 0.01226311 0.00026040396
-0.012151318 0.0031616271 -0.095376447 -0.82433605 0.56608403 0.0043573263 0.00035762484
-0.01094221 0.0045801406 -0.0945099 -0.81100178 0.58497363 0.0090579791 0.00027828474
0.070161469 0.004573972 -0.094462804 0.81631511 0.57746619 0.012747225 0.0002046662
-0.0094613032 0.0065551749 -0.094251402 -0.77792257 0.62830776 0.0081061432 0.00015761366
-0.0081741698 0.008109943 -0.094733931 -0.7518605 0.65929866 0.0055748965 0.00015900348
0.067737676 0.0077938051 -0.094449811 0.78110182 0.62427986 0.012434758 0.00036178352
-0.0067021106 0.0097514763 -0.094417006 -0.73620826 0.67673993 0.0045252368 0.00011892035
-0.0053014872 0.011190783 -0.094404757 -0.71091765 0.70324904 0.0060733445 0.00010582632
0.064812377 0.011034461 -0.094552264 0.69772196 0.71630096 0.0098480955 0.00029242827
0.06626416 0.0095672775 -0.094724268 0.735479 0.67746937 0.010288178 0.00025817263
-0.0038144412 0.012649764 -0.094491504 -0.68666738 0.726928 0.0079795262 0.00016972817
-0.0021143358 0.014194163 -0.094632983 -0.65917724 0.75191164 0.010687374 0.00021156752
0.061682701 0.013900716 -0.094530843 0.64436579 0.76467198 0.0083386451 0.00033526358
0.063372314 0.012449456 -0.094404891 0.68013775 0.7330448 0.0076221288 0.00020964612
-0.00044389325 0.015536699 -0.094290912 -0.61096275 0.79160738 0.0090671275 0.0002936798
0.0014442513 0.016885201 -0.094618201 -0.56371266 0.82593 0.0082220268 0.00024006313
0.0030885739 0.017883221 -0.09446235 -0.54717171 0.83697087 0.0091062672 0.00016707962
0.056426704 0.017745994 -0.094559386 0.53054631 0.84757769 0.011514463 0.00027313529
0.058463831 0.016375406 -0.094370447 0.57484782 0.81819898 0.010022939 0.00025281013
0.0600246 0.015231893 -0.095309637 0.60887426 0.79315627 0.013239511 0.00028702072
0.0045559574 0.018827343 -0.094608694 -0.50472879 0.86324108 0.0079763206 0.00023128038
0.0073577184 0.020376846 -0.094683789 -0.44790792 0.89401871 0.010442956 0.0002588878
0.050769906 0.020857539 -0.09465532 0.41621536 0.90909457 0.017660778 0.00023661595
0.052579131 0.019948805 -0.09444274 0.45931721 0.88812131 0.016379341 0.00018464845
0.055000737 0.018610436 -0.094575897 0.50570554 0.86261606 0.012466625 0.00023762041
0.010481693 0.021779152 -0.094231151 -0.40643162 0.91363597 0.0090890909 0.00019512647
0.013600576 0.02293824 -0.09446305 -0.34274569 0.93938637 0.0088659255 0.00014794373
0.015962664 0.023759278 -0.094283566 -0.30084285 0.95357966 0.013394193 0.00016942235
0.043862287 0.023547856 -0.094438985 0.3183412 0.94792545 0.009817048 0.00010545713
0.046508208 0.022643227 -0.094456986 0.34669349 0.93790829 0.011473547 0.0001906852
0.049172532 0.02156961 -0.094505571 0.39370728 0.91913444 0.013655836 0.00020857344
0.017294876 0.024173882 -0.094751388 -0.27826768 0.96025276 0.021947756 0.00031626
0.019554675 0.024755986 -0.094435371 -0.22244671 0.97435021 0.034047119 0.00028707879
0.022419129 0.025337838 -0.094528094 -0.17884503 0.9830451 0.040457774 0.00036199787
0.025271535 0.025716923 -0.094473362 -0.10472324 0.99337608 0.047297776 0.00050036126
0.028515536 0.025923193 -0.094446912 -0.033825085 0.99816102 0.050304748 0.00022975446
0.031403832 0.025988061 -0.094472557 0.020073874 0.99807894 0.058612723 0.00053842855
0.033974238 0.025888339 -0.094422027 0.073699616 0.99537575 0.061607707 0.0009158405
0.03736382 0.025451355 -0.094519056 0.1741204 0.9829008 0.059901208 0.0006155615
0.040466052 0.024584685 -0.094448522 0.25267279 0.96656317 0.043727767 0.00048964308
0.042335682 0.024029329 -0.094694398 0.29571527 0.95505089 0.020743102 0.00025050287
0.0084669907 -0.069300771 -0.09186589 -0.45480072 -0.89030969 0.022473227 0.00049574411
0.010554168 -0.070237562 -0.091626756 -0.42366737 -0.9055993 0.019896347 0.00070509623
0.0028376677 -0.066139065 -0.0914938 -0.54263157 -0.83782619 0.059986304 0.00077893527
0.0050972234 -0.06748952 -0.092065871 -0.51641899 -0.85588986 0.027641289 0.00053613825
0.0073165782 -0.068677723 -0.091929227 -0.50144237 -0.86494696 0.020548414 0.00055419724
-0.00087288732 -0.063351348 -0.091283321 -0.62694317 -0.77777129 0.04487785 0.00069210812
0.0010782803 -0.064847291 -0.091207698 -0.57605249 -0.81597 0.048544526 0.00077499211
-0.0041645644 -0.060588736 -0.091583014 -0.69077516 -0.71954888 0.071267657 0.00076589163
-0.0022412953 -0.062233083 -0.091209382 -0.64206576 -0.76248139 0.079834826 0.00044056805
-0.0067239953 -0.057802707 -0.091322042 -0.74854708 -0.6592536 0.071146846 0.00031411229
-0.0054874299 -0.059284959 -0.09186767 -0.72321337 -0.68595135 0.080206953 0.00050939317
-0.009456696 -0.0545834 -0.091495432 -0.78054726 -0.62238669 0.058144528 0.00028259808
-0.0081226565 -0.056166261 -0.091446489 -0.76283801 -0.64335084 0.064636387 0.00011873274
-0.012145374 -0.051153794 -0.091903985 -0.83475554 -0.54793137 0.054355409 0.00031776112
-0.010966088 -0.052555203 -0.091476895 -0.81862938 -0.57185704 0.053156059 0.0004589227
-0.013069438 -0.049309164 -0.091410965 -0.85708594 -0.51225072 0.05479819 0.00028156574
-0.011928492 -0.05060181 -0.090085804 -0.82494897 -0.56456882 0.026856527 0.00040911185
-0.015190383 -0.045503817 -0.091504425 -0.89193434 -0.45071721 0.03615519 0.00044889777
-0.014526458 -0.046867877 -0.091565356 -0.87866324 -0.47521371 0.046073955 0.00032406129
-0.016085226 -0.043598555 -0.091511801 -0.9160009 -0.39979112 0.03330892 0.00023652206
-0.017282274 -0.040542301 -0.091522112 -0.93796104 -0.34583455 0.025051819 0.00024834019
-0.018363236 -0.037202526 -0.091407456 -0.96227551 -0.27134073 0.020004485 0.00025532831
-0.017829763 -0.038410999 -0.091488689 -0.9592734 -0.28153336 0.023099527 0.00029156232
-0.01902296 -0.034445837 -0.091438502 -0.97622913 -0.21594976 0.018501392 0.00029297394
-0.019622087 -0.031216204 -0.091458306 -0.98874241 -0.14885476 0.015189665 0.00048113527
-0.019939367 -0.028521314 -0.091580003 -0.99699849 -0.076414451 0.01244646 0.00030296046
-0.020103963 -0.025582843 -0.09136802 -0.99925673 -0.037306886 0.0097077489 0.00033427513
-0.020124285 -0.022629183 -0.091362193 -0.99957019 0.026029458 0.013487869 0.0003861743
-0.019904964 -0.019333795 -0.091571189 -0.99384159 0.10907377 0.019541303 0.00024606613
-0.019530186 -0.016511416 -0.091539688 -0.98137343 0.19135372 0.017026691 0.00031700119
-0.018780133 -0.012981514 -0.091488041 -0.97044981 0.23969783 0.027787294 0.00029307522
0.078063868 -0.013601962 -0.091485359 0.96517915 0.2615284 0.0056717964 0.0001388589
-0.018232651 -0.010984811 -0.091535076 -0.9603889 0.27600428 0.038403425 0.00032558822
-0.017833373 -0.0095149782 -0.091320664 -0.95457649 0.29624784 0.031950552 0.00035585559
0.077124849 -0.0097460523 -0.091455266 0.95377886 0.29833561 0.036079749 0.0004986322
-0.0171407 -0.007501422 -0.091598831 -0.93925041 0.34091902 0.039785039 0.00025348077
0.076354884 -0.0075857351 -0.091314696 0.93982804 0.34078649 0.024246583 2.9316901e-05
-0.01595621 -0.004554342 -0.091478884 -0.92293549 0.38360339 0.032226823 0.00019317506
0.074900843 -0.0039009813 -0.091323957 0.91284633 0.40647635 0.038581856 0.00037572268
0.075618997 -0.0055846758 -0.091550276 0.92711216 0.37338549 0.032348119 0.00028949071
-0.015180023 -0.0027440826 -0.091603421 -0.90822089 0.41780132 0.024018655 0.0003442436
-0.014457433 -0.0012355762 -0.09152928 -0.89277893 0.45000172 0.021073366 0.00041644438
0.073920935 -0.0018282271 -0.091617063 0.89451206 0.4454155 0.038121905 0.00032565728
-0.012967202 0.0014459196 -0.091633379 -0.85327941 0.52124554 0.014740715 0.0003602434
-0.011942206 0.002734062 -0.091117047 -0.83948797 0.54332668 0.0074941567 0.00075975468
0.071609192 0.0022505166 -0.091271766 0.84845787 0.52858031 0.026873268 0.00056867639
0.072611019 0.00062885653 -0.091620289 0.86359787 0.50342935 0.027526306 0.00055161299
-0.012267023 0.0030082234 -0.092589661 -0.83682632 0.54720664 0.016929301 0.00067097519
-0.010832995 0.0046396521 -0.091433309 -0.80723482 0.58989757 0.019820189 0.00038116905
0.070065886 0.0045414646 -0.091464199 0.82360899 0.56660181 0.025113266 0.00031958861
-0.0093765259 0.0065279999 -0.09152323 -0.77421194 0.63247865 0.023805177 0.00019712129
-0.0081228884 0.0080672503 -0.091433041 -0.75163525 0.65903819 0.026703462 0.0001202338
0.067644164 0.0077981069 -0.091449127 0.77606893 0.6297726 0.033219639 0.00065945694
-0.0066495761 0.0097335279 -0.091527157 -0.73157018 0.68127239 0.025941279 0.00017376356
-0.0052539296 0.011181778 -0.091405191 -0.71217686 0.70150638 0.026324764 0.00016129606
0.064700373 0.011012062 -0.091446683 0.69453597 0.71847236 0.03764819 0.00011886104
0.066172503 0.0094944881 -0.091473162 0.73263299 0.67962849 0.036797073 0.0002415667
-0.0037223704 0.012657502 -0.091535628 -0.68449819 0.72858584 0.024999399 0.00015929445
-0.0019651707 0.014230736 -0.091625191 -0.64488041 0.76391184 0.023831407 0.00031244365
0.06165038 0.013790851 -0.091544107 0.63616449 0.77015084 0.046503294 0.0002531347
0.063297227 0.012364157 -0.09147495 0.68041033 0.73171401 0.0404534 0.00019824601
-0.00044860574 0.015447668 -0.091551207 -0.61026472 0.79184341 0.023683697 0.00024972521
0.001455309 0.016826052 -0.091386952 -0.56629056 0.82413054 0.011133208 0.00028989417
0.0031510014 0.017881548 -0.091471039 -0.55040175 0.83485419 0.0087452056 0.00022711761
0.056387071 0.01766438 -0.091494672 0.52937347 0.84750473 0.038723383 0.00036508418
0.058584899 0.016185137 -0.09143889 0.58486962 0.80988735 0.04483306 0.00028416308
0.0046523674 0.018873343 -0.091637947 -0.49822628 0.86695218 0.012822107 0.00039364118
0.0072594178 0.020244064 -0.091408707 -0.45984417 0.88793254 0.01091939 0.00043933082
0.050541341 0.020798454 -0.091365024 0.41280472 0.9101361 0.035278089 0.00021092316
0.052596532 0.019803908 -0.091451734 0.45598841 0.88933128 0.034124915 0.00020035244
0.055006571 0.018513888 -0.091500506 0.5092448 0.85989404 0.035383616 0.0002852898
0.0086176982 0.021088524 -0.091345593 -0.45199302 0.89193678 0.012291851 0.00020130175
0.010518091 0.021676764 -0.091478832 -0.38078916 0.92441696 0.021282744 0.00028156288
0.013508729 0.022857521 -0.091565266 -0.3347328 0.94195175 0.026093001 0.00019792808
0.016184175 0.023715129 -0.091375247 -0.2907384 0.95626384 0.032104112 0.00033798817
0.041603457 0.023933327 -0.090280227 0.22987825 0.97184944 0.051620264 0.00032971139
0.043608718 0.023537211 -0.091460578 0.29180095 0.9555676 0.041746873 0.00051345088
0.046449624 0.022553563 -0.091470912 0.36206904 0.93161261 0.031686835 0.00021067412
0.048931073 0.021545293 -0.091576524 0.39922768 0.91622066 0.034015052 0.00018260923
0.017655106 0.024148641 -0.09147121 -0.26809582 0.96261483 0.0386957 0.00036098168
0.01948601 0.02455448 -0.091620453 -0.2133566 0.97584456 0.04697274 0.00026663844
0.022515293 0.025129719 -0.09139438 -0.16923399 0.98335797 0.066082723 0.00021918706
0.025505014 0.025575183 -0.091539346 -0.083219223 0.99412906 0.069151759 0.00044702366
0.028648382 0.025692318 -0.091654561 -0.03066458 0.99816513 0.052211285 0.0008294757
0.031523421 0.02570045 -0.091469236 0.034375194 0.99712336 0.067552626 0.0013840627
0.034486726 0.025555234 -0.091463953 0.11402883 0.9889546 0.094690517 0.00050448818
0.037287295 0.025139086 -0.091372728 0.15380345 0.98363942 0.093797609 0.00060195173
0.039841369 0.024739513 -0.092019618 0.17810662 0.98124456 0.073736742 0.00055089343
0.042317968 0.024005244 -0.092955701 0.28802991 0.95679659 0.0397381 0.00051236298
0.0050909524 -0.067246027 -0.089809544 -0.49324912 -0.86875641 0.044358738 0.00067032163
-0.00034424788 -0.063537672 -0.088385068 -0.62229633 -0.78272271 -0.009616673 0.0018428846
0.0016725117 -0.065048143 -0.088550359 -0.58940643 -0.80780762 -0.00685493 0.00109492
-0.0036340854 -0.060741846 -0.089121349 -0.67640215 -0.73372102 0.064293414 0.0013990202
-0.0015966545 -0.062242728 -0.08863385 -0.62482911 -0.78069937 -0.0098537793 0.0019181328
-0.0065256893 -0.057835706 -0.089079596 -0.73399222 -0.67906386 0.011303332 0.0022073507
-0.0051962421 -0.059185959 -0.089312583 -0.73243427 -0.67928892 0.045897897 0.0011468722
-0.0094696004 -0.054343425 -0.089209646 -0.7932328 -0.60886335 0.0081966454 0.0014408457
-0.0082536433 -0.055689089 -0.088968836 -0.78185892 -0.62340117 -0.0082274778 0.0011778844
-0.01099325 -0.052241404 -0.088519692 -0.82423276 -0.56614757 -0.010828028 0.0013985285
-0.012937628 -0.049177028 -0.088791192 -0.85754091 -0.51441419 0.0012801121 0.0011497329
-0.011926927 -0.050602585 -0.089048602 -0.84873855 -0.52880341 -0.0031453345 0.0011206582
-0.01523396 -0.045123529 -0.088930875 -0.88288128 -0.4695152 0.0087180855 0.0012525324
-0.014431606 -0.046579532 -0.088620931 -0.88356316 -0.46829724 -0.003721856 0.001373712
-0.016031388 -0.043330539 -0.088747323 -0.91425049 -0.40506023 -0.0085018678 0.00089976779
-0.017223973 -0.040478952 -0.088705145 -0.94007349 -0.34074938 -0.012315484 0.00064775778
-0.018311238 -0.037093665 -0.088425845 -0.96175379 -0.27356672 -0.013814909 0.00054414605
-0.017863523 -0.038577825 -0.088631175 -0.95496565 -0.29599813 -0.020632559 0.0010056
-0.018984303 -0.034449954 -0.088512927 -0.97549278 -0.21970314 -0.012015455 0.00050190568
-0.019565875 -0.031440943 -0.088528499 -0.98716831 -0.15967654 -0.0014719665 0.00046773267
-0.019911263 -0.028458344 -0.088620543 -0.99716246 -0.075279713 2.8061604e-05 0.00042447893
-0.020059675 -0.025587969 -0.088766277 -0.99929565 -0.037502512 -0.0013127702 0.00037523804
-0.020059116 -0.022640415 -0.088748872 -0.99972904 0.023104273 -0.0028470857 0.00049636571
-0.01984255 -0.019530866 -0.088664234 -0.99422646 0.10724634 0.0034689023 0.00048196453
-0.019457787 -0.016664663 -0.08891689 -0.98054457 0.19622912 -0.0051465398 0.00058681011
-0.018687569 -0.013113142 -0.08882767 -0.97013456 0.24203639 -0.01604102 0.00099109486
0.077910908 -0.013097745 -0.088766523 0.96141547 0.27509928 0.00086591672 0.00030444647
-0.018282158 -0.011411111 -0.088039428 -0.95655316 0.29133189 -0.011477711 0.00098435895
-0.017747613 -0.0097967805 -0.088927291 -0.95686036 0.29054585 0.001138615 0.0010306491
0.077042535 -0.0099292267 -0.088776641 0.95528394 0.29566842 -0.003576091 0.00078780757
-0.016973952 -0.00755203 -0.088599689 -0.94108772 0.33815861 0.0016266847 0.00075694389
0.076274738 -0.0077759395 -0.088650212 0.93780285 0.34711975 0.005814597 0.00060061458
-0.015838059 -0.0045660362 -0.088559069 -0.92465556 0.38080317 -0.0010409192 0.00047137254
-0.014970689 -0.0030085396 -0.088818453 -0.91453314 0.40451095 -0.00028157368 0.00033094658
0.07481429 -0.0041087843 -0.088382885 0.91783112 0.39692146 0.006283165 0.00098726351
0.075513467 -0.0056381258 -0.088523351 0.91747957 0.39778244 0.00058786041 0.0010628375
-0.015133196 -0.0028627305 -0.088798836 -0.90755624 0.41992974 -0.00084717845 0.00054212229
-0.01442352 -0.0011929104 -0.088501208 -0.89424556 0.44757399 0.001549235 0.00064554502
0.07356713 -0.0015167118 -0.088458367 0.8879689 0.45984986 0.007028474 0.00049762626
-0.01289859 0.0015040822 -0.08858522 -0.85518384 0.51832485 -0.0001466245 0.00036974484
-0.011914134 0.0027241651 -0.088643827 -0.8236711 0.56705689 -0.0035343298 0.0005598219
0.071509562 0.0023234498 -0.088524647 0.85528207 0.51814687 -0.0040455605 0.0010236151
0.072342113 0.00097559637 -0.088981807 0.85897475 0.51201779 0.00053197815 0.001009093
-0.010866244 0.0045419317 -0.088709921 -0.80900759 0.58763313 -0.013926169 0.00078556762
0.068994485 0.0059485952 -0.087013818 0.79688478 0.60366231 -0.02380053 0.00066404499
0.070031792 0.0043386812 -0.088605329 0.81413418 0.58041251 -0.017518664 0.00068128004
-0.0093070054 0.0064947773 -0.088530071 -0.77086729 0.63666439 -0.020547407 0.00064251357
-0.0080166887 0.008035115 -0.088464737 -0.75193024 0.65902156 -0.017073467 0.00068726396
0.067566924 0.0076400475 -0.088546149 0.77667791 0.62979954 -0.01113387 0.0014092833
-0.0065695201 0.0096789608 -0.088832863 -0.72611922 0.6875298 -0.007318201 0.00071986346
-0.0051751374 0.011119782 -0.088809393 -0.71077442 0.70335317 -0.009705794 0.00065895234
0.064680368 0.010869194 -0.088523038 0.68781108 0.72580153 -0.011315465 0.0011218995
0.06609004 0.0094238278 -0.088534318 0.72696972 0.6866169 -0.0085064843 0.0011171737
-0.0036761945 0.012583087 -0.088771693 -0.69243634 0.72140914 -0.010034957 0.00065500685
-0.0021136152 0.014023143 -0.088944793 -0.65441447 0.75610685 -0.0066336622 0.00070806098
0.061539806 0.013678471 -0.088548735 0.6443584 0.76426345 -0.02652766 0.0014435436
0.063225761 0.012241463 -0.08857806 0.68680292 0.72670603 -0.014147874 0.0010667298
-0.00050951628 0.015313245 -0.088568807 -0.62869495 0.77755499 -0.012282751 0.0005936427
0.0012267855 0.016636008 -0.088515222 -0.58137053 0.81357217 -0.010426736 0.00048050671
0.0031668996 0.017895117 -0.089066118 -0.56307334 0.82629937 -0.013331885 0.00044576288
0.056302108 0.017563293 -0.088481382 0.52399272 0.85167342 -0.0091669792 0.0011430449
0.058490019 0.016043691 -0.08848653 0.57799447 0.8157708 -0.020985121 0.0013856249
0.0041676834 0.018577926 -0.088262796 -0.52034241 0.85346884 -0.028893087 0.00072215335
0.0075109913 0.020238999 -0.08852765 -0.44353297 0.89542884 -0.038546238 0.00064219214
0.050404184 0.020822635 -0.088533551 0.40708259 0.91325861 -0.015574514 0.00077756494
0.052535582 0.019732984 -0.088520393 0.44723493 0.894324 -0.012867515 0.00062703219
0.054949988 0.018402796 -0.088532537 0.52144694 0.85325468 -0.0070443861 0.0011444897
0.010559658 0.021639694 -0.088450424 -0.38101375 0.92388976 -0.035443895 0.00075542904
0.013581214 0.022740953 -0.088563472 -0.32128003 0.94670385 -0.02304253 0.00071386155
0.016215112 0.023641484 -0.088539287 -0.27599815 0.96095014 -0.019997085 0.0012580655
0.041671332 0.023951622 -0.088532865 0.20033684 0.9794687 -0.02249958 0.0013137066
0.043617334 0.023493435 -0.088525519 0.27616185 0.96068686 -0.028556066 0.0011251587
0.04645234 0.022449844 -0.088551484 0.36102769 0.93242657 -0.015483562 0.00056736002
0.048819367 0.021471864 -0.08848428 0.40855384 0.91254663 -0.018504038 0.00073335093
0.01774816 0.024090163 -0.088473618 -0.24489106 0.96934766 -0.019836333 0.0014134697
0.019343926 0.024370071 -0.08852385 -0.20768791 0.97801846 -0.018592669 0.0012778833
0.022344127 0.024905004 -0.088452518 -0.17028391 0.9852106 -0.019067407 0.0013200741
0.025448598 0.02531201 -0.088552773 -0.083667032 0.99648148 -0.0049588913 0.0019190959
0.028437121 0.025497787 -0.08870618 -0.013002407 0.99991244 -0.0024720484 0.0020225917
0.031176299 0.02553013 -0.08862929 0.031770103 0.99931395 -0.019034652 0.0025965795
0.034169126 0.025242794 -0.088474274 0.11632124 0.99307495 -0.016478613 0.0035299722
0.037578754 0.024812588 -0.088467911 0.16323751 0.98642302 -0.017974777 0.0024781502
0.039652709 0.024391912 -0.088861197 0.18105023 0.98346347 -0.0045147794 0.0024736859
0.0053643482 -0.067623548 -0.084688447 -0.5471952 -0.8369531 -0.009323311 0.00076450151
0.0062236967 -0.068066023 -0.085578598 -0.55151087 -0.83414942 -0.0055306158 0.00072746718
-0.00096677511 -0.063163415 -0.08629398 -0.63397884 -0.77194709 -0.046567492 0.0011188402
0.00072932802 -0.064663008 -0.085374281 -0.58808148 -0.80789292 -0.03832994 0.00059417973
-0.0040813088 -0.060809486 -0.084695458 -0.69151807 -0.72205901 -0.020820322 0.0008278609
-0.0022319497 -0.06245213 -0.085199714 -0.64858216 -0.7604934 -0.031479795 0.0010482873
-0.0066933162 -0.057921723 -0.08566089 -0.74704987 -0.66283256 -0.050690908 0.00028132781
-0.0055724289 -0.059180304 -0.085203826 -0.72463971 -0.68773276 -0.043829482 0.00026213992
-0.0094125122 -0.054786514 -0.085152335 -0.78606391 -0.61665303 -0.042925354 0.00049682352
-0.007998189 -0.056483731 -0.085979387 -0.76197463 -0.64588994 -0.047126159 0.00026867073
-0.012050061 -0.051325094 -0.084288061 -0.83533198 -0.54879177 -0.03237544 0.00027598767
-0.010796921 -0.052874748 -0.085359983 -0.81819236 -0.57387519 -0.035051376 0.00031510298
-0.012947439 -0.049479917 -0.085607335 -0.85412192 -0.51848924 -0.040553641 0.00015311796
-0.015233153 -0.045490198 -0.085373506 -0.88698339 -0.46090207 -0.028805263 0.0004517354
-0.01442222 -0.047035508 -0.085364997 -0.87704366 -0.47941464 -0.030920014 0.00039240159
-0.016232856 -0.043342147 -0.085295498 -0.91639823 -0.39937559 -0.026710417 0.00035400351
-0.01740516 -0.040425081 -0.08544594 -0.93731481 -0.34772757 -0.022946274 0.00032638083
-0.018428288 -0.037278622 -0.08531478 -0.96397161 -0.2651526 -0.021278657 0.00032934369
-0.017866397 -0.03859299 -0.085593827 -0.95842481 -0.28426346 -0.024823993 0.00039376275
-0.019093733 -0.034438401 -0.085385203 -0.97739172 -0.21081711 -0.01617443 0.00029135763
-0.019615399 -0.031469844 -0.085578293 -0.99045163 -0.13773309 -0.0059308717 0.00030913175
-0.01998039 -0.028270353 -0.085387371 -0.9974215 -0.071225591 -0.0087926975 0.00043398049
-0.020143285 -0.025563229 -0.085915983 -0.99929333 -0.036766581 -0.0078245541 0.00033639203
-0.02013075 -0.022587266 -0.085339695 -0.99972743 0.016219907 -0.016793873 0.00039005891
-0.019972213 -0.019664407 -0.085428841 -0.99472171 0.1016771 -0.01380149 0.00038776139
-0.019456683 -0.015960494 -0.086071469 -0.97916985 0.20113468 -0.027769273 0.00044164783
0.07860402 -0.015632268 -0.085651785 0.96701592 0.25442269 -0.012221486 7.8382887e-05
-0.018985741 -0.013472834 -0.085381068 -0.97171575 0.23401882 -0.031682368 0.00031350533
0.077756122 -0.012374705 -0.08657293 0.96411091 0.26519513 -0.012714059 0.00020774234
0.078473084 -0.014824477 -0.08434891 0.96668375 0.25564775 -0.01291321 6.9610949e-05
-0.018304178 -0.010927241 -0.08529827 -0.95750123 0.28673017 -0.031259943 0.00021404207
-0.017825488 -0.0097245686 -0.08623217 -0.95498914 0.29543018 -0.026772292 0.00048936874
0.077368639 -0.010739785 -0.085486464 0.96013874 0.27892002 -0.018367117 0.00024833818
-0.017164135 -0.0075665065 -0.085496783 -0.93964338 0.34055552 -0.03304942 0.00014640306
0.076369904 -0.0075434628 -0.085444264 0.93967587 0.34141052 -0.021169368 0.0003090119
-0.015948767 -0.0044564274 -0.085433669 -0.9202584 0.39087534 -0.018464394 0.00037765843
0.074657135 -0.0034878447 -0.085656732 0.90372586 0.42671067 -0.034606647 0.00044489562
0.075328566 -0.0048885681 -0.085426748 0.91770196 0.39624891 -0.028459266 0.00036168643
-0.015235 -0.0028081143 -0.085312478 -0.90281087 0.42996985 -0.007644305 0.00054770766
-0.014406264 -0.0012003722 -0.085460819 -0.88595414 0.46371648 0.0072345622 0.00025425814
0.073597498 -0.0012523233 -0.085393086 0.89022046 0.45467234 -0.027940499 0.00023151874
-0.01296787 0.0014149108 -0.085540645 -0.86623561 0.4994927 0.011952969 0.00020320255
-0.011948084 0.0027361345 -0.085669458 -0.8379032 0.54581881 0.00032929823 0.00019318156
0.071550034 0.002395686 -0.08536344 0.84866536 0.52863348 -0.017712908 0.00053308968
0.072388507 0.00090472441 -0.085666537 0.86685669 0.49820992 -0.018610874 0.0003826246
-0.012069684 0.0030716206 -0.084358163 -0.83746064 0.54649454 0.0018603145 0.00041036587
-0.010991278 0.004570818 -0.085675754 -0.81902516 0.57361692 -0.012702025 0.00048913242
0.07008256 0.004692982 -0.085383005 0.82311779 0.56756228 -0.018713936 0.0003931504
-0.0095679322 0.006518791 -0.085165597 -0.78154325 0.62344533 -0.022495437 0.00053821044
-0.0081371972 0.0082260342 -0.085458763 -0.75152606 0.65919453 -0.025907986 0.00034582405
0.068005227 0.0074361791 -0.085468292 0.77735686 0.62853402 -0.025714461 0.00032779679
-0.0067116134 0.0097253397 -0.085469894 -0.73094863 0.68202895 -0.023463437 0.00021168114
-0.0052058492 0.011294409 -0.085387699 -0.70666444 0.70721841 -0.021620153 0.00013506062
0.064988866 0.010849042 -0.085507825 0.71863842 0.69472623 -0.030239495 0.00045669021
0.066461235 0.0092389928 -0.085666217 0.75436652 0.65555871 -0.034264229 0.00047374875
-0.003774791 0.012705285 -0.085393928 -0.69118363 0.72231394 -0.022972394 0.00015586375
-0.0021260313 0.014178927 -0.085784189 -0.65720981 0.75331134 -0.024437696 0.00026465688
0.061538901 0.013991101 -0.085558064 0.64846909 0.76016945 -0.040375087 0.00046243463
0.063358292 0.012433278 -0.0854045 0.67566216 0.73641258 -0.034310583 0.00038851789
-0.00055292994 0.015394032 -0.085557148 -0.61083162 0.79141909 -0.023251148 0.0002665275
0.0013348142 0.016862109 -0.085327305 -0.58316588 0.812087 -0.020790417 0.00019623763
0.0030147894 0.017833462 -0.086374544 -0.5665853 0.8235302 -0.027912494 0.0002065728
0.056315448 0.017717117 -0.085581511 0.52941561 0.84710485 -0.046180073 0.00037034359
0.058405995 0.016399415 -0.085519806 0.56929088 0.820795 -0.04694232 0.00030424519
0.060290921 0.015123238 -0.084762387 0.62828511 0.77679139 -0.043046888 0.00065263204
0.0042083943 0.01879504 -0.085192524 -0.52128881 0.85307074 -0.022985943 0.00047531151
0.0071653686 0.020377787 -0.085583255 -0.45548382 0.88916707 -0.043776598 0.00053603004
0.05061077 0.020855248 -0.0856148 0.43241158 0.90053225 -0.045407873 0.00027420677
0.052467134 0.01994396 -0.085504785 0.4717747 0.88055319 -0.045329034 0.00016404368
0.054936435 0.018632734 -0.08541593 0.50610709 0.86141133 -0.042734068 0.00020478462
0.0085359868 0.021075897 -0.085313037 -0.42907026 0.90204668 -0.047015898 0.00085547223
0.010446213 0.021872021 -0.085426345 -0.37366307 0.9261443 -0.05130963 0.00045376955
0.013581412 0.023002796 -0.085495338 -0.33148578 0.94182414 -0.055537954 0.00017806567
0.016017675 0.023753881 -0.085857883 -0.28263742 0.95730978 -0.060614422 0.00029300415
0.043630384 0.023588123 -0.085602991 0.29957852 0.95309961 -0.043056238 0.00030451163
0.046661589 0.022596447 -0.085485898 0.35845235 0.9326176 -0.041669253 0.00024364163
0.049349003 0.021490758 -0.085493803 0.40323064 0.91420275 -0.040477369 0.00026667549
0.017232865 0.024172105 -0.085190065 -0.25818464 0.9646678 -0.052504841 0.00034764246
0.019534227 0.024710733 -0.085447706 -0.20532086 0.9769851 -0.057823539 0.0003981365
0.022490418 0.025260551 -0.085511342 -0.15885893 0.98565704 -0.056957334 0.00050913589
0.025457123 0.025629874 -0.085477591 -0.097311944 0.9941045 -0.047818746 0.00061652227
0.02853211 0.025811497 -0.085451707 -0.033620261 0.99885666 -0.033986155 0.0007095515
0.031492744 0.02579922 -0.085715801 0.035530467 0.99814796 -0.049378455 0.0009983147
0.034552604 0.025661752 -0.085469082 0.10167693 0.9936831 -0.047495097 0.0012487685
0.037890337 0.025218159 -0.084830329 0.16860226 0.98337972 -0.067361623 0.00082531001
0.040844433 0.024506941 -0.085244328 0.19682586 0.97913688 -0.05050334 0.00072487269
0.04222681 0.024080014 -0.084525727 0.26912233 0.96179968 -0.050146148 0.00045393943
0.0083341086 -0.069340661 -0.082438275 -0.42955011 -0.90304106 0.0018756661 0.00066076184
0.010437364 -0.070366345 -0.083344735 -0.42954558 -0.90304321 0.0018799579 0.00066413108
0.013141762 -0.071323551 -0.083212882 -0.40534917 -0.91416109 0.0012429198 0.00013671967
0.0026319474 -0.066061467 -0.083552487 -0.54167801 -0.84045368 -0.014918197 0.00024137269
0.0043492159 -0.067161128 -0.082401037 -0.52797371 -0.84922194 -0.0081119118 0.00041005621
0.0064634564 -0.068391807 -0.082257487 -0.47648653 -0.87918085 -0.0012957902 0.000491518
-0.00072975626 -0.063739754 -0.082309544 -0.59993654 -0.80003804 0.0039090104 0.00048859563
0.0011210808 -0.064947158 -0.082480982 -0.58118427 -0.81372797 -0.0084666964 0.00024683226
-0.0039542327 -0.060923077 -0.082490653 -0.68231994 -0.73103476 0.0052669332 0.00057034596
-0.0018140865 -0.062777378 -0.082593977 -0.63199753 -0.77495944 0.0041385577 0.00059440831
-0.0068124845 -0.057904132 -0.082451105 -0.74418539 -0.66794801 -0.0057899076 7.8151083e-05
-0.005507967 -0.05931098 -0.082217127 -0.71622717 -0.69786334 0.0023360096 0.00030191481
-0.009511455 -0.054741003 -0.082142368 -0.78927398 -0.61401743 -0.0054049226 0.00032421108
-0.0082425019 -0.056272395 -0.082930028 -0.76491225 -0.64402115 -0.012085023 0.00022227806
-0.012196114 -0.051170968 -0.081499562 -0.83654338 -0.54777575 -0.011702073 0.00024663229
-0.011058653 -0.052578509 -0.082613587 -0.8241629 -0.56628668 -0.0086570196 0.00031370745
-0.012953741 -0.049596261 -0.082454622 -0.85739505 -0.51459831 -0.0078923013 0.0001264356
-0.015237506 -0.045846608 -0.082560115 -0.89099628 -0.45397171 0.0059439298 0.00030442039
-0.014439049 -0.047042649 -0.082540073 -0.88268209 -0.46996048 0.0030929188 0.00036233437
-0.016105618 -0.043584164 -0.082644925 -0.91640764 -0.40004349 0.012738085 0.00023113473
-0.018036278 -0.039203275 -0.083805151 -0.95335072 -0.30186242 0.0012439648 0.00074547471
-0.01735412 -0.040476874 -0.082304239 -0.93817067 -0.34575 0.017109713 0.00023382704
-0.018459577 -0.037200794 -0.082475305 -0.96346664 -0.26741537 0.014866703 0.00037713285
-0.017860001 -0.038596004 -0.082193203 -0.95822859 -0.28561315 0.014939317 0.00038635544
-0.019101325 -0.034441374 -0.082581788 -0.97834289 -0.206662 0.011662902 0.00030978036
-0.019618323 -0.031342126 -0.082530692 -0.99157923 -0.12922244 0.0084977448 0.00030841219
-0.019948749 -0.028385822 -0.082449935 -0.99714953 -0.075175859 0.0064361352 0.00042986055
-0.02015987 -0.025559362 -0.082561508 -0.99867117 -0.051496714 0.0019780272 0.00044886445
-0.020141888 -0.022749454 -0.082167566 -0.99977344 0.021088347 -0.002888191 0.00033932467
-0.020015832 -0.019270562 -0.082112223 -0.99159902 0.12934409 -0.0012112 0.00046537348
-0.01955324 -0.016538344 -0.082574904 -0.98470521 0.1742283 0.00040510742 0.00018086215
-0.018965935 -0.013351277 -0.082587846 -0.97243404 0.23315595 0.0032184427 0.00043705886
0.078387395 -0.01459658 -0.082709014 0.96797514 0.25090557 -0.0084033264 5.5725028e-05
-0.018241188 -0.010687632 -0.082572304 -0.95820743 0.28598773 -0.007040645 0.00019741908
-0.017785829 -0.0094559509 -0.082488149 -0.95539021 0.29512107 -0.011534684 0.00014675659
0.077444278 -0.010798177 -0.082466178 0.96144211 0.27492812 -0.0066000121 0.00011820724
-0.017176747 -0.0074784644 -0.082610175 -0.93734801 0.34805924 -0.015276601 0.00022911718
0.076266855 -0.0071738646 -0.082581982 0.94044852 0.33969581 -0.01278444 0.00035596336
-0.016057486 -0.0045908927 -0.08249715 -0.91387057 0.40594313 -0.0071249888 0.00050666905
0.075173542 -0.0043963222 -0.082474217 0.91334385 0.40706313 -0.010131587 0.00022295513
-0.015167486 -0.0028221502 -0.082846783 -0.88823444 0.45938018 -0.0030718569 0.0003004871
-0.014315863 -0.0012061511 -0.082559012 -0.88407636 0.46734154 0.00093439734 0.00025580669
0.073807739 -0.0015093465 -0.082297444 0.88837278 0.4591223 -0.00068568118 0.00035856228
-0.012908067 0.001405178 -0.082448818 -0.86051601 0.50910443 0.01802442 0.00040475369
-0.011920628 0.0027264552 -0.082700484 -0.83533478 0.54933161 0.021228822 0.00018502431
0.071571976 0.0023605488 -0.082526416 0.85106879 0.52503502 0.0045047104 0.00019293069
0.072509803 0.00085230527 -0.08236064 0.86082321 0.50890362 -0.00067125837 0.00024385906
-0.012012173 0.0030551436 -0.083676964 -0.84239554 0.53809196 0.028756185 0.00057828776
-0.010910533 0.0045641228 -0.082479633 -0.82014894 0.5711894 0.033141334 0.00027040925
0.070023559 0.0047086873 -0.082476065 0.81914616 0.57345653 0.012136338 0.00017629488
-0.0094301077 0.0065984321 -0.082488991 -0.78867936 0.61414027 0.028575648 0.00039328789
-0.008276186 0.008022246 -0.082479954 -0.76395315 0.64505583 0.016687546 0.00042895367
0.067935914 0.0075229611 -0.082593605 0.77652186 0.63008964 -0.00090556417 0.00044655995
-0.0065621273 0.0098708114 -0.082532965 -0.72548527 0.68820089 0.0071251537 0.00017775426
-0.0051869019 0.011307652 -0.082371294 -0.69964987 0.71447325 0.0042338897 0.00012092449
0.065014586 0.010765314 -0.082552172 0.72258794 0.69120973 0.0097939866 0.00017444642
0.066445582 0.0092991265 -0.082394943 0.73626876 0.67661619 0.0099410284 0.00028784675
-0.0037018626 0.012768124 -0.082492299 -0.68265128 0.7306506 0.011701142 0.00018353619
-0.0020267279 0.014289639 -0.082697831 -0.65371317 0.75665009 0.011820693 0.0002353844
0.061723921 0.013854182 -0.082454927 0.6478548 0.76163024 0.014265433 0.0001541535
0.063344061 0.012411401 -0.082745194 0.6758728 0.73692226 0.01189912 0.00014093748
-0.00058243866 0.015472881 -0.082516141 -0.62456608 0.78088248 0.011825951 0.00030046309
0.0015655527 0.017035829 -0.082471438 -0.57788974 0.8160395 0.011086976 0.00025519551
0.056660388 0.017645767 -0.082486004 0.55068648 0.83468741 -0.0064311191 0.00017755077
0.058607306 0.016344447 -0.082508579 0.58029282 0.81440783 -0.00045472631 0.00055085594
0.060230326 0.015136516 -0.082424559 0.62879896 0.77753043 0.007637172 0.00043155008
0.0044346577 0.018951822 -0.082344763 -0.51273751 0.85849279 0.0095090698 0.00040881033
0.0070771589 0.020418892 -0.08220727 -0.46263179 0.88629097 0.021450654 0.00033886891
0.052392174 0.020118153 -0.082478449 0.45980021 0.88792616 -0.0130724 0.00014277626
0.055030767 0.018655367 -0.082480855 0.50784224 0.86140227 -0.0090817548 0.00032029336
0.008662303 0.021211738 -0.082622029 -0.44235983 0.89678973 0.0092723249 0.0005011771
0.010405205 0.02198167 -0.082839526 -0.40213159 0.91556835 0.0049715661 0.00049091276
0.013219136 0.023059964 -0.082360782 -0.35906243 0.93330443 0.0041076392 0.0002960593
0.015493566 0.023764079 -0.082541302 -0.28756928 0.95773751 -0.0065438333 0.00038636944
0.04377589 0.023652602 -0.08250428 0.30516618 0.95225996 -0.0086400853 0.00016325917
0.046648264 0.022657808 -0.082475118 0.34299216 0.93929523 -0.0089909462 0.0002437974
0.049515471 0.021500854 -0.082510129 0.40352175 0.91495585 -0.0051130462 0.00018182152
0.01700785 0.024184421 -0.08252617 -0.25835165 0.96602708 -0.0067936899 0.00027757994
0.019431675 0.024751876 -0.08255209 -0.20552993 0.97864681 -0.0027954234 0.00019330415
0.022522243 0.025293261 -0.082450889 -0.15865175 0.98733419 0.00092741993 0.00036623355
0.025495518 0.025634974 -0.08252643 -0.083291218 0.99650705 -0.0060222819 0.00035142721
0.02866145 0.025822464 -0.08252164 -0.018959513 0.99979794 0.0066836653 0.00030777272
0.031697515 0.025841665 -0.082483239 0.029336344 0.9995693 0.00072281039 0.00036063496
0.034359232 0.025710009 -0.082553193 0.079817675 0.99680865 -0.0012911642 0.00079767016
0.038032927 0.025214028 -0.082711533 0.17117068 0.98510391 -0.016461121 0.00049117359
0.039824866 0.024828896 -0.081888273 0.19141512 0.98147428 -0.0082776211 0.00024443015
0.04220473 0.024106245 -0.082505569 0.2818931 0.95937961 -0.011275654 0.00031729034
0.0082035745 -0.069238357 -0.078127652 -0.43700317 -0.89904416 0.02734684 0.00035861359
0.010069579 -0.070070416 -0.080236152 -0.42127749 -0.90691912 0.0047964267 0.00051223149
0.0049884082 -0.067515664 -0.079386778 -0.50382441 -0.86379892 0.0035261705 0.00040645638
0.007325124 -0.068713017 -0.078582272 -0.48904407 -0.87205911 0.018674698 0.00032316608
-0.00060058682 -0.063836344 -0.078647368 -0.59395713 -0.80448109 0.0050082938 0.00020955526
0.0011657255 -0.06497021 -0.079394072 -0.5739761 -0.8188417 0.0070431656 0.00031409354
-0.0040096375 -0.060812429 -0.079181314 -0.68446803 -0.7290327 0.0038507045 0.00049762893
-0.0018102024 -0.062717348 -0.079797864 -0.63505417 -0.77246386 0.0024260834 0.00043207058
-0.0067480691 -0.057959285 -0.079443693 -0.74148822 -0.67095357 0.0040646517 0.00016068539
-0.0055964654 -0.059213452 -0.079219073 -0.73075241 -0.68263072 0.0040232306 0.00013887201
-0.0094418414 -0.054804489 -0.079275891 -0.78661716 -0.61744106 0.00028888171 0.00038983015
-0.0082027577 -0.056276754 -0.079735562 -0.76292253 -0.64647698 0.0040953588 9.9653313e-05
-0.012298052 -0.051028147 -0.078902856 -0.83392692 -0.55186361 -0.0035322143 0.00030012566
-0.010987872 -0.052713796 -0.079601377 -0.82002532 -0.57232654 -0.00090235146 0.00056418672
-0.013148913 -0.049274135 -0.079374447 -0.8649354 -0.50186741 0.003978895 0.00036582834
-0.015253 -0.045262523 -0.078778952 -0.89703298 -0.44174969 0.013748948 0.0002929318
-0.014538612 -0.046785668 -0.079791591 -0.88759983 -0.46059549 0.004279789 0.00026250901
-0.016040817 -0.043564439 -0.07960692 -0.91936511 -0.39300793 0.017680597 0.00019773739
-0.017281953 -0.040443402 -0.079448268 -0.93692374 -0.34862769 0.02515199 0.00017114091
-0.018377103 -0.037141114 -0.079412609 -0.96161813 -0.27376691 0.018499324 0.0003883412
-0.017837813 -0.038407225 -0.079331554 -0.95726168 -0.28821957 0.024073938 0.00051339372
-0.019056525 -0.034310311 -0.079674706 -0.9788121 -0.20403354 0.017240807 0.00024454799
-0.019571662 -0.031280514 -0.079583697 -0.98930562 -0.14508541 0.014987917 0.0003514023
-0.019920198 -0.028499126 -0.079519957 -0.99619049 -0.085963696 0.014653828 0.00020830141
-0.020134676 -0.025561271 -0.079351529 -0.99829739 -0.057371315 0.010525503 0.00040860294
-0.020163747 -0.02265507 -0.079258159 -0.9998129 0.01780453 0.0075609721 0.00039100202
-0.019946715 -0.018988686 -0.079666995 -0.99089301 0.13452543 0.005815364 0.00021265534
-0.019594969 -0.016733088 -0.079135112 -0.98222214 0.18744569 0.010187613 0.00021649052
-0.018880783 -0.013160751 -0.079554692 -0.97185588 0.23541261 0.0087752193 0.00031973657
0.078174688 -0.013686146 -0.079540871 0.96477985 0.2630007 0.0055223331 4.6661935e-05
-0.018299449 -0.011016592 -0.079462081 -0.96274716 0.27040255 0.00061727641 0.00019296844
-0.01787924 -0.0094380444 -0.079656281 -0.95521379 0.29580662 -0.0080633638 0.00027920131
0.077296376 -0.01041748 -0.079557352 0.96091324 0.27684301 -0.0019309355 4.1275176e-05
-0.01717308 -0.007291229 -0.079556957 -0.93604028 0.35168698 -0.012037636 0.00027784231
0.076489888 -0.0078105312 -0.079559684 0.94167411 0.33652565 0.00061254576 0.00022156355
-0.016050437 -0.0045416802 -0.079632245 -0.9151845 0.40293926 -0.0087825106 0.00032653715
0.074975841 -0.0040045152 -0.078091517 0.91576982 0.40155625 0.010878235 0.00029619483
0.075439945 -0.0051080659 -0.079603508 0.91825324 0.395989 -0.0019456393 0.000348114
-0.015158206 -0.0026046224 -0.079670183 -0.88856912 0.45859069 -0.011807374 0.00036439006
-0.014325251 -0.0010905666 -0.079830907 -0.88098782 0.47298265 -0.012158807 0.00020276773
0.073692136 -0.0013991384 -0.079343669 0.88695323 0.46182591 0.0055493689 0.00037303311
-0.012899249 0.0013735294 -0.079400718 -0.8528741 0.52211118 0.0024003373 0.00044324374
-0.011838906 0.0026976434 -0.079487287 -0.8247084 0.56546873 0.010060808 0.00034615828
0.071598314 0.0022801736 -0.079723418 0.84923929 0.52797532 0.0058982079 0.00029409613
0.07239718 0.00093714835 -0.079345509 0.85926652 0.51150233 0.0051482376 0.00036620445
-0.010829161 0.0044421335 -0.079420291 -0.8171798 0.57592678 0.022924194 0.00029578802
0.070120454 0.0044757039 -0.079402141 0.81763995 0.57564896 0.0096565569 0.00027273863
-0.0093791941 0.0064366455 -0.079609521 -0.79488248 0.60604477 0.029520864 0.00014862057
-0.0081821913 0.0079844855 -0.079506509 -0.76924253 0.63867682 0.018917454 0.00045145187
0.067782924 0.0075887763 -0.079508774 0.78048682 0.62505126 0.01229625 0.00050097331
-0.0067021027 0.0097715864 -0.079511948 -0.74285799 0.66939878 0.0082017565 0.00043076425
-0.005279087 0.011191073 -0.079503596 -0.70840317 0.7058056 0.0018440345 0.0002998111
0.06491223 0.010788891 -0.079546921 0.69787449 0.71615279 0.0098215658 0.00011149469
0.066355743 0.0093072522 -0.079459727 0.73440701 0.67863935 0.0097467788 0.00030506006
-0.0036898123 0.012666196 -0.079693116 -0.67426413 0.73844129 0.0085010929 0.00020700181
-0.0019683831 0.014223312 -0.079625875 -0.63767582 0.77019787 0.012833306 0.00031751787
0.061780792 0.013716558 -0.079484552 0.64368063 0.76513743 0.015493335 0.00020061186
0.063502423 0.012197874 -0.079512827 0.69134349 0.7224341 0.011539653 0.00010627824
-0.00054296019 0.015383154 -0.079436727 -0.61937225 0.78498703 0.013165231 0.00032060157
0.0014103322 0.016865449 -0.079529054 -0.58124852 0.81366789 0.009734855 0.00047579085
0.0030189576 0.01783221 -0.07929378 -0.56841666 0.82264245 0.012729616 0.00025857252
0.056617033 0.017616628 -0.079454646 0.56061423 0.82799083 0.011954884 0.00027574901
0.058516283 0.016330669 -0.079512924 0.57123089 0.8206439 0.015454755 0.00022457534
0.060161173 0.015074131 -0.079554126 0.60764903 0.7940045 0.017875366 0.00032091417
0.0028659028 0.01801621 -0.078296244 -0.55091333 0.83435899 0.018430363 0.00074488344
0.0046494417 0.018953957 -0.079716064 -0.50828159 0.86111194 0.011660423 0.00051817182
0.0071401824 0.020329291 -0.079343796 -0.45875064 0.88832277 0.020747889 0.00034339237
0.050511736 0.020994566 -0.080357559 0.40945762 0.91230297 0.0069165132 0.00021703728
0.052319262 0.020109121 -0.079514764 0.45934302 0.8882302 0.0071557462 0.00011953954
0.055043299 0.018601434 -0.079459988 0.51283365 0.85844898 0.0081826923 0.0002848838
0.0086844005 0.021127447 -0.079378411 -0.43952388 0.89814997 0.012057554 0.00055086351
0.010515206 0.021910062 -0.079389758 -0.39377847 0.91901016 0.018943682 0.00025453357
0.013511864 0.022995142 -0.079472139 -0.33404586 0.94233483 0.020455381 0.00020423651
0.015713006 0.023745157 -0.079441011 -0.28476247 0.95846295 0.016099246 0.0003304081
0.04374237 0.023636675 -0.079522178 0.30339453 0.95284057 -0.0068275295 0.00036229059
0.046564344 0.022670748 -0.079470776 0.36174384 0.93227702 -0.00098779774 0.00018942633
0.049357563 0.021530973 -0.079468586 0.40382287 0.91482317 0.0050728149 0.00016512857
0.017171497 0.024176301 -0.079593673 -0.26800877 0.96334982 0.011330644 0.00034421199
0.019560233 0.024743557 -0.079539254 -0.20682539 0.97834301 0.00826215 0.00029981352
0.022519451 0.025273707 -0.079537757 -0.15969831 0.98715496 0.0046414193 0.00040475308
0.02553314 0.025588069 -0.079460181 -0.083862238 0.99641705 0.010961043 0.00023413225
0.028794881 0.025746725 -0.07952293 -0.017369077 0.99984658 0.0022683872 0.00038653763
0.031786442 0.025795342 -0.07946305 0.02747607 0.9996106 0.0048749973 0.00048659413
0.034413129 0.02567794 -0.079437599 0.092420928 0.99571788 -0.0020531316 0.00084676949
0.037362624 0.025173262 -0.079574212 0.18149616 0.98337823 -0.0051462012 0.00042163645
0.040087581 0.024744142 -0.079462819 0.19225127 0.98132449 -0.0064501725 0.00031047515
0.042258184 0.024091503 -0.07946799 0.28697017 0.95790017 -0.0086863665 0.00037672371
0.010942427 -0.070405677 -0.07726717 -0.39350393 -0.91892785 0.026950411 0.0003443083
0.0027724935 -0.066176236 -0.077984318 -0.53952885 -0.84153742 0.026897591 0.00044238596
0.0046722032 -0.06727159 -0.075789116 -0.52572149 -0.84935057 0.047122885 0.00048530457
0.0065491903 -0.068233609 -0.077389576 -0.52908802 -0.84792966 0.03288231 0.00038325819
-0.00083501561 -0.063657634 -0.07649301 -0.61075568 -0.7908901 0.038346369 0.00056424539
0.001129878 -0.064943552 -0.076069683 -0.56977791 -0.82037026 0.048432935 0.00041469026
