# .PCD v0.7 - Point Cloud Data file format
VERSION 0.7
FIELDS x y z normal_x normal_y normal_z curvature
SIZE 4 4 4 4 4 4 4
TYPE F F F F F F F
COUNT 1 1 1 1 1 1 1
WIDTH 554
HEIGHT 1
VIEWPOINT 0 0 0 1 0 0 0
POINTS 554
DATA ascii
0.0043808618 0.0033156481 -0.0088170348 -0.0038583432 -0.83114809 -0.55603778 0.0017666933
0.0077047711 0.003284781 -0.0086511029 0.029322011 -0.80913693 -0.58688813 0.0012342262
0.010596361 0.0033362687 -0.008588749 0.050751258 -0.81481081 -0.57750112 0.0010711894
0.013449901 0.0034827562 -0.0084245838 0.085083634 -0.84253407 -0.53188068 0.0018186346
0.016470661 0.0036004602 -0.0080478853 0.1101113 -0.85112715 -0.51328176 0.0014548022
0.019657198 0.00388283 -0.007685883 0.15204825 -0.85732454 -0.49180889 0.0012176833
0.022567051 0.0043909559 -0.007548423 0.17794821 -0.86445826 -0.4701556 0.0015847319
0.025512205 0.0050344239 -0.0075823995 0.20675431 -0.85962588 -0.46722162 0.0014305487
0.028276866 0.0054974356 -0.0070038545 0.24319164 -0.86096817 -0.4467569 0.0014491532
0.030585362 0.0057964418 -0.0063515678 0.27970114 -0.861637 -0.42349625 0.0014196471
-0.027880417 0.0086410856 -0.0065132384 -0.3366861 -0.8296417 -0.44535056 0.0010650505
-0.025305374 0.0083256708 -0.0076362034 -0.29995936 -0.79433399 -0.52825928 0.0012160614
-0.022555394 0.0073917983 -0.0077572772 -0.29557794 -0.79868203 -0.52415717 0.0014359923
-0.019638672 0.0066893068 -0.0083022024 -0.24838509 -0.79225004 -0.55735517 0.0016514861
-0.017290503 0.006302027 -0.0087322174 -0.21201169 -0.79043984 -0.5746789 0.0015981231
0.026594618 0.0060652853 -0.0088539105 0.20721959 -0.81366616 -0.54314584 0.0014284821
0.02880884 0.0063338876 -0.0083318185 0.23715995 -0.83625674 -0.49439839 0.0017445192
0.031598173 0.0067811473 -0.0076187071 0.2812441 -0.8506186 -0.44424072 0.0012682485
0.034482908 0.0077720289 -0.0075613181 0.30699915 -0.83475763 -0.45708996 0.001457635
0.037166271 0.0084543237 -0.0069503617 0.33487061 -0.83948857 -0.42792597 0.0012833028
0.0393259 0.0088863932 -0.0063633928 0.37018585 -0.8351649 -0.40677023 0.0015236816
-0.034001589 0.011575756 -0.0071685258 -0.35509083 -0.78331918 -0.51021707 0.00087426312
-0.031571154 0.011006395 -0.0078818239 -0.32036132 -0.7767626 -0.54222548 0.0014401953
-0.028784392 0.0099389274 -0.008036647 -0.31577343 -0.78263104 -0.53644747 0.0013364966
-0.026332717 0.0092498064 -0.0084742205 -0.29898894 -0.77342474 -0.55894524 0.001252136
0.037888046 0.0094041731 -0.0082251793 0.33341828 -0.81686109 -0.47071254 0.0015411217
0.040504556 0.010191306 -0.0075241183 0.37147194 -0.81904358 -0.43723711 0.001328412
0.043201804 0.01128288 -0.007201321 0.39857921 -0.811059 -0.4281565 0.0015202556
0.045345675 0.011862196 -0.0063757733 0.43572041 -0.80582768 -0.40098548 0.0018069483
-0.039416049 0.014312129 -0.0071739559 -0.40246737 -0.74678993 -0.52945709 0.00092911749
-0.037983876 0.014115455 -0.0080134366 -0.38451871 -0.74555218 -0.54433197 0.00073861075
-0.034833629 0.012686523 -0.0083060358 -0.36099735 -0.75879192 -0.54213989 0.00087053742
-0.032790765 0.012267119 -0.0089892764 -0.30751762 -0.73709542 -0.60176688 0.001163632
0.044223215 0.01234312 -0.008244168 0.40069586 -0.78786016 -0.46767429 0.0015354722
0.046593066 0.01330125 -0.0075990278 0.44232777 -0.78776371 -0.42868921 0.0012470845
0.049091898 0.014441341 -0.0070552323 0.47083429 -0.76886076 -0.43262929 0.0011634952
-0.045306962 0.017646661 -0.006608557 -0.5004496 -0.73854333 -0.45177862 0.00056699355
-0.043235615 0.016893312 -0.0076568858 -0.46162781 -0.7173897 -0.52177751 0.0011830204
-0.040770639 0.0155535 -0.008015858 -0.43583643 -0.74253482 -0.50861442 0.0011159983
-0.038810357 0.015094331 -0.0088516213 -0.3881292 -0.73019791 -0.56228715 0.0021526965
0.050136372 0.015705377 -0.0081243506 0.47673798 -0.74339926 -0.46912515 0.0016997129
0.052280422 0.016706701 -0.0073774606 0.50607592 -0.73199719 -0.4561438 0.0014719493
0.054357801 0.017617101 -0.0064854515 0.5348646 -0.72887272 -0.42739272 0.0010030217
-0.048526086 0.020485777 -0.0074971467 -0.50408202 -0.68358731 -0.52783489 0.00096617488
-0.046710249 0.019410392 -0.0078290235 -0.49043697 -0.68739092 -0.53569138 0.001046301
-0.044503167 0.018379875 -0.0085266195 -0.47766718 -0.7021451 -0.52804017 0.001596067
0.05356301 0.01831463 -0.0084467381 0.51493758 -0.6918723 -0.50611466 0.0014238979
0.05562745 0.019301042 -0.0076198052 0.5479219 -0.69932503 -0.45904911 0.0015625575
0.057662968 0.020437736 -0.0068000345 0.58328944 -0.66384721 -0.46806005 0.0010767732
-0.054201681 0.023866944 -0.0060187746 -0.58385003 -0.71100181 -0.39191282 0.0031827248
-0.052113134 0.023218645 -0.0075392025 -0.52857542 -0.66587132 -0.52652013 0.0010229859
-0.050075136 0.021975305 -0.007933978 -0.50952858 -0.67179245 -0.53765744 0.0014375966
0.056759484 0.021206113 -0.0088706547 0.54506427 -0.60886705 -0.57635558 0.0013710625
0.05878675 0.022210469 -0.0077691879 0.59461766 -0.63754195 -0.48986745 0.0019725177
0.060807403 0.023395048 -0.0068443697 0.62066889 -0.62021214 -0.47969472 0.0015308
-0.057250135 0.026728071 -0.0064877435 -0.59231788 -0.65720308 -0.46609399 0.001131666
-0.055505794 0.025951581 -0.0074554142 -0.55185181 -0.65341085 -0.51818317 0.0014083766
-0.053314354 0.024662724 -0.0082087349 -0.54687661 -0.66708666 -0.50588667 0.0010279121
0.059705451 0.024195675 -0.0089394609 0.57643354 -0.56030488 -0.59479654 0.001646455
0.061841592 0.025283163 -0.0077914889 0.64741302 -0.56269193 -0.51403713 0.0020817418
0.063549809 0.026357034 -0.006749813 0.6769383 -0.5363431 -0.5040741 0.0012432918
-0.060488313 0.029765865 -0.0062420485 -0.64946413 -0.5976274 -0.47014666 0.00086040155
-0.058226213 0.028623462 -0.0077305362 -0.59685844 -0.58729035 -0.54667181 0.0018902163
-0.05646164 0.027363535 -0.0082322815 -0.56652462 -0.61381608 -0.54979962 0.0011919235
-0.00098599552 0.0299368 -0.0089328075 0.078382649 0.77025044 -0.63290638 0.0010875645
0.0018110281 0.029866133 -0.00881101 0.036221746 0.79107267 -0.61064881 0.0011348689
0.0041315272 0.029849321 -0.0087509509 0.0062798243 0.79627645 -0.60490024 0.0010847774
0.0071765124 0.029905066 -0.0087232636 -0.033319037 0.81514305 -0.57830065 0.0014908335
0.0097014848 0.029932734 -0.008905434 -0.080000974 0.78446406 -0.61499262 0.00083352195
0.062775537 0.027403848 -0.0087363664 0.63927203 -0.4870753 -0.59505373 0.0022130911
0.064502217 0.028547371 -0.0076033524 0.71056491 -0.45365605 -0.53786021 0.001753272
0.066190325 0.029686319 -0.0063458569 0.72867775 -0.44901952 -0.51711726 0.00136877
-0.063114747 0.032931719 -0.0064708474 -0.68902725 -0.56577814 -0.45292017 0.001986224
-0.06106212 0.031601723 -0.0075671077 -0.63543087 -0.53784049 -0.55403548 0.0011329873
-0.059520289 0.030411525 -0.0081430003 -0.60491228 -0.54391313 -0.58158386 0.0016898044
-0.015421747 0.032897107 -0.0088721393 0.24608997 0.77748245 -0.57875806 0.0010270261
-0.013128697 0.032601934 -0.0083477385 0.22124171 0.81280971 -0.53888077 0.0016317394
-0.010365347 0.032286379 -0.0077792285 0.19411106 0.83679754 -0.51194799 0.0018776305
-0.0075617624 0.031767908 -0.0076518478 0.15522629 0.84362984 -0.51399761 0.0024719101
-0.0045020226 0.031285342 -0.0076528657 0.12458085 0.83737636 -0.53224093 0.0020253779
-0.0015085387 0.030882115 -0.0077083255 0.086790241 0.84115285 -0.53378767 0.0021719849
0.001458904 0.030801948 -0.0074842633 0.049245112 0.84934628 -0.52553391 0.0020108242
0.0044375611 0.03072677 -0.007460414 -0.0020066719 0.85059935 -0.52581054 0.0023021153
0.0074703419 0.030737147 -0.0074915849 -0.042250678 0.8511045 -0.52329338 0.0021599929
0.010483461 0.030882342 -0.0076486384 -0.091679275 0.85796171 -0.5054667 0.0020414751
0.01342022 0.031188704 -0.0076766931 -0.13120468 0.85498482 -0.50178307 0.0023144255
0.016359514 0.031715855 -0.0076989778 -0.17913891 0.85422617 -0.48806438 0.0021958482
0.019306712 0.032306477 -0.0078752516 -0.22264893 0.83043003 -0.51069891 0.0017953502
0.021953158 0.032602996 -0.0086295269 -0.24830741 0.80054641 -0.545407 0.0014561031
0.065455392 0.031088352 -0.0083836736 0.6852442 -0.35397074 -0.63651013 0.0015291002
0.066815659 0.031816147 -0.0071294573 0.7397511 -0.39316055 -0.54607058 0.0020463255
-0.063951537 0.035008702 -0.0072423466 -0.66715533 -0.4577474 -0.58768278 0.0018320531
-0.062348295 0.034010723 -0.0082843695 -0.63983291 -0.46453822 -0.61222386 0.0017899559
-0.022096477 0.03548969 -0.0083974032 0.30692297 0.78979081 -0.53106391 0.001735433
-0.019446943 0.034962352 -0.0076927748 0.29630101 0.83065194 -0.47140548 0.0014811062
-0.016543979 0.034073893 -0.0075688404 0.24983124 0.82944417 -0.49960655 0.001757965
-0.013748795 0.033573624 -0.0070870072 0.23112266 0.84310949 -0.4855395 0.001846312
-0.011500249 0.033337936 -0.0063534556 0.20908572 0.86352247 -0.45892495 0.00099069951
0.020173192 0.033275545 -0.0066802283 -0.23477626 0.85729325 -0.4581795 0.0019210726
0.022603694 0.0335817 -0.0073973769 -0.24293852 0.83826512 -0.48815227 0.0018260698
0.025470894 0.034201059 -0.007742621 -0.25179571 0.83304423 -0.49258119 0.0016909626
0.028363176 0.035079319 -0.0077657741 -0.2862967 0.8291021 -0.4802331 0.0017813421
0.031093447 0.035680957 -0.0083870739 -0.30613294 0.80270302 -0.51181096 0.0020207325
0.065888986 0.033168491 -0.0088974237 0.68375582 -0.31404346 -0.65867639 0.0028803777
0.067633875 0.034499984 -0.0076528681 0.75835049 -0.28583059 -0.58583748 0.0018476798
0.069137551 0.035620049 -0.0062061609 0.79090846 -0.31133634 -0.52681452 0.0025533268
-0.066496775 0.038052764 -0.0065396405 -0.68524212 -0.38836208 -0.6161316 0.0030067824
-0.064305894 0.037163295 -0.008421516 -0.6211251 -0.33358139 -0.70917356 0.0017820128
-0.030482236 0.038870685 -0.0086893337 0.36124402 0.76779377 -0.52914602 0.00098583871
-0.02820993 0.038320854 -0.0079803132 0.36427703 0.79755151 -0.48084694 0.0019623339
-0.025474044 0.037350331 -0.0075909016 0.33736023 0.80849481 -0.48220775 0.0016982331
-0.022816693 0.036559995 -0.0071178633 0.32392898 0.82413465 -0.46462029 0.0016047565
-0.020658202 0.036089368 -0.0063332976 0.30633366 0.84229046 -0.44351593 0.0012036954
0.02961985 0.036150873 -0.0066491002 -0.30499473 0.84677649 -0.43583 0.0018046554
0.031668551 0.036536768 -0.0072470708 -0.32073015 0.81775504 -0.47792149 0.0015630049
0.034621868 0.03747293 -0.00781067 -0.35312912 0.79090035 -0.49977636 0.001830067
0.037008349 0.038376506 -0.0081519177 -0.38998339 0.75820005 -0.52253771 0.0017321598
0.068231776 0.037376527 -0.0080926428 0.75768906 -0.17506847 -0.62869579 0.0023948369
0.069448397 0.037633624 -0.0066415225 0.79638022 -0.20987491 -0.56721342 0.002145878
-0.067112729 0.040657509 -0.007418192 -0.67767143 -0.28151149 -0.67934722 0.002417207
-0.065779112 0.040718619 -0.0087195253 -0.61304104 -0.21090989 -0.76137882 0.003423698
-0.036369212 0.041762609 -0.0086918687 0.3766318 0.74627292 -0.54884005 0.0015773738
-0.034240272 0.041219909 -0.0078994324 0.38973343 0.78813815 -0.4763886 0.0017301281
-0.03155151 0.040146109 -0.0075227362 0.37762719 0.79205209 -0.47963646 0.0017429243
-0.029157525 0.039385885 -0.0068879528 0.37570876 0.81290019 -0.44501266 0.0012647453
0.03764458 0.039373636 -0.0070725819 -0.41181096 0.76194608 -0.49984995 0.00141517
0.040471524 0.040608898 -0.0076934393 -0.42671922 0.73373908 -0.52871323 0.0013990349
0.043258756 0.041595798 -0.0086781792 -0.41717178 0.71026176 -0.56700617 0.0015291992
0.068467535 0.040357903 -0.0084351469 0.70842797 -0.075749986 -0.70170629 0.0022665418
0.069770791 0.040515903 -0.0069668279 0.78530073 -0.11038976 -0.60919356 0.0022790402
-0.069479965 0.044489015 -0.0063399621 -0.71365345 -0.20954034 -0.66842473 0.002765585
-0.067296706 0.043876525 -0.0082815308 -0.58913952 -0.095461123 -0.80237263 0.0035843775
-0.042394295 0.044807181 -0.0087672817 0.36408696 0.73240238 -0.57534981 0.0022032799
-0.040234204 0.044291817 -0.0078609716 0.40026739 0.77228945 -0.49331024 0.0023737252
-0.037607219 0.043177627 -0.007496051 0.39496303 0.78290689 -0.48068812 0.0017288226
-0.035228286 0.042374153 -0.0068325116 0.40602103 0.79639518 -0.44822055 0.0012412663
0.041686419 0.042222511 -0.0062503177 -0.46408439 0.7627967 -0.4502964 0.0012854773
0.043890309 0.042853188 -0.0073809433 -0.42474809 0.73223448 -0.53237373 0.0013687664
0.0464615 0.043954253 -0.0080142515 -0.41318506 0.72037679 -0.55707753 0.0017685731
0.048408695 0.044660054 -0.0085471962 -0.39340222 0.69779056 -0.59860086 0.0016688022
0.068498246 0.043511268 -0.0085300431 0.67530638 0.028140031 -0.73700029 0.0028099976
0.069913365 0.043460239 -0.0070548654 0.75914675 -0.011847289 -0.65081173 0.0027911148
-0.069625758 0.046555709 -0.0067297495 -0.66277951 -0.11613151 -0.7397545 0.0036157735
-0.067309044 0.04700486 -0.0085738674 -0.46769366 0.07644581 -0.88057858 0.0044256067
-0.048514057 0.047826655 -0.008717604 0.33313969 0.70071632 -0.63088399 0.0016349306
-0.046146005 0.047313418 -0.0079119112 0.36392039 0.74958104 -0.55289263 0.0023529509
-0.04362148 0.046388179 -0.0073824353 0.38058212 0.77526891 -0.50409847 0.0016058715
-0.041159749 0.045495532 -0.0067732302 0.42022249 0.780303 -0.46318483 0.0016046211
0.047176242 0.045361549 -0.0065865661 -0.43303433 0.73498869 -0.52179778 0.0012587467
0.049686424 0.046088908 -0.0076418705 -0.40021068 0.71809161 -0.56936443 0.0013188446
0.052307069 0.047210976 -0.0081003178 -0.38125467 0.69493592 -0.60967934 0.002577639
0.054455318 0.04770299 -0.0088291653 -0.3126545 0.65236121 -0.69041431 0.0023079501
0.068206795 0.046576176 -0.0084361797 0.56709427 0.12182832 -0.81459308 0.003706242
0.069870122 0.04640257 -0.006969085 0.70670623 0.071243577 -0.70391095 0.0036957858
-0.069962688 0.049858958 -0.0066945585 -0.52562422 0.081568502 -0.84679741 0.0046936753
-0.067179404 0.049738999 -0.0084019965 -0.3557466 0.23629783 -0.90421659 0.005580964
-0.065324493 0.050567057 -0.0088971304 -0.19582863 0.33812776 -0.92050016 0.0060561756
-0.057496306 0.050906915 -0.0089147445 0.10558417 0.66506553 -0.73928338 0.0039687133
-0.054996725 0.050626636 -0.0086195506 0.2029146 0.67450923 -0.70983309 0.0023286736
-0.052229572 0.050161172 -0.0079080798 0.30167344 0.73362297 -0.60892576 0.0026036226
-0.049560029 0.049309313 -0.0074669211 0.34017411 0.75594205 -0.55931497 0.001741861
-0.047033194 0.048505276 -0.0068511651 0.3900041 0.76390231 -0.51414984 0.0017569867
-0.044834178 0.048021257 -0.0060944338 0.40358019 0.7860347 -0.46826541 0.0011424074
0.053001136 0.048618145 -0.0069258944 -0.41583049 0.705118 -0.57436365 0.0012541753
0.055604678 0.04932113 -0.0077342745 -0.32178432 0.66941762 -0.66957808 0.0017574967
0.058475047 0.050038029 -0.008319525 -0.23180938 0.61339355 -0.75499189 0.0031686998
0.061531529 0.050557088 -0.0086944094 -0.054490022 0.51507163 -0.85541344 0.0038612119
0.064849757 0.050452027 -0.0087941205 0.1183767 0.41145828 -0.90370852 0.0061451141
0.067673244 0.049538571 -0.0081110792 0.44415376 0.22386615 -0.86753178 0.0056196493
0.069761284 0.049389958 -0.0066715349 0.68772304 0.12627923 -0.71490598 0.0057841726
-0.069961846 0.052874107 -0.0065148985 -0.32877862 0.23312367 -0.91518193 0.0075760707
-0.067299582 0.052583691 -0.0076355562 -0.20356026 0.35270569 -0.91332465 0.0091850748
-0.064457938 0.052603986 -0.0080520315 -0.041714821 0.50983232 -0.85926187 0.0083303628
-0.061475795 0.052756917 -0.0078528468 0.079223879 0.61386836 -0.78542298 0.00485146
-0.058468148 0.052439209 -0.0076009468 0.1663405 0.71125662 -0.68296778 0.0027422488
-0.055525314 0.051997121 -0.0072259055 0.25242969 0.76104027 -0.59757584 0.0026131715
-0.052948635 0.051521271 -0.0066299685 0.33353293 0.75987768 -0.55798012 0.0019940657
0.056576706 0.051150788 -0.0062677893 -0.38477799 0.68885994 -0.61434335 0.0024059915
0.058956072 0.051693253 -0.0069906497 -0.31312788 0.64294648 -0.69897836 0.0026320408
0.061707914 0.052369136 -0.0074684555 -0.17147762 0.56413031 -0.80768335 0.0047335043
0.064639516 0.052428082 -0.0078718876 0.049231861 0.42744789 -0.90269846 0.0065154694
0.067562275 0.052470312 -0.0073142252 0.35784277 0.28271878 -0.88995427 0.013019851
0.069509238 0.052291226 -0.0063637034 0.60881352 0.16355827 -0.77626973 0.0069759344
-0.069722988 0.05502478 -0.0062504588 -0.23822773 0.33498469 -0.91161007 0.012348443
-0.067450084 0.055251565 -0.0065330397 -0.047193881 0.46569353 -0.88368678 0.0083091231
-0.064615555 0.054876495 -0.0066261846 0.10330617 0.59402603 -0.79778498 0.0085397698
-0.061699048 0.054405246 -0.0064201844 0.1877823 0.68941516 -0.69960314 0.0057508708
-0.059795529 0.054208588 -0.0060709403 0.25581086 0.73778623 -0.62468576 0.0042654332
0.062382467 0.054312278 -0.0062250514 -0.2877562 0.59460527 -0.75076026 0.0056153778
0.064929508 0.054947402 -0.006519055 -0.044335622 0.43628642 -0.8987149 0.0091953725
0.06755995 0.055172514 -0.006425654 0.2085489 0.30844003 -0.92810136 0.015457935
0.069205157 0.054634929 -0.0061259074 0.4841834 0.23407108 -0.84307599 0.011376466
-0.0129981 0.0026859818 -0.0040444476 -0.2188119 -0.91624504 -0.33558363 0.0019007833
-0.010487634 0.0024297123 -0.0047058291 -0.15272491 -0.90601659 -0.39472649 0.0020219032
-0.0074673519 0.0020477409 -0.0048398226 -0.12930715 -0.90788096 -0.39878806 0.0014640377
-0.0043783351 0.0016021396 -0.0048046554 -0.09259709 -0.91441399 -0.39404666 0.0016080259
-0.0015390678 0.0013523706 -0.0046679727 -0.050903641 -0.92776978 -0.36966497 0.0021555691
0.001373846 0.0013044886 -0.0048766918 -0.037243139 -0.91775292 -0.39540181 0.0019182679
0.0045828409 0.0010692186 -0.0044608945 0.0026147 -0.92273599 -0.38542372 0.0017831487
0.0074897776 0.0011503528 -0.0043617762 0.039395157 -0.92858291 -0.36902821 0.0017697497
0.010479929 0.0013525516 -0.0045600245 0.069033861 -0.9278354 -0.36654574 0.0019057509
0.013409929 0.001686429 -0.0047245454 0.10204835 -0.93060559 -0.35151002 0.0016611679
0.0164431 0.002048064 -0.0046338225 0.12213504 -0.93624443 -0.32943806 0.0015966123
0.019689932 0.0025523002 -0.0046811188 0.16971412 -0.92866027 -0.32982889 0.001497839
0.022066558 0.0027756051 -0.0038285158 0.19546868 -0.94017625 -0.279035 0.0016614546
0.024059655 0.0029568544 -0.0030155019 0.17366607 -0.97497338 -0.13880587 0.0027660474
-0.024271673 0.0059417607 -0.0031764517 -0.37638065 -0.88915342 -0.26027647 0.0025587049
-0.021883165 0.0055826944 -0.0047155246 -0.30350935 -0.86539549 -0.39871368 0.0011846952
-0.019306073 0.0048285993 -0.0050921822 -0.26157141 -0.8659991 -0.42617601 0.0016201535
-0.016514111 0.0040122881 -0.0050007948 -0.24722803 -0.88122821 -0.4028835 0.0011292115
-0.013924213 0.0034337377 -0.0053338157 -0.21901606 -0.87454355 -0.43267253 0.0012722003
-0.011472854 0.0030782395 -0.0058933585 -0.16525385 -0.88344675 -0.43842089 0.0022309814
0.020769788 0.0031627654 -0.0058753672 0.16995317 -0.90502489 -0.38993061 0.0016237745
0.022895029 0.0033400322 -0.0050812233 0.20652646 -0.92278916 -0.32527989 0.001694603
0.025792832 0.00391914 -0.0048654745 0.23649651 -0.91408575 -0.32941884 0.0013605205
0.02852419 0.0046163811 -0.0046250112 0.25650138 -0.91266775 -0.31818956 0.0017186941
0.031351373 0.0054362053 -0.0045830156 0.28219271 -0.9110409 -0.30061901 0.0019992378
0.033298042 0.0057002031 -0.003449247 0.32078972 -0.92263252 -0.21411024 0.0022233548
-0.030452656 0.0087822704 -0.004367867 -0.35108966 -0.86337674 -0.36237642 0.0013948511
-0.02898244 0.008497919 -0.0051625855 -0.32798198 -0.83593512 -0.44004571 0.0011315753
-0.025837358 0.0071980068 -0.0050205877 -0.32655516 -0.8444764 -0.42452487 0.0010518335
-0.023154344 0.0062991753 -0.0053768996 -0.32399467 -0.86109436 -0.39184684 0.0015381381
0.032672413 0.0061722146 -0.0056507466 0.30612758 -0.8929649 -0.32999957 0.0020967331
0.034615099 0.0065715229 -0.0045978054 0.34449425 -0.8945263 -0.28486195 0.0015052739
0.037642494 0.007750818 -0.0046952874 0.35013473 -0.88904333 -0.29497051 0.0017044011
0.039897464 0.0085065085 -0.0041596843 0.38589191 -0.88692498 -0.25387278 0.0020327559
-0.036574237 0.011601687 -0.0047006011 -0.40830889 -0.83812845 -0.36169675 0.0016672026
-0.034309492 0.010631026 -0.0049322564 -0.38350484 -0.84867871 -0.36423695 0.0013368413
-0.031769913 0.0096101789 -0.005092755 -0.37295812 -0.85503781 -0.36029515 0.0015958655
-0.02973954 0.0090996027 -0.0059567415 -0.37155092 -0.83044016 -0.41511342 0.0017690497
0.041266218 0.0094094779 -0.0049405596 0.40963498 -0.86969656 -0.27536711 0.00161065
0.043518312 0.01033668 -0.0045333547 0.42325023 -0.86101604 -0.28197634 0.0013060076
0.046018947 0.011474309 -0.0042123199 0.44672111 -0.84883904 -0.28268793 0.0017209422
-0.042508375 0.014697265 -0.0045044427 -0.47782621 -0.79711115 -0.36918283 0.0012929513
-0.040317953 0.013711568 -0.0050248126 -0.43692085 -0.80252737 -0.40626347 0.0013181298
-0.037976425 0.012589526 -0.0052584037 -0.42212084 -0.81684518 -0.39316413 0.00096727721
0.047257468 0.012465786 -0.0050107199 0.46938443 -0.83083624 -0.29898056 0.0014972216
0.049398389 0.013561907 -0.0046122023 0.49258313 -0.81534469 -0.30426121 0.0015852927
0.051578902 0.014648171 -0.0040428787 0.51077563 -0.81108099 -0.28505445 0.0018380886
-0.046112761 0.017154668 -0.0043642353 -0.54573274 -0.77388877 -0.32135969 0.0017214332
-0.043741673 0.015877718 -0.0052583055 -0.50421846 -0.77504683 -0.3808755 0.0016310634
0.050898928 0.015022898 -0.0059483279 0.49165577 -0.77561754 -0.39584345 0.0010841173
0.052813943 0.015775692 -0.0047620819 0.53066516 -0.79351258 -0.29787976 0.0014787852
0.055139352 0.01722157 -0.0042738034 0.55817777 -0.77364969 -0.2998395 0.0017283474
-0.05149658 0.020812687 -0.0037416029 -0.56702834 -0.76994687 -0.29267859 0.0012970263
-0.049802687 0.020016523 -0.0049121627 -0.55799186 -0.74110711 -0.37337008 0.0013654385
-0.047335386 0.018330932 -0.0052093691 -0.54473776 -0.75464833 -0.36574104 0.0016028407
0.056352474 0.018410411 -0.0051007131 0.57830077 -0.75811434 -0.30138156 0.0020359114
0.058414385 0.019796593 -0.0044073006 0.61401522 -0.72056478 -0.32213637 0.0017317445
0.0601734 0.020770837 -0.0032557673 0.64718544 -0.72203755 -0.24456649 0.0026074431
-0.054612055 0.023552783 -0.0046174019 -0.5822565 -0.72722274 -0.36348921 0.0016258952
-0.053026691 0.022376344 -0.0047922581 -0.57392406 -0.73059297 -0.36992583 0.0015089675
-0.050605696 0.021093693 -0.0058665429 -0.53527296 -0.70168155 -0.47024035 0.00059967913
0.059603777 0.021307463 -0.0052888594 0.63037074 -0.68942076 -0.35683581 0.0018759199
0.061444674 0.022587039 -0.004439394 0.66918761 -0.67551339 -0.30962819 0.0012796662
0.063192643 0.023782473 -0.0033971725 0.7009626 -0.64476895 -0.30483517 0.0019312582
-0.058060918 0.026356217 -0.0044208486 -0.61923182 -0.69123977 -0.37247744 0.0015178372
-0.055859122 0.024843469 -0.0051214155 -0.58040875 -0.71211952 -0.3949829 0.0018867116
0.062736772 0.024304291 -0.0053181387 0.6856963 -0.62409061 -0.37460831 0.0021486275
0.064278983 0.025651239 -0.0044722632 0.7275908 -0.59908873 -0.33422193 0.0020587335
-0.060782611 0.029414389 -0.0050447248 -0.66609585 -0.62920821 -0.40051627 0.0017686388
-0.059490532 0.028105721 -0.0052585811 -0.63972163 -0.6464119 -0.415822 0.0015134636
0.065518416 0.027651982 -0.0051142634 0.75590569 -0.55273879 -0.35083687 0.0020971762
0.066771522 0.028942214 -0.0043337089 0.78534466 -0.5102101 -0.35059866 0.0024532168
-0.063422173 0.032310486 -0.0050055734 -0.68939841 -0.54021072 -0.48259941 0.00092506764
-0.062068745 0.031008117 -0.0054362658 -0.67749584 -0.57395971 -0.45996702 0.00076416065
-0.0073664486 0.032851506 -0.0054809116 0.17259629 0.91324383 -0.36904758 0.0022996545
-0.004316695 0.032611836 -0.0049293125 0.13337541 0.9142468 -0.38257533 0.0018794893
-0.0015353622 0.032373659 -0.0046634618 0.096756078 0.93005216 -0.35445908 0.0023976467
0.0014748026 0.032207586 -0.0045156507 0.052053321 0.93700248 -0.34542257 0.0028221076
0.0044784527 0.032122038 -0.0044862325 0.0092987586 0.93605 -0.35174429 0.0026518998
0.0074557099 0.032126818 -0.0045014434 -0.032561805 0.94704193 -0.31945458 0.0029355115
0.010473856 0.032258298 -0.0047067013 -0.10649982 0.92362469 -0.36820531 0.0028457022
0.013399143 0.032526881 -0.0048236828 -0.1507663 0.91521561 -0.37369767 0.0020414328
0.016171789 0.032792676 -0.005422221 -0.1983919 0.89206761 -0.40602455 0.001982027
0.068062268 0.03140898 -0.0046962793 0.81959051 -0.42965937 -0.37903064 0.0024723699
0.069200434 0.032597732 -0.0035264185 0.83759636 -0.41566831 -0.35447454 0.0024270911
-0.066338226 0.03546375 -0.0040734787 -0.71970165 -0.4865458 -0.49528044 0.0013762638
-0.064687878 0.034035392 -0.0051339688 -0.70322877 -0.52175152 -0.48295411 0.0012394474
-0.018561112 0.03570056 -0.0055775689 0.30494219 0.87432897 -0.37757 0.0020706397
-0.016324669 0.035378426 -0.0048017842 0.2739442 0.89449304 -0.35332254 0.0020248694
-0.01349431 0.034602787 -0.0046528527 0.25821662 0.89480686 -0.36420435 0.0021397674
-0.010631093 0.033853609 -0.0046326839 0.2030939 0.91277081 -0.35440442 0.0020737846
-0.0076989988 0.033442706 -0.0041731801 0.16285634 0.92754024 -0.33637336 0.0027113422
-0.0048998035 0.03324239 -0.0034143825 0.13830616 0.94936514 -0.28209439 0.0028919212
0.014106245 0.033124153 -0.00348438 -0.14669564 0.95631051 -0.2528846 0.0014064184
0.016525235 0.03337995 -0.0040332992 -0.19070457 0.91374087 -0.35876089 0.0018470642
0.019498613 0.033797026 -0.0048437137 -0.23293732 0.89799285 -0.3732948 0.0014167133
0.022554459 0.034748785 -0.0046071364 -0.25965816 0.89732045 -0.35692242 0.0011010431
0.025279863 0.035503663 -0.0046763909 -0.26076528 0.89306378 -0.36665851 0.0014655908
0.027220473 0.035785392 -0.0054300381 -0.29377005 0.8979978 -0.32756543 0.0020834187
0.068722829 0.033615958 -0.0055566723 0.82820314 -0.34062827 -0.44503015 0.0022529382
0.069706254 0.034667902 -0.0044169668 0.8585878 -0.33512905 -0.38796332 0.003035302
-0.066916265 0.03743431 -0.0053611449 -0.71534926 -0.43247336 -0.5488553 0.0017422767
-0.027091753 0.03881754 -0.0057697343 0.39249748 0.83764547 -0.37986299 0.0036412142
-0.025083868 0.038485359 -0.0049415268 0.3682113 0.86951351 -0.32919115 0.0020513833
-0.022472098 0.037544817 -0.0045910426 0.35353848 0.8730247 -0.33591413 0.0023709366
-0.019736173 0.036574617 -0.0043811058 0.30249918 0.89837509 -0.31845933 0.002463931
-0.01742986 0.03615512 -0.0036810976 0.27879041 0.91042274 -0.30562457 0.0020182168
0.026503101 0.036111202 -0.0039624078 -0.28583407 0.89609516 -0.33957672 0.0014256482
0.028001025 0.036564343 -0.0040524979 -0.2901102 0.8936072 -0.3424941 0.0012157114
0.031665523 0.037509616 -0.0049936012 -0.35542449 0.84929657 -0.39034438 0.0017015327
0.034045927 0.03857851 -0.0049129901 -0.39423165 0.85711092 -0.33157542 0.0023103661
0.070580088 0.037490685 -0.0045679696 0.87503618 -0.24260546 -0.41887265 0.0027279428
-0.069502369 0.041469779 -0.0048177368 -0.75702792 -0.33015698 -0.56383073 0.0024721394
-0.068564236 0.040457413 -0.0055301394 -0.71681529 -0.34266657 -0.60725242 0.0030571693
-0.03323276 0.041856002 -0.0057632537 0.42029619 0.82293236 -0.38227403 0.0024785888
-0.031297605 0.041328996 -0.0047666924 0.42312679 0.85075378 -0.31173962 0.0020714412
-0.028532507 0.040064439 -0.0046114083 0.37781984 0.87076157 -0.31468469 0.0021892919
-0.026211984 0.039336506 -0.0039934176 0.36263874 0.87811488 -0.31210154 0.0021469255
0.035204247 0.039433829 -0.0040523037 -0.41202807 0.85319978 -0.31981698 0.0020888178
0.037391767 0.040370829 -0.0045493087 -0.455403 0.81528139 -0.35766521 0.0017933086
0.039518997 0.041496851 -0.0048901299 -0.48642516 0.79564077 -0.36103517 0.0015433419
0.071227483 0.040452201 -0.0046227328 0.88730156 -0.15085199 -0.43582067 0.0030175017
0.072078146 0.041409243 -0.0032499775 0.93222666 -0.16065039 -0.32426056 0.0034961319
-0.069992296 0.043445479 -0.0051563834 -0.7400015 -0.23290192 -0.6309948 0.0022300819
-0.039246265 0.044922743 -0.0057939817 0.43849269 0.80196631 -0.40567741 0.0020598758
-0.037219044 0.044302449 -0.004807217 0.44303489 0.83913004 -0.31556422 0.0019722795
-0.034573663 0.043074038 -0.0045174612 0.42172164 0.84972835 -0.31640577 0.0020490265
-0.032406323 0.042271309 -0.0038263232 0.41795251 0.85378492 -0.31043035 0.0022284302
0.041017011 0.042602755 -0.004378756 -0.47629344 0.79736131 -0.37062028 0.0016430756
0.043757211 0.044005509 -0.0051890453 -0.47198519 0.76391858 -0.4400664 0.00079057505
0.045298722 0.044754531 -0.0056898366 -0.4598985 0.80316359 -0.37871057 0.0034960154
0.071409941 0.04346003 -0.0049462444 0.87239426 -0.056818001 -0.48548937 0.0034661226
0.072186612 0.043629143 -0.0034379205 0.9139595 -0.07529828 -0.39875832 0.0030572813
-0.072237611 0.046846956 -0.0033509922 -0.78529698 -0.21739654 -0.57969594 0.0012774237
-0.071015179 0.046522543 -0.00510464 -0.73616403 -0.17060104 -0.65494865 0.0027592795
-0.04518592 0.04799822 -0.0059808251 0.40952411 0.77573812 -0.48012549 0.0010009812
-0.042926129 0.047345892 -0.0049353968 0.45334214 0.81829274 -0.35338053 0.0022584728
-0.040482178 0.046186443 -0.0045060506 0.45397031 0.82576525 -0.3346979 0.0023151678
-0.038396817 0.045304313 -0.0038729424 0.44226533 0.83983594 -0.31476501 0.0022474481
0.044809952 0.045232177 -0.0038291875 -0.50900704 0.78727537 -0.34800768 0.0017475454
0.046696816 0.045905482 -0.0050891079 -0.46199125 0.75658733 -0.46275234 0.0013698047
0.049336892 0.047476679 -0.0053309728 -0.45154238 0.74192482 -0.49563801 0.0014090766
0.071400687 0.046502721 -0.0049852706 0.85122037 0.019801499 -0.52443469 0.0036105579
0.072242714 0.046577703 -0.0034644457 0.89585674 -0.01030928 -0.44422334 0.0036054056
-0.072555609 0.049949706 -0.0041005504 -0.71739954 -0.16128778 -0.67773467 0.0023526156
-0.071306847 0.049423438 -0.0054870252 -0.71984315 -0.10223561 -0.68656671 0.003822766
-0.051013969 0.050940279 -0.0059834016 0.34973305 0.76198101 -0.54504287 0.0020427029
-0.048895217 0.050470542 -0.0051125702 0.41404134 0.81693965 -0.40147135 0.0029164313
-0.04651333 0.049471952 -0.0045268 0.43915972 0.81674021 -0.37426478 0.0025305939
-0.044168904 0.048393287 -0.0040441933 0.44032264 0.82956892 -0.34341148 0.0020334176
0.050338961 0.04856487 -0.0044579343 -0.46586323 0.75994956 -0.4532637 0.0014893541
0.052317943 0.04948261 -0.0050599016 -0.44782507 0.73367429 -0.51105267 0.0014484954
0.054576959 0.050628569 -0.0054484718 -0.42359072 0.73178983 -0.53390491 0.0022487468
0.071259968 0.049496595 -0.0049995016 0.81970346 0.054539662 -0.5701856 0.0045746169
0.072263129 0.049504489 -0.0034322245 0.86965424 0.0081057884 -0.4935948 0.0044716755
-0.073194735 0.052990437 -0.0043474399 -0.52524692 0.029677529 -0.85043222 0.0064312308
-0.071354985 0.052919053 -0.0057246834 -0.48815134 0.11531526 -0.8651073 0.0061908215
-0.057418685 0.053658746 -0.005769589 0.26130921 0.79932243 -0.54111111 0.0043787542
-0.055151496 0.053404819 -0.0049008387 0.30741557 0.84284514 -0.44170991 0.0039694239
-0.052399829 0.052445173 -0.0046235588 0.36115879 0.83225006 -0.42062351 0.0027008278
-0.050082825 0.051513847 -0.0041500363 0.41435841 0.82485515 -0.3846052 0.00270254
0.053616159 0.051169172 -0.0032807039 -0.50831753 0.79098338 -0.34052682 0.0048472453
0.055793684 0.051671091 -0.0048864107 -0.4145579 0.72702378 -0.54733723 0.0015889336
0.058287933 0.05298917 -0.0051105209 -0.39529666 0.69698918 -0.59828639 0.003233084
0.060382497 0.053745054 -0.0057548978 -0.38400045 0.66302705 -0.64260304 0.0040052794
0.071028762 0.052512761 -0.0049624853 0.74659884 0.079386592 -0.66052103 0.0061397608
0.072262667 0.052511882 -0.0033899266 0.82225865 0.028739603 -0.56838781 0.0054655657
-0.075127237 0.05570301 -0.0030858552 -0.65724486 0.085906073 -0.74876523 0.024230914
-0.072835162 0.055644725 -0.0048456537 -0.36742792 0.26831183 -0.89050859 0.018893113
-0.070561804 0.056017339 -0.0056752474 -0.19321236 0.34011477 -0.92032105 0.014322091
-0.067165315 0.056631792 -0.0057778861 0.062318306 0.5364244 -0.84164447 0.0068549966
-0.064272217 0.056262102 -0.0054604583 0.21412323 0.64241838 -0.73583269 0.0058466736
-0.061613198 0.055832293 -0.0047035594 0.3071166 0.75523067 -0.57905614 0.0075383075
-0.058663145 0.054883625 -0.0044350135 0.28738636 0.82161742 -0.49229452 0.0036198804
-0.056164201 0.05430349 -0.0038298601 0.33274311 0.85530931 -0.39714992 0.0028726952
0.059508648 0.054307923 -0.0043760431 -0.41936132 0.67959666 -0.6019007 0.0022065924
0.061563786 0.055333141 -0.0047232308 -0.3881641 0.63873011 -0.66434366 0.0042593307
0.064419523 0.056277148 -0.0055336566 -0.19265942 0.50987107 -0.83839959 0.0099016596
0.067921244 0.056648958 -0.005876733 0.13664286 0.34726977 -0.92775667 0.014866886
0.070673108 0.055516552 -0.004886203 0.57948869 0.12219287 -0.80576777 0.0111003
0.072199732 0.055309188 -0.003340398 0.77478808 0.032550465 -0.63138247 0.0076240958
-0.072970428 0.057624537 -0.004384154 -0.29335785 0.43528396 -0.85115743 0.025550067
-0.070216782 0.058272529 -0.004876358 -0.071254715 0.59683025 -0.79919744 0.014508328
-0.06752494 0.058458332 -0.0045028757 0.14186174 0.64228272 -0.75322515 0.0097274249
-0.064661808 0.057853088 -0.0040644035 0.32283935 0.71318275 -0.62220985 0.0070388503
-0.062560923 0.057255782 -0.0034297844 0.3833321 0.74266553 -0.54909414 0.0062965467
0.06271901 0.057229381 -0.0036152017 -0.42955709 0.58817589 -0.68522245 0.0067770523
0.064814702 0.058256429 -0.0043979171 -0.38189134 0.4376055 -0.81403965 0.012173199
0.067695707 0.058458839 -0.0052860933 0.091734543 0.2818054 -0.95507622 0.015532903
0.070582308 0.058475789 -0.0044990047 0.49923348 0.10033727 -0.86063832 0.020450136
0.07220345 0.058593873 -0.0032564669 0.78713405 0.0080685588 -0.61672914 0.019759806
-0.069078051 0.06006366 -0.003424831 0.11844571 0.7258358 -0.67759353 0.022366842
-0.068078451 0.06009062 -0.0031930034 0.17931664 0.81604862 -0.54946357 0.022818221
0.065606743 0.061006047 -0.0034732693 -0.3878217 0.29733559 -0.87245965 0.0099137556
0.067839839 0.061351012 -0.0044280207 -0.05062338 0.213301 -0.97567409 0.017208928
0.070590734 0.06150515 -0.0042401464 0.36165261 0.076777048 -0.92914617 0.021616271
0.072290801 0.061564598 -0.0033139323 0.7019785 -0.027131893 -0.71168119 0.019221863
0.068040542 0.064173914 -0.0039042195 -0.12552619 0.10104006 -0.98693162 0.015039842
0.070633143 0.064503737 -0.0040559657 0.23441339 -0.0023074115 -0.97213429 0.030357569
0.072458439 0.064632215 -0.003310032 0.52896929 -0.070813708 -0.84568137 0.02506841
0.068330243 0.067195743 -0.0036724636 -0.22045143 0.024880324 -0.97508055 0.014218465
0.070716821 0.067451097 -0.0041413745 0.097020343 -0.049270127 -0.99406213 0.025799626
0.072842978 0.067611292 -0.0035208659 0.55402762 -0.12344621 -0.82329476 0.016178582
0.068414971 0.069890067 -0.0034191243 -0.22704765 -0.0032485758 -0.9738782 0.017273834
0.070722163 0.070471488 -0.0042243404 0.0083093047 -0.085540734 -0.99630004 0.020830704
0.07332807 0.070607178 -0.0037722818 0.4211621 -0.19001469 -0.88685787 0.01950063
0.068727538 0.073693365 -0.0033980445 -0.54648125 0.16495043 -0.82106614 0.031267524
0.070750192 0.073399596 -0.0044660228 -0.083596297 -0.036825936 -0.99581903 0.025352972
0.073600993 0.073465116 -0.0044114878 0.41660383 -0.003051521 -0.90908301 0.058529634
0.075526536 0.073859669 -0.0034771804 0.6502375 -0.063285753 -0.75709057 0.06617061
0.068847276 0.075957023 -0.0032643774 -0.41372883 0.56338698 -0.71513885 0.089032657
0.070803553 0.075861812 -0.0043630456 0.017647786 0.3602213 -0.93269998 0.062370021
0.073310457 0.075477727 -0.0044903541 0.28545147 0.43134913 -0.85583609 0.050541181
0.075270399 0.075103506 -0.0035134135 0.63893336 0.38676247 -0.66496545 0.075095266
-0.015675321 0.0028418738 -0.0016474939 -0.24123345 -0.95507729 -0.17214462 0.001356001
-0.013842883 0.0023779869 -0.0018127771 -0.23268706 -0.94646591 -0.22373869 0.0012586722
-0.01023878 0.0016568776 -0.0021847088 -0.15355788 -0.93782884 -0.31128308 0.0016313718
-0.0075357049 0.0012632285 -0.0020190885 -0.13767137 -0.96261656 -0.23327233 0.0021620679
-0.0037879306 0.00079086167 -0.0020637752 -0.080724262 -0.95725703 -0.27774543 0.0025497852
-0.0012973872 0.00056741515 -0.0016068879 -0.067679033 -0.97908384 -0.19187047 0.0036508567
0.0017289259 0.00052159908 -0.002136393 -0.025889317 -0.9622947 -0.27077433 0.0014165803
0.0045336746 0.00038874519 -0.001696037 0.015785607 -0.99279332 -0.11879484 0.0049135904
0.0075004864 0.0004962415 -0.0015288934 0.048465312 -0.99388409 -0.099224783 0.0040977206
0.010512445 0.00068708148 -0.0018408932 0.076973006 -0.97762793 -0.19575207 0.0035627112
0.013475822 0.0009437527 -0.0014870369 0.11159264 -0.96822745 -0.22379166 0.0021090694
0.016941179 0.0014847408 -0.0020834228 0.14506742 -0.97305244 -0.17923298 0.0026082837
0.019333825 0.00178337 -0.0016639108 0.16881952 -0.97066081 -0.17122389 0.0021220089
0.022305483 0.002403266 -0.001609691 0.19900009 -0.96893448 -0.14685011 0.0012573261
0.024683027 0.0028889277 -0.0013716799 0.23030512 -0.96238071 -0.1441626 0.0013637656
-0.024610497 0.0057406016 -0.0013247347 -0.34752962 -0.91803485 -0.19088028 0.00059976208
-0.022475779 0.00493488 -0.001415472 -0.33459219 -0.92293602 -0.19036062 0.00040862832
-0.019344011 0.003862717 -0.0015922602 -0.29462859 -0.9393025 -0.17579786 0.0006976244
-0.017151609 0.0033434967 -0.002183232 -0.26694506 -0.935848 -0.23006256 0.00085562828
0.026198046 0.0033169836 -0.0019449831 0.25435817 -0.95350945 -0.16162139 0.0013933225
0.028309137 0.0038638136 -0.0014128772 0.27508479 -0.95081252 -0.14242189 0.0011636213
0.031375848 0.0047750827 -0.0014719318 0.29248893 -0.94869912 -0.12008423 0.0011472056
0.033879239 0.005602465 -0.0013538559 0.33048761 -0.93678433 -0.11494843 0.0018469045
-0.031402521 0.0085235853 -0.001654599 -0.37885204 -0.89889181 -0.22014704 0.00044428543
-0.028669998 0.0074626016 -0.0021234225 -0.35220367 -0.90532511 -0.23735854 0.0012761215
-0.0259861 0.0063654091 -0.0019899176 -0.34535542 -0.90734059 -0.2397137 0.0014540536
0.035242502 0.0061512757 -0.001696235 0.35947239 -0.92711604 -0.10599687 0.001379206
0.037443738 0.006988043 -0.001589431 0.36562914 -0.924119 -0.11099305 0.0013508692
0.040376119 0.0081917252 -0.0014474366 0.39372268 -0.90945154 -0.133717 0.0016204922
0.042192593 0.0089407824 -0.00056762871 0.42122942 -0.90061629 -0.10703347 0.0027639524
-0.037446603 0.011275025 -0.0017007599 -0.42674112 -0.87437278 -0.23100699 0.00080633827
-0.034473151 0.0099035446 -0.0021548031 -0.3976582 -0.8800844 -0.25945973 0.00077277038
-0.03274826 0.0091422815 -0.0021285377 -0.37626341 -0.89600033 -0.23581624 0.00075674267
0.041872021 0.0090465536 -0.0026697356 0.42268592 -0.89571416 -0.13795899 0.0025012102
0.043546073 0.0097003514 -0.0015683773 0.43368566 -0.89121741 -0.13284689 0.001652783
0.046512652 0.011193099 -0.0015212299 0.46265468 -0.87592351 -0.13677926 0.0014920967
0.04809092 0.011920019 -0.00031433257 0.46261576 -0.88466245 -0.057956696 0.0036133367
-0.042926908 0.014211837 -0.0014242183 -0.50135958 -0.83264601 -0.23524311 0.0019741869
-0.040501989 0.012928149 -0.0019356705 -0.46571338 -0.85103863 -0.24257845 0.00069991715
-0.038819399 0.012030683 -0.0021100487 -0.46487242 -0.85271049 -0.23828252 0.00038937354
0.047936745 0.012042274 -0.0021643089 0.48776361 -0.86610794 -0.10928718 0.0022265445
0.049566466 0.01294486 -0.001565308 0.50637984 -0.85330868 -0.12427267 0.0013797944
0.051969927 0.014350535 -0.0013746336 0.53141111 -0.839948 -0.10995314 0.0019145033
-0.048077937 0.017868105 -0.0023307593 -0.5756743 -0.78436083 -0.23103525 0.00061990716
-0.046528868 0.016726196 -0.0016338399 -0.54973388 -0.79850686 -0.24531513 0.0013145055
-0.044471476 0.015371334 -0.0022103032 -0.55202508 -0.79838151 -0.24053121 0.0015630526
0.05340739 0.015380812 -0.001736115 0.5605793 -0.82094586 -0.10862228 0.001709798
0.055517804 0.016807515 -0.0014399783 0.56455046 -0.81594628 -0.1245569 0.0020298646
0.057208907 0.017928036 -0.0011845222 0.59027076 -0.79649043 -0.13108538 0.0021410279
-0.051506065 0.020356279 -0.0017839449 -0.59734774 -0.77488816 -0.20669805 0.0010058113
-0.049778394 0.019048609 -0.0015942364 -0.57290268 -0.78581721 -0.2329676 0.00046554208
0.056906279 0.018040318 -0.0029298898 0.58821088 -0.76920009 -0.24967845 0.0019434284
0.058710825 0.019203465 -0.0015593066 0.62222487 -0.77298939 -0.12378883 0.0018708374
0.060426481 0.020608153 -0.0013288374 0.66220045 -0.73832452 -0.12793505 0.0033282931
-0.054935608 0.022950228 -0.0015171684 -0.60594314 -0.76375455 -0.22251263 0.0015337974
-0.052916415 0.021454886 -0.0021772622 -0.59619987 -0.77502578 -0.20947737 0.00094533537
0.061900772 0.022040227 -0.0015592666 0.69873857 -0.70746922 -0.10607425 0.0024766247
0.06338571 0.023514561 -0.001400696 0.72819513 -0.67441332 -0.12205946 0.0031515094
-0.058223732 0.025712419 -0.0020284362 -0.64680105 -0.72804135 -0.22716555 0.00096979714
-0.056668315 0.02424732 -0.00069409283 -0.61147326 -0.75898612 -0.22369766 0.0020601721
0.06496603 0.025395703 -0.0017070952 0.76938003 -0.61959058 -0.1554407 0.0028333897
0.066173792 0.026786493 -0.0010902066 0.79414761 -0.58731431 -0.15617792 0.0027506237
-0.06123963 0.028382162 -0.00063796819 -0.71274203 -0.67747247 -0.18174125 0.00098382926
0.067371599 0.028579617 -0.0015667812 0.8248592 -0.54462373 -0.15163213 0.0027342783
-0.063787416 0.031526398 -0.0027303714 -0.72200423 -0.63587493 -0.27271426 0.0013764268
-0.00090719794 0.032936059 -0.0025555196 0.087216944 0.97395831 -0.20928064 0.0028314961
0.0015447184 0.032896847 -0.0015509266 0.060160186 0.97905242 -0.19451748 0.0018476993
0.0045198579 0.032866113 -0.0011075956 0.015191657 0.97457719 -0.22353643 0.0022580416
0.007306275 0.032864064 -0.0011545288 -0.039617766 0.97467685 -0.2200806 0.0026117684
0.010111898 0.032891367 -0.0022125682 -0.082100473 0.96112484 -0.26362565 0.0022766276
0.012262641 0.032948866 -0.0027946229 -0.14479689 0.97752696 -0.15321516 0.0024189358
0.068646707 0.030679237 -0.0017121852 0.85321808 -0.50158376 -0.14294253 0.0028597275
0.069464251 0.032085922 -0.0015313841 0.88637328 -0.43056753 -0.17015892 0.0039010162
-0.066420764 0.03467913 -0.0022590123 -0.74677283 -0.53496462 -0.39514965 0.001283419
-0.015555896 0.035861842 -0.0020132433 0.29174569 0.94526792 -0.14612721 0.0022978496
-0.013578136 0.03533268 -0.0017336581 0.26428723 0.94948083 -0.16922921 0.0015381045
-0.010535002 0.03457135 -0.0014187134 0.20584601 0.96067923 -0.18634081 0.0023371093
-0.0074965758 0.03395576 -0.0014997283 0.16553494 0.97010577 -0.17746264 0.0016468856
-0.0044273441 0.033479095 -0.0015784104 0.1345602 0.97724527 -0.16396719 0.0014937463
-0.0022208188 0.03332033 -0.00073803304 0.10202657 0.98132509 -0.16306977 0.0015530005
0.00095966505 0.033092581 -0.00036187313 0.048392326 0.99802047 -0.04016592 0.0023228847
0.0043915329 0.033006079 -4.7542449e-05 0.013590218 0.99920148 -0.037573181 0.001227077
0.0085143987 0.033032391 -0.00026060652 -0.042265344 0.99707812 -0.063630447 0.0014792266
0.010843575 0.033096805 -0.0010121398 -0.095029518 0.98501438 -0.14393078 0.0030832314
0.013574357 0.033337072 -0.0016183958 -0.14626005 0.97118986 -0.18814433 0.0020557155
0.016353812 0.033840083 -0.0014409949 -0.18885761 0.9642154 -0.18606882 0.0024757506
0.019295376 0.034497038 -0.0016250882 -0.24725567 0.95446521 -0.16691551 0.0017210171
0.022500038 0.035379898 -0.001650875 -0.27570561 0.95267594 -0.12804341 0.0014340036
0.024349816 0.035861265 -0.0019820549 -0.30041069 0.94443381 -0.1334098 0.0020872003
0.070500582 0.034441989 -0.0016498091 0.92033952 -0.34812516 -0.17828061 0.003061604
-0.067999691 0.037037037 -0.0025256351 -0.76797777 -0.47691426 -0.42750791 0.0021100978
-0.024269849 0.038862847 -0.0023784037 0.38932049 0.90863365 -0.15104438 0.0020012972
-0.022592442 0.038293831 -0.0015531327 0.36809185 0.91674286 -0.15521237 0.0013906137
-0.019589167 0.03714034 -0.0015513643 0.30700335 0.93735504 -0.1646648 0.002624386
-0.016773948 0.03632338 -0.0013609976 0.27978361 0.95100534 -0.13156742 0.001761754
0.025778331 0.036370303 -0.0012766193 -0.2885465 0.94636178 -0.1453969 0.0016437689
0.028553441 0.037230391 -0.0016145767 -0.30998334 0.93417174 -0.1767302 0.0015343153
0.031313594 0.038253944 -0.001260615 -0.36127195 0.91805315 -0.16328198 0.001545329
0.033177473 0.03886833 -0.0025879745 -0.43571588 0.8889147 -0.14135915 0.0019860098
0.071508221 0.037359312 -0.0016723942 0.93444943 -0.29651856 -0.19718251 0.0035452002
0.072083518 0.038718168 -0.0006350482 0.96212023 -0.23733404 -0.1341539 0.008686943
-0.07002224 0.040339377 -0.0024119935 -0.79715878 -0.39344943 -0.45796898 0.0025463563
-0.030534156 0.041708741 -0.0017690153 0.45731878 0.88038653 -0.12561464 0.0017451458
-0.028621554 0.0408323 -0.0014534447 0.40606913 0.90404385 -0.13346402 0.0021061306
-0.025693605 0.039596032 -0.0014398833 0.37821081 0.91556782 -0.13671897 0.0015463928
-0.023989301 0.039014351 -0.00016337373 0.36398995 0.92972958 -0.055806536 0.0057936562
0.034617636 0.039675925 -0.0015241755 -0.43219209 0.89406782 -0.11769798 0.0027020979
0.037414316 0.041134525 -0.0014803809 -0.48122954 0.86469394 -0.14395298 0.0018458124
0.071898937 0.039598748 -0.002650599 0.94994438 -0.18556124 -0.25134191 0.0036060391
0.072320275 0.040623989 -0.0014398601 0.97189218 -0.15256864 -0.17929998 0.0036748769
-0.071132384 0.042978372 -0.0025949131 -0.81320143 -0.30207419 -0.49744818 0.002137539
-0.036599524 0.044812407 -0.0016766433 0.47986796 0.86752009 -0.13090277 0.0019529476
-0.03453787 0.043790765 -0.0015086653 0.45182449 0.88197249 -0.13408604 0.0015818961
-0.031989373 0.042504001 -0.0014280904 0.43579793 0.89086163 -0.12824063 0.0019229485
0.038869426 0.04217612 -0.00028249546 -0.50843579 0.85724062 -0.081434868 0.0033125349
0.040478114 0.042993911 -0.0015596247 -0.51814681 0.8429637 -0.14469305 0.0021344316
0.043150261 0.044656932 -0.0020159062 -0.53495365 0.81693304 -0.21551132 0.0013938911
0.072671048 0.04347771 -0.0015814501 0.98026258 -0.077170499 -0.18201689 0.0036808013
-0.072611749 0.047007501 -0.0026823622 -0.80687213 -0.26434454 -0.52827966 0.0011803291
-0.042206187 0.04778666 -0.0022873236 0.47781712 0.86677134 -0.14282227 0.0025113875
-0.040520277 0.046998464 -0.001490359 0.47436982 0.86916143 -0.13975601 0.0019114846
-0.038049944 0.045615543 -0.0014482108 0.46045285 0.87770247 -0.13274547 0.0019570775
0.044266522 0.045458771 -0.0014964477 -0.54428279 0.82495737 -0.15232086 0.0033253264
0.046938878 0.047185931 -0.0019128841 -0.52529842 0.81575906 -0.24207176 0.0018721881
0.048190825 0.047815718 -0.0028564839 -0.5387302 0.80963272 -0.23294784 0.0045101931
0.072800562 0.04645713 -0.0016140529 0.97692019 -0.03199644 -0.21119462 0.0048892046
-0.073561847 0.050034024 -0.0025759803 -0.74327129 -0.19397627 -0.64025074 0.0022854698
-0.048299685 0.050994623 -0.0028128629 0.43303689 0.88160133 -0.18777144 0.0030459641
-0.046345968 0.050269715 -0.0015353449 0.47629613 0.86606437 -0.15190312 0.0022995532
-0.043544747 0.048705958 -0.0014676936 0.48004097 0.86474508 -0.14756884 0.0020431387
0.049716111 0.049013838 -0.0019818309 -0.52951777 0.8053298 -0.2665613 0.0020916217
0.051976386 0.050433971 -0.0023424812 -0.51598155 0.80050933 -0.30487332 0.0023195867
0.072917677 0.049544539 -0.0015811614 0.96553814 -0.021133557 -0.25940219 0.0067948853
-0.075004861 0.053033356 -0.002392398 -0.70297909 -0.03251243 -0.71046698 0.029040214
-0.074424036 0.05205242 -0.0025707993 -0.6837005 -0.14098056 -0.71601546 0.0038126402
-0.054171361 0.053819828 -0.0029019392 0.36092958 0.88269293 -0.30097014 0.0054264734
-0.05211309 0.05332575 -0.0017998788 0.41208404 0.8826713 -0.22600487 0.0027700157
-0.049446199 0.051957496 -0.0015891126 0.45819956 0.87159234 -0.17429836 0.0029654095
-0.047860384 0.051170908 -0.00093207258 0.46019751 0.87294203 -0.16183449 0.0039718281
0.053212445 0.051422518 -0.0016498853 -0.51144701 0.81705624 -0.26615998 0.0028848175
0.055512406 0.052818917 -0.0020121008 -0.51004905 0.78894705 -0.34265521 0.003468672
0.057314452 0.053799178 -0.0025968999 -0.54304844 0.76265919 -0.35135362 0.0045117759
0.072991215 0.052530255 -0.0016380862 0.94959348 -0.0087340185 -0.31336221 0.0090031084
-0.075343631 0.055088919 -0.0024883433 -0.60887903 0.016224695 -0.7930972 0.020153172
-0.060442969 0.056661546 -0.0022996508 0.44551584 0.83923703 -0.31176424 0.0090014646
-0.058426376 0.055880629 -0.0018099862 0.38080502 0.88661826 -0.2624796 0.0059007616
-0.055634148 0.054787081 -0.0016370375 0.34801006 0.90924907 -0.22837499 0.0031633503
-0.053709518 0.054178342 -0.0006941196 0.37529311 0.90982282 -0.17713676 0.0048971642
