# .PCD v0.7 - Point Cloud Data file format
VERSION 0.7
FIELDS x y z normal_x normal_y normal_z curvature
SIZE 4 4 4 4 4 4 4
TYPE F F F F F F F
COUNT 1 1 1 1 1 1 1
WIDTH 574
HEIGHT 1
VIEWPOINT 0 0 0 1 0 0 0
POINTS 574
DATA ascii
-0.0045580869 0.03122199 0.010892793 0.13469432 0.91594911 0.37801421 0.0067674033
-0.0018399062 0.030848194 0.010382318 0.054048143 0.91402149 0.40204915 0.0097827762
0.0009623841 0.031104118 0.010569568 -0.16959083 0.89644402 0.40942284 0.0083682295
0.0045346739 0.031935427 0.011872871 -0.34627762 0.88150048 0.32101211 0.0011121755
0.047479693 0.032554302 0.010259118 0.45307755 0.88513774 0.10607497 0.00080661086
0.050092414 0.030996222 0.010620371 0.53064018 0.84045547 0.10979818 0.0016614873
-0.018227123 0.03513515 0.011358999 0.83334315 0.47071946 0.28976253 0.0093733724
-0.017352305 0.034186542 0.010171872 0.53992128 0.75047809 0.38113979 0.042199295
0.040730264 0.035543412 0.010686557 0.35308975 0.92615664 0.13252005 0.0012832327
0.043634601 0.034239322 0.01097033 0.4099991 0.8994571 0.15125345 0.00047115271
0.045736514 0.03318176 0.011247532 0.42736647 0.89209038 0.14673996 0.00065775908
-0.019123584 0.037327886 0.010687881 0.84909326 0.48211452 0.21588495 0.0044842442
0.024579434 0.037150346 0.010433398 -0.066103049 0.9761914 0.20659328 0.00027912596
0.037130501 0.036735147 0.010801452 0.26902479 0.9504568 0.15574822 0.0020273256
0.039669886 0.036052641 0.010167223 0.33836383 0.9338488 0.11591555 0.0008895158
-0.021495529 0.041148745 0.01083191 0.83326232 0.52234817 0.18118025 0.00093440234
-0.020478096 0.039803468 0.010073427 0.8485117 0.50391626 0.16154353 0.00066649506
-0.022823203 0.043541804 0.010399545 0.86645812 0.43842769 0.23881269 0.0025112454
-0.024429582 0.046805654 0.010927618 0.884597 0.36498806 0.29029623 0.0010120714
-0.02378167 0.046109535 0.0098496471 0.88684034 0.36722323 0.28046635 0.0012747067
-0.025469761 0.049314361 0.010460234 0.93007529 0.25314629 0.26622713 0.0038403864
-0.025833035 0.052588433 0.010334413 0.96739638 0.092075579 0.23593721 0.0021269803
-0.025812825 0.055368364 0.010295383 0.96594507 0.17780837 0.1879741 0.0070385751
-0.027424438 0.059141424 0.010587524 0.81801432 0.55794108 0.13983649 0.0086729489
-0.026500139 0.057662547 0.010450575 0.86530823 0.47376621 0.16366833 0.0095596854
-0.032278717 0.061771326 0.010803864 0.34046072 0.9344008 0.10479369 0.0048793326
-0.029232057 0.06070124 0.010790512 0.595465 0.7887271 0.15274486 0.013423124
0.050440259 -0.058644019 0.013755723 0.32435524 -0.89607209 0.30306518 0.001005625
0.053103164 -0.057862345 0.013800207 0.28695941 -0.90256882 0.32097337 0.001097551
0.055278469 -0.057232499 0.013707076 0.26619741 -0.90558273 0.33024049 0.0010013267
0.05710933 -0.057162531 0.012715112 0.25690764 -0.90929967 0.32737216 0.00079148455
0.058711182 -0.056298681 0.013856371 0.25318584 -0.89526498 0.36660254 0.0014956496
0.061560046 -0.055407267 0.013933383 0.29994941 -0.89730394 0.32384577 0.00088119484
0.064482965 -0.054476261 0.013471457 0.35929167 -0.8869316 0.29027882 0.00044844788
0.06772434 -0.053050414 0.013495288 0.40462694 -0.86172646 0.30611184 0.00063502416
0.070368305 -0.051625233 0.013805196 0.42689568 -0.85028344 0.30786058 0.00086503738
0.073662944 -0.049994752 0.013583247 0.47367716 -0.82507157 0.30803743 0.0011378202
0.075857393 -0.048865844 0.013170524 0.5497815 -0.75994813 0.34672642 0.0021746061
0.077127405 -0.047610223 0.013779795 0.58221835 -0.73127317 0.35533282 0.0018937374
0.079104684 -0.046078958 0.013219233 0.64658242 -0.65278715 0.39471519 0.0016813597
0.080342427 -0.044194032 0.014132069 0.68564814 -0.59830642 0.41462761 0.0023743575
0.081902787 -0.043067839 0.013319465 0.70459878 -0.57161999 0.42046541 0.0020509029
0.083066851 -0.040746715 0.014090319 0.78972161 -0.40467173 0.46106473 0.0040188781
0.084242269 -0.040010747 0.012558633 0.83704638 -0.410043 0.3622404 0.0049078083
0.08386296 -0.038109019 0.01470911 0.81451023 -0.24568687 0.52555782 0.0011813538
0.084770888 -0.037424318 0.013384261 0.8915053 -0.24424434 0.38152707 0.0036584719
-0.034519982 -0.033411961 0.013595544 -0.25777623 -0.89543456 0.36297143 0.00054199336
-0.031448774 -0.034093257 0.014179554 -0.26058951 -0.88402623 0.38806042 0.0013553948
-0.029679064 -0.034753442 0.01390739 -0.26058677 -0.88401282 0.38809264 0.0013840421
0.085329473 -0.034446429 0.013553574 0.90593988 -0.14268371 0.39864063 0.003042401
-0.043144401 -0.030710507 0.012234476 -0.41016662 -0.83211601 0.37329116 0.0026223375
-0.040014565 -0.031573005 0.013865073 -0.35733226 -0.85825431 0.36839262 0.0016891086
-0.037701745 -0.032322709 0.013877607 -0.28599477 -0.88387519 0.37009674 0.0010127394
0.08556737 -0.031362988 0.013542361 0.91504264 -0.028108533 0.40237638 0.0021069953
-0.04353236 -0.029183706 0.014553833 -0.43908614 -0.80512398 0.39872146 0.0012539316
0.085331701 -0.028479438 0.013636282 0.87755275 0.18552119 0.44213465 0.0053921784
0.083422475 -0.025023554 0.014273214 0.74704552 0.42471564 0.51140946 0.003752182
0.084722988 -0.025831522 0.013128499 0.78626978 0.39863774 0.47208872 0.0057887086
0.071638875 -0.022245238 0.014337098 0.81699038 0.43553022 0.37794194 0.023569554
0.07308796 -0.022729792 0.013354119 0.45927635 0.69336551 0.55525619 0.059750687
0.076582775 -0.022275573 0.013502006 -0.095330894 0.88562238 0.45451629 0.0020025617
0.079619214 -0.022203002 0.013501686 0.13450852 0.87449968 0.4660019 0.0065815141
0.082228191 -0.023176659 0.013374424 0.50268203 0.68520862 0.52706718 0.0050656339
0.084017798 -0.023873622 0.012200013 0.65215856 0.65973926 0.3734076 0.0049380246
0.071516857 -0.01983225 0.014290485 0.92925674 0.037790388 0.36749655 0.010995224
0.072072521 -0.019652311 0.01280151 0.91811675 0.11536948 0.3791458 0.013431589
0.071762398 -0.016430531 0.01431745 0.95257604 -0.026802562 0.30311826 0.00096908578
0.072136 -0.016470874 0.013093777 0.96448684 -0.002191128 0.26412171 0.0013835205
0.071750291 -0.013272184 0.014262115 0.96203655 0.033436202 0.2708647 0.0013468852
0.072109863 -0.013306817 0.012973462 0.97412014 0.056954075 0.21873754 0.0016180935
0.071785033 -0.010317923 0.01316172 0.97974151 0.095074877 0.17625931 0.0013580095
0.072006322 -0.011419504 0.012496577 0.97974491 0.095051117 0.17625344 0.001307038
0.071416125 -0.0074496907 0.014033269 0.97330427 0.10884234 0.20206964 0.0013401004
0.07107836 -0.0043761488 0.013584503 0.97287965 0.12490232 0.19469103 0.0016288331
0.070670821 -0.0015831089 0.01372122 0.96126115 0.17537588 0.21265034 0.0013144586
0.070144683 0.0013388296 0.013439635 0.94480532 0.25277218 0.20844479 0.0016891452
0.068655238 0.0053981971 0.013334289 0.91424072 0.35111958 0.20218526 0.00080902298
0.069322571 0.003807877 0.013438095 0.91641223 0.3401925 0.21084993 0.0011172504
0.067669466 0.0076242858 0.013536902 0.91077197 0.36295363 0.1968735 0.00058172224
0.066585027 0.010442019 0.013755413 0.906838 0.37606278 0.19031963 0.00063422392
0.065205753 0.013513781 0.013479053 0.86974573 0.46061409 0.1771353 0.00045607766
0.066139668 0.012122314 0.012231189 0.88197941 0.44198847 0.16358054 0.00066967349
0.06269452 0.017522391 0.014140664 0.82659853 0.53780645 0.1658285 0.0002702669
0.063696824 0.016156873 0.013349892 0.840128 0.51849049 0.1592245 0.0003013761
0.061543964 0.019430665 0.013612693 0.81372076 0.56094277 0.15232103 0.00070098578
0.058873236 0.022921052 0.013461883 0.74388319 0.6511541 0.15045272 0.0011242317
0.060333524 0.021084961 0.013807286 0.78369886 0.60074133 0.15787961 0.0007889269
0.055858448 0.026000589 0.013402641 0.65063715 0.74205971 0.16130322 0.0013014233
0.057402238 0.024598822 0.013004542 0.71148479 0.68886316 0.1387693 0.00091764069
-0.0043412102 0.02945355 0.014260898 0.18506846 0.87710685 0.4432078 0.0052292463
-0.0018037126 0.029337689 0.01360927 0.0057413233 0.89209074 0.45181969 0.0061975918
0.0002434214 0.029563095 0.01381815 -0.19011122 0.90689647 0.37602726 0.0067048823
0.052576624 0.028630197 0.013688516 0.59971172 0.77625501 0.1943555 0.000691308
-0.018325958 0.032482095 0.013599393 0.78399384 0.44550207 0.43229795 0.013137098
-0.016839487 0.031221287 0.013723421 0.24588619 0.78338438 0.57083166 0.039132699
-0.013383848 0.031609576 0.013539869 0.045977961 0.89872187 0.43610215 0.0058804713
-0.010352026 0.031519096 0.013737815 0.091499589 0.91178191 0.40035191 0.0017323372
-0.007172958 0.030865181 0.013449655 0.23689763 0.88425362 0.40246126 0.00069809327
-0.0048421035 0.030419983 0.01289831 0.24491175 0.86911738 0.42971301 0.00090204919
0.0021343017 0.030457916 0.013118337 -0.25993693 0.88928533 0.3763034 0.0014005684
0.0045206519 0.031140193 0.013714496 -0.34315756 0.86799264 0.35893136 0.00067435839
0.0076025645 0.032357462 0.014295114 -0.38190779 0.84649593 0.3709327 0.00043107619
0.046678189 0.032186758 0.013889046 0.39814648 0.88567722 0.23886244 0.00044420551
0.049416892 0.030966891 0.013663135 0.50768793 0.83617747 0.20750964 0.0019113977
-0.018879952 0.034409396 0.013434116 0.84313989 0.42169195 0.33360338 0.0073734433
0.010029369 0.033707425 0.013160553 -0.34265941 0.88484538 0.31564745 0.0005001204
0.01299544 0.034597293 0.013511874 -0.31710342 0.88811171 0.33272076 0.00050390547
0.015495067 0.03510895 0.014575884 -0.25172991 0.92428672 0.28692511 0.0011754131
0.038308181 0.035823967 0.013582162 0.26438552 0.93305105 0.24395914 0.0011110272
0.040622879 0.034953129 0.013857322 0.34368154 0.91337949 0.21822216 0.00065020751
0.043350723 0.033732284 0.013507138 0.40390241 0.88742411 0.22212882 0.00046720088
0.045129191 0.033094402 0.012672101 0.412927 0.885777 0.2118737 0.0011373668
-0.019913398 0.037362184 0.013692515 0.86127025 0.42411801 0.27988833 0.0025869848
0.020796366 0.036342632 0.013705259 -0.13362423 0.97167706 0.19490573 0.0012040305
0.022204893 0.036216252 0.014767122 -0.066191666 0.96553785 0.25170487 0.0022482423
0.026351292 0.036918513 0.012638972 -0.051231973 0.97617924 0.21083009 0.00044280401
0.028722286 0.03668721 0.014609136 -0.023321986 0.94765961 0.31842959 0.0018458546
0.032215789 0.036563847 0.014808456 0.092424616 0.93930727 0.33039296 0.0016035343
0.034644846 0.036567055 0.013840757 0.11883379 0.96054554 0.25145751 0.001291212
0.03630051 0.036618348 0.012570666 0.22953297 0.94494593 0.23322056 0.0018662018
-0.022043508 0.040872175 0.013469823 0.81293261 0.52257925 0.25700495 0.00041463089
-0.02064091 0.03928465 0.012530304 0.82409239 0.50617796 0.25427487 0.00058205903
-0.024524372 0.044253618 0.014122215 0.84163421 0.4504407 0.29791781 0.0016019621
-0.023551632 0.043200441 0.013285845 0.82716542 0.48067686 0.29111344 0.0018344332
-0.025294533 0.04636573 0.013397186 0.89900023 0.34547207 0.26916105 0.0022673174
-0.026275767 0.049600638 0.013315403 0.94389647 0.21336503 0.2520611 0.0022451982
-0.026516085 0.052569628 0.013388775 0.97263497 0.052766938 0.22626734 0.0016120073
-0.02648345 0.055426273 0.01358592 0.96829933 0.13234317 0.211853 0.0055217883
-0.027723143 0.058935378 0.013580589 0.85265535 0.49261448 0.17409724 0.013022035
-0.026807513 0.057469361 0.012757167 0.86689597 0.4743475 0.15325092 0.013850669
-0.036394097 0.062127378 0.014990616 0.14457141 0.97697204 0.15692222 0.0007502315
-0.03176539 0.061297894 0.014311403 0.37589246 0.91580135 0.14146617 0.011390004
-0.02944004 0.060585607 0.013609507 0.56814992 0.81729645 0.096084714 0.012506753
0.04999451 -0.058019839 0.016744219 0.37723547 -0.88275599 0.28006309 0.0045097559
0.051603116 -0.05770231 0.015611217 0.33192191 -0.88847077 0.31693465 0.0017025884
0.052987397 -0.056751143 0.016677503 0.32652846 -0.87974048 0.34559497 0.0012586396
0.055762693 -0.055838551 0.016735973 0.30200863 -0.85568941 0.42022207 0.0020451047
0.058475293 -0.05514276 0.016556598 0.2554816 -0.84990114 0.4608658 0.0049789259
0.06121742 -0.054626755 0.016075926 0.25805512 -0.83498466 0.48601243 0.0044969763
0.061787274 -0.05368327 0.017521406 0.22930384 -0.7961337 0.55999178 0.0054134722
0.06443271 -0.053287059 0.016593503 0.31582433 -0.85033673 0.42093033 0.0029127283
0.067235395 -0.052155264 0.016410891 0.39746699 -0.82277608 0.40627521 0.0011499132
0.069594823 -0.051078174 0.016078793 0.4240483 -0.80474824 0.41540742 0.0014023577
0.068338357 -0.050958585 0.017586712 0.40636036 -0.79086506 0.45760643 0.0019071545
0.070910156 -0.049990822 0.016820798 0.43752545 -0.78871316 0.43185997 0.00094052916
0.073312357 -0.048859246 0.016462542 0.51012325 -0.7251277 0.46256253 0.0015804847
0.075111121 -0.048434008 0.015073027 0.54315335 -0.71107465 0.44649437 0.0013354131
0.074489981 -0.047423642 0.017371207 0.5358181 -0.64733708 0.54208273 0.0011464455
0.076586917 -0.046440039 0.016260009 0.58068508 -0.67268765 0.45858064 0.00075959216
0.078528255 -0.04534224 0.015274227 0.63474113 -0.58946824 0.49963075 0.00082790182
0.077278607 -0.044756711 0.0173799 0.61425602 -0.56223315 0.55369973 0.0006701292
0.079207174 -0.043284263 0.016554022 0.64244246 -0.54331791 0.54043812 0.00046806817
0.080317855 -0.041394182 0.017178286 0.67293018 -0.46723497 0.57346016 0.0023715501
0.081824698 -0.040245395 0.016260043 0.7245549 -0.41869205 0.54746425 0.0019767815
0.082821667 -0.037341051 0.016423946 0.78425491 -0.24320161 0.57078648 0.0013211878
-0.033202752 -0.033030298 0.015284568 -0.23845495 -0.87030989 0.43092924 0.00018613397
-0.030898314 -0.033652354 0.015343206 -0.24564683 -0.8742677 0.41870472 0.00033224325
-0.029043557 -0.033779703 0.016071837 -0.24558492 -0.87512213 0.41695246 0.00030447482
0.083117686 -0.034597255 0.016847603 0.80027884 -0.1441505 0.58204329 0.00081679825
0.084282257 -0.033839349 0.015510662 0.82822371 -0.14614373 0.54100597 0.00092895637
-0.039608642 -0.030601988 0.016243091 -0.35689974 -0.84914541 0.3893258 0.0020853113
-0.037063032 -0.031310864 0.016749797 -0.29178363 -0.87426001 0.38798431 0.00069970952
-0.034515001 -0.032008313 0.01666699 -0.24536206 -0.88783306 0.38929412 0.0001525494
-0.031688094 -0.032653406 0.016867662 -0.24561468 -0.87428117 0.41869545 0.00039625829
-0.029858435 -0.032786533 0.017542988 -0.24557441 -0.87512553 0.41695142 0.00028946172
0.083396666 -0.03169357 0.017180214 0.78804022 0.013207281 0.61548215 0.0036082815
0.084382161 -0.031455319 0.01580409 0.82883817 -0.000829047 0.55948788 0.0036092605
-0.044303425 -0.02772256 0.016090197 -0.46494696 -0.79002833 0.39959931 0.00029837043
-0.040900573 -0.029681968 0.016729992 -0.42865095 -0.8054387 0.40930057 0.0014356319
0.082894146 -0.028378638 0.017038239 0.69568318 0.27273616 0.6645599 0.0059437547
0.084302172 -0.029111752 0.015616328 0.79141229 0.23208068 0.56551313 0.0042677834
0.070906058 -0.025477294 0.017304894 0.52273118 0.45945159 0.7180922 0.054004233
0.07338383 -0.025214046 0.01683427 0.059308942 0.70162582 0.71007293 0.018098403
0.076537535 -0.024997741 0.017352173 -0.038986973 0.70423901 0.70889169 0.003814012
0.079651892 -0.025237212 0.017126953 0.30268669 0.59325355 0.74594307 0.010269579
0.08225365 -0.025822336 0.016105795 0.54502803 0.51031226 0.66522616 0.0060392953
0.070692047 -0.022781199 0.016553223 0.72778237 0.29861557 0.61738276 0.041855279
0.07366392 -0.02392322 0.015246104 0.073623292 0.75123435 0.65591657 0.028334139
0.07665056 -0.023556925 0.015704155 -0.062826008 0.78936392 0.61070246 0.0031927701
0.079392314 -0.023553606 0.015524476 0.23827437 0.74812639 0.61929971 0.0084310081
0.070776783 -0.019358059 0.016363444 0.92200744 -0.02761017 0.38618633 0.00064614479
0.070939556 -0.016365252 0.016377805 0.92331326 -0.026700748 0.38311842 0.00041303612
0.070956349 -0.013530168 0.016453309 0.93505955 0.011658395 0.3542991 0.0014838589
0.070934333 -0.010700846 0.016353393 0.94240361 0.03954744 0.33213165 0.001006488
0.070613496 -0.0075020562 0.016676484 0.93426061 0.10238861 0.34157535 0.0011931468
0.070159592 -0.0044522318 0.016559223 0.92363298 0.14413522 0.35514385 0.00074721972
-0.060742475 -0.00070000789 0.01753474 -0.80439544 0.023268199 0.59363842 0.0022802122
0.069736272 -0.0015738482 0.016705481 0.91858137 0.15320557 0.36432996 0.0011526385
-0.060661115 0.00034990994 0.017682813 -0.81291121 0.060892999 0.57919562 0.0027576117
0.068662874 0.0018870154 0.017609561 0.89148575 0.26670656 0.36622515 0.0018833884
0.06946677 0.0011037766 0.016219625 0.91082436 0.25799614 0.32223755 0.0025109793
0.068154313 0.0044160737 0.01650062 0.8843751 0.33853328 0.32136571 0.001202811
-0.060158618 0.0063020722 0.017156938 -0.80572766 0.17154042 0.56690109 0.002384423
0.066850573 0.0075750006 0.016687416 0.89585149 0.31842282 0.30993062 0.0013623497
0.065537512 0.011050529 0.0170267 0.87670422 0.36475685 0.31359559 0.0020793388
0.066243447 0.009959979 0.01615151 0.89319146 0.34377328 0.28987753 0.0021424931
0.064555921 0.013393335 0.016505633 0.83834475 0.45168394 0.30522081 0.0027920019
0.062292725 0.017026711 0.016830627 0.80479693 0.52444708 0.27795184 0.0016681931
0.063394964 0.015727352 0.015972812 0.82469529 0.49321991 0.27678838 0.0018424731
0.05953012 0.02078373 0.017126676 0.75623864 0.58808798 0.28680256 0.0013955403
0.060887408 0.019293956 0.016581256 0.78268892 0.54442924 0.30165365 0.00157964
0.05836913 0.022588937 0.016391542 0.71580708 0.63991076 0.27952531 0.0015054215
0.053536709 0.026556453 0.017509716 0.6022898 0.73648876 0.30794704 0.0013502958
0.055447526 0.025513113 0.01647005 0.63298672 0.70989656 0.30882791 0.0020275153
0.057185329 0.024247928 0.015590986 0.68427724 0.6708293 0.28592432 0.0017253001
-0.018892653 0.029217126 0.017228428 0.65420336 0.45350295 0.60527104 0.044224374
-0.016955713 0.029278526 0.016566871 0.12312899 0.7663067 0.63056588 0.019764073
-0.014033003 0.029527217 0.017169219 -0.11702015 0.83205903 0.54220283 0.0013914565
-0.010571927 0.029588144 0.017552853 0.071102902 0.85061389 0.52096099 0.0033684848
-0.0072937706 0.029150739 0.016856339 0.26122889 0.83057332 0.49184087 0.00062678696
-0.0044974633 0.02828458 0.01658386 0.15765445 0.8757953 0.45621002 0.0047741667
-0.0019194754 0.027827013 0.016720293 -0.05048646 0.89397395 0.44526595 0.005724838
0.0014614704 0.028805653 0.016905809 -0.29798681 0.87946457 0.37114149 0.00064416113
0.0045053368 0.029567461 0.017380521 -0.32590681 0.86832261 0.37389922 0.00053044729
0.050332639 0.02927218 0.017012278 0.51582742 0.79254103 0.32527041 0.0025354037
0.052143477 0.028148018 0.016394151 0.56759 0.7592566 0.31838807 0.0013333234
-0.019259406 0.031481728 0.016564032 0.81107873 0.31037286 0.49580234 0.01965658
-0.013569194 0.030455092 0.015688531 -0.09580411 0.85348827 0.5122298 0.0018679196
-0.010437099 0.030348167 0.016146548 0.081107035 0.88180667 0.46458441 0.0034743024
-0.00825819 0.030352905 0.015240995 0.25701305 0.8471362 0.46508554 0.00060544268
0.0043888707 0.030374974 0.015232373 -0.34291086 0.86661798 0.36247113 0.00067987165
0.0073619392 0.031215476 0.016482349 -0.38583535 0.83549005 0.39126384 0.00021635092
0.010114699 0.032197841 0.017211253 -0.36874348 0.84679741 0.38335678 0.00071941403
0.012392472 0.032985777 0.017653003 -0.3030408 0.87395579 0.37995723 0.0011734478
0.043912351 0.032518152 0.016613087 0.41647819 0.8506282 0.3209013 0.0016545109
0.046406385 0.031339474 0.016661672 0.38909361 0.85465544 0.34375885 0.00082817487
0.048963685 0.030359438 0.016442165 0.46025789 0.82350814 0.33165789 0.0019566074
-0.020066129 0.034585163 0.016605342 0.89194167 0.26705396 0.36485919 0.00108202
0.011157523 0.033122927 0.016214909 -0.3470256 0.86792064 0.35536879 0.0010111282
0.01380984 0.033838805 0.016727641 -0.28943107 0.88457364 0.36573091 0.00092142099
0.016845929 0.034661643 0.017053097 -0.23426671 0.89063257 0.38973418 0.00062661327
0.019670745 0.035498578 0.016498303 -0.16188081 0.92942005 0.33162147 0.0011718788
0.021822002 0.035341956 0.017695978 -0.097276308 0.93230957 0.34833351 0.0013832094
0.025981486 0.035946835 0.016735159 -0.028752815 0.94622236 0.32223675 0.0020489211
0.028579861 0.035821583 0.01732818 -0.013042822 0.90836364 0.41797769 0.0016512567
0.031349722 0.035728641 0.017446732 0.025855972 0.90752882 0.41919318 0.0019315608
0.034274962 0.035673834 0.017023185 0.11314426 0.91478229 0.38777801 0.0013705535
0.037386116 0.035255607 0.016451159 0.22843754 0.91924101 0.32064328 0.0008639638
0.040641934 0.034123268 0.016719857 0.34483999 0.88466954 0.3137596 0.0018984375
0.042468231 0.033552159 0.016247896 0.41734141 0.85306811 0.31321073 0.0016767201
-0.021513414 0.038214322 0.016693976 0.83069855 0.455567 0.31999785 0.002035578
-0.020557111 0.036837615 0.016063068 0.86582971 0.36754218 0.33948743 0.0016191592
0.023661042 0.036075745 0.015989576 -0.053831868 0.95157421 0.30266944 0.0017813295
0.024343759 0.036057223 0.015963284 -0.060403075 0.95150894 0.30163264 0.0017020231
0.030601928 0.0365889 0.015113426 0.014937976 0.95186639 0.30614898 0.0024499574
-0.022738643 0.040474351 0.016477989 0.80141979 0.51148218 0.31001979 0.00055502343
-0.025042035 0.043507457 0.016731592 0.83748192 0.46046162 0.29427743 0.0026476514
-0.023869 0.042292718 0.01589031 0.78765351 0.53375572 0.30774465 0.00024172297
-0.026193034 0.04651979 0.01647486 0.91531157 0.28351521 0.28604868 0.0028216506
-0.02720212 0.050233532 0.017328395 0.95493609 0.16320714 0.24791218 0.0016062539
-0.026648181 0.049269889 0.016184995 0.94848442 0.18734318 0.25549933 0.0010658007
-0.027387332 0.052590702 0.016640097 0.95571101 0.06864544 0.28618932 0.0026095659
-0.026994791 0.051318377 0.015619107 0.96565223 0.057979617 0.25328657 0.0019892622
-0.027368587 0.055738457 0.016970389 0.95205671 0.095268935 0.29070899 0.0025268313
-0.026956011 0.055070288 0.015702801 0.96236193 0.11888091 0.24439058 0.0060564098
-0.027845208 0.058361847 0.016538931 0.88107097 0.40976918 0.23622681 0.011879968
-0.040730231 0.061973095 0.017840402 0.043395244 0.9670701 0.25078326 0.0010091446
-0.037702769 0.061932005 0.017001897 0.11195913 0.96732771 0.22746903 0.00076037971
-0.031767163 0.060992293 0.016702844 0.36407322 0.91242862 0.18688145 0.013436021
-0.02953022 0.060207143 0.016638311 0.66698331 0.71448946 0.21127723 0.025265936
0.049243066 -0.05759982 0.019279707 0.50255984 -0.8210507 0.27075681 0.0023751943
0.050708689 -0.056596361 0.019589107 0.45647642 -0.8460592 0.2753419 0.0025365755
0.052684247 -0.055791996 0.019455429 0.41378728 -0.85044026 0.32485589 0.0034293067
0.055119473 -0.054718859 0.019373052 0.3839584 -0.79228383 0.47419643 0.0066582761
0.057167053 -0.05457193 0.018066861 0.28065777 -0.77382714 0.56782275 0.010172969
0.056161515 -0.053596634 0.020207804 0.46584326 -0.69387925 0.54910982 0.008815119
0.05858453 -0.052582923 0.019635731 0.27539882 -0.68044674 0.67907864 0.0086276522
0.061469909 -0.052274544 0.019353971 0.13585426 -0.72491997 0.67530328 0.0087958761
0.06437555 -0.051874094 0.019046137 0.24850357 -0.76533848 0.5937196 0.005149818
0.066285767 -0.051585238 0.018391691 0.35145015 -0.76497269 0.53972179 0.0046140961
0.059515312 -0.050333075 0.020925375 0.27442488 -0.50311887 0.81948912 0.010249017
0.061430365 -0.050726034 0.020680886 0.10592777 -0.62336242 0.77472496 0.003779734
0.064936422 -0.050683994 0.020349747 0.20378345 -0.72219491 0.66098928 0.010687885
0.06761051 -0.050029133 0.019647034 0.3675456 -0.75083762 0.54877412 0.0044649546
0.070184454 -0.048699122 0.019350013 0.43903702 -0.7243861 0.53151786 0.0010778458
0.072335258 -0.048185028 0.018384583 0.47979894 -0.69488245 0.53565973 0.0010801496
0.071332157 -0.047128838 0.0204284 0.45810235 -0.65360749 0.60244453 0.0035587046
0.073480673 -0.046404921 0.019456387 0.52217484 -0.63215685 0.57246065 0.0022321085
0.075397193 -0.045763593 0.018421454 0.55717707 -0.62723225 0.54418147 0.0018732663
0.074477144 -0.044514626 0.020399306 0.55475801 -0.55734485 0.61774611 0.0013372595
0.076429412 -0.043412998 0.019379865 0.59456742 -0.48433769 0.64179957 0.0014807779
0.078337632 -0.042321999 0.018457234 0.58951396 -0.50998366 0.62641042 0.0020131355
0.077211216 -0.040933069 0.020413896 0.56881213 -0.36403659 0.73751616 0.0021494424
0.079223283 -0.040072717 0.019328747 0.62927139 -0.40184015 0.66523826 0.0024484207
0.079862975 -0.037565768 0.019963188 0.64154214 -0.25211066 0.72447497 0.0044445377
0.081547752 -0.037255149 0.018252771 0.7290498 -0.24324848 0.63977855 0.0020968458
0.079988264 -0.034643877 0.020433253 0.59871489 -0.057195753 0.79891753 0.0042784633
0.081526451 -0.034623232 0.019002507 0.70812315 -0.094960317 0.69967443 0.0044939187
-0.036626283 -0.030341865 0.019192996 -0.31456661 -0.85947585 0.40292573 0.00064924674
-0.034371585 -0.030694395 0.019931816 -0.26341522 -0.8724668 0.41159949 0.00026168063
-0.031756453 -0.031575825 0.019357296 -0.23080757 -0.88902175 0.39543414 0.00016848823
-0.028368207 -0.032245152 0.019904351 -0.26342148 -0.88114423 0.39267552 0.00077171001
0.068430342 -0.030793009 0.020563198 0.62282842 0.11794823 0.77341646 0.063083738
0.0701304 -0.030742643 0.020510798 0.068321221 0.47694159 0.8762756 0.045920338
0.077598214 -0.030341897 0.020939749 0.23598014 0.29718542 0.92519957 0.0065534036
0.079609498 -0.031377055 0.020408046 0.51142412 0.14783423 0.84651661 0.0053279321
0.081852481 -0.031614229 0.018850554 0.6769228 0.080116078 0.73168087 0.0072513726
-0.040256862 -0.028837761 0.019039487 -0.39558876 -0.81867617 0.41626787 0.00052778394
-0.03820014 -0.029036399 0.020618344 -0.338128 -0.83953029 0.4252744 0.00042292752
0.06828434 -0.028460197 0.020125981 0.76410663 0.069361605 0.64135015 0.028601138
0.070408471 -0.028661931 0.019332245 0.1612725 0.40363592 0.90059376 0.036524102
0.07347694 -0.028512118 0.019932522 -0.15742627 0.60593748 0.77977991 0.0019470552
0.076554678 -0.02851033 0.020110739 0.069176532 0.55426335 0.82946169 0.0040371977
0.079573043 -0.028603882 0.019368215 0.38403204 0.4257881 0.81928253 0.0075040581
0.081719741 -0.028990809 0.018402914 0.6203624 0.28283215 0.73154384 0.008958729
-0.045540277 -0.025476146 0.019709356 -0.50257939 -0.76118898 0.40988451 0.0015253843
-0.043242306 -0.026804795 0.019696355 -0.45724249 -0.79639649 0.39583054 0.00039419238
0.068325631 -0.025634399 0.020304753 0.79784691 -0.016201589 0.6026423 0.01189442
0.069685422 -0.026011331 0.018702568 0.53609556 0.16802245 0.82726651 0.061718538
0.073834486 -0.026658138 0.018492877 -0.031754006 0.61539644 0.78757787 0.0089371381
0.076502874 -0.026479404 0.018693825 0.017743206 0.6361509 0.77136064 0.0054766792
0.079051711 -0.026543112 0.018375603 0.31733939 0.54412299 0.77667624 0.0065439646
0.068690196 -0.022490533 0.020509781 0.87024927 -0.066976756 0.48803726 0.0011736404
0.069348969 -0.02254406 0.0192216 0.87271363 -0.012025823 0.48808426 0.0040988387
0.068756126 -0.01935262 0.02079669 0.8731389 -0.031192854 0.48647252 0.000269802
0.069639571 -0.019413305 0.019099515 0.89576328 -0.025754014 0.44378465 0.00031408956
-0.052625235 -0.017266477 0.020943273 -0.66453087 -0.5266971 0.53008389 0.0012083598
0.068734512 -0.016547291 0.020702628 0.87717342 -0.018668836 0.47981063 0.00027475331
0.069640025 -0.016281953 0.019101882 0.89688021 -0.019511107 0.44184306 0.00047889075
0.068772033 -0.013731912 0.020865913 0.88331997 -0.029312562 0.46785316 3.3176406e-05
0.069669507 -0.013459667 0.019231938 0.89904279 -0.019777142 0.43741378 0.00039604868
0.068793803 -0.0099843303 0.020960683 0.88501662 0.019528978 0.46514958 0.00038284264
0.069710359 -0.010637647 0.019412119 0.90443808 0.022958867 0.42598668 0.00063555647
0.06873028 -0.0074931122 0.020684229 0.88646996 0.11378402 0.44858021 0.00055646873
0.069571726 -0.0076572825 0.019232294 0.90399808 0.11039083 0.41303909 0.00063831761
-0.058684733 -0.0041742492 0.019849399 -0.79117471 -0.040950783 0.61021769 0.00027269262
0.068478554 -0.0040933574 0.020089172 0.88869685 0.14375453 0.43537629 0.00011353143
0.069274075 -0.0048365975 0.018692091 0.8924318 0.13773689 0.42964405 0.00028428822
0.068387859 -0.0014931428 0.01961617 0.88521886 0.15224883 0.43955421 0.00017287052
0.067886747 0.0012187663 0.019472184 0.87224364 0.2341059 0.42940134 0.00094384479
-0.058603931 0.0048681372 0.019996999 -0.7868852 0.17366952 0.59215766 0.0018417971
0.065595642 0.0056330138 0.020881731 0.8066144 0.33506563 0.48693344 0.0006647096
0.066843398 0.0043916823 0.019404829 0.85190362 0.31506944 0.41831988 0.00034882862
-0.057856623 0.0076461281 0.019928159 -0.74596369 0.24367723 0.61980605 0.00080089027
0.065371826 0.0077528753 0.019937908 0.83533937 0.32201922 0.44554654 0.00076118298
0.06632378 0.0069175116 0.018553844 0.86240292 0.31220719 0.39848188 0.00015036525
-0.057463016 0.010437042 0.019209845 -0.74398565 0.24299312 0.6224466 0.00067123614
-0.056368876 0.010400466 0.020503508 -0.71960777 0.24315709 0.65041465 0.00015292184
0.064451978 0.010683091 0.019568447 0.80923986 0.35811958 0.46570495 0.0018684749
-0.055389985 0.014213119 0.020145899 -0.7271331 0.23660633 0.64443368 0.0011548722
0.062459528 0.01375232 0.020152088 0.76192659 0.40497804 0.50543123 0.0015859988
0.063592397 0.013306741 0.018866684 0.78375638 0.42123136 0.45638809 0.00231625
0.059777539 0.017622121 0.020687379 0.75653166 0.44125351 0.48265445 0.0022060561
0.06133325 0.016316922 0.019581065 0.73729563 0.45658219 0.49792355 0.0012884357
0.06300161 0.01515181 0.018088492 0.77614349 0.49945891 0.38489243 0.0039803134
0.05893724 0.019685021 0.019756127 0.71410722 0.52612144 0.46178687 0.0014694653
0.060382109 0.018531041 0.018807547 0.7415275 0.50519019 0.44149747 0.001191571
0.056226466 0.022917321 0.019737063 0.63914388 0.63630253 0.43198863 0.0013170508
0.057679515 0.021883162 0.018975392 0.67786396 0.60155898 0.42264304 0.00097338355
-0.021326758 0.026956115 0.020654764 0.7481361 0.23354386 0.62108749 0.024863124
-0.019577071 0.02632858 0.020171652 0.19534524 0.70015359 0.6867497 0.019169549
-0.016559977 0.02659321 0.020143231 -0.079175763 0.74331063 0.66424429 0.010250374
-0.013932399 0.026787363 0.02076767 -0.12005012 0.72864664 0.67428625 0.0023251064
-0.0070402827 0.0265422 0.020472536 0.18327636 0.75016326 0.63534623 0.0041383952
-0.0045227087 0.026299434 0.019879285 0.072969325 0.84159493 0.5351575 0.004953153
-0.002034511 0.026305404 0.019991999 -0.13004899 0.86246568 0.48912194 0.0066037532
7.261998e-05 0.026489362 0.020605287 -0.31292102 0.81520855 0.48735565 0.0031408994
0.052780386 0.025742013 0.019812096 0.56888622 0.6751833 0.46957013 0.0015288692
0.054892659 0.024600182 0.019063678 0.59594089 0.67535949 0.43444675 0.0011591489
-0.02132432 0.028503103 0.020544011 0.82117385 0.10023059 0.56180716 0.010645434
-0.019982139 0.028568605 0.018957838 0.58621281 0.35869405 0.72642493 0.053696238
-0.016263533 0.027905282 0.018626278 -0.045001078 0.78903586 0.61269677 0.010055329
-0.013312879 0.028122116 0.019506279 -0.10803845 0.77296501 0.62518221 0.0026892328
-0.010378822 0.028109053 0.019716628 0.094552234 0.77420086 0.62583774 0.0032120268
-0.0076824678 0.027819138 0.019055124 0.24340303 0.79697317 0.55280095 0.001115915
-0.0051681711 0.027404407 0.018313956 0.13287494 0.82812876 0.54456121 0.0061156354
-0.00080154685 0.027299479 0.018427897 -0.13729087 0.88584268 0.44320884 0.0071023367
0.0017851612 0.027706552 0.019534763 -0.29706562 0.84710246 0.44064668 0.0019343292
0.0046738479 0.028757237 0.019647136 -0.32093021 0.84490865 0.42794064 0.00066693779
0.0068580857 0.029465245 0.019803395 -0.34223342 0.84247583 0.41606581 0.00066140585
0.044449531 0.029970136 0.020762611 0.35814667 0.77200913 0.52510273 0.0028917026
0.046607297 0.029632596 0.020224171 0.32969654 0.81739479 0.47240442 0.0023412481
0.049600217 0.028488429 0.019540878 0.49348038 0.76448941 0.4147687 0.00213821
0.051468715 0.027536631 0.018766018 0.54115021 0.72754401 0.42170614 0.0015919873
-0.021078307 0.031348065 0.020388812 0.86608595 0.096217148 0.49054807 0.0019596736
-0.020538436 0.031418309 0.019130526 0.87079179 0.14812301 0.46880829 0.0037591208
0.0083401892 0.030356046 0.019062653 -0.35294968 0.83243889 0.42716751 0.00066319923
0.010580699 0.031264063 0.019403392 -0.35434693 0.82398367 0.44214147 0.00027032613
0.013509935 0.032425173 0.01955151 -0.30912614 0.84724844 0.43198514 0.00030438264
0.015832745 0.032695815 0.020376597 -0.23672165 0.84992099 0.47074115 0.0011321211
0.040893417 0.032418258 0.020245498 0.35606262 0.78626156 0.50498742 0.0025240623
0.0433461 0.031452525 0.019394031 0.4004539 0.80580962 0.43624243 0.0020667252
0.046512976 0.030374186 0.018730251 0.37472448 0.82777047 0.4175854 0.0010431932
0.048010509 0.030053159 0.018172553 0.4012183 0.81068867 0.42638928 0.0022147596
-0.021535192 0.034682572 0.02000775 0.86126918 0.22723019 0.45451269 0.0011001562
-0.020727541 0.033818472 0.018711606 0.87547922 0.22807854 0.42604744 0.0011223615
0.016853778 0.033672728 0.019156436 -0.23328501 0.86394709 0.44628862 0.00076210353
0.019376334 0.034042072 0.019612767 -0.17381747 0.86528265 0.47018448 0.00079633534
0.0224461 0.03453229 0.019504711 -0.071421318 0.90109879 0.42769152 0.00094963791
0.025468782 0.034784593 0.019303665 -0.024846317 0.89830667 0.43866599 0.0012664489
0.028432898 0.034643602 0.019537307 0.0046473541 0.86817819 0.49623087 0.00076200621
0.031520326 0.03462733 0.019505471 0.033134639 0.86191642 0.50596654 0.000583129
0.034532227 0.03446608 0.019520329 0.10102779 0.86478651 0.49187154 0.0020584799
0.03731982 0.033933226 0.019584859 0.20380118 0.85845131 0.47066584 0.0018580032
0.039862249 0.033551417 0.018978866 0.32812324 0.82531321 0.45955771 0.0031568296
-0.02235665 0.037472669 0.019553313 0.82792109 0.38832688 0.404659 0.0016910681
-0.024700111 0.041027725 0.01996737 0.77447468 0.51067352 0.37336516 0.0010411742
-0.023473974 0.039784439 0.019198298 0.77499777 0.50028121 0.38613108 0.00091533456
-0.027226618 0.044482339 0.020476179 0.7972672 0.37689078 0.47150651 0.0070527075
-0.025967669 0.043318123 0.019328551 0.81198043 0.40719944 0.41818216 0.0078243017
-0.027548498 0.046659041 0.02005499 0.86977369 0.23008388 0.4365263 0.0092873499
-0.026749548 0.046079986 0.018727977 0.86768055 0.27887842 0.41153044 0.0059652748
-0.02778478 0.049394745 0.019691182 0.9189837 0.12560453 0.37375456 0.0043483833
-0.028147608 0.052638028 0.019575486 0.93445706 0.087345809 0.34519669 0.0026785149
-0.02853285 0.055457622 0.019692076 0.91590375 0.089986488 0.39118114 0.0024125315
-0.030482188 0.059804633 0.020186538 0.58672172 0.71307498 0.38377294 0.031768229
-0.028834995 0.058272265 0.019494688 0.79221159 0.49137354 0.3618741 0.02833868
-0.052018736 0.060098279 0.02062404 -0.25048521 0.90975392 0.33106649 0.0027093873
-0.049765103 0.060697388 0.020488592 -0.13712268 0.9292742 0.34299681 0.00073825155
-0.046111241 0.061259039 0.020094996 -0.081273139 0.96216017 0.26008168 0.0010307507
-0.040491566 0.061899856 0.018315827 0.043395244 0.9670701 0.25078326 0.0010091446
-0.033945668 0.060574196 0.020805672 0.30736598 0.88232386 0.3564136 0.0087406319
-0.032417975 0.060693979 0.019285066 0.41103062 0.85362786 0.31995833 0.0070130373
0.046995331 -0.058276005 0.022733673 0.5816651 -0.79261863 0.18281539 0.00079688337
0.048182264 -0.057640791 0.02229391 0.54863733 -0.80614418 0.22164972 0.0023100793
0.05015707 -0.056197129 0.022927446 0.55799025 -0.79182452 0.24831574 0.0028351217
0.052262582 -0.054772697 0.022406373 0.57004386 -0.74546927 0.34543532 0.0077650114
0.053488977 -0.053213924 0.023338087 0.603589 -0.63708025 0.47938406 0.0051416671
0.055334419 -0.052374434 0.022169329 0.55043256 -0.59274042 0.58794796 0.0055816378
0.057532415 -0.051232606 0.021164641 0.31285065 -0.62246293 0.71740109 0.014801934
0.05631081 -0.050235469 0.023004677 0.59074861 -0.52580655 0.61199957 0.005654953
0.058305025 -0.049227387 0.02209699 0.29687345 -0.52689189 0.79639882 0.010416459
0.061527219 -0.049015246 0.021740785 0.035199929 -0.53622848 0.84333861 0.0052088643
0.064371012 -0.04912857 0.021879755 0.065428443 -0.59617758 0.8001821 0.010863899
0.06710913 -0.048899204 0.021450967 0.28116482 -0.64807212 0.70777744 0.0068578497
0.058903765 -0.046763804 0.023157183 0.50659138 -0.4241206 0.75065768 0.018505126
0.06149454 -0.04645301 0.022766216 0.037181556 -0.33010048 0.94321322 0.0060049379
0.064642638 -0.046499521 0.02331507 -0.076678857 -0.36980423 0.92594016 0.0098706083
0.067492649 -0.046724901 0.023106331 0.20822647 -0.42638761 0.88024729 0.023768909
0.070285589 -0.046152242 0.022261648 0.40666643 -0.5753116 0.70967525 0.0046941652
0.072388701 -0.045353755 0.021493983 0.51873946 -0.565009 0.64161849 0.0018475108
0.059931885 -0.044357497 0.023836687 0.40248868 -0.39006057 0.82816404 0.028977748
0.061705939 -0.043744143 0.02341298 0.15301561 -0.23986483 0.95867151 0.038044132
0.064299405 -0.043495629 0.023681762 -0.078302659 -0.099836625 0.99191803 0.016727226
0.071071945 -0.043647248 0.02351792 0.34772173 -0.36596936 0.86322427 0.0075003775
0.07335221 -0.043238197 0.022236831 0.50862056 -0.37834907 0.77340621 0.0023929845
0.075155497 -0.042480957 0.021221276 0.5619272 -0.4073844 0.71991372 0.0011572625
0.062357549 -0.04107172 0.023681724 0.46497944 -0.26912493 0.8434251 0.030159403
0.064367093 -0.040455788 0.023503585 0.17280442 -0.073073588 0.98224181 0.040279347
0.066866547 -0.039738365 0.023863867 -0.11063695 0.094139688 0.98939234 0.0014338244
0.071981408 -0.04140947 0.023900222 0.24669351 -0.17092358 0.95390117 0.018376721
0.073703855 -0.040487342 0.023192739 0.44163197 -0.20267764 0.87400401 0.012782144
0.075921588 -0.04039963 0.021633277 0.54170769 -0.30871937 0.78182173 0.0039226068
0.064607598 -0.03753889 0.023330631 0.42052108 -0.19304512 0.88650745 0.054832283
0.067460686 -0.037273873 0.023405978 0.016719978 0.22712111 0.97372293 0.017049018
0.070558921 -0.036979016 0.023856467 -0.014467147 0.18690072 0.98227227 0.0035018232
0.073875688 -0.037593771 0.023482779 0.36994004 -0.028563619 0.9286164 0.010373916
0.076568812 -0.037715741 0.021985035 0.46648338 -0.13346308 0.87440312 0.0065426868
0.078427278 -0.036950961 0.021178633 0.55354559 -0.2126732 0.80520642 0.0040747831
0.065396406 -0.034636326 0.023122247 0.6585533 -0.077617444 0.74852055 0.038235877
0.06750232 -0.034146056 0.022228895 0.052534275 0.31350502 0.94813222 0.033639979
0.070553266 -0.034715045 0.02313984 -0.055056639 0.31298593 0.94816065 0.0046472475
0.073701568 -0.034615114 0.023185456 0.16895722 0.23745161 0.95659304 0.0141404
0.076618068 -0.034603566 0.022219865 0.34091485 0.11483481 0.93305415 0.0089739896
0.078609325 -0.034615926 0.021306491 0.49693337 -0.00061436882 0.86778849 0.0062142154
-0.031208817 -0.030665059 0.0218016 -0.19966047 -0.87153035 0.44785088 0.0010265857
-0.028321793 -0.030855739 0.022593187 -0.24833146 -0.83952403 0.48325038 0.0035422458
-0.025760392 -0.031848487 0.023072818 -0.55200446 -0.57934481 0.5997088 0.037242439
0.065615185 -0.032340821 0.023629688 0.8017031 -0.13860573 0.58142984 0.010322277
0.067093797 -0.031601653 0.021975543 0.56892473 0.1617502 0.80632591 0.059589263
0.070729569 -0.032277081 0.021826467 -0.077771455 0.49497324 0.8654207 0.0096142935
0.073491558 -0.031669203 0.021987682 -0.015802387 0.41322738 0.91049075 0.011132361
0.076454096 -0.031608243 0.021690553 0.21872118 0.28211722 0.93411505 0.0063522272
0.078527458 -0.03227637 0.021211285 0.3912372 0.23256071 0.89042068 0.0086712437
-0.039994434 -0.027268641 0.022345301 -0.41199699 -0.78832978 0.45694059 0.00055217923
-0.037234038 -0.028419334 0.022562262 -0.32153893 -0.8183555 0.47634757 0.00083910464
-0.034455784 -0.029298451 0.022688687 -0.27028668 -0.84213972 0.46663237 0.00041997651
-0.032026649 -0.029748529 0.023209967 -0.21021728 -0.84899092 0.48479173 0.0012112939
0.067031205 -0.028777359 0.022201514 0.84004432 0.036650516 0.54127836 0.024866827
0.074483968 -0.029799504 0.021014873 -0.073193036 0.53089249 0.84427249 0.0055928319
0.07511659 -0.029781155 0.021039426 0.099336356 0.51126415 0.85366338 0.0089757424
-0.045815259 -0.024362121 0.021411024 -0.50527471 -0.72679621 0.46525782 0.00084588444
-0.043338612 -0.025283838 0.022502765 -0.46872053 -0.74689728 0.4716413 0.00056581915
-0.041083865 -0.026222512 0.023192221 -0.41033262 -0.76733482 0.49277225 0.0012960343
0.067229435 -0.025534974 0.02241201 0.88606948 -0.079354152 0.45670968 0.00064868113
-0.048905309 -0.021294631 0.022123231 -0.65602422 -0.62105149 0.42886749 0.0024810147
-0.04715538 -0.02261769 0.022526503 -0.57548934 -0.6615063 0.48085484 0.0020583731
0.067572877 -0.022408398 0.022523951 0.87231255 -0.070275985 0.48387206 0.00059608498
-0.050325207 -0.019246314 0.022355875 -0.66607821 -0.53667575 0.51799506 0.0011002385
0.067666724 -0.019351272 0.022711918 0.86760086 -0.031056985 0.49629048 0.00023926252
-0.052348565 -0.015449266 0.02363234 -0.65656513 -0.51321089 0.55275387 0.0022664897
-0.050816935 -0.017858872 0.022883937 -0.66191179 -0.51170719 0.54774863 0.0017206977
0.067805156 -0.016608704 0.022581149 0.87432033 -0.032427598 0.48426491 0.00038544962
-0.054418538 -0.013074632 0.023383172 -0.66665697 -0.44168541 0.600402 0.0060123894
-0.053857494 -0.014456424 0.022986041 -0.66803575 -0.48394731 0.56526387 0.0036011045
0.067916609 -0.013686064 0.022642309 0.87996513 -0.029962923 0.47409251 4.4486897e-05
-0.05529296 -0.011367081 0.02320262 -0.7556169 -0.31067613 0.57664853 0.005843142
0.068033382 -0.010687892 0.022502858 0.87657809 0.02246068 0.48073515 0.00044172324
-0.056085136 -0.0072388574 0.023175906 -0.79434699 -0.073644526 0.60298377 0.00078279531
0.067808554 -0.0073899524 0.022517532 0.87450248 0.1046467 0.47359732 0.00041335972
-0.055905037 -0.0044770092 0.023506079 -0.78410089 -0.023698552 0.62018073 0.00051407592
0.067319058 -0.0044363854 0.022455987 0.87839818 0.13421549 0.4586969 3.9345272e-05
-0.057765037 -0.0017322295 0.02152947 -0.78914189 -0.041308478 0.61282021 0.00033495482
-0.055750985 -0.0024091001 0.023788519 -0.75487691 -0.030048197 0.65517783 0.00049908768
0.066871658 -0.0016193395 0.022506943 0.87478524 0.15474759 0.45913392 0.00016029653
-0.057368018 0.0013830047 0.022254735 -0.75896376 0.043071918 0.64970678 0.0014905576
0.065691017 0.0020232159 0.023282643 0.83335215 0.2675373 0.48368177 0.001139967
0.066534348 0.0010557396 0.022154925 0.85541975 0.23880583 0.4595964 0.00072676589
-0.057786454 0.0034635239 0.021490371 -0.78186113 0.11544622 0.61267066 0.0025978081
-0.056233931 0.0048294566 0.022903105 -0.72501844 0.19768892 0.6597479 0.00073249877
0.065037437 0.0044695642 0.022688277 0.80746973 0.32387877 0.49304676 0.00047999629
0.066310912 0.0034377594 0.021211393 0.83200371 0.30789572 0.46148679 0.00087506766
-0.055457585 0.0074876645 0.022696657 -0.70586872 0.25002199 0.6627506 0.0003227549
0.062718064 0.0084205633 0.02348119 0.75989604 0.36238873 0.53965962 0.00028723577
0.064009458 0.0072875 0.022386186 0.77449381 0.35054338 0.52657253 0.00034219676
-0.054831613 0.010581891 0.022141939 -0.73118198 0.22798237 0.64295959 0.0011310361
-0.053742386 0.010664763 0.023199368 -0.71173716 0.21703655 0.66807586 0.0015504166
0.061935894 0.010791903 0.022830235 0.73184663 0.38864946 0.55977863 0.00021434911
0.063386403 0.010125777 0.021432117 0.75154269 0.36802256 0.5474878 0.00037000753
-0.054688629 0.012785088 0.021445734 -0.73118275 0.2279859 0.64295733 0.0011418574
0.059674278 0.013916433 0.023452941 0.71269661 0.39895788 0.57697153 5.1760771e-06
0.061141539 0.013353941 0.022117451 0.72270781 0.40277582 0.56166267 8.4857638e-05
0.058853894 0.016480476 0.022719467 0.70560414 0.41583988 0.5737595 0.0001827761
0.060346153 0.015377374 0.021667076 0.71896452 0.43384665 0.54301673 0.00046615797
0.056117851 0.020142572 0.023170622 0.60043764 0.54339796 0.58668 0.0035221435
0.05777641 0.01904404 0.022171883 0.67711794 0.50516939 0.53508419 0.0012318903
-0.022078738 0.023314841 0.023684522 0.38515398 0.46705624 0.79593652 0.028870529
-0.019786248 0.023129117 0.023465496 0.036931477 0.64033395 0.76720816 0.00841532
-0.016632913 0.023341402 0.023739494 -0.077997334 0.67011189 0.73815072 0.00052465865
-0.013182526 0.023726275 0.023592556 0.0084049469 0.62760276 0.77848834 0.0031665962
-0.010438907 0.023291636 0.023572253 0.04773083 0.57584625 0.81616348 0.0011574682
-0.0076241745 0.023446748 0.02347617 0.018850265 0.63871902 0.76920909 0.0039672861
-0.0045036725 0.023456488 0.023393083 -0.028402105 0.71415848 0.69940764 0.0053372481
-0.0016771858 0.023499684 0.023616021 -0.17691059 0.65877706 0.73124242 0.0031709296
0.050859805 0.023937287 0.023698794 0.54221767 0.54971021 0.63546729 0.0036500788
0.052740846 0.023070857 0.023002151 0.49652037 0.59949118 0.62775624 0.0021173824
0.055134639 0.022090767 0.022058088 0.55763489 0.61376828 0.5588665 0.0017024992
-0.022269947 0.025451858 0.022771703 0.69349915 0.36441818 0.62149686 0.035860971
-0.019698435 0.024607271 0.021988651 0.080802433 0.68227458 0.72661716 0.010927714
-0.016547097 0.024751037 0.022294097 -0.10332299 0.70520657 0.70143288 0.00080218021
-0.013486319 0.025468823 0.022109754 -0.053084377 0.67244047 0.73824507 0.0032455518
-0.010439993 0.025635444 0.022117531 0.038797859 0.66329634 0.74735039 0.0019134334
-0.0075603295 0.025243407 0.022094762 0.088813767 0.68658304 0.72160643 0.0052915481
-0.0045767529 0.024898129 0.021875186 0.019848319 0.78635126 0.61746079 0.005451716
-0.0013229051 0.024957731 0.022252079 -0.18539725 0.74682289 0.63865757 0.0061428477
0.0013511702 0.025457494 0.022808807 -0.32071745 0.73635864 0.59574848 0.0053361147
0.0040213843 0.02647832 0.023101492 -0.33985662 0.77320862 0.53539318 0.0011775872
0.049899966 0.025858149 0.022879735 0.50533092 0.60894346 0.61141521 0.0027494319
0.051974867 0.024936864 0.021696204 0.54841542 0.62738168 0.55284059 0.0018995521
-0.022409068 0.028707929 0.022536861 0.84694147 0.011199691 0.53156811 0.0016716471
0.002468775 0.027059134 0.021260176 -0.32069665 0.79258531 0.5186156 0.0019582163
0.0049419156 0.027800351 0.021699134 -0.32266834 0.7948364 0.51392621 0.0011255103
0.0077600968 0.028431369 0.022383114 -0.32286265 0.8150748 0.48105377 0.0010618551
0.01051197 0.029118288 0.023132142 -0.33118892 0.78242183 0.52738029 0.0014355583
0.012818708 0.029948164 0.023525599 -0.25881034 0.79739487 0.54514086 0.0011305773
0.041276783 0.029757544 0.023241792 0.34956202 0.70787424 0.61377561 0.0011628742
0.043479778 0.028914168 0.022674903 0.31474045 0.74722475 0.58531499 0.0037604778
0.046524499 0.02827595 0.022546077 0.32596874 0.75464535 0.56943381 0.0035782973
0.048887286 0.027562503 0.021889551 0.48499903 0.68645144 0.54181212 0.0027066076
-0.022363998 0.031515911 0.022554055 0.86088252 0.079186536 0.50260389 0.0013020446
0.011091821 0.030330576 0.021701107 -0.35275576 0.80572009 0.4757925 0.0009477759
0.013750706 0.030985035 0.022290463 -0.27210841 0.81654704 0.50912482 0.0014134614
0.016470237 0.031587806 0.02239701 -0.20262235 0.82657683 0.52508551 0.00046051809
0.01933372 0.031838447 0.022960862 -0.14184678 0.80806571 0.57175982 0.00069136993
0.022460476 0.032145347 0.023265993 -0.056170296 0.79689842 0.60149634 0.00077488308
0.025478076 0.032535478 0.022921396 0.0033660599 0.80721706 0.59024513 0.00087432907
0.028552817 0.03252596 0.022865715 0.016586078 0.80892724 0.5876748 0.00072309974
0.031578239 0.032365583 0.022937344 0.026349284 0.81177461 0.58337617 0.00040159098
0.034667294 0.032264169 0.022767952 0.096172608 0.80802244 0.58124918 0.00087154831
0.037597727 0.031862814 0.022566281 0.22562326 0.77984422 0.58389825 0.0010959891
0.040330023 0.031107578 0.022363219 0.34855932 0.72956562 0.58842194 0.0018307295
0.04228989 0.030627143 0.021306921 0.36701563 0.72945398 0.57723182 0.0017862889
-0.024028536 0.035570253 0.023612604 0.77861279 0.25181463 0.57476211 0.0030958119
-0.022889478 0.034573182 0.022482371 0.80601597 0.25000244 0.53650457 0.0027163115
0.02038252 0.033140644 0.021493156 -0.15804055 0.84013492 0.51884151 0.00089585123
0.022588139 0.03332267 0.02170915 -0.077000417 0.83115399 0.55068499 0.0011832145
0.025428509 0.033667494 0.021212239 -0.006246231 0.82782322 0.56095427 0.00098519167
0.028478287 0.03358417 0.021162979 0.018840654 0.85184544 0.52345437 0.00021423587
0.031526081 0.033497654 0.021157239 0.03180448 0.84491724 0.53395069 0.00025094766
0.034559451 0.033411507 0.021152003 0.092762537 0.8386001 0.53679132 0.0010856716
-0.024844805 0.037735853 0.023324223 0.6967665 0.37313634 0.61260563 0.0011759633
-0.023423089 0.037104275 0.021905934 0.77039582 0.38296863 0.50973064 0.0020152556
-0.02762552 0.041471653 0.023522593 0.61938298 0.48890281 0.61427909 0.00083142315
-0.02571464 0.040370654 0.022252049 0.71000957 0.47650352 0.518489 0.0011418235
