# .PCD v0.7 - Point Cloud Data file format
VERSION 0.7
FIELDS x y z normal_x normal_y normal_z curvature
SIZE 4 4 4 4 4 4 4
TYPE F F F F F F F
COUNT 1 1 1 1 1 1 1
WIDTH 548
HEIGHT 1
VIEWPOINT 0 0 0 1 0 0 0
POINTS 548
DATA ascii
0.022329146 -0.055023242 -0.013509755 0.030493181 -0.99921542 -0.025271736 0
0.025438363 -0.054908395 -0.013564438 -0.064863846 -0.99452072 -0.081982866 0.0057760277
0.02851096 -0.054935705 -0.013494455 -0.23538518 -0.96000117 -0.15162978 0.018734928
0.031410784 -0.055630002 -0.013703309 -0.4280591 -0.8458488 -0.31828475 0.018744629
0.033423483 -0.056450248 -0.014879208 -0.55235928 -0.81020445 -0.19613272 0.015866531
0.04748461 -0.056218326 -0.013793891 0.63421959 -0.69157457 -0.34567353 0.0092441877
0.049227219 -0.055093281 -0.013202352 0.63446611 -0.63363689 -0.4426704 0.0067802104
0.051522478 -0.05428477 -0.012489807 0.28903335 -0.67966235 -0.67418009 0.0046434151
0.050637633 -0.052133944 -0.014885454 0.61375433 -0.60938352 -0.50195348 0.0053265151
0.05181326 -0.052367132 -0.013855726 0.46689308 -0.63732421 -0.61304873 0.011889031
0.054874733 -0.052403968 -0.012691207 0.24949834 -0.59465796 -0.76428562 0.0033357786
0.058073372 -0.051661652 -0.012352473 0.1899837 -0.60141778 -0.77601725 0.00088911684
0.053363815 -0.05012285 -0.014457234 0.50331032 -0.59509873 -0.62652701 0.012419497
0.059174247 -0.050637417 -0.012832826 0.18530068 -0.60189682 -0.77677786 0.00092502945
0.060279712 -0.049613483 -0.013313037 0.19137944 -0.59248662 -0.78251743 0.00066429586
0.063236251 -0.050460074 -0.012226336 0.23413095 -0.58022189 -0.7800802 0.0024798019
0.06752798 -0.04552985 -0.013831337 0.33606091 -0.59001225 -0.73413128 0.0027111592
0.069751732 -0.04697708 -0.012463529 0.35459423 -0.63990933 -0.68174702 0.0058131637
0.072230965 -0.045348607 -0.012521495 0.40949541 -0.59683913 -0.68999755 0.0071303267
-0.049691647 -0.021803966 -0.012908124 -0.57663399 -0.71893841 -0.38809896 0.005839027
-0.051666081 -0.019569915 -0.01317606 -0.68796527 -0.64476287 -0.33314338 0.0077296025
-0.0551036 -0.01286032 -0.012565287 -0.84277058 -0.39789885 -0.36251101 0.0015936295
-0.055904791 -0.011733852 -0.012303631 -0.84862083 -0.39060044 -0.35675466 0.0015468594
-0.042652942 -0.060232509 -0.010420326 -0.15605867 -0.98721862 -0.032326102 0.0035424836
-0.040313505 -0.060476232 -0.010574007 -0.096871324 -0.99410588 -0.048676729 0.0015047014
-0.037310332 -0.060622234 -0.010557706 -0.026588887 -0.99928904 -0.026727101 0.00022499499
-0.034496766 -0.060619917 -0.010505638 -0.013694132 -0.99978536 -0.015545562 0.00027933784
-0.031682592 -0.060631551 -0.010446824 0.0034632338 -0.99994916 0.0094716279 6.3259053e-05
-0.02869905 -0.060588785 -0.010520375 0.010004401 -0.99987233 0.012460294 6.3562846e-05
-0.025649002 -0.060545258 -0.010541086 0.018944578 -0.9997707 0.009980822 4.8534272e-05
-0.022600809 -0.060462344 -0.010580501 0.02280478 -0.99973631 0.0026778039 3.9696075e-05
-0.019549994 -0.060398877 -0.010610685 0.036548749 -0.99933106 -0.0012265231 0.00013836392
-0.016442232 -0.060261585 -0.010595843 0.061197814 -0.99779195 -0.025807597 0.00075622788
-0.014659464 -0.060148414 -0.0097179422 0.063410088 -0.99636519 -0.056883037 0.0015343801
-0.043685295 -0.059759181 -0.010577464 -0.21282001 -0.97553331 -0.055159453 0.0021881612
-0.014052227 -0.059947647 -0.0094760917 0.09073332 -0.99379265 -0.064371288 0.00098229095
0.031737309 -0.058243942 -0.01034787 -0.49230215 -0.79186964 -0.36135998 0.013353968
0.034274019 -0.0595304 -0.010348381 -0.34051761 -0.91641891 -0.2102955 0.023337184
0.037322138 -0.059760369 -0.010577071 -0.14467965 -0.98230535 -0.11892883 0.011468668
0.040332854 -0.059719991 -0.010539933 0.050505701 -0.99871534 -0.0040852423 0.003037995
0.043463241 -0.059465986 -0.010378788 0.1300054 -0.99109495 -0.028798286 0.0044775526
0.046212729 -0.059006296 -0.010528824 0.37569472 -0.88837308 -0.26390654 0.022351176
0.049174741 -0.057496369 -0.0098421611 0.34374753 -0.81033307 -0.47455028 0.0075894012
0.051026642 -0.057149906 -0.0091013722 0.23071696 -0.78843057 -0.57021666 0.0019431367
-0.0071202507 -0.055703372 -0.010672749 0.0026178462 -0.99985892 -0.016593816 6.5746033e-05
-0.0043235407 -0.055680428 -0.010468556 -0.0037996366 -0.99983042 -0.018018227 8.5016734e-05
-0.0012352807 -0.055684391 -0.010466686 -0.00036762969 -0.9999252 -0.01222965 4.8763453e-05
0.0015439301 -0.055715453 -0.010452121 0.010891301 -0.999852 -0.01331667 7.713274e-05
0.0043235822 -0.055674963 -0.010471164 0.016877059 -0.99963468 -0.021108812 9.2537106e-05
0.0074138241 -0.055577941 -0.010516691 0.025082976 -0.99919981 -0.031154783 4.7023252e-05
0.010505238 -0.055494498 -0.010555889 0.027722685 -0.99892318 -0.037199862 1.503039e-05
0.013517048 -0.055383682 -0.010489333 0.03349131 -0.99874699 -0.037184607 2.0534931e-06
0.016688451 -0.055304021 -0.010304382 0.032883398 -0.99886358 -0.034500241 1.26698e-05
0.019476619 -0.055177826 -0.010363449 0.030309765 -0.99900591 -0.032686848 2.0259715e-05
0.022263095 -0.055110496 -0.010394996 0.024481049 -0.99878579 -0.0427517 0.00014434356
0.02536026 -0.055036992 -0.010429429 -0.10701714 -0.98936051 -0.098555148 0.0062367171
0.028319282 -0.055459384 -0.010345272 -0.35822573 -0.88842893 -0.28699887 0.023316486
0.030392874 -0.05626611 -0.011043533 -0.51925957 -0.75672829 -0.39715469 0.0067853997
0.049431033 -0.056336496 -0.011066642 0.49630877 -0.73606765 -0.46030644 0.0093368487
0.052477643 -0.055832382 -0.010397718 0.26001802 -0.76965427 -0.58311486 0.0024745341
0.055368364 -0.055223923 -0.010195924 0.21388918 -0.75240576 -0.6230064 0.0060764207
0.058220048 -0.054943163 -0.0096789384 0.21059215 -0.77877325 -0.59090024 0.0032545372
0.061086196 -0.054291669 -0.0095278211 0.23848268 -0.79789615 -0.55361342 0.0022668643
0.05622118 -0.053562544 -0.011460981 0.23705789 -0.65274632 -0.71953171 0.0020093361
0.058631718 -0.053220224 -0.011165637 0.19006081 -0.60142899 -0.77598965 0.0008834062
0.061659247 -0.05283419 -0.010824544 0.19310549 -0.65560466 -0.72999513 0.0058099143
0.064431354 -0.052631341 -0.010014867 0.35747784 -0.71352798 -0.60256737 0.0040434948
0.06638518 -0.051536933 -0.010008153 0.40209979 -0.68855399 -0.60349751 0.0040882775
0.065781221 -0.050008338 -0.011747682 0.37596536 -0.66488713 -0.64542633 0.0023019214
0.068015933 -0.049608331 -0.010654902 0.44884196 -0.69661331 -0.55970597 0.0013486359
0.070182309 -0.048837129 -0.010069637 0.40390199 -0.72960085 -0.5518567 0.00081988791
0.072817072 -0.048152022 -0.0091582285 0.47132784 -0.70532227 -0.52950031 0.0015672047
0.071199596 -0.047356833 -0.011364024 0.41523537 -0.70547998 -0.57434976 0.0012407799
0.073338665 -0.046749845 -0.010374086 0.47040516 -0.64930981 -0.59759158 0.0015935879
0.075802922 -0.045507114 -0.009440315 0.55974847 -0.60755628 -0.56352198 0.0011365851
0.075519741 -0.04406862 -0.011020187 0.56351072 -0.57017553 -0.59779227 0.0013825198
0.078954697 -0.041907683 -0.0092118727 0.6389271 -0.57583338 -0.51008636 0.0017531271
-0.048360974 -0.024003217 -0.0092697833 -0.62535435 -0.68917072 -0.36602694 0.0065476182
-0.046985283 -0.024732742 -0.0098567903 -0.62086231 -0.69784796 -0.35712487 0.0062584342
-0.051495187 -0.021416336 -0.010016208 -0.64301509 -0.72571892 -0.24467039 0.0035844892
-0.049632404 -0.022650125 -0.010628833 -0.60827976 -0.74584705 -0.27149218 0.0030426329
-0.047836229 -0.023451336 -0.011312088 -0.61624277 -0.73621565 -0.27969876 0.0044356589
-0.052850083 -0.019875836 -0.010310746 -0.72558677 -0.64667976 -0.23522145 0.0023859588
-0.054403983 -0.017794572 -0.0097396886 -0.81320697 -0.50530654 -0.28872079 0.0086553097
-0.056131836 -0.012899083 -0.010337221 -0.85329783 -0.39914218 -0.3355121 0.0019813811
-0.057444792 -0.011206981 -0.0098162675 -0.85065806 -0.40688854 -0.3329002 0.0017559213
-0.05662097 -0.011241854 -0.011771515 -0.84862059 -0.39060506 -0.3567504 0.0015441815
-0.043025441 -0.060321715 -0.0074712983 -0.21865669 -0.97578436 -0.0058313054 0.0040201382
-0.040499628 -0.060553622 -0.0075122816 -0.074955277 -0.99718684 0.00026772244 0.00061327423
-0.037700012 -0.060614947 -0.0074276947 -0.023705313 -0.99967712 0.0091466699 0.00022495307
-0.03471116 -0.060583353 -0.0074983267 0.0006258692 -0.99986136 0.016640514 4.4783232e-05
-0.031667229 -0.060572945 -0.0075031184 0.007041269 -0.99987292 0.014302763 0
-0.028625974 -0.060527328 -0.0075244522 0.0090167094 -0.99984419 0.015177918 7.7184341e-05
-0.025582278 -0.0605045 -0.007535208 0.01003033 -0.99994355 0.0034899206 5.5969074e-05
-0.02254045 -0.060445189 -0.0075629242 0.015201422 -0.99988389 0.0010807102 0.00010550673
-0.01949829 -0.060373779 -0.0075962967 0.025992617 -0.99937207 -0.024080282 0.00018189466
-0.016502677 -0.060352873 -0.0075501823 0.037462536 -0.99831301 -0.044358611 0.00076852081
-0.013850852 -0.060287882 -0.0072785388 0.033622388 -0.9984144 -0.045147598 0.00061511528
-0.045473114 -0.059315886 -0.0067456691 -0.27716494 -0.96077162 0.0098738912 0.0043284982
-0.044519853 -0.059946723 -0.0074593835 -0.2300338 -0.97317976 -0.0023608254 0.0040011299
0.029197216 -0.058196653 -0.0069955378 -0.5041424 -0.77974695 -0.37126169 0.0071374094
0.031722058 -0.059472907 -0.0076473402 -0.2905519 -0.91799295 -0.26994163 0.024416249
0.034703944 -0.059865814 -0.0074444851 -0.09194123 -0.99570096 -0.011242559 0.015992662
0.037425883 -0.059877325 -0.0075513748 -0.0030556468 -0.99845439 0.055492472 0.0030582363
0.040262084 -0.05984633 -0.0075065694 0.054913945 -0.99505079 0.082815304 0.0027228419
0.043334253 -0.05966435 -0.0075914031 0.062915996 -0.99754399 0.030781804 0.0044668093
0.046482999 -0.059335358 -0.0076649841 0.20386648 -0.9692778 -0.13761918 0.019306935
0.049404971 -0.058806527 -0.0073525421 0.24112712 -0.91683507 -0.31823123 0.017322615
0.052622002 -0.057808433 -0.0073968666 0.23221037 -0.86918795 -0.43656689 0.0026907807
0.055365253 -0.057428032 -0.0068120854 0.21518905 -0.8785035 -0.42652702 0.0025471577
0.057045117 -0.057095818 -0.0064256396 0.24550973 -0.86679012 -0.43405071 0.0031508366
-0.0040423134 -0.055730313 -0.0075189625 0.0078946492 -0.99971199 -0.022661665 2.0700575e-06
-0.0012317293 -0.055740021 -0.0073875985 0.0049898224 -0.99982435 -0.018067909 2.085766e-05
0.0015398134 -0.055708122 -0.0074022603 0.0088988384 -0.9998607 -0.014121761 4.9915547e-05
0.0043115467 -0.055699509 -0.0074062301 0.011946116 -0.99984276 -0.013110633 6.4467698e-05
0.0073922686 -0.055649202 -0.0074294275 0.016941393 -0.99968374 -0.018583598 6.6429318e-05
0.010473383 -0.055612445 -0.0074463412 0.025086237 -0.99945635 -0.021390751 5.0341703e-05
0.013557062 -0.055525981 -0.0074861944 0.031956706 -0.99905121 -0.029587261 6.4953536e-05
0.016644759 -0.055380546 -0.0075532077 0.03197166 -0.99901503 -0.030771574 1.7026134e-05
0.019731201 -0.055304505 -0.0075882534 0.018536454 -0.99918687 -0.03580451 5.6448236e-05
0.022510234 -0.055234402 -0.0076205339 -0.063007936 -0.99554342 -0.070165969 0.0039409935
0.025283054 -0.055264749 -0.0076067052 -0.29247662 -0.93288314 -0.21020596 0.025771139
0.027627503 -0.056110222 -0.0076305768 -0.37253943 -0.85682786 -0.35645536 0.019100307
0.055649977 -0.056500964 -0.0085336948 0.23165928 -0.79809403 -0.55621922 0.0032669969
0.058540504 -0.056208428 -0.0075582652 0.2661899 -0.86947441 -0.41612154 0.0013113776
0.061450768 -0.055426247 -0.0073934686 0.27696338 -0.87039834 -0.40706015 0.0013693223
0.064139061 -0.054606322 -0.0071941423 0.34761199 -0.84368181 -0.40910503 0.0023053349
0.06610857 -0.054020178 -0.0064824536 0.45397949 -0.77533442 -0.43904346 0.0031289135
0.065142535 -0.053682148 -0.0081313122 0.37522814 -0.81344116 -0.44442922 0.0026381765
0.067434125 -0.052692581 -0.0073360219 0.47562271 -0.7504673 -0.45889202 0.0013802997
0.06995222 -0.051337659 -0.0066828765 0.4623636 -0.74439049 -0.48177031 0.00091363094
0.06858781 -0.050869547 -0.0086030178 0.46262798 -0.69897604 -0.54535115 0.0013537201
0.070805587 -0.050108891 -0.0077340472 0.44120547 -0.74891466 -0.49443352 0.0015305397
0.073176004 -0.049092323 -0.0074345223 0.43484157 -0.75588065 -0.48944595 0.00085695123
0.075034559 -0.048709575 -0.0061605405 0.5267601 -0.71946436 -0.45265305 0.0015099479
0.074422374 -0.047634967 -0.0083608981 0.49879473 -0.70460451 -0.50471407 0.0019566889
0.076421902 -0.046626996 -0.0074392869 0.55214196 -0.67938852 -0.48329124 0.00078031718
0.078483827 -0.045337945 -0.0066384273 0.63363844 -0.59750479 -0.49141678 0.0018594438
0.0795452 -0.043295726 -0.0075487159 0.63898385 -0.57573575 -0.51012546 0.0017801338
-0.046241343 -0.02766701 -0.0068683475 -0.61789215 -0.69463307 -0.36836684 0.0033381858
-0.048714053 -0.02487414 -0.0071745641 -0.68846297 -0.62872303 -0.36156079 0.00319411
-0.047263488 -0.025714412 -0.0082978811 -0.65326405 -0.66561538 -0.3608354 0.0044619013
-0.051532704 -0.02191757 -0.0071723675 -0.66974401 -0.703695 -0.2371842 0.0019472644
-0.049902268 -0.0232493 -0.0079462286 -0.62524009 -0.72968304 -0.27683479 0.0042806081
-0.054356653 -0.018783994 -0.0075076255 -0.73517454 -0.61677194 -0.2812663 0.0040967395
-0.052903209 -0.020131947 -0.0078204181 -0.73462844 -0.62381661 -0.26678428 0.0044929157
-0.055266429 -0.01731723 -0.0077567603 -0.81416506 -0.46398938 -0.349069 0.0045290301
-0.057048939 -0.012087585 -0.008469156 -0.85065806 -0.40688854 -0.3329002 0.0017559213
-0.05830035 -0.010765607 -0.007543873 -0.81320328 -0.52626628 -0.24848388 0.0010603601
-0.060165375 -0.0081363944 -0.0064065475 -0.80559921 -0.56674761 -0.17264737 0.0024187448
-0.043427411 -0.060221732 -0.0046137404 -0.28188044 -0.95876849 0.036143873 0.0050517828
-0.040704038 -0.060462348 -0.0045449664 -0.071355164 -0.9967317 0.037873164 0.00077604206
-0.037658922 -0.060533118 -0.0045124879 -0.026542936 -0.99919534 0.03007067 0.00021569396
-0.034621589 -0.060536642 -0.0045108972 -0.0003651474 -0.99977154 0.021370748 2.8058283e-05
-0.031587459 -0.060503822 -0.0045259977 0.0010108693 -0.99992555 0.012154832 1.6310631e-05
-0.028550709 -0.06049747 -0.0045289029 0.004506263 -0.99998945 0.00094218249 0
-0.025513601 -0.06049611 -0.0045295074 0.047890119 -0.99802136 0.040743113 0.0031402088
-0.022474442 -0.060523093 -0.0045171604 0.025913611 -0.99827814 0.052624136 0.0040717996
-0.019439064 -0.060492687 -0.0045311307 0.011484562 -0.99742723 0.070760563 0.0073922593
-0.01640236 -0.060477592 -0.0045380285 0.0018672267 -0.99843383 0.05591343 0.0052491766
-0.013430071 -0.060428105 -0.0045080227 0.019275287 -0.99959302 -0.021032872 0.0012818078
-0.011388846 -0.060371526 -0.0040863217 0.0057174028 -0.99987859 0.01449158 0.00032891741
-0.045398466 -0.059257515 -0.0047629289 -0.28206405 -0.95871532 0.036122572 0.0049195066
-0.044572998 -0.059819948 -0.003393407 -0.27409378 -0.96116233 0.032241281 0.0045228139
0.026753247 -0.057502523 -0.0040568011 -0.53151011 -0.7911098 -0.30272481 0.0091195265
0.028737482 -0.059154704 -0.0043646595 -0.47830722 -0.8406468 -0.25403768 0.01826256
0.031635996 -0.059842683 -0.004495542 -0.17876066 -0.98209429 -0.059460513 0.026200661
0.034734145 -0.05948244 -0.0045826538 0.03724061 -0.99792314 0.052559458 0.0051278127
0.037675705 -0.059389226 -0.0051743868 0.040636033 -0.9913224 0.12501428 0.0025945222
0.040375847 -0.059147734 -0.0050729048 0.0275614 -0.99684519 0.074431702 0.0028814373
0.043382663 -0.058977552 -0.0050069704 0.0082993517 -0.99658746 0.082124524 0.0028746866
0.046184625 -0.059447121 -0.0045426409 -0.0021987148 -0.99775344 0.066957191 0.0071425568
0.04932531 -0.059397437 -0.0043652118 0.073217086 -0.99703676 -0.023598842 0.01748164
0.052441787 -0.058905639 -0.0045901476 0.16299529 -0.95309079 -0.25504985 0.0051203943
0.055667501 -0.058233917 -0.0043386971 0.20443776 -0.94299012 -0.2626307 0.0011076959
0.05842701 -0.05755337 -0.0043355082 0.26417515 -0.91979098 -0.29016531 0.00097571616
0.060305379 -0.057012402 -0.0041108257 0.29110929 -0.9120031 -0.28897351 0.001217038
-0.0033793624 -0.05582054 -0.0049878876 0.009686674 -0.9995892 -0.026973695 2.058447e-05
-0.0012284585 -0.055816781 -0.0046531619 0.011153786 -0.99957526 -0.026924983 1.9518291e-05
0.0015359158 -0.055751059 -0.0046829418 0.012514972 -0.99958658 -0.02588556 4.9251088e-05
0.0042163236 -0.055745054 -0.0045328061 0.013220309 -0.99970317 -0.020463264 8.6855071e-05
0.0073710824 -0.055707552 -0.0043663732 0.018174294 -0.99972755 -0.014643476 2.3724149e-06
0.010444378 -0.055636361 -0.0043985588 0.021372776 -0.9996537 -0.015351058 2.3061126e-05
0.013519045 -0.055560078 -0.0044330717 0.02817218 -0.99936676 -0.02173432 6.1578088e-05
0.016595686 -0.055469483 -0.0044740494 0.0294674 -0.99926567 -0.024491064 9.2547161e-06
0.019672796 -0.055397879 -0.0045064706 -0.018679004 -0.9992429 -0.034127738 0.0012446854
0.02269724 -0.055348087 -0.0044728639 -0.18027721 -0.97827995 -0.10231495 0.01659862
0.025266696 -0.05585124 -0.0047949674 -0.46331578 -0.85642254 -0.22776932 0.022062967
0.059210166 -0.056765847 -0.0059034969 0.25590748 -0.88097167 -0.39799529 0.001652767
0.061653491 -0.056456167 -0.0045204954 0.32549894 -0.90673625 -0.2681042 0.00069315184
0.064543195 -0.055446755 -0.0044843354 0.37199566 -0.88941574 -0.26562917 0.0010943862
0.067077309 -0.054416366 -0.004200439 0.42171836 -0.86401701 -0.275006 0.0020354472
0.06830138 -0.053572129 -0.0047906009 0.47786978 -0.82391167 -0.3046473 0.0028128929
0.070446894 -0.052426372 -0.0043668239 0.49197546 -0.79885036 -0.34611878 0.0036454564
0.072406009 -0.051260415 -0.0043374915 0.47112006 -0.81027246 -0.34857497 0.0029443095
0.07379245 -0.050237864 -0.0046812808 0.50783914 -0.79136556 -0.34035268 0.0037048212
0.076047644 -0.048875596 -0.0042089908 0.57231367 -0.74868709 -0.33455145 0.0021239365
0.077321053 -0.047400419 -0.0051028291 0.61403793 -0.71361178 -0.33721751 0.0027975689
0.079208665 -0.046028562 -0.0042327163 0.66433197 -0.66053486 -0.3497954 0.0024533742
0.080424361 -0.044433318 -0.0049727089 0.70830643 -0.58974373 -0.38794884 0.0066112401
0.08136899 -0.043989837 -0.0037919963 0.71387106 -0.62193894 -0.3218385 0.0030113081
-0.043859314 -0.03072538 -0.0036820062 -0.53656161 -0.81127626 -0.23223378 0.0024936467
-0.046585329 -0.028329045 -0.0045269681 -0.64963901 -0.7158311 -0.25603721 0.0022281245
-0.044749606 -0.029758289 -0.0046788566 -0.60026139 -0.77074981 -0.2136143 0.001436128
-0.049313545 -0.025572505 -0.0043089669 -0.73180646 -0.63154632 -0.25614181 0.0017347919
-0.047934525 -0.026795527 -0.005931905 -0.68705857 -0.65734977 -0.30958325 0.0027096458
-0.052573062 -0.022234462 -0.004213586 -0.66983306 -0.6933527 -0.26567972 0.0017039811
-0.050703987 -0.023571612 -0.0047875466 -0.71922261 -0.64850366 -0.24932304 0.0021659185
-0.055193614 -0.019682392 -0.0043343264 -0.74708492 -0.60514057 -0.27508011 0.0026511648
-0.053915165 -0.020461747 -0.0057222447 -0.70273912 -0.6594038 -0.26710376 0.0041717747
-0.057604767 -0.016502168 -0.0030180281 -0.83459008 -0.53264993 -0.14051142 0.0061225668
-0.056609731 -0.017783873 -0.0041824444 -0.79586673 -0.57303578 -0.19551526 0.0059631784
-0.06057436 -0.0092689265 -0.0037452935 -0.88628542 -0.43869245 -0.14848228 0.0051024891
-0.05935343 -0.010354011 -0.0047753509 -0.80569887 -0.56658691 -0.17270947 0.0023829271
-0.042958543 -0.060175426 -0.0016810006 -0.24156004 -0.96848172 0.06076194 0.0060336189
-0.040609341 -0.060326327 -0.0016131615 -0.090703972 -0.99314576 0.073717304 0.0024068132
-0.037568763 -0.060422264 -0.0015699773 -0.032251105 -0.9986254 0.041316722 0.00013970476
-0.034534238 -0.060472373 -0.0015474338 -0.010869555 -0.99964601 0.024284368 7.356525e-05
-0.031502381 -0.060500965 -0.001534617 -0.0094979499 -0.99988908 0.01146907 7.7363591e-05
-0.028469538 -0.060548589 -0.0015131901 0.040798046 -0.99828124 0.042072602 0.0026899776
-0.02544467 -0.060494032 -0.0015377195 0.13585564 -0.98133278 0.13612235 0.0059307101
-0.022570759 -0.060388319 -0.0018061405 0.067513429 -0.97790217 0.19786158 0.0073019513
-0.01940589 -0.060349241 -0.0022662727 0.026773682 -0.94644779 0.32174507 0.015900034
-0.016307013 -0.060322788 -0.0019986581 -0.044936635 -0.93778902 0.34428531 0.016535519
-0.013333492 -0.06035237 -0.0016014044 -0.092939779 -0.96965379 0.22612742 0.014093393
-0.010302936 -0.06035573 -0.001600043 -0.11596598 -0.98149627 0.15237115 0.0075928089
-0.0079937009 -0.060292065 -0.0005671173 -0.08449614 -0.99330252 0.078808188 0.0042836792
-0.045704305 -0.058963012 -0.0015613345 -0.50342536 -0.8529014 0.13828294 0.0078418767
-0.044542126 -0.059697978 -0.0012979798 -0.36771855 -0.91630465 0.15864693 0.01591892
-0.021633981 -0.059585903 -0.00050692534 0.1976832 -0.94391423 0.26447549 0.010166822
-0.019427888 -0.059291612 -0.0007487706 0.062577873 -0.91839916 0.39067519 0.01418994
-0.016491847 -0.059456646 -0.0004339467 -0.14343064 -0.91172493 0.38494831 0.015070931
0.026056252 -0.058042806 -0.001358647 -0.57628977 -0.79328907 -0.19642417 0.0048192046
0.028477106 -0.059580557 -0.0015375671 -0.31855536 -0.94301331 -0.096167669 0.010491392
0.031506862 -0.059636153 -0.0016439684 -0.11461614 -0.98764408 -0.10687524 0.016982341
0.033999 -0.058865268 -0.0024607754 0.00010791657 -0.99938846 -0.034967057 0.0068895365
0.046816885 -0.058793355 -0.0018475514 -0.04897663 -0.99812877 0.036609888 0.0069186031
0.049366564 -0.059537482 -0.0015694732 -0.042620108 -0.9990834 -0.0039711753 0.0092586502
0.052394617 -0.059321035 -0.0016225919 0.028198166 -0.99872601 -0.041846454 0.01164801
0.055237923 -0.0589744 -0.0013752029 0.17904912 -0.96790963 -0.1763303 0.0022254111
0.058469772 -0.058251489 -0.0015477042 0.25470245 -0.95195693 -0.17001376 0.00094271026
0.06108835 -0.057448328 -0.0011922559 0.32223058 -0.93090016 -0.17202425 0.00060788577
-0.00093510747 -0.055918097 -0.0017987762 0.020313472 -0.99912715 -0.036500562 7.063301e-05
0.0015313036 -0.055859983 -0.0016132562 0.023029419 -0.9991625 -0.03382365 6.4561296e-05
0.0043678368 -0.055811234 -0.0015183893 0.021630058 -0.99946439 -0.02455602 5.2172807e-05
0.0073503279 -0.055749733 -0.0013271944 0.020681709 -0.99962693 -0.017839005 1.1400415e-05
0.010415109 -0.055674814 -0.0013604894 0.02135586 -0.99964684 -0.015812399 0
0.013480273 -0.055623282 -0.0013833691 0.023490597 -0.99954689 -0.018822771 4.8587321e-05
0.016547345 -0.055547439 -0.0014170588 0.023787534 -0.99950737 -0.020476831 4.1359537e-05
0.019616555 -0.055456877 -0.0014572765 -0.050730854 -0.99800771 -0.037509944 0.0031928732
0.022674263 -0.055569761 -0.0014072621 -0.26865152 -0.95616388 -0.11652029 0.019859077
0.024686558 -0.05631477 -0.0019681861 -0.55980611 -0.80683851 -0.1887556 0.0070701456
0.062548958 -0.056811776 -0.001746083 0.34656009 -0.92320651 -0.16608959 0.00062632543
0.064475857 -0.056105986 -0.0015037336 0.38422373 -0.91115654 -0.14888212 0.00081871945
0.067396194 -0.05481739 -0.0014430505 0.43717486 -0.89043152 -0.12653053 0.00091732369
0.068954498 -0.053880207 -0.0021569624 0.4681749 -0.87388313 -0.13092187 0.0010307714
0.070586078 -0.053072874 -0.0015056496 0.48301354 -0.86299485 -0.14811438 0.0011286853
0.073164091 -0.051604789 -0.0014299959 0.50327122 -0.84422797 -0.18438323 0.0010964037
0.074607559 -0.050667536 -0.0016646535 0.53874356 -0.82026947 -0.19212855 0.0010587571
0.076409541 -0.049346339 -0.001472651 0.61578327 -0.7624802 -0.19858193 0.00094969204
0.079479903 -0.046580844 -0.0015516295 0.66569126 -0.71800131 -0.20329623 0.00056099775
0.081542835 -0.045079883 -0.00023878744 0.72261798 -0.6669842 -0.18153593 0.0018185403
0.082181089 -0.043903217 -0.0016843126 0.76196545 -0.61317813 -0.20837747 0.0028682221
0.083502337 -0.04188434 -0.0016080224 0.83177477 -0.51139474 -0.2159311 0.0077560293
0.085513249 -0.03741603 -5.4021079e-05 0.91364998 -0.39314306 -0.10335508 0.0030893805
-0.040623959 -0.033070661 -0.00082840543 -0.48417506 -0.86686963 -0.11879177 0.0020011717
-0.045414876 -0.030345516 -0.00091064232 -0.62665308 -0.76077831 -0.16888525 0.00061519456
-0.043532178 -0.031580973 -0.0014497999 -0.53836292 -0.82308358 -0.1808283 0.0019821264
-0.041569568 -0.032740295 -0.0011759757 -0.48888335 -0.86405587 -0.12000253 0.0021669436
-0.048557907 -0.02739138 -0.001309359 -0.71282017 -0.68726754 -0.13982408 0.00092717953
-0.046779756 -0.028921828 -0.0016173222 -0.64731693 -0.74413359 -0.16506356 0.00096230168
-0.05128105 -0.024314847 -0.00091756793 -0.70520031 -0.68673235 -0.17632699 0.0029108028
-0.04998913 -0.025671387 -0.0015049796 -0.71755058 -0.6772778 -0.16252996 0.0023940383
-0.054375917 -0.021564115 -0.0011111739 -0.7500971 -0.64634997 -0.13995014 0.0046102758
-0.05264255 -0.023096865 -0.0015114768 -0.66625804 -0.72338331 -0.1811544 0.0019793611
-0.055917349 -0.019330567 -0.0015460782 -0.81593055 -0.57266086 -0.079478614 0.0051401695
-0.057859212 -0.016469723 -0.0012276843 -0.81481928 -0.5795635 -0.013255796 0.0016522662
-0.059020288 -0.014785772 -9.5902193e-05 -0.88084441 -0.46620634 -0.082248442 0.011929817
-0.06042951 -0.0096465508 -0.0017672227 -0.9189803 -0.36621577 -0.14615496 0.0039923624
-0.059670337 -0.010560447 -0.0024989466 -0.90079755 -0.37810904 -0.21353522 0.0053662537
-0.061281078 -0.0082435459 -0.0015895253 -0.89651352 -0.43389162 -0.089451976 0.0036669369
-0.062209867 -0.0057407776 -2.6100602e-06 -0.90672278 -0.41366482 -0.082068384 0.0026373991
-0.042380102 -0.06008105 0.00026568817 -0.35084194 -0.91843557 0.18271823 0.014950113
-0.040374443 -0.060162414 0.0014727899 -0.16031049 -0.97426355 0.15846469 0.0038450041
-0.037521761 -0.060294796 0.0016261935 -0.053789448 -0.99745047 0.046895418 0.00028338208
-0.034448322 -0.060397457 0.001396808 -0.034444097 -0.99880379 0.03470761 0.00014661987
-0.031422094 -0.060447931 0.0014190923 -0.0024546147 -0.99984246 0.017578315 0.00037537995
-0.028393963 -0.060533017 0.0014567031 0.052911144 -0.9982518 0.026340598 0.0033958713
-0.025782758 -0.060279794 0.0012032167 0.15917358 -0.98449993 0.07364507 0.0073412713
-0.01240813 -0.060175315 0.00030762868 -0.15171415 -0.97294587 0.17423876 0.01097683
-0.010023105 -0.0602648 0.0013901551 -0.18649279 -0.96901065 0.16198409 0.013526485
-0.0073384806 -0.060272411 0.0017655069 -0.16312259 -0.9789055 0.12302391 0.012343513
-0.0054339021 -0.060210232 0.0029626542 -0.024513597 -0.99916977 0.032540057 0.002652481
0.031428922 -0.060045574 0.0022313697 0.032872088 -0.99569869 -0.086622141 0.004179297
-0.045429479 -0.057861973 0.00060845941 -0.49641654 -0.84075803 0.21609366 0.0057112863
-0.043506 -0.059407368 0.0014104834 -0.35082921 -0.91844636 0.18268861 0.014881978
-0.041502144 -0.05990376 0.0026088236 -0.17605694 -0.97480261 0.13698156 0.0043214764
-0.024809424 -0.059693389 0.0018565378 0.15911286 -0.98451257 0.073608197 0.0072848648
-0.022762243 -0.059242513 0.00070842967 0.23448835 -0.941782 0.24096064 0.012477392
-0.018543858 -0.058338065 0.00015468715 0.062577873 -0.91839916 0.39067519 0.01418994
-0.0161412 -0.058600724 0.00046064678 -0.14342959 -0.9117136 0.3849757 0.01509135
-0.013156141 -0.059130244 0.0012346886 -0.17219812 -0.92839426 0.32929006 0.0087652002
-0.011155565 -0.059371736 0.0023131736 -0.16807905 -0.97219688 0.16304217 0.012653193
0.025631551 -0.058308989 0.0015731279 -0.56916231 -0.81734973 -0.089407124 0.0038029496
0.028497636 -0.059729267 0.0014865956 -0.26063788 -0.96258754 -0.074115545 0.007175487
0.03071305 -0.059851348 0.0013203622 0.032823477 -0.99570042 -0.086621255 0.0041208654
0.047700971 -0.058429949 0.0005272578 -0.13596761 -0.9865154 0.091105536 0.0044483384
0.049723241 -0.059181448 0.0013941173 -0.098532863 -0.99308664 0.063798189 0.0053278906
0.052605473 -0.059483822 0.0015035815 -0.0457904 -0.99852604 0.029135788 0.0076365201
0.055618212 -0.059172589 0.0015903865 0.10494697 -0.99355984 -0.042717926 0.0025857771
0.058469404 -0.058667045 0.0013933738 0.24906589 -0.96655804 -0.061087441 0.0011149728
0.061413802 -0.057763647 0.0015598388 0.32559371 -0.94218677 -0.079200692 0.00076175324
0.063275114 -0.057110913 0.0026013139 0.39665955 -0.91485417 -0.075518474 0.0010740784
-0.0005235289 -0.056034286 0.0013250456 0.031476825 -0.99891335 -0.034371145 9.1974878e-05
0.0013570836 -0.055987105 0.0014469109 0.032852467 -0.99901617 -0.029789861 3.8822192e-05
0.0042760409 -0.055872809 0.0013970996 0.03217306 -0.99914646 -0.025908152 8.3603853e-05
0.0073321806 -0.055778701 0.0013559915 0.022522518 -0.99960315 -0.016918516 0
0.010445663 -0.055741221 0.0014188519 0.02059415 -0.9996419 -0.017087433 0
0.013442559 -0.05566211 0.0016377956 0.02088833 -0.99966866 -0.015042547 3.9605635e-05
0.01650024 -0.055605818 0.0016132714 0.021944428 -0.9996146 -0.017003685 1.978983e-05
0.019558847 -0.055548906 0.0015884556 -0.091797978 -0.99543732 -0.026030701 0.0069286893
0.022518978 -0.055802442 0.0015175693 -0.36265332 -0.92421246 -0.11964062 0.018564038
0.024387663 -0.056892287 0.00084559206 -0.48722443 -0.86408532 -0.12636848 0.015398684
0.06458661 -0.056425862 0.0015409508 0.42477918 -0.9034887 -0.057190821 0.00098299328
0.067427605 -0.054986827 0.0013772724 0.44049481 -0.89686036 -0.040072054 0.00048256206
0.069266848 -0.054056402 0.0022744942 0.45022306 -0.8923527 -0.031715285 0.00073779403
0.070613697 -0.053410266 0.0014839087 0.46478999 -0.88346153 -0.058872782 0.00050729932
0.07339599 -0.051917106 0.0014990713 0.4987807 -0.86362702 -0.073253632 0.00082314556
0.07484182 -0.050962381 0.00026462678 0.57260644 -0.81521666 -0.08685454 0.0009799219
0.076495096 -0.0498427 0.0016330844 0.60957199 -0.78699565 -0.095182702 0.00066018646
0.07829877 -0.04834874 0.0018368316 0.64574766 -0.75479084 -0.11532894 0.0004021627
0.079779722 -0.046958197 0.0013563982 0.66952282 -0.73283631 -0.12120307 0.00045987294
0.081425466 -0.045571372 0.0018746232 0.69474834 -0.70883793 -0.12195728 0.00080278789
0.082822196 -0.043931659 0.0014688027 0.78601044 -0.60619038 -0.12132938 0.0024190515
0.084381349 -0.041183323 0.0011843402 0.88205349 -0.44635111 -0.15083848 0.0021351683
0.08599928 -0.037410319 0.0020148919 0.92774642 -0.36592636 -0.073378704 0.0018892953
-0.040343538 -0.033486016 0.0015632455 -0.46911761 -0.8807382 -0.065030172 0.0014638524
-0.045616969 -0.030582437 0.0016374908 -0.65189534 -0.75711042 -0.042618338 0.0021878816
-0.043532483 -0.03209772 0.0015589874 -0.50824791 -0.85811442 -0.072963864 0.0028814755
-0.041874934 -0.032853398 0.00082491728 -0.48781127 -0.86771441 -0.095456131 0.0017220534
-0.048516609 -0.027715242 0.0015235352 -0.72062451 -0.6928671 -0.025208957 0.0013937801
-0.047018431 -0.02922334 0.0015893523 -0.70447159 -0.70947605 -0.019065261 0.0015739924
-0.051599167 -0.024469491 0.0014661863 -0.6639964 -0.74227178 -0.090229422 0.0010068696
-0.050022203 -0.025880793 0.0014856562 -0.68881643 -0.7226783 -0.057166051 0.0022854928
-0.054567695 -0.0216251 0.0013115766 -0.80084062 -0.59755111 -0.03983552 0.0072926604
-0.053096104 -0.023325944 0.0015187607 -0.68459558 -0.72290087 -0.093505003 0.0012371308
-0.055994537 -0.018970167 0.0012045187 -0.85351557 -0.51944596 0.041074321 0.0034187681
-0.057880953 -0.016393108 0.0017157861 -0.797243 -0.60308421 0.026324412 0.0019595926
-0.056529876 -0.017833093 0.0021840956 -0.82813901 -0.55721378 0.06081574 0.0024044702
-0.059267353 -0.014070767 0.0013066152 -0.91679806 -0.39265528 -0.072822914 0.010726517
-0.060355708 -0.0095429551 1.5379539e-05 -0.92548364 -0.3652648 -0.10030749 0.0048512029
-0.061466843 -0.0078293392 0.0016387812 -0.87939322 -0.47605705 -0.0061119241 0.0011975497
-0.039434407 -0.060029238 0.0037608463 -0.20133407 -0.95974833 0.1958261 0.0086934734
-0.037268277 -0.060145099 0.0044459836 -0.14397344 -0.98356593 0.10894866 0.010412272
-0.034363206 -0.060319167 0.0043242206 -0.049326122 -0.99828327 0.031582028 0.00022510793
-0.031341471 -0.060403563 0.0043608337 -0.017091608 -0.99974948 0.014454805 0.00034448021
-0.028322242 -0.060474075 0.0043914556 0.066352859 -0.99774951 0.0096572656 0.0028184887
-0.026233777 -0.060331892 0.0038921509 0.11153352 -0.99373394 0.0072956127 0.0061599542
-0.0090542436 -0.060084175 0.0035656244 -0.20456783 -0.9642933 0.16819765 0.018008787
-0.0071708341 -0.060275078 0.0044780658 -0.13593024 -0.99002695 0.037007779 0.015003426
-0.0051249731 -0.06016263 0.0045848275 -0.014156415 -0.99916065 0.038439427 0.0033842467
0.03118133 -0.060108244 0.0047019524 -0.069076382 -0.99709719 0.032024324 0.0022429149
-0.042596869 -0.059044737 0.0036401651 -0.41898501 -0.85249263 0.31258264 0.0079510668
-0.040687319 -0.059374157 0.0047522779 -0.26828945 -0.92850822 0.2566967 0.0042060493
-0.038576946 -0.059946608 0.0054761092 -0.15387747 -0.97394961 0.16656521 0.009516933
-0.0099437684 -0.058941957 0.0042212852 -0.28548908 -0.9382686 0.19531512 0.011590478
-0.0084434226 -0.059745487 0.0053895563 -0.24756861 -0.96560705 0.079452835 0.022010727
-0.0042203739 -0.059966974 0.0051568588 -0.038353797 -0.99767935 0.056255892 0.0041318131
0.025492357 -0.05826024 0.0044640284 -0.56148553 -0.82733989 0.015580983 0.0030457017
0.028288893 -0.059691485 0.0045301435 -0.27813086 -0.96021694 -0.025032615 0.0049925349
0.030466378 -0.059952248 0.0044935546 -0.068993963 -0.99710339 0.03200911 0.0022729854
0.049994092 -0.058645155 0.0044770879 -0.15475427 -0.9875257 0.029053133 0.0070661176
0.052549277 -0.059414528 0.0045895292 -0.051035773 -0.99779618 0.0424034 0.0046258471
0.055608615 -0.059161533 0.0044801221 0.077238634 -0.99563974 0.052304171 0.00664833
0.058674321 -0.058647193 0.0045158975 0.24773197 -0.96646732 0.067600831 0.001381238
0.061548866 -0.057780117 0.0045432942 0.34236932 -0.93333042 0.10806297 0.0013341451
0.063159555 -0.057124309 0.0045915567 0.37005612 -0.9251886 0.084169984 0.001681102
-0.00024376213 -0.056098126 0.0036873273 0.088837937 -0.99302542 -0.077513479 0.002603082
0.0013837036 -0.056111231 0.0045773513 0.10162814 -0.99222118 -0.071894549 0.003331267
0.0042640688 -0.055918325 0.0044044885 0.038900532 -0.99907058 -0.018565785 0.00011144855
0.0073109241 -0.055855773 0.0043776869 0.024082787 -0.999614 -0.013850192 3.4055178e-05
0.010308027 -0.05577774 0.0043994752 0.021758761 -0.99967051 -0.013618764 3.2616987e-05
0.01340398 -0.055729456 0.0046550278 0.020218423 -0.99974066 -0.010476444 4.2990309e-06
0.016453385 -0.055662639 0.0046264445 0.018485116 -0.99976552 -0.01127784 2.0092015e-05
0.019503437 -0.055603273 0.0046010599 -0.073371246 -0.99666917 -0.035600185 0.0030445538
0.022614537 -0.055919565 0.0045203967 -0.35858008 -0.93324727 -0.021677522 0.015513383
0.064866893 -0.056249995 0.0044772867 0.43152344 -0.89911634 0.073330052 0.0013020517
0.067535162 -0.054898985 0.0044842423 0.42870668 -0.90249205 0.041458935 0.00037664248
0.069108933 -0.054127764 0.0046348157 0.43317282 -0.9006446 0.034647666 0.00035066294
0.07084883 -0.0533293 0.0044796783 0.45393991 -0.89080185 0.020263087 0.00029508575
0.073534578 -0.051936612 0.0045550764 0.48917133 -0.872078 0.013834926 0.00066304329
0.075159386 -0.051006924 0.004644691 0.55455613 -0.83211982 0.0066438778 0.00082137453
0.076577835 -0.049974319 0.0046224915 0.59702736 -0.80221224 0.0037222104 0.00084640947
0.078560933 -0.04841749 0.0042715599 0.63863897 -0.76922476 -0.02081986 0.00090022077
0.080147237 -0.047072958 0.0046086279 0.67630607 -0.73613924 -0.026628636 0.00079426775
0.081620291 -0.045640975 0.0042068651 0.71404409 -0.69971281 -0.023301028 0.0012702568
0.082945406 -0.044154607 0.0044677644 0.79316914 -0.60866791 -0.020151051 0.0024270355
0.084232487 -0.042254746 0.004700202 0.83735406 -0.54655761 -0.010631995 0.0028099339
0.085037574 -0.040540867 0.0046772491 0.89994699 -0.43376783 -0.044054992 0.002235516
0.086401165 -0.03683947 0.0045346455 0.94627786 -0.32253882 -0.022954796 0.0022919048
-0.040843397 -0.033582807 0.0042457688 -0.48501396 -0.87419254 -0.023428906 0.0028022751
-0.045411218 -0.030576644 0.0041911746 -0.66643912 -0.74475223 0.034685165 0.0010955273
-0.04347039 -0.032206893 0.0044853296 -0.53860635 -0.84234178 0.019065563 0.0011507532
-0.048415575 -0.02760534 0.0042832163 -0.71017355 -0.70336109 0.03060309 0.00051920733
-0.046781722 -0.029084107 0.0047554676 -0.706824 -0.70622545 0.040565073 0.00024011392
-0.051892504 -0.024630727 0.0043506222 -0.65714329 -0.75356048 -0.017588254 0.0016440345
-0.050097298 -0.025976436 0.0046288692 -0.65676129 -0.75406986 0.006579625 0.0019794281
-0.054640584 -0.021676194 0.0044030421 -0.84821254 -0.52965462 0.0012266445 0.0047531533
-0.05350773 -0.023198733 0.0044904444 -0.70632875 -0.70777941 -0.012163984 0.0025299364
-0.055600911 -0.019144546 0.0044773445 -0.8702845 -0.49172649 0.028457675 0.0035122628
-0.057950053 -0.016181661 0.0046357429 -0.7779758 -0.62795538 -0.020632464 0.0016668151
-0.056458719 -0.017628938 0.0042445604 -0.83481699 -0.54994851 0.025246589 0.0058869389
-0.059555404 -0.014155253 0.0043311999 -0.76925784 -0.63874733 -0.015623753 0.0013956277
-0.061311971 -0.0082614133 0.0046062069 -0.93928695 -0.34312341 -0.0025098547 0.0034263716
-0.06267032 -0.0056322739 0.0047031902 -0.8850553 -0.46540576 0.0086358711 0.00075692387
-0.036409881 -0.060084477 0.0068444326 -0.22844316 -0.96527404 0.12672706 0.0077468487
-0.034271233 -0.060210835 0.0075510563 -0.14085294 -0.98494965 0.10017356 0.0036031206
-0.031250183 -0.06038139 0.0076234518 -0.061145801 -0.99774832 0.027560804 0.00059014477
-0.028510103 -0.060493313 0.0075404956 -0.037033021 -0.99929982 -0.0053238627 0.00088521652
-0.0068666223 -0.060216069 0.0075875707 -0.16964705 -0.98544443 0.010921765 0.02231873
-0.004903995 -0.060136136 0.0073685939 0.046997439 -0.99773604 0.048104111 0.0068799378
0.031314444 -0.060068298 0.0061834962 -0.05952879 -0.99748397 0.038497522 0.0018868581
-0.039675415 -0.058652896 0.0068251216 -0.28217199 -0.9210844 0.26829556 0.0036310048
-0.037628297 -0.059637077 0.0076018805 -0.26736864 -0.94032258 0.21049315 0.0052940371
-0.0090566967 -0.058586106 0.0071886932 -0.47423548 -0.87785429 0.066878065 0.0092055136
-0.0083080651 -0.059696592 0.0074635446 -0.33069426 -0.9436447 0.01326643 0.01356026
-0.0038485557 -0.059891872 0.0081995707 0.4623259 -0.8801403 0.10773963 0.016473066
-0.0012096763 -0.057202004 0.0089002624 0.57628471 -0.7904675 0.20750181 0.014057927
0.0257097 -0.058144938 0.0074941004 -0.5546881 -0.82042861 0.13862929 0.0035065177
0.028329499 -0.059559822 0.0074654366 -0.3198975 -0.94296378 0.092113726 0.0060021393
0.031162646 -0.059903748 0.0077147582 -0.093304232 -0.98970914 0.10849059 0.0022355712
0.033379413 -0.059670679 0.0086283032 0.0060539139 -0.99734539 0.072563894 0.0016256634
0.047734849 -0.057771519 0.0084835971 -0.19646749 -0.97720855 -0.080399282 0.0077548977
0.049568128 -0.058477841 0.0075032664 -0.14077193 -0.98952341 -0.032041963 0.0086020762
0.05242902 -0.059273858 0.0074803727 -0.073962674 -0.99585778 0.052885097 0.012786679
0.055482592 -0.058904611 0.0076511228 0.18550821 -0.97132862 0.14868563 0.0017082652
0.058560267 -0.058191702 0.0074043148 0.25571695 -0.9528327 0.16345841 0.00074345205
0.061267316 -0.057310835 0.0074285571 0.31771305 -0.93236792 0.1724769 0.00015097787
-0.00030297041 -0.056453943 0.0082594883 0.21616676 -0.97491342 -0.053065084 0.01100494
0.001349402 -0.056132205 0.0073933997 0.12529694 -0.99157792 -0.032771859 0.0050382339
0.0042521646 -0.055958636 0.0073935492 0.057549816 -0.99831861 -0.0069249314 0.0004178682
0.0073726694 -0.055879187 0.007509707 0.025857922 -0.9996525 -0.0051352796 6.1226739e-05
0.010328128 -0.055793639 0.007653241 0.020163661 -0.99979627 0.0008794904 3.5165573e-05
0.013367878 -0.055734821 0.007628547 0.017049134 -0.99985355 -0.0014890716 9.7475877e-06
0.016408665 -0.055678692 0.0076049785 0.020173974 -0.99979657 -0.00010880226 2.9419336e-05
0.019449554 -0.055634189 0.0075863488 -0.067640238 -0.99765682 0.010283241 0.0044381148
0.02242885 -0.055795234 0.007599229 -0.30003127 -0.95292646 0.043730345 0.018492755
0.024353174 -0.056674827 0.0075849681 -0.44888523 -0.88160998 0.14582847 0.017763747
0.062236276 -0.056837525 0.0082557816 0.33124527 -0.92623281 0.1799151 0.00017113301
0.064360492 -0.056122586 0.0074627795 0.38040158 -0.91100198 0.15927988 0.00025422336
0.067505658 -0.054725636 0.007505924 0.40927765 -0.90562862 0.11103418 0.00055508752
0.069010608 -0.054103892 0.0062833894 0.43054324 -0.8988626 0.081722043 0.0011111771
0.068876415 -0.053946227 0.0088610426 0.39778167 -0.90859663 0.12736554 0.0010027337
0.070588373 -0.053242143 0.0074902014 0.43984956 -0.89128965 0.11015958 0.00060175522
0.073209442 -0.051910087 0.0075016594 0.47691092 -0.87325609 0.099899113 0.00056860695
0.074949004 -0.050835203 0.0082374392 0.54440737 -0.83356315 0.09377154 0.00038327929
0.076600969 -0.049766973 0.0074165203 0.57349157 -0.815292 0.080040433 0.00051991746
0.078529753 -0.048313767 0.0075321579 0.63049173 -0.77293807 0.071041934 0.00044384814
0.079949021 -0.047116298 0.0074705184 0.65745384 -0.75096446 0.061698996 0.0005849466
0.081509888 -0.045653157 0.0074464418 0.71310639 -0.69756609 0.069862269 0.00062500325
0.083047502 -0.043796062 0.0075885751 0.79502839 -0.60256344 0.06962122 0.0028856937
0.084043771 -0.042542271 0.0065144654 0.83807534 -0.54092735 0.070903644 0.0025152701
0.085026026 -0.040283792 0.0076330956 0.91049588 -0.40517882 0.082627825 0.0017395298
0.086419106 -0.036329936 0.0077545494 0.94666517 -0.30025083 0.11693846 0.0034770682
-0.041460425 -0.033209108 0.007029796 -0.53288406 -0.84590715 0.021810213 0.0025823936
-0.045390178 -0.030566743 0.0075397738 -0.63161987 -0.77190721 0.072219431 0.0030782619
-0.04326313 -0.032076724 0.007515904 -0.54593122 -0.83211845 0.097662538 0.0024902169
-0.041599587 -0.03288934 0.0084520597 -0.54594827 -0.83210671 0.097667359 0.0025079371
-0.048671935 -0.027114009 0.0072300788 -0.66379148 -0.74076831 0.10316641 0.0026640801
-0.047195069 -0.028720526 0.0075094728 -0.71936452 -0.68974 0.082300678 0.0026091575
-0.051832333 -0.024608016 0.007459037 -0.64355671 -0.75891566 0.099406891 0.0017378575
-0.050048199 -0.025839642 0.0076308479 -0.6519677 -0.7539748 0.080375232 0.0018562974
-0.054522611 -0.021482088 0.0075020203 -0.84933466 -0.51058531 0.13391496 0.0039417543
-0.053285252 -0.02327279 0.0076440927 -0.73916465 -0.65778095 0.14477518 0.0056921747
-0.055725593 -0.018696375 0.007730775 -0.81459403 -0.57901937 0.03425014 0.0060985349
-0.057930183 -0.016328605 0.0074458546 -0.7725929 -0.63349694 0.042210951 0.0025209743
-0.05664707 -0.017584069 0.0074253697 -0.74975848 -0.66081446 0.034445349 0.0011567356
-0.059358545 -0.014545969 0.0073401462 -0.77261126 -0.63347524 0.042200614 0.0025071125
-0.061241761 -0.0077682035 0.0073131192 -0.9013477 -0.42844772 0.06328465 0.0013326791
-0.062547714 -0.0054734903 0.0075480081 -0.93107677 -0.35741162 0.07316383 0.0030721873
-0.033894978 -0.060112558 0.010245278 -0.15021355 -0.98701751 0.056853238 0.0043252911
-0.031710215 -0.060281146 0.010561702 -0.083021082 -0.99526107 0.050625503 0.00041547985
-0.028706105 -0.060482088 0.010516989 -0.072935954 -0.99678236 0.033245236 0.00054562546
-0.026919037 -0.060754631 0.011679839 -0.063554205 -0.99649262 0.054436464 0.00075821538
-0.0068981098 -0.060160391 0.010265248 -0.076588295 -0.99687046 0.019580929 0.01811338
-0.0055703488 -0.060096081 0.010294134 -0.046050306 -0.99867332 0.023042435 0.018284541
-0.036587298 -0.059119124 0.010080785 -0.27791539 -0.95678496 0.085588254 0.0031374749
-0.035135143 -0.059821971 0.010788333 -0.18988128 -0.97817904 0.084326126 0.0035334176
-0.0091187852 -0.059073713 0.010549568 -0.33011156 -0.94324756 -0.036199499 0.0097124223
-0.0081344349 -0.059798114 0.010778183 -0.28688592 -0.95738572 0.033302084 0.0056000254
-0.0039580571 -0.059401836 0.010705881 0.5465917 -0.82126045 0.16361155 0.014541109
-0.0021861009 -0.057872951 0.010242032 0.57003164 -0.79676527 0.2005717 0.013784664
0.026189247 -0.057665151 0.010204853 -0.49915257 -0.81579709 0.29209897 0.0072923121
0.028241159 -0.058988772 0.010498386 -0.42184246 -0.86589485 0.2688401 0.0099045793
0.031346813 -0.059705164 0.010667543 -0.15101986 -0.9740116 0.16880263 0.005809613
0.03415978 -0.059549101 0.010711052 0.013279795 -0.99597067 0.088690691 0.0010974332
0.036330838 -0.059259597 0.011385615 -0.019714851 -0.99763626 0.065826789 0.0015375841
0.046808377 -0.058305874 0.010783562 -0.0020564657 -0.99398172 -0.1095262 0.0098344842
0.049385857 -0.0590651 0.010506388 -0.083520569 -0.99559397 -0.042626269 0.01292558
0.052321538 -0.059049454 0.010322701 0.0071082865 -0.99842298 0.055686835 0.020590501
0.055452183 -0.058373678 0.010639518 0.21384199 -0.95492744 0.20587668 0.0014957275
0.058483403 -0.057626624 0.010330032 0.26778325 -0.94085187 0.2075811 0.00059220416
0.060439646 -0.057137638 0.0098553449 0.29433864 -0.93026602 0.21902029 0.00046725979
-0.00085380324 -0.056405123 0.010648455 0.48136428 -0.87319088 0.076329008 0.021227041
0.0014420152 -0.056100864 0.010407476 0.22426434 -0.972251 0.066583566 0.012889014
0.004240436 -0.055989165 0.010361467 0.055732932 -0.998344 0.014250198 0.00040965035
0.0071917339 -0.055871833 0.010427131 0.033595119 -0.99941301 0.0067024729 7.9300415e-05
0.010300679 -0.055788498 0.010606621 0.020166818 -0.99970216 0.013744293 6.9231435e-05
0.013330789 -0.055773843 0.010600569 0.017732164 -0.99983215 0.0046022115 4.2425108e-05
0.016363632 -0.055706948 0.010573077 0.021383611 -0.9997592 0.00493134 7.8268509e-05
0.01939781 -0.055632144 0.01054232 -0.033863466 -0.99918193 0.022105571 0.0020755867
0.022488311 -0.05562764 0.01046247 -0.18619952 -0.97824562 0.091462053 0.015246012
0.024926584 -0.05625578 0.010676203 -0.44352123 -0.86557156 0.23253977 0.017440872
0.059769213 -0.056999918 0.011431677 0.29456356 -0.93019098 0.2190367 0.00045495763
0.061747313 -0.056509886 0.010725157 0.32486635 -0.92026961 0.2180957 0.00070249214
0.064512067 -0.055514354 0.010416223 0.37082633 -0.90662098 0.20131156 0.00027097212
0.066913873 -0.054511778 0.010278693 0.39236957 -0.89792955 0.19942082 0.00029026539
0.068426073 -0.053683281 0.010925308 0.4217135 -0.88426232 0.20059358 0.00045553051
0.070490882 -0.052769691 0.010519745 0.43785548 -0.87616694 0.20152918 0.00057893642
0.07304772 -0.051545311 0.010405234 0.45805234 -0.86691684 0.19657879 0.00085406506
0.074637398 -0.050601941 0.010888151 0.52049434 -0.83302438 0.1874993 0.0012040653
0.076575696 -0.04936368 0.010536875 0.57332444 -0.79795277 0.18593149 0.0012320296
0.078401275 -0.048151415 0.0098012164 0.61562288 -0.76483691 0.18982334 0.0013924573
0.079703711 -0.04686936 0.010574954 0.65433443 -0.73031783 0.19616917 0.0015377937
0.081344314 -0.045417201 0.010368155 0.70566547 -0.67568535 0.21327348 0.0025718696
0.082717195 -0.0437495 0.010515584 0.76369464 -0.61068249 0.20937397 0.0033913034
0.083801493 -0.041846208 0.011632418 0.82690322 -0.51243597 0.23160428 0.0048323185
0.084896401 -0.039853267 0.010510549 0.90335631 -0.39901692 0.15726717 0.0026972953
0.086661577 -0.034570195 0.0091119213 0.94622415 -0.26020879 0.19222714 0.0055659022
-0.045664228 -0.030170243 0.0098027866 -0.65877312 -0.71908468 0.22121315 0.0040608207
-0.043902662 -0.031186292 0.010401692 -0.55598772 -0.79555881 0.24075666 0.0043461919
-0.046825513 -0.028532216 0.010614112 -0.68237972 -0.68922198 0.24357972 0.0023755305
-0.051592857 -0.024296131 0.010116687 -0.69731247 -0.68192708 0.22075053 0.0043554534
-0.049673099 -0.025627153 0.010483798 -0.64832473 -0.73664904 0.19241393 0.0021407751
-0.047874093 -0.026832584 0.011634205 -0.68499714 -0.69465238 0.21962947 0.0034307039
-0.052824687 -0.022787923 0.010652302 -0.73832268 -0.62921935 0.2428222 0.0030390946
-0.055089489 -0.019145977 0.010390079 -0.82125068 -0.54005724 0.18407992 0.0028161351
-0.053785179 -0.020557029 0.011713903 -0.79195011 -0.56277663 0.23684886 0.00063942297
-0.057957198 -0.015931129 0.010345401 -0.78902078 -0.5816806 0.19772179 0.0047402061
-0.056520727 -0.01742327 0.010546932 -0.76521975 -0.62724143 0.14493728 0.0016650035
-0.059093524 -0.013888167 0.010601578 -0.86301142 -0.43797562 0.25177103 0.0051989821
-0.059598107 -0.010996174 0.01172718 -0.88902992 -0.3735323 0.26476273 0.0016540803
-0.060987875 -0.0082105091 0.010514534 -0.89419395 -0.42584798 0.13809621 0.0024990633
-0.062361687 -0.005739714 0.010536728 -0.92231309 -0.36405805 0.12961601 0.0027327852
-0.033515304 -0.060048468 0.01300582 -0.143691 -0.98838955 0.049386658 0.0016892722
-0.031701982 -0.060146045 0.013368662 -0.070682354 -0.99605542 0.053642362 0.00030324562
-0.028700437 -0.0602801 0.013423388 -0.071558692 -0.99412602 0.081195839 0.0005942125
-0.026717285 -0.06044016 0.013765352 -0.059338339 -0.99395138 0.092409872 0.00064414524
