# .PCD v0.7 - Point Cloud Data file format
VERSION 0.7
FIELDS x y z normal_x normal_y normal_z curvature
SIZE 4 4 4 4 4 4 4
TYPE F F F F F F F
COUNT 1 1 1 1 1 1 1
WIDTH 553
HEIGHT 1
VIEWPOINT 0 0 0 1 0 0 0
POINTS 553
DATA ascii
-0.0060470416 -0.016211661 -0.036680114 -0.93590522 -0.079032011 -0.34327152 0.0040497729
-0.0055811782 -0.016684406 -0.037926398 -0.90967667 -0.096417286 -0.40397036 0.0039456063
-0.0060130055 -0.013600115 -0.036606766 -0.93812454 0.054348633 -0.34200662 0.0014360581
-0.0056703333 -0.013744201 -0.03801981 -0.91825366 0.064012118 -0.39078477 0.0023918815
-0.0060951808 -0.011696123 -0.036545157 -0.90757459 0.12596652 -0.40055054 0.0079838391
-0.0054314095 -0.010478794 -0.037710492 -0.88528329 0.22211759 -0.40857959 0.0032763088
-0.0042517469 -0.0075096739 -0.037617356 -0.84863287 0.36286968 -0.3848998 0.0011640951
-0.003410877 -0.0053437427 -0.037255023 -0.81782144 0.4469898 -0.36244759 0.001477986
-0.0023981745 -0.0038886527 -0.037865996 -0.79418939 0.48718596 -0.36319846 0.0015269968
-0.0010524718 -0.001976527 -0.037437059 -0.64792335 0.66846138 -0.36517766 0.0028281445
0.00077537319 -0.00059261394 -0.037924662 -0.51636237 0.76743472 -0.3800182 0.0023663701
0.0019892128 0.000479543 -0.037038434 -0.44509256 0.78098041 -0.43813482 0.011117252
0.0043560402 0.0013807539 -0.037443247 -0.32715091 0.87990969 -0.34457397 0.0012254225
0.0075466135 0.0022908731 -0.037488781 -0.24516857 0.91056991 -0.33279854 0.00011024021
0.010083365 0.0026381605 -0.03820603 -0.1986402 0.9074803 -0.37016419 0.0004369854
0.012316097 0.0028743695 -0.038938969 -0.14955898 0.86924505 -0.47121656 0.0030514684
0.029724251 0.0019939262 -0.038873777 0.15492335 0.87331474 -0.46186596 0.0003592415
0.031449318 0.0021660831 -0.03826423 0.15492335 0.87331474 -0.46186596 0.0003592415
0.011090463 0.003321609 -0.036993556 -0.20732026 0.91372335 -0.34946814 0.00029023268
0.013544424 0.0037481764 -0.037236795 -0.1549823 0.92164499 -0.35574004 0.00072848541
0.016603805 0.0039698547 -0.03746137 -0.02748945 0.89957744 -0.4358952 0.0011894472
0.019476989 0.0040832148 -0.037459396 0.0040761791 0.89160043 -0.45280468 0.001121784
0.02229636 0.0039989175 -0.037528843 0.035458792 0.88309878 -0.46784526 0.00045450515
0.025085071 0.004012641 -0.037011098 0.11166364 0.86966175 -0.48085314 0.0010229809
0.028548619 0.0031830256 -0.037287444 0.15492338 0.8733086 -0.46187752 0.00035730569
0.031179829 0.0030391091 -0.036749229 0.15492335 0.87331474 -0.46186596 0.0003592415
-0.048011933 0.056973036 -0.036090933 -0.94146103 -0.32489571 -0.089966871 0.038856298
-0.047290627 0.055802915 -0.037442792 -0.93415481 -0.27916279 -0.22231252 0.032989036
-0.047359921 0.058626056 -0.037276343 -0.9678942 0.17943183 -0.17602545 0.004604328
-0.046615418 0.061420996 -0.037296321 -0.98619175 -0.040336292 -0.16062002 0.013957446
-0.048185062 0.065510035 -0.036376789 -0.77593178 -0.54704374 -0.31412256 0.019627195
-0.04709376 0.064354621 -0.037809126 -0.89347148 -0.37445462 -0.24797685 0.016396703
-0.051344108 0.068499275 -0.037058149 -0.9278537 -0.35355872 -0.11867505 0.04269651
-0.049658667 0.067182004 -0.037501812 -0.7250002 -0.60153818 -0.33544984 0.0062056119
-0.047994349 0.066062868 -0.038135044 -0.71757281 -0.63140506 -0.29396743 0.0063450821
-0.051671796 0.070555195 -0.037631348 -0.99323684 -0.10457282 0.050447755 0.04465162
-0.05126337 0.07259737 -0.038102709 -0.890755 0.36029613 0.27702391 0.018446952
-0.05019528 0.073899381 -0.037397642 -0.71416622 0.59736884 0.36485204 0.016151564
-0.048719332 0.075493902 -0.037783042 -0.57408154 0.74744862 0.33429167 0.0059518674
-0.046802897 0.076232687 -0.037416656 -0.39862344 0.86217672 0.31265086 0.0086688669
0.014455956 0.080357134 -0.036101535 -0.50362229 -0.41457182 -0.75795436 0.0016292488
0.01528422 0.080203861 -0.03650498 -0.54261363 -0.39166796 -0.74307919 0.0026224866
0.014070851 0.08271312 -0.036763828 -0.55164862 -0.2646046 -0.7909919 0.0020236599
0.015562117 0.082828268 -0.037786111 -0.51251119 -0.30243301 -0.80365825 0.0039848504
0.013458291 0.085633092 -0.036975574 -0.58353597 -0.035991937 -0.81128925 0.0037068804
0.015213713 0.085384622 -0.038011998 -0.5599699 -0.17206044 -0.81044978 0.0043257712
0.013237137 0.088383272 -0.036726519 -0.58222985 0.022330595 -0.81271756 0.0051394203
-0.016479883 -0.058156896 -0.034656074 -0.74080682 0.16428111 -0.65131944 0.012007442
-0.015826233 -0.055637307 -0.034333937 -0.72652137 0.34655228 -0.59335327 0.0066069127
-0.014324251 -0.054843236 -0.035420362 -0.62647086 0.41337702 -0.66079777 0.00926321
-0.013364069 -0.052770834 -0.034545392 -0.61743677 0.52508855 -0.58570802 0.0024648434
-0.011443992 -0.051627334 -0.035540082 -0.57809371 0.53501999 -0.61608535 0.0040569068
-0.012281291 -0.050931063 -0.033704191 -0.59028006 0.56016028 -0.58119696 0.001893876
-0.010510319 -0.049524289 -0.03431816 -0.49375662 0.67220211 -0.55167794 0.0028547838
-0.0078327581 -0.048487201 -0.035184383 -0.30519852 0.76280957 -0.57006615 0.0063090371
-0.0056345621 -0.048018262 -0.035505958 -0.15843397 0.80714333 -0.56869876 0.0073072226
-0.0093110399 -0.047738757 -0.03312023 -0.42513844 0.73774493 -0.52439463 0.0074708876
-0.0074896021 -0.047478162 -0.03385558 -0.31674564 0.81065708 -0.49245027 0.0043486827
-0.0044371481 -0.046956487 -0.034354258 -0.23664472 0.82086992 -0.51978046 0.0039002278
-0.0013368747 -0.046354897 -0.034481492 -0.30507255 0.51164389 -0.80321306 0.031713564
0.0010217449 -0.046242971 -0.035216704 -0.36200795 0.41700217 -0.83370227 0.030935327
-0.00029213124 -0.043535873 -0.03362067 -0.66660023 0.0996259 -0.73872781 0.027605966
0.0010116709 -0.043286897 -0.034977634 -0.63005352 -0.003839985 -0.77654225 0.025939584
-0.00050715142 -0.040497277 -0.033833656 -0.80511218 -0.094147511 -0.58560276 0.0063144355
0.00067681167 -0.040443253 -0.035394043 -0.66701996 -0.21007487 -0.71480972 0.0053160195
-0.00061743794 -0.037437577 -0.034427024 -0.86886704 -0.17848389 -0.4617506 0.0049682218
0.00026782963 -0.038277972 -0.035662666 -0.74602491 -0.2694957 -0.60894901 0.0082798144
-0.0014482033 -0.03446145 -0.034290466 -0.90079045 -0.23206805 -0.3670435 0.0020267125
-0.0022176406 -0.031593375 -0.034377899 -0.89636177 -0.30863914 -0.31824127 0.00094772718
-0.0034619062 -0.028326051 -0.034519698 -0.90486354 -0.26432416 -0.33369845 0.0031094772
-0.0027036751 -0.029881857 -0.035219181 -0.89921916 -0.30309072 -0.31550121 0.0020831355
-0.0040858043 -0.025531275 -0.034570072 -0.90678728 -0.27592462 -0.31875154 0.0022347344
-0.005050438 -0.022578884 -0.034582362 -0.89803863 -0.32201478 -0.29972169 0.000472413
-0.0065484541 -0.019146405 -0.034207389 -0.91504806 -0.26056421 -0.30788526 0.003336495
-0.0057718866 -0.020606793 -0.034744184 -0.89903957 -0.31193864 -0.307282 0.0018504261
-0.0069497712 -0.016419232 -0.03458165 -0.95221579 -0.074513137 -0.29619735 0.0033558789
-0.0068230205 -0.013490806 -0.034441445 -0.94309467 -0.0068507204 -0.33245379 0.0016854376
-0.0065960782 -0.01055694 -0.034581982 -0.84109968 0.10758507 -0.53007239 0.020913161
-0.0058423942 -0.0095645078 -0.035813689 -0.87809962 0.16817494 -0.44794896 0.0078110737
-0.0066665993 -0.0075948713 -0.033774119 -0.51362789 0.1218561 -0.84931588 0.023575118
-0.0052871392 -0.0074545532 -0.035156123 -0.74458683 0.32846448 -0.58112085 0.01809264
-0.0062357932 -0.0056963195 -0.033615828 -0.3802543 0.16977692 -0.9091658 0.014588195
-0.0039908197 -0.0044495291 -0.034719523 -0.73427594 0.4249225 -0.52941459 0.017216315
-0.0027749559 -0.0033700701 -0.035866089 -0.66018981 0.50726354 -0.55392528 0.019732798
-0.0032683099 -0.0024367578 -0.033737063 -0.54693902 0.4460685 -0.70843542 0.028698154
-0.001880877 -0.0014189199 -0.034897394 -0.65788281 0.53766894 -0.527354 0.020618806
2.255081e-06 -8.613643e-07 -0.035285503 -0.63310468 0.62814552 -0.45234013 0.0092065455
-0.0010976652 0.0011576798 -0.033498328 -0.45328578 0.40913525 -0.79192185 0.023403317
0.0013928181 0.0013232438 -0.034519054 -0.38998929 0.79286456 -0.46826732 0.020410679
0.0043952321 0.0023505026 -0.034705408 -0.28579575 0.84445822 -0.45300224 0.011973359
0.0070678778 0.002799616 -0.035491515 -0.24117179 0.91111672 -0.33421943 0.0001354073
0.0013938344 0.0031721143 -0.033222273 -0.13825713 0.47779122 -0.86752552 0.038724549
0.005390441 0.0031703713 -0.033497855 -0.19252208 0.61306828 -0.76621318 0.052063435
0.0078527369 0.0035422258 -0.034259204 -0.23192802 0.91608518 -0.32710445 0.00023293075
0.010473035 0.0039218329 -0.034885228 -0.21651065 0.92024207 -0.3260026 9.4348703e-05
0.013398448 0.0047424934 -0.03436286 -0.14023559 0.8136676 -0.56416219 0.03015065
0.0161984 0.005141831 -0.034598563 -0.0038917759 0.83796704 -0.54570693 0.022664087
0.019286515 0.0052918307 -0.034758858 -0.037170377 0.92530668 -0.37739357 0.0010625585
0.022634247 0.0054479921 -0.034446817 0.03709336 0.90480679 -0.42420375 0.0015717702
0.025413636 0.0054348949 -0.034092836 0.09949898 0.89111894 -0.44272664 0.001287775
0.02851516 0.0043558124 -0.035059996 0.1525915 0.88053524 -0.44874665 0.00052325742
0.032248929 0.0038354052 -0.034595191 0.15259011 0.88053441 -0.4487488 0.00052200485
-0.045423917 0.053784654 -0.033737492 -0.69004148 -0.71452075 -0.11533792 0.011503109
-0.043889254 0.053139564 -0.034378417 -0.64325619 -0.75008219 -0.15361714 0.0034776928
-0.04815184 0.056502353 -0.03451658 -0.98045164 -0.16466187 -0.1077088 0.022381183
-0.047197998 0.05521198 -0.034439862 -0.87616181 -0.4783206 -0.059581995 0.041437622
-0.048168994 0.057444315 -0.034051578 -0.99522579 -0.074502409 -0.063047819 0.02813307
-0.047535028 0.059027076 -0.034352697 -0.98673642 0.12767106 -0.10025633 0.015933719
-0.047025617 0.061580185 -0.034369741 -0.98747557 -0.088031135 -0.13092938 0.029628741
-0.049096417 0.065208584 -0.034419186 -0.74689716 -0.59519207 -0.29646429 0.0074885418
-0.047586259 0.063881904 -0.035047144 -0.81289494 -0.49383184 -0.30875862 0.013470555
-0.051405888 0.06796173 -0.034264099 -0.95885319 -0.27535835 -0.069125839 0.040180434
-0.050546769 0.066412121 -0.034387778 -0.8618542 -0.46831888 -0.19463979 0.030245092
-0.051334608 0.070045553 -0.034910966 -0.96823239 0.15320852 0.19761878 0.022452066
-0.050650328 0.07111042 -0.033811685 -0.90675217 0.3810513 0.18055603 0.012591471
-0.049514826 0.073243342 -0.034646008 -0.68353313 0.63936138 0.35213557 0.008904851
-0.047094189 0.07472498 -0.03404513 -0.43869817 0.82038915 0.36675012 0.0050271931
-0.046411213 0.075432889 -0.034931909 -0.43869761 0.8203907 0.36674729 0.0050388314
-0.044849738 0.075473964 -0.034576736 -0.3548519 0.87018365 0.34184876 0.0061103646
0.013770133 0.07747259 -0.033791866 -0.48378757 -0.50421512 -0.71534377 0.0010595794
0.015349382 0.076833554 -0.034259949 -0.48375124 -0.50429583 -0.71531141 0.0010422135
0.011157233 0.080035344 -0.033464849 -0.52684891 -0.37687585 -0.76183647 0.0023685468
0.01330285 0.079367705 -0.034640279 -0.51933473 -0.43331966 -0.73656327 0.0016155782
0.016017035 0.07805302 -0.035618819 -0.52056468 -0.42203027 -0.74222839 0.0018389683
0.010621731 0.08260832 -0.034083754 -0.57056582 -0.27739197 -0.77298665 0.0017735165
0.012764283 0.082264885 -0.035647802 -0.56615132 -0.28387779 -0.77387732 0.0013173212
0.010558427 0.085618541 -0.034674067 -0.61345768 -0.086019054 -0.78502882 0.0014206257
0.012198944 0.084089756 -0.035815917 -0.57348597 -0.20478183 -0.79320759 0.0010054187
0.010374814 0.088496566 -0.034484822 -0.64762706 0.13046165 -0.75070566 0.0052582733
0.010912661 0.090948604 -0.034052029 -0.65970641 0.28503531 -0.6953721 0.0073499433
0.012471866 0.090296775 -0.035653193 -0.66685802 0.11168259 -0.73676819 0.006152268
-0.018357635 -0.058615319 -0.030871544 -0.92801541 0.082365468 -0.36332253 0.012273627
-0.017519357 -0.058086473 -0.0323966 -0.85223985 0.25082782 -0.45909974 0.0057823067
-0.018186118 -0.056055192 -0.030646045 -0.86547804 0.30009675 -0.40111044 0.0061344593
-0.016974142 -0.055381261 -0.031884786 -0.82303578 0.31121418 -0.47513986 0.004442669
-0.015973572 -0.052922759 -0.031462897 -0.72444087 0.48820397 -0.48666441 0.003758525
-0.014054401 -0.051927049 -0.032441624 -0.61765712 0.55008101 -0.56205928 0.0018608284
-0.015208685 -0.050585158 -0.030702166 -0.66099358 0.56330484 -0.49575725 0.0050453185
-0.013295483 -0.04949129 -0.031303622 -0.5842185 0.64878184 -0.48761755 0.0074825175
-0.01140555 -0.048503954 -0.03206259 -0.58029872 0.68755585 -0.43648639 0.012283752
-0.012245541 -0.047813825 -0.030472457 -0.51074952 0.74340159 -0.43184385 0.0087863309
-0.010184198 -0.047366891 -0.03119815 -0.38763934 0.85093725 -0.35445952 0.0074071591
-0.0074735396 -0.046502154 -0.031445798 -0.31357676 0.89032477 -0.33013856 0.0021056274
-0.0047757276 -0.045681845 -0.031740658 -0.3923406 0.84725243 -0.35809517 0.0078580845
-0.0022472895 -0.045351155 -0.032821983 -0.51243454 0.61503398 -0.5992862 0.028524354
-0.003640109 -0.044796973 -0.030819371 -0.44107062 0.79701078 -0.41259012 0.0087264217
-0.0017598689 -0.043612178 -0.031830404 -0.77483255 0.34009394 -0.53288883 0.037267871
-0.001709188 -0.040587965 -0.031646777 -0.90732366 -0.049695227 -0.41748556 0.0022812008
-0.0019635418 -0.037536789 -0.031508733 -0.91801995 -0.11064401 -0.38078511 0.0015336305
-0.0030084245 -0.033614818 -0.03035754 -0.9175691 -0.19762728 -0.34497878 0.0016203922
-0.0022849448 -0.034665674 -0.031665545 -0.92293519 -0.18240868 -0.33899531 0.0012104876
-0.0034472584 -0.03122855 -0.030978339 -0.91214663 -0.2502645 -0.32458621 0.00012943649
-0.0027979524 -0.032160696 -0.03209991 -0.91523051 -0.27098471 -0.29819524 0.00064893381
-0.0041467678 -0.02839588 -0.031351671 -0.91772169 -0.28231522 -0.27943671 0.00063894072
-0.0048586084 -0.025656508 -0.031991199 -0.91599882 -0.27851275 -0.28875044 0.00057709304
-0.0061567696 -0.021448392 -0.032307975 -0.92161191 -0.30724761 -0.23712957 0.00075145491
-0.0056265332 -0.023049414 -0.032175098 -0.89972258 -0.31581718 -0.30126214 0.00041257622
-0.0068151406 -0.019647948 -0.032218024 -0.94699472 -0.25027075 -0.20140871 0.003053487
-0.0074296151 -0.016997514 -0.032224331 -0.95458716 -0.15700731 -0.25320333 0.0051990249
-0.0076276585 -0.014414579 -0.032374606 -0.93925434 -0.027375137 -0.34212846 0.001916792
-0.0076078069 -0.010324355 -0.032957088 -0.74936002 -0.033650972 -0.66130722 0.027344754
-0.029122852 -0.0070761051 -0.030080445 -0.3898086 0.0071998774 -0.9208678 0.0013703764
-0.01000871 -0.0067508975 -0.03201627 -0.3516289 0.022070711 -0.93587929 0.016846832
-0.0085769128 -0.0075566322 -0.032680638 -0.58605599 0.032946814 -0.80960041 0.019242888
-0.028413042 -0.0041846824 -0.030707713 -0.39422825 0.02763363 -0.91859698 0.0013620466
-0.013364393 -0.003926198 -0.031716917 -0.19316177 0.037445202 -0.98045212 0.0039245193
-0.0093103861 -0.0044620959 -0.032685339 -0.3501595 0.078639746 -0.93338311 0.014603205
-0.0086121084 -0.003274203 -0.032702193 -0.21946128 0.090845972 -0.97138238 0.0055268933
-0.028582182 -0.0019924715 -0.030639775 -0.35481411 0.046977077 -0.93375593 0.002105434
-0.015444772 -0.0019991726 -0.031526804 -0.13735601 0.10275601 -0.98517746 0.0044195387
-0.0073077995 -0.0023231665 -0.032767076 -0.27999184 0.12476525 -0.95186043 0.0084590418
-0.0045991484 -0.00081167708 -0.032914013 -0.31070766 0.32578832 -0.89292926 0.016140677
-0.013231575 0.0003741777 -0.031614996 -0.14408414 0.15793361 -0.97688115 0.0012539162
-0.010542999 0.0011328704 -0.03177692 -0.14408198 0.1579349 -0.97688121 0.0012604939
-0.0076099243 0.0021802064 -0.031947918 -0.12055863 0.19204812 -0.97395235 0.00034134142
-0.0038344699 0.0019521894 -0.032437738 -0.28329071 0.28344852 -0.91618955 0.011053365
-0.026147285 0.0037030701 -0.030657286 -0.33012089 0.21241927 -0.91972727 0.0022547077
-0.010156866 0.0042417003 -0.031047877 -0.12549394 0.21874271 -0.96767914 0.00013947453
-0.0083335014 0.0057189441 -0.031131063 -0.15348665 0.23970915 -0.95863515 0.00082433579
-0.0057124915 0.0058240723 -0.03130158 -0.14253652 0.21153586 -0.96692079 0.00024263888
-0.0019407232 0.004417439 -0.032272931 -0.22943513 0.30856368 -0.92311865 0.0094932057
-0.024062365 0.0077929054 -0.030039549 -0.17475188 0.36054406 -0.91622585 0.0026095314
-0.010089435 0.0078169797 -0.030289024 -0.13769343 0.27833974 -0.95056164 0.001892937
-0.0081035243 0.008519277 -0.030400041 -0.16857502 0.29368147 -0.94092172 0.0034934499
-0.0039287447 0.0073432652 -0.031381089 -0.17931762 0.18329445 -0.96656519 0.00065096148
-0.0003928903 0.0060418304 -0.032335542 -0.17253 0.19780791 -0.96493804 0.00098137488
0.00057167729 0.0071548917 -0.032371942 -0.1791586 0.2353811 -0.95524758 0.0035050267
0.0032635748 0.0076472121 -0.032540962 -0.11970679 0.27149627 -0.95496601 0.0052497149
0.013599168 0.0084242905 -0.03251186 -0.055991072 0.47892344 -0.87606925 0.011783564
-0.0064643882 0.0093586883 -0.03048525 -0.168578 0.29369652 -0.94091654 0.0034876242
-0.0041890978 0.010482128 -0.030741025 -0.22543871 0.36327308 -0.90399671 0.0046989005
-0.0021206369 0.010679401 -0.031245956 -0.19809623 0.3460815 -0.91705263 0.0062118727
0.0012123819 0.010946736 -0.031629808 -0.11979823 0.33825299 -0.93339884 0.00540978
0.0063950187 0.011685566 -0.031258948 -0.0039033943 0.42041311 -0.90732449 0.0019686106
0.013563839 0.010679591 -0.031747114 -0.20346268 0.40847698 -0.88980311 0.00072691945
-0.0012086993 0.012891983 -0.030282481 -0.21413969 0.54238623 -0.81238008 0.0024556357
0.0011766849 0.013143336 -0.030542541 -0.17187358 0.55176765 -0.81609553 0.0019050166
0.0047811624 0.014077887 -0.030404564 -0.064298458 0.50205815 -0.86244035 0.0016786598
0.013911621 0.013166262 -0.030651346 -0.22713399 0.42040375 -0.87844795 0.0016211591
0.016125692 0.01353418 -0.030899296 -0.22525366 0.44625902 -0.86609101 0.0014323678
0.01884846 0.013743192 -0.031301647 -0.2228851 0.47633383 -0.85054594 0.0025784683
0.016660158 0.015219711 -0.030420259 -0.23275995 0.49123755 -0.83935004 0.0030548135
0.018743055 0.016022161 -0.030529968 -0.24675296 0.51671779 -0.81982666 0.0043267314
-0.045848034 0.053658009 -0.03161829 -0.6705091 -0.71731222 -0.18942226 0.0051212301
-0.04474834 0.052765284 -0.031528421 -0.67062616 -0.71719384 -0.189456 0.0050958907
-0.048335452 0.056222174 -0.031133022 -0.93228525 -0.35398647 -0.07441669 0.039233617
-0.047072515 0.054868903 -0.031489644 -0.75728858 -0.64500666 -0.10237405 0.012196962
-0.048383284 0.057763059 -0.031232813 -0.99690777 0.013870911 -0.077346586 0.024092196
-0.04768749 0.05936864 -0.031397309 -0.99034345 0.10892109 -0.085766882 0.011772286
-0.048382234 0.062242933 -0.030293614 -0.82345688 -0.51777118 -0.23201667 0.014896767
-0.047483154 0.061445881 -0.03157825 -0.96060944 -0.22957611 -0.15660255 0.043768693
-0.05115702 0.065522499 -0.030724045 -0.99190211 -0.10657758 -0.069075666 0.018275255
-0.049836822 0.064345494 -0.031673182 -0.80789894 -0.53580058 -0.24539143 0.011945212
-0.051206388 0.067337893 -0.031526461 -0.99900228 -0.036832433 0.025254933 0.033199612
-0.050860912 0.068378814 -0.0304216 -0.94588715 0.26203319 0.19140565 0.0056863618
-0.051019698 0.069210589 -0.032514773 -0.99368513 0.097028367 0.056349911 0.016511776
-0.050151777 0.070532888 -0.031341128 -0.86968672 0.42088538 0.25787699 0.0099290609
-0.048686031 0.072637185 -0.031697031 -0.63006145 0.7003023 0.33555809 0.0043028141
-0.046813536 0.073695943 -0.031473339 -0.40556705 0.84060711 0.35901958 0.0031104465
-0.04486271 0.07428591 -0.031680703 -0.29254746 0.85953403 0.41906717 0.0022840213
0.011941565 0.074137524 -0.030075647 -0.38937557 -0.53041768 -0.75302315 0.00094971631
0.014081075 0.074384533 -0.031383026 -0.43808463 -0.53527415 -0.72219354 0.00068010943
0.0080654388 0.077570625 -0.030401267 -0.37841409 -0.41090313 -0.82943434 0.0033680587
0.010831089 0.076700799 -0.031271573 -0.42075977 -0.49712789 -0.75883138 0.0019453691
0.013199843 0.076172337 -0.032381549 -0.46632618 -0.49883631 -0.73054922 0.0014735978
0.005343291 0.080399334 -0.030150034 -0.44122189 -0.15718111 -0.88352555 0.0051039648
0.0074366541 0.079675384 -0.031048372 -0.48535696 -0.30435315 -0.81963277 0.0040337313
0.0098536732 0.079106778 -0.03213739 -0.51590729 -0.34138563 -0.78568155 0.0021281131
0.0053697447 0.082687229 -0.030421477 -0.58580208 -0.050983928 -0.80884892 0.0041230302
0.0075443522 0.082552277 -0.031885359 -0.54303187 -0.14904454 -0.82637894 0.0048175775
0.0090015307 0.082682177 -0.032971881 -0.57062036 -0.21773922 -0.79182196 0.0032838292
0.0055144602 0.085163146 -0.030476684 -0.63445592 0.12412351 -0.76292795 0.0043770475
0.0076099839 0.085554354 -0.032138154 -0.6231783 0.051653087 -0.78037214 0.004137048
0.0075140912 0.088506006 -0.031725459 -0.70275182 0.27045017 -0.65802473 0.0034482693
0.008135885 0.091238245 -0.031020114 -0.66035062 0.46459904 -0.5899871 0.0055037336
0.0099847503 0.091965824 -0.03227796 -0.64858884 0.46731886 -0.6007874 0.0052226721
0.0094028339 0.093066916 -0.03042594 -0.67880017 0.53959137 -0.49806768 0.0080380207
-0.018736925 -0.060082 -0.027218848 -0.93958318 0.064774528 -0.33613652 0.0077354354
-0.019167168 -0.058215823 -0.028448358 -0.9457978 0.086991385 -0.31288803 0.0092905462
-0.018655812 -0.055475842 -0.028458262 -0.91597629 0.28360879 -0.28381956 0.0047051478
-0.017855536 -0.054273274 -0.029927932 -0.85052645 0.33140433 -0.40838203 0.0068167849
-0.01711661 -0.052319046 -0.028535869 -0.83003914 0.48797688 -0.27002504 0.0021621953
-0.015633985 -0.050093241 -0.028412286 -0.74131006 0.60240638 -0.29591537 0.0051073548
-0.014369527 -0.048676878 -0.028476149 -0.64985991 0.70760226 -0.27745482 0.0024385392
-0.012977168 -0.047526434 -0.028050013 -0.49287888 0.82680899 -0.27103004 0.0073580309
-0.010427929 -0.046689566 -0.028478377 -0.33662939 0.907098 -0.25269338 0.0016346212
-0.007470638 -0.045717593 -0.028601943 -0.35163993 0.90286511 -0.24735379 0.0014767937
-0.0055268193 -0.045309514 -0.0297691 -0.4406037 0.83679187 -0.3250351 0.0092407325
-0.0041814535 -0.044003706 -0.028358636 -0.65698946 0.67045969 -0.34474427 0.033233594
-0.0027573374 -0.042830415 -0.029079011 -0.85472518 0.40071023 -0.32996401 0.031061269
-0.0031501064 -0.039790928 -0.028012309 -0.94992924 0.069261692 -0.30469215 0.014045484
-0.0027697606 -0.040616438 -0.029117046 -0.94993085 0.069257841 -0.30468792 0.014045004
-0.0033346098 -0.037453551 -0.028039725 -0.95334244 -0.097186886 -0.28581983 0.0017241277
-0.0028073161 -0.037475776 -0.029516518 -0.94208628 -0.081024788 -0.32543561 0.00097972562
-0.0033741654 -0.034688093 -0.028736329 -0.92520404 -0.17675242 -0.33579159 0.0012847605
-0.0028814999 -0.035229661 -0.02969642 -0.92148954 -0.1759166 -0.34628081 0.0013947553
-0.0038959719 -0.031808756 -0.029274911 -0.91216177 -0.25025544 -0.32455057 0.00013577618
-0.0044267504 -0.029866062 -0.029479623 -0.92361546 -0.26185086 -0.27994397 0.00070120866
-0.034157135 -0.015539647 -0.027356073 -0.25719571 -0.23391022 -0.93762273 0.0010815981
-0.037692282 -0.013220211 -0.02708938 -0.26346204 -0.21603213 -0.9401691 0.0012098762
-0.033043258 -0.013901945 -0.028037578 -0.2548061 -0.15145512 -0.95505768 0.0034201087
-0.0321697 -0.012866098 -0.028719798 -0.24748282 -0.13240892 -0.95980215 0.0027951738
-0.03743352 -0.01051541 -0.027686531 -0.26162142 -0.085945264 -0.96133643 0.0023220053
-0.033481803 -0.01015 -0.028571323 -0.26154184 -0.097463533 -0.96025872 0.0019396252
-0.031950928 -0.010825699 -0.029206077 -0.25285113 -0.11853734 -0.96021622 0.0029287115
-0.037981074 -0.007464421 -0.027580744 -0.28502598 0.039793562 -0.9576934 0.0016432329
-0.033577461 -0.0076326253 -0.028504511 -0.28856799 0.020357508 -0.95724297 0.0026825164
-0.03223991 -0.0075066276 -0.029235682 -0.35081321 -0.032938849 -0.935866 0.0019971002
-0.036773082 -0.0048440285 -0.027593533 -0.28450602 0.10539617 -0.95286304 0.0020916704
-0.033678941 -0.0043222057 -0.028234227 -0.3035593 0.071290307 -0.95014179 0.0027462938
-0.031602506 -0.0046027107 -0.029530093 -0.37475938 0.025977854 -0.92675811 0.0030803666
-0.03480253 -0.0011499375 -0.027628088 -0.32486394 0.11720281 -0.93847054 0.0049534431
-0.031806309 -0.0014719963 -0.029115617 -0.44343922 0.080097757 -0.89271837 0.001490291
-0.033605967 0.0014826532 -0.027639892 -0.40247071 0.14195625 -0.90435928 0.0060139294
-0.031758867 0.0015159245 -0.028986329 -0.44968539 0.1461166 -0.8811543 0.0014468529
-0.029680971 0.0026695158 -0.029797617 -0.3986505 0.16752857 -0.90167177 0.0025708668
-0.033313755 0.0034451049 -0.027611643 -0.40217251 0.19168839 -0.89527243 0.0061601391
-0.031584378 0.0044808951 -0.028338812 -0.44046003 0.23799957 -0.86565071 0.0018281421
-0.028696546 0.004717743 -0.029568411 -0.38855544 0.27164784 -0.8804726 0.0011062549
-0.031158153 0.0070822812 -0.027658969 -0.32222372 0.20905858 -0.92329109 0.0063319062
-0.028505942 0.0074262228 -0.028785879 -0.33287364 0.30702507 -0.89158887 0.0013426725
-0.026101202 0.0075335205 -0.029749038 -0.27352378 0.34962445 -0.8960734 0.0032622102
-0.028024714 0.0099147093 -0.027970662 -0.2554875 0.29881296 -0.91947645 0.0047391676
-0.025278959 0.010350685 -0.028595652 -0.178004 0.36675453 -0.91312963 0.0030244489
-0.022114336 0.010198677 -0.029125934 -0.094502695 0.34410587 -0.93416291 0.0022355486
-0.019410802 0.010584604 -0.029289493 -0.1281845 0.42335817 -0.89684814 7.072759e-05
-0.017986163 0.011812325 -0.029020436 -0.12609942 0.43761623 -0.89027578 0.00028081672
-0.0074986964 0.010456574 -0.029715942 -0.14205278 0.31829259 -0.93728906 0.0037675984
-0.0051075765 0.011750378 -0.029835816 -0.25515452 0.51790386 -0.81649965 0.002355739
-0.028103491 0.01349283 -0.027052294 -0.19451104 0.24489878 -0.94983685 0.00088030612
-0.024430485 0.012115397 -0.027955733 -0.15446015 0.32046703 -0.93458176 0.004648786
-0.022353796 0.01238347 -0.028077669 -0.082858659 0.32364565 -0.94254339 0.0026258389
-0.019121289 0.012933582 -0.028264336 -0.043079656 0.38070634 -0.92369193 0.0029902239
-0.016816195 0.013771921 -0.028255558 -0.124107 0.44560531 -0.88658524 0.000330143
-0.010311533 0.012903666 -0.028809123 -0.099384636 0.29531708 -0.95021605 0.00069660012
-0.0062746112 0.012527342 -0.029067315 -0.1157863 0.41661558 -0.90167904 0.0062001781
-0.003925601 0.013369813 -0.029079521 -0.23751065 0.55698746 -0.7958352 0.0019717186
-0.0017712016 0.014102256 -0.029171824 -0.22067972 0.57832104 -0.78539503 0.0011281079
0.00084247789 0.014710853 -0.029455364 -0.14976336 0.60029584 -0.78563082 0.0029066564
0.012830297 0.014644717 -0.029495016 -0.07986512 0.4688696 -0.87964928 0.0072561298
-0.026010612 0.01546817 -0.027133025 -0.14492631 0.28138489 -0.94858789 0.0033455582
-0.023216756 0.015824348 -0.027293354 -0.066533208 0.31294799 -0.94743705 0.0029200024
-0.015756285 0.015917012 -0.027301157 -0.11855644 0.48064747 -0.86886269 0.00069017016
-0.013074199 0.016016344 -0.027568815 -0.073464185 0.4523392 -0.8888151 0.0023978436
-0.010597093 0.016199127 -0.027712326 -0.0046186033 0.45087165 -0.89257681 0.0014187174
-0.0032858811 0.015062856 -0.027834326 -0.20269617 0.58196235 -0.78754932 0.0029385714
-0.0013675393 0.01598056 -0.027654517 -0.16701813 0.60604453 -0.77769852 0.0039619189
0.001461959 0.01630754 -0.028239019 -0.16302502 0.63313472 -0.756679 0.0010752877
0.0045512198 0.01681054 -0.028453974 -0.17073262 0.61109662 -0.77292383 0.0018010588
0.0070868344 0.016214721 -0.029111918 -0.038969379 0.51139289 -0.85846299 0.0050267722
0.014161321 0.015680157 -0.029199902 -0.27325749 0.537247 -0.79793233 0.0014391596
0.016310629 0.016875686 -0.029149907 -0.26307535 0.54828835 -0.79383332 0.0018725042
0.019378446 0.017306868 -0.029828697 -0.13743934 0.58408737 -0.79997027 0.0098032299
0.0074656275 0.018885307 -0.027458364 -0.15219009 0.63829374 -0.75459868 0.0022753135
0.009553371 0.018681122 -0.027813658 0.028786652 0.56065327 -0.82755017 0.0030764989
0.014975011 0.018371481 -0.027428627 -0.18593931 0.6114307 -0.76914185 0.0026465671
0.016511008 0.018611113 -0.02786234 -0.21274173 0.62563932 -0.75054407 0.0034900843
0.019021191 0.018912407 -0.028352536 -0.1302025 0.70014018 -0.70203346 0.0032839892
0.021007385 0.02013642 -0.027017787 -0.064219885 0.70432121 -0.70697063 0.0016645996
0.025415298 0.01978666 -0.027552933 -0.14738442 0.59038532 -0.79355085 0.002305591
0.027515966 0.019952927 -0.028097287 -0.15728542 0.59753364 -0.78626633 0.0020751469
0.030875567 0.020035967 -0.0282837 -0.13866307 0.61229241 -0.77837688 0.0029821985
0.028009403 0.021305602 -0.027375579 -0.13866954 0.6123023 -0.778368 0.0029656694
-0.045862466 0.052826703 -0.028507724 -0.73399901 -0.65294039 -0.18685362 0.0011135295
-0.044832241 0.051754564 -0.028756045 -0.71323365 -0.67726022 -0.18059966 0.00082059944
-0.048600595 0.056066927 -0.028234852 -0.98093468 -0.16220421 -0.10703785 0.024615219
-0.047244426 0.054533593 -0.028739505 -0.82466763 -0.5492087 -0.1352521 0.014773653
-0.048528463 0.058062486 -0.028217157 -0.99348253 0.039684534 -0.10685301 0.015342616
-0.047856327 0.05952315 -0.028859798 -0.98880827 0.01177707 -0.14872639 0.020622658
-0.049050052 0.061651196 -0.028294269 -0.85261375 -0.38649419 -0.35167021 0.022905197
-0.047816142 0.060576551 -0.028907873 -0.96565044 -0.097662859 -0.24079263 0.027818777
-0.051095705 0.065058105 -0.028653657 -0.96422231 -0.25408706 -0.075597636 0.028664974
-0.050780389 0.06394092 -0.028343894 -0.91652471 -0.36089432 -0.17244621 0.032598287
-0.051068168 0.066644035 -0.029291833 -0.99116975 0.11059413 0.073153265 0.041560486
-0.050595909 0.067717031 -0.028215187 -0.9416033 0.23570511 0.24047104 0.011722742
-0.049405515 0.070300482 -0.028668562 -0.76721728 0.55477351 0.32187569 0.015251654
-0.047416605 0.071665831 -0.027936453 -0.39073229 0.81313473 0.43143973 0.0060832766
0.0096738944 0.071910962 -0.027318798 -0.30669868 -0.51871163 -0.79804397 0.0044734175
-0.048210911 0.072092757 -0.02973678 -0.45949778 0.79986173 0.38611254 0.013043
-0.04635438 0.072569713 -0.028822472 -0.37507308 0.82620853 0.4203566 0.0059442972
-0.04416877 0.072331674 -0.027671188 -0.3731865 0.82385921 0.42660028 0.0058246506
0.0036725251 0.074470922 -0.027564123 -0.27160218 -0.27225393 -0.92309803 0.0023846221
0.0081643928 0.074226156 -0.028503582 -0.28390518 -0.51458162 -0.80907577 0.0030552726
0.010669037 0.073384792 -0.028844329 -0.38936844 -0.53037274 -0.75305843 0.00093390711
-0.00010252841 0.077524483 -0.027266018 -0.36472547 -0.15197936 -0.9186281 0.0051498143
0.001467626 0.07655926 -0.02770916 -0.38374057 -0.17076251 -0.90751499 0.0056306939
0.0041735931 0.076788396 -0.028633537 -0.30876848 -0.31789622 -0.89643961 0.0037352468
0.007821206 0.076290548 -0.029535763 -0.35221332 -0.45978123 -0.81519753 0.0028888276
0.010105419 0.07517343 -0.029931396 -0.38936898 -0.53044164 -0.75300962 0.00092145486
-0.00014253352 0.079160541 -0.027225912 -0.50395077 0.035462584 -0.86300403 0.0077413856
0.0016484708 0.079661511 -0.028168928 -0.44101301 -0.07353349 -0.89448327 0.0034570182
0.004566282 0.079232559 -0.029473186 -0.36791247 -0.20615999 -0.90671849 0.0050903801
0.0015119887 0.082528777 -0.027897796 -0.61389744 0.19355597 -0.76528817 0.0039014809
0.0037216686 0.082336649 -0.029341966 -0.56352031 0.038556274 -0.82520193 0.0043912218
0.0021878569 0.085278034 -0.02761497 -0.63484603 0.29388538 -0.71456409 0.0064261868
0.0041413298 0.08586362 -0.029132707 -0.63541597 0.19172128 -0.74799037 0.0028952586
0.0027691096 0.087049589 -0.02721978 -0.64876103 0.37835497 -0.66027015 0.0027181129
0.0047081006 0.088570841 -0.028490132 -0.71477818 0.37441209 -0.59068406 0.0081327502
0.0062143211 0.089372724 -0.029981129 -0.67129433 0.35344681 -0.65149009 0.012430022
0.0054895501 0.090892918 -0.02772885 -0.70428216 0.56963468 -0.42367783 0.004343207
0.0068439199 0.091735438 -0.028742287 -0.70000815 0.53637999 -0.47147107 0.008142788
0.0084100226 0.093222842 -0.028397307 -0.69648045 0.53801292 -0.47482336 0.0075000967
-0.02002201 -0.058276534 -0.025440602 -0.89380169 0.18723388 -0.40750721 0.016035728
-0.019515974 -0.055453777 -0.025279757 -0.89836812 0.32554272 -0.29488429 0.0037715614
-0.018469848 -0.053164341 -0.02512899 -0.84798634 0.45996287 -0.26335013 0.0018046104
-0.017541669 -0.051921707 -0.025643954 -0.83249223 0.48496267 -0.26789513 0.0016866373
-0.016128484 -0.049715389 -0.025403649 -0.74111134 0.62192059 -0.25292051 0.0042510144
-0.014669962 -0.048132624 -0.025796747 -0.65137041 0.71812713 -0.24496922 0.0025265797
-0.015041782 -0.047941353 -0.024379805 -0.69420058 0.67819595 -0.24111359 0.0043859817
-0.01336401 -0.047121886 -0.025415787 -0.48135912 0.84768611 -0.22298338 0.0096383933
-0.01048748 -0.046057526 -0.025598576 -0.3307068 0.91971153 -0.21157447 6.9999594e-05
-0.008073533 -0.045332752 -0.026090639 -0.36924809 0.90141553 -0.22606641 0.0014588367
-0.0066946233 -0.044631813 -0.025443058 -0.40848404 0.88104004 -0.23855658 0.0014340298
-0.004568602 -0.043381073 -0.025492799 -0.62360168 0.71966922 -0.30528209 0.017985277
-0.0035232343 -0.040657278 -0.025410226 -0.96516579 0.11333647 -0.23581745 0.011897267
-0.0036920714 -0.037966952 -0.026173482 -0.97507775 0.010237264 -0.2216271 0.0068615857
-0.039394934 -0.018816536 -0.024533182 -0.39786306 -0.50274527 -0.76743221 0.0080863023
-0.038629539 -0.018464349 -0.025214121 -0.35168979 -0.34111917 -0.87175232 0.0055388589
-0.042515695 -0.015937325 -0.024302818 -0.4877241 -0.40287897 -0.77447647 0.0024403478
-0.040862642 -0.016355705 -0.025044307 -0.45063671 -0.37316403 -0.81097174 0.0017903226
-0.038477853 -0.016047802 -0.026138861 -0.32006449 -0.33066687 -0.88781649 0.0042197513
-0.045316361 -0.012536379 -0.024079069 -0.56124145 -0.32183403 -0.7625162 0.0080956835
-0.043310717 -0.013579716 -0.024741204 -0.48658302 -0.29455951 -0.82247895 0.0034588987
-0.040731736 -0.013596075 -0.025953738 -0.36904606 -0.21772046 -0.90355009 0.00080774666
-0.045484029 -0.010721658 -0.024506567 -0.47577748 -0.18065228 -0.86081386 0.0075578443
-0.043197244 -0.0099073183 -0.02562266 -0.39550319 -0.097119577 -0.91331542 0.0022623898
-0.040696401 -0.010453887 -0.026589204 -0.36757821 -0.093408041 -0.92528975 0.0020362248
-0.038911968 -0.011961945 -0.026986808 -0.3477459 -0.1424861 -0.92669868 0.0032495495
-0.045472998 -0.0076131425 -0.024598619 -0.46410093 0.013365366 -0.88568151 0.002703805
-0.043332361 -0.0076023019 -0.025479328 -0.36405724 0.054239806 -0.92979586 0.00091113639
-0.040664196 -0.0071346811 -0.026487185 -0.34422261 0.067559578 -0.93645418 0.00062250812
-0.045217704 -0.0049712309 -0.024556397 -0.39595702 0.085555486 -0.91427469 0.0025855033
-0.043648213 -0.0044003017 -0.025053913 -0.33757901 0.10867861 -0.93500233 0.00046068864
-0.040342696 -0.0042747413 -0.026151787 -0.35224336 0.11206917 -0.92917442 0.00080642366
-0.038950242 -0.0035586497 -0.02679088 -0.33266506 0.12562509 -0.93464023 0.0011279857
-0.044287879 -0.0012621213 -0.024529118 -0.33405831 0.10974193 -0.93614191 0.00055069692
-0.040405396 -0.0015515864 -0.02570527 -0.34491104 0.094379984 -0.93387836 0.00086585019
-0.038651668 -0.0016082784 -0.026763942 -0.29026067 0.11995374 -0.94939971 0.0022453105
-0.043544598 0.0018355532 -0.024504479 -0.32853472 0.17931838 -0.92731327 0.0019690297
-0.040162995 0.0012507293 -0.0256219 -0.33122873 0.15761596 -0.93029279 0.0017785105
-0.03775629 0.0015846333 -0.026638627 -0.30919674 0.16255859 -0.93700165 0.0020779602
-0.034968782 0.0027356404 -0.026886012 -0.35908285 0.090097293 -0.92894673 0.0061041652
-0.042181514 0.0033092236 -0.024549298 -0.33199233 0.2245155 -0.91617352 0.00070363161
-0.040212333 0.0042855549 -0.024876125 -0.33290163 0.21090251 -0.91907376 0.0012121771
-0.037765361 0.004480808 -0.025804371 -0.36865306 0.11076248 -0.92294455 0.0056853308
-0.034666386 0.0043388568 -0.026867324 -0.29530206 0.085834682 -0.95154035 0.0043503018
-0.039743219 0.0077555636 -0.024590742 -0.43613279 0.15397753 -0.8866111 0.0029315702
-0.037707273 0.0075591295 -0.025861913 -0.457968 0.17871214 -0.87081993 0.0042254915
-0.035757262 0.0077539054 -0.026722826 -0.34221426 0.092259452 -0.9350816 0.0037783885
-0.039126504 0.0095461188 -0.024586976 -0.45102835 0.32110661 -0.83274484 0.0023803441
-0.03743051 0.010496607 -0.02524602 -0.45652294 0.32369375 -0.82873952 0.0025571701
-0.03481001 0.010670192 -0.02644057 -0.37596783 0.3202782 -0.86952287 0.0024118302
-0.031727001 0.011434239 -0.026881142 -0.21315877 0.23522334 -0.94827908 0.0014286785
-0.029572636 0.011983859 -0.026998445 -0.22374788 0.25672868 -0.94022721 0.00053512666
-0.036529198 0.013276003 -0.024336794 -0.4675281 0.34975532 -0.8118428 0.0010703675
-0.034500599 0.01348727 -0.025339758 -0.37849769 0.33367148 -0.86336726 0.0033012831
-0.031694505 0.013816228 -0.026189456 -0.25745803 0.3091912 -0.91548687 0.0021101134
-0.03455269 0.016136784 -0.024280313 -0.38514602 0.35328841 -0.85255486 0.0012701501
-0.031542175 0.01627977 -0.025442541 -0.31197146 0.37647551 -0.8723188 0.0010156883
-0.028953642 0.01695998 -0.026024204 -0.23000012 0.35658461 -0.90550953 0.0017026963
-0.02557374 0.017371686 -0.026469918 -0.13553363 0.35133883 -0.92638636 0.0040174657
-0.018098446 0.016056756 -0.02693969 -0.12431738 0.47077221 -0.87345219 0.00068868644
-0.016614236 0.017273124 -0.026341211 -0.11856338 0.4806574 -0.86885625 0.00069962733
-0.013949219 0.017731912 -0.026484255 -0.10660988 0.51801991 -0.84869885 0.00018946483
-0.0030845469 0.017862158 -0.02642794 0.025729472 0.54139388 -0.8403753 0.0026336021
-5.0233866e-05 0.017544979 -0.026604697 -0.14123881 0.62063503 -0.77127409 0.0034843644
0.0013117093 0.017803559 -0.026675448 -0.13954251 0.63496679 -0.7598322 0.0024817765
-0.033043262 0.018055126 -0.024111174 -0.32672364 0.44807559 -0.8321538 0.00099379732
-0.031213237 0.018852098 -0.024406945 -0.30940837 0.45077589 -0.8372978 0.001048933
-0.028397471 0.019562526 -0.024791026 -0.19799162 0.48825586 -0.84994441 0.00036168989
-0.025938252 0.01955699 -0.025240606 -0.16705032 0.47065312 -0.86636007 0.00078960415
-0.02380982 0.018796213 -0.025894381 -0.012840675 0.46535817 -0.88502932 0.0026142315
-0.018521158 0.018990394 -0.025212139 -0.0049275556 0.4348014 -0.90051287 0.0024383443
-0.015786378 0.018726008 -0.025478626 -0.10170944 0.51551908 -0.85082036 0.00025452502
-0.013364551 0.019139245 -0.025693411 -0.11757898 0.53520358 -0.83650005 0.00028146192
-0.010763423 0.019432453 -0.025798785 -0.010692192 0.53276151 -0.8461979 0.0014323653
-0.0073940717 0.019808955 -0.025474029 0.053042833 0.62263197 -0.78071499 0.0021733448
-0.004943565 0.020276342 -0.025261991 0.05221172 0.61719364 -0.78507698 0.0019136228
-4.5880708e-05 0.02041724 -0.024501681 -0.04025704 0.5969575 -0.8012622 0.0044328021
0.0018882152 0.019171568 -0.025653066 -0.17174475 0.62699389 -0.75985676 0.00081407302
0.004416517 0.019725833 -0.025984203 -0.18777446 0.65834379 -0.72891986 0.0017997572
0.0071338285 0.020206885 -0.026489442 -0.13350599 0.65587312 -0.74297148 0.0029943292
0.014082918 0.019767566 -0.026297428 0.0079003759 0.61630464 -0.78746819 0.0024779446
0.016609484 0.020059625 -0.026427105 -0.12791826 0.65145874 -0.74782246 0.0027869001
0.019238133 0.020328367 -0.026562952 -0.063685901 0.69740766 -0.71383947 0.0021028053
0.022612628 0.020747073 -0.026379697 -0.10102778 0.68301368 -0.72338486 0.0031291319
-0.02484208 0.02121827 -0.02449283 -0.12390111 0.50282085 -0.85546464 0.00098321633
-0.021562111 0.022125535 -0.024004169 -0.016071452 0.44206533 -0.8968389 0.0033637106
-0.019967627 0.022605207 -0.02407917 0.02099186 0.44257751 -0.89648449 0.0022587667
-0.012584665 0.021111052 -0.02450186 -0.042697262 0.51999116 -0.85310388 0.0024659126
-0.011042206 0.021285225 -0.024580278 -0.016559964 0.56692803 -0.82360083 0.0044153361
-0.0071121873 0.021362303 -0.024117641 0.023676815 0.66178036 -0.74932379 0.0014975466
-0.0053165578 0.021466464 -0.024208419 0.052419238 0.62394863 -0.77970529 0.0018082908
0.0049648988 0.021400539 -0.02451241 -0.15829453 0.69251907 -0.70381832 0.0024763017
0.0074636093 0.021862155 -0.024763037 -0.15882589 0.72562021 -0.66951448 0.001544793
0.010678613 0.022330042 -0.024671391 -0.12636831 0.73773777 -0.6631546 0.0014008289
0.012796336 0.022382565 -0.024778567 -0.066371277 0.6013751 -0.79620522 0.0036716654
0.016111027 0.022061516 -0.024954073 -0.047196947 0.57804978 -0.81463552 0.0021192364
0.019479167 0.022475902 -0.024763271 -0.03666598 0.62842476 -0.77700573 0.0034230223
0.022582849 0.022246435 -0.025101785 -0.073532835 0.61918485 -0.78179485 0.002091621
0.025454191 0.022676766 -0.025516223 -0.19554906 0.64025128 -0.74285859 0.0016627914
0.028546318 0.023208093 -0.025925156 -0.1349432 0.68222255 -0.71858382 0.0029362303
0.030289816 0.022485757 -0.026752383 -0.087926127 0.64730966 -0.75713879 0.003420348
0.026780145 0.024309302 -0.024377882 -0.13444267 0.7110191 -0.69020069 0.0011763129
0.029182062 0.024328724 -0.024855621 -0.1403182 0.7132476 -0.68672317 0.0013480757
0.030357534 0.024724944 -0.02454482 -0.14029115 0.71325541 -0.68672049 0.0013483759
-0.046567671 0.052668404 -0.025532817 -0.74650067 -0.64446646 -0.1655288 0.0010821983
-0.044762496 0.051112298 -0.026379623 -0.72053307 -0.66342235 -0.20174947 0.00097055361
-0.048806652 0.055767648 -0.025321927 -0.94945055 -0.29389137 -0.11032473 0.018388949
-0.047743533 0.05444527 -0.02640757 -0.89879316 -0.41177565 -0.15037192 0.017994197
-0.048566386 0.058346882 -0.025374606 -0.97395486 -0.12352953 -0.19013807 0.019856896
-0.049980093 0.061457932 -0.025507122 -0.91172498 -0.37820053 -0.16038033 0.016677648
-0.050820999 0.064387769 -0.025676114 -0.99111062 -0.13303728 0.0009097865 0.022704626
-0.050092354 0.067491405 -0.025646985 -0.9010185 0.37093249 0.22488841 0.0053170067
-0.048770677 0.069685057 -0.025942795 -0.60295689 0.71741962 0.34892994 0.017627647
-0.046826214 0.070727341 -0.025528347 -0.37834829 0.83455765 0.40045732 0.0055876574
-0.044590939 0.071231991 -0.025315711 -0.32059011 0.84558213 0.42686391 0.0025132042
-0.0020083715 0.071044184 -0.024700336 -0.30716234 -0.17078227 -0.93620759 0.0035744174
-0.006069087 0.073861003 -0.024419984 -0.38553658 -0.060906488 -0.92068017 0.0048239608
-0.0044124047 0.073677227 -0.024998246 -0.36045146 -0.14108452 -0.9220466 0.0082420483
-0.001474545 0.07333561 -0.025764035 -0.34371635 -0.21541817 -0.91403168 0.0030814237
0.00018017049 0.074524462 -0.026700951 -0.31733048 -0.22336572 -0.92163396 0.0024897147
-0.0060605267 0.075154752 -0.024393491 -0.48198357 0.13562034 -0.86562055 0.0025906919
-0.0045717601 0.076615602 -0.024971658 -0.42402276 0.058231518 -0.90377748 0.0081302458
-0.0019476077 0.076541543 -0.026253549 -0.43502197 -0.05101639 -0.89897341 0.0050424538
-0.0042711687 0.079459652 -0.024687178 -0.56197214 0.22720715 -0.79533911 0.0070808027
-0.0019249838 0.079505727 -0.026142627 -0.51670939 0.14911011 -0.84307629 0.0013470285
-0.0034298676 0.081569254 -0.024564102 -0.60645235 0.37811434 -0.69946057 0.0047937571
-0.0015450213 0.082624093 -0.025572676 -0.60893655 0.31473541 -0.72810566 0.0080612712
6.115796e-05 0.083658576 -0.026488498 -0.58419567 0.25 -0.77214986 0.0028649704
-0.00080518395 0.085033283 -0.024832556 -0.65434092 0.50329429 -0.56438702 0.0030862337
0.00077654078 0.085840799 -0.025890047 -0.65427202 0.46877956 -0.59344238 0.010473205
0.0021199852 0.088169001 -0.025417915 -0.71630019 0.56971794 -0.40290871 0.0089557683
0.0033968757 0.089360118 -0.026071198 -0.72124094 0.5921728 -0.35936454 0.0063537303
0.0046000276 0.091074951 -0.025472308 -0.72741002 0.59904456 -0.33469424 0.0062904581
0.0065221456 0.092507377 -0.025740866 -0.7001583 0.61204153 -0.36767307 0.0058032079
-0.024471972 -0.06004915 -0.021379575 -0.45324937 0.29155147 -0.84235549 0.036697213
-0.02442489 -0.059294377 -0.021368846 -0.32001138 0.26589477 -0.90933639 0.014077685
-0.021810655 -0.058941234 -0.022172971 -0.64853197 0.45677683 -0.60890168 0.04464962
-0.020746104 -0.057900116 -0.022810116 -0.70049131 0.42044404 -0.57666171 0.021922728
-0.020290114 -0.055485819 -0.022605198 -0.85469288 0.32796809 -0.40241396 0.0084805135
-0.019085292 -0.052549545 -0.022477493 -0.82960385 0.42495382 -0.36217621 0.0044550826
-0.017827738 -0.051164661 -0.023607314 -0.77283728 0.52046376 -0.36309764 0.0031772633
-0.018277986 -0.050668508 -0.021727035 -0.7404809 0.55483556 -0.37926984 0.003291873
-0.016872441 -0.04924662 -0.022631379 -0.74913114 0.53751743 -0.38714018 0.0038965056
-0.015452869 -0.047470633 -0.02237919 -0.63584673 0.69775236 -0.32990998 0.0067206114
-0.013650744 -0.046538837 -0.022778288 -0.48275903 0.80338502 -0.34859166 0.013571609
-0.010690449 -0.045474604 -0.022663327 -0.28027377 0.90275592 -0.32631049 0.0037953127
-0.0084751789 -0.045020752 -0.023949429 -0.35860541 0.89369202 -0.26966068 0.0025379946
-0.0096961325 -0.044671372 -0.021307955 -0.28027722 0.90272385 -0.32639605 0.0038121725
-0.007472822 -0.044212367 -0.022431599 -0.39519352 0.87781644 -0.27066678 0.0029039029
-0.0050722724 -0.042852446 -0.02240192 -0.6186673 0.74195319 -0.25837234 0.02059578
-0.004273993 -0.040914945 -0.022750424 -0.8129192 0.5552972 -0.17552081 0.041268997
-0.036202785 -0.023557397 -0.021868572 -0.41636243 -0.68261999 -0.60055989 0.0011310582
-0.043254782 -0.01911639 -0.02160815 -0.53296477 -0.56699204 -0.62806737 0.002725448
-0.040454406 -0.019739633 -0.023204474 -0.45484835 -0.55130666 -0.69940966 0.0056209606
-0.045855664 -0.015774798 -0.021895895 -0.62577528 -0.43576431 -0.64692718 0.0017416844
-0.043751851 -0.016765544 -0.022976724 -0.55361068 -0.43969274 -0.7072379 0.0019565553
-0.046724997 -0.013415006 -0.022251217 -0.6664927 -0.36573836 -0.64963299 0.0016903429
-0.044933923 -0.014108601 -0.023497641 -0.59606886 -0.37591827 -0.70949793 0.0023026008
-0.048838448 -0.010298799 -0.021818984 -0.68265349 -0.28863019 -0.67132467 0.0039139311
-0.047265146 -0.010550105 -0.023391675 -0.62245119 -0.213476 -0.7529825 0.0053867111
-0.049136981 -0.0074182353 -0.022220001 -0.68663901 -0.065526873 -0.72403938 0.0032188073
-0.047097396 -0.0075723128 -0.023878377 -0.53034246 -0.028936993 -0.8472895 0.0041945153
-0.049191073 -0.0044590416 -0.022196377 -0.66262913 0.016422698 -0.74876767 0.0039489577
-0.046796925 -0.0042745508 -0.023826022 -0.47825965 0.069069669 -0.87549824 0.002413946
-0.049624693 -0.0015244 -0.021795085 -0.66001958 0.022069406 -0.75092411 0.0038116632
-0.046904813 -0.0014955999 -0.023450125 -0.45698306 0.098343886 -0.88402206 0.0012555299
-0.049300648 0.0014254143 -0.021577567 -0.5909676 0.17404959 -0.78769547 0.0021761563
-0.04645545 0.0016032228 -0.02324295 -0.44295883 0.17381589 -0.87953144 0.0013340198
-0.048540067 0.0043236506 -0.021249792 -0.58747727 0.2562114 -0.76761073 0.0016837827
-0.046649497 0.0046058153 -0.022353323 -0.48009816 0.25630113 -0.8389371 0.0019285533
-0.043915063 0.0045393035 -0.023643341 -0.36710399 0.25371295 -0.89491022 0.00099755602
-0.041807804 0.00587577 -0.023886718 -0.3510851 0.1970821 -0.91536766 0.0023384148
-0.046304014 0.0074036149 -0.021555258 -0.47254607 0.30647475 -0.82630104 0.0011901777
-0.043447029 0.0075591453 -0.02288718 -0.40828395 0.28531712 -0.86712074 0.00071333739
-0.04116727 0.0076503819 -0.023884682 -0.44132566 0.23356651 -0.86641699 0.003345859
-0.04543671 0.009707164 -0.021123651 -0.46404126 0.34979737 -0.81382269 0.00078167109
-0.043521788 0.010410209 -0.021780452 -0.42793471 0.3375392 -0.83841461 0.00043996738
-0.040562414 0.010531043 -0.023278894 -0.45301941 0.33730692 -0.82522571 0.0020789544
-0.038319938 0.011600031 -0.023957748 -0.46741307 0.35298711 -0.8105092 0.0014844266
-0.042533178 0.01290825 -0.021205736 -0.42703247 0.36065173 -0.82920063 9.7883012e-06
-0.040609207 0.013500955 -0.021915389 -0.4329111 0.35228223 -0.82975012 0.00031508476
-0.037903961 0.01343572 -0.023255408 -0.45932895 0.36720258 -0.80881345 0.00074890873
-0.03962788 0.016142171 -0.021287281 -0.44064751 0.35050505 -0.82642365 0.0004819367
-0.037443615 0.016502058 -0.02247858 -0.46845356 0.34952322 -0.81140912 0.00095012796
-0.035568066 0.017302681 -0.023357764 -0.42623046 0.36310604 -0.82854176 0.0020328623
-0.037198853 0.018915607 -0.021590006 -0.44528052 0.44002622 -0.77980912 0.0016730446
-0.034668587 0.019614028 -0.022502774 -0.37386191 0.48685205 -0.78943163 0.0010148193
-0.032018133 0.020113777 -0.023362616 -0.29550689 0.48755002 -0.82156593 0.0010793365
-0.029833626 0.020949734 -0.023588479 -0.24948475 0.51405722 -0.82067204 0.0011915821
-0.033879567 0.021726465 -0.021463841 -0.3702499 0.53272754 -0.76099694 0.00045689577
-0.031500489 0.022085082 -0.022208273 -0.31178364 0.56459588 -0.76421362 0.00068312779
