# .PCD v0.7 - Point Cloud Data file format
VERSION 0.7
FIELDS x y z normal_x normal_y normal_z curvature
SIZE 4 4 4 4 4 4 4
TYPE F F F F F F F
COUNT 1 1 1 1 1 1 1
WIDTH 567
HEIGHT 1
VIEWPOINT 0 0 0 1 0 0 0
POINTS 567
DATA ascii
-0.038522352 0.072676562 -0.037867621 0.72876066 0.65459609 0.20102723 0.0027763869
-0.048927408 0.075747073 -0.037520953 -0.14160299 0.93048602 0.3378526 0.0052080657
-0.046333779 0.076632462 -0.037535314 -0.079887502 0.93600124 0.34281152 0.0079242606
-0.043446805 0.076195963 -0.03754016 0.31552172 0.90584671 0.28264433 0.0054476629
-0.041475993 0.075380996 -0.038131643 0.54450405 0.79201138 0.27610368 0.0022847231
0.017224319 0.082536593 -0.036735535 0.89547879 0.31239179 0.31706327 0.0019893628
0.016457925 0.085333578 -0.036645263 0.89225984 0.35006407 0.28517979 0.0035983874
0.014322609 0.089310005 -0.036175206 0.82288992 0.48238593 0.30025995 0.0057709711
0.015468407 0.087647073 -0.036667526 0.87889785 0.366294 0.30556053 0.0046131164
-0.035383642 0.065791383 -0.033909686 0.92762727 0.35555542 0.1144029 0.00085013401
-0.036298238 0.068214893 -0.034213368 0.86148804 0.48059011 0.16392523 0.0017307596
-0.035649545 0.066975012 -0.034885615 0.89732206 0.42544803 0.1175037 0.0025013306
-0.039030638 0.071602568 -0.033155534 0.71200454 0.64010513 0.28864321 0.0035953005
-0.037682325 0.070449352 -0.034554347 0.79191041 0.57341003 0.20994949 0.0034200239
-0.048790582 0.074488856 -0.034444027 -0.26976043 0.86310321 0.42694515 0.013120599
-0.047316656 0.07485579 -0.03351333 -0.097444728 0.92600423 0.36472002 0.010153767
-0.043100197 0.074621476 -0.033680387 0.29277185 0.88881969 0.35253972 0.011071645
-0.040493015 0.073343642 -0.034482528 0.5821389 0.76931047 0.26320279 0.0037802018
-0.038782027 0.072322056 -0.035838008 0.72438085 0.65118247 0.22634907 0.0037579632
-0.048852839 0.075120725 -0.035974555 -0.20019363 0.90958452 0.36411327 0.0056874184
-0.0463305 0.075615384 -0.034752943 -0.073370367 0.94125909 0.32961813 0.010076796
-0.043776635 0.075348832 -0.03485148 0.24680147 0.90237015 0.35329479 0.0083668884
0.017649759 0.077440575 -0.033731341 0.90627241 0.26196 0.33173376 0.0023087724
0.017558614 0.079800136 -0.034176853 0.87141109 0.31185466 0.37866795 0.0050462317
0.016864046 0.082602084 -0.034493256 0.86696494 0.32038602 0.38173887 0.0050595673
0.014888809 0.086309686 -0.033347972 0.83330166 0.38126567 0.40030599 0.0061237053
0.015794907 0.08540751 -0.034478642 0.87005639 0.31308186 0.38076457 0.0059752702
0.014218326 0.088627435 -0.034043521 0.80195564 0.48312438 0.35136592 0.0056412867
0.015225966 0.08767274 -0.035098758 0.83925122 0.40184987 0.36629778 0.0039475244
0.011589338 0.091541491 -0.03387782 0.823403 0.45264804 0.34222409 0.0077236337
0.012881692 0.090586722 -0.033902492 0.7988373 0.47367427 0.37079868 0.0074067125
-0.035570625 0.065614432 -0.031405654 0.85745966 0.4820382 0.18000595 0.0014271737
-0.036683444 0.067921735 -0.03146432 0.84152216 0.50543541 0.19072363 0.0021998833
-0.035814445 0.066377766 -0.031700164 0.85741442 0.48212159 0.179998 0.0014148236
-0.050080195 0.071484163 -0.03077114 -0.46766689 0.7870335 0.40232575 0.00075843587
-0.039797164 0.071536459 -0.031193381 0.59733188 0.75402504 0.27320459 0.0039485213
-0.038189039 0.070023663 -0.031474225 0.73009437 0.6386351 0.24312012 0.0026102643
-0.048828308 0.073353738 -0.032034565 -0.28669432 0.84513098 0.4511762 0.011937702
-0.046319533 0.074275881 -0.031574223 -0.066534922 0.91906619 0.38844624 0.0088750944
-0.043466438 0.073857993 -0.031502038 0.32826522 0.85684592 0.39756396 0.0082437247
-0.041031133 0.072659403 -0.031735096 0.53164268 0.78281337 0.32335627 0.0029556665
0.017345333 0.074629873 -0.030416803 0.91590375 0.18684493 0.35525969 0.0072927508
0.017356079 0.07672178 -0.031276915 0.84635705 0.32032323 0.42552656 0.0077957492
0.016568091 0.079590321 -0.03143299 0.82336581 0.33549476 0.45772475 0.0092303883
0.014320756 0.082913302 -0.030748213 0.67919135 0.34490481 0.64787328 0.00098813709
0.015743542 0.082238652 -0.032043464 0.77948672 0.31209442 0.54313678 0.0044006472
0.013664089 0.085576631 -0.031368066 0.75823802 0.28956932 0.58414441 0.0023162698
0.015237438 0.0842674 -0.032617431 0.78857774 0.35181376 0.50435323 0.0064873085
0.011748058 0.0889057 -0.030232355 0.82296652 0.23891349 0.51540899 0.0073576947
0.012808334 0.088406719 -0.03166844 0.78469664 0.36447275 0.50140882 0.012830872
0.011328982 0.091673769 -0.031265553 0.84096831 0.33781913 0.42267078 0.01385528
0.012334554 0.090412535 -0.032473914 0.80327195 0.48529434 0.34531656 0.0064897323
-0.036248922 0.065403841 -0.027848434 0.81537068 0.51017267 0.27366844 0.0012511555
-0.035848495 0.065396003 -0.029327488 0.83691615 0.50050133 0.22151694 0.0024817493
-0.037340578 0.067572452 -0.028510481 0.81929046 0.51568532 0.25066268 0.00078353821
-0.049505442 0.070947289 -0.02828419 -0.27810979 0.86424983 0.41919827 0.012086774
-0.042454313 0.071625419 -0.027324278 0.36139911 0.87139142 0.33176455 0.011763566
-0.040359311 0.070819117 -0.028392576 0.53470528 0.77211654 0.34340385 0.0036991781
-0.038709514 0.069504403 -0.028788188 0.69258744 0.6580264 0.29550639 0.0019173581
0.015961835 0.071695678 -0.02737111 0.84742385 0.22276568 0.4819214 0.01503129
-0.046447389 0.072875649 -0.028781351 -0.19988894 0.89241201 0.40453097 0.021778019
-0.043619387 0.072615802 -0.028548276 0.26740304 0.88899302 0.37173495 0.0057957429
-0.04154525 0.072018653 -0.029332545 0.49237421 0.79559416 0.35298395 0.0020244885
0.016906811 0.073957436 -0.02824939 0.83189374 0.28018886 0.47900632 0.015031193
0.014185851 0.077555016 -0.027279902 0.51535738 0.49227235 0.70148027 0.0043186732
0.016284231 0.07640586 -0.02842542 0.75905961 0.41498941 0.5016098 0.012443071
0.011644378 0.080504268 -0.027223177 0.51461816 0.36577779 0.77548355 0.0014785083
0.013720931 0.079660945 -0.028310701 0.55173057 0.39717567 0.73337907 0.0018159174
0.015613073 0.078669153 -0.029332349 0.72778004 0.3675341 0.57901204 0.013725751
0.011154882 0.082677551 -0.027718104 0.62211227 0.28381753 0.72967398 0.0020606501
0.01295982 0.082391523 -0.029119467 0.65055931 0.30864912 0.69390792 0.0024465092
0.010668722 0.085699566 -0.028283471 0.67638981 0.20606007 0.70713228 0.0016500932
0.012217931 0.085089102 -0.029595321 0.69048989 0.23964153 0.6824922 0.0025006405
0.010314555 0.088466637 -0.028405219 0.77449566 0.15705107 0.6127736 0.0037240405
0.010085828 0.091382824 -0.028411802 0.81003928 0.19719084 0.55222476 0.0071524484
0.0085440855 0.093310267 -0.027292315 0.81112051 0.20353939 0.54832035 0.0070757754
0.0096579194 0.093167953 -0.028866317 0.84327292 0.32355186 0.42919111 0.012309211
0.059466399 -0.0016479563 -0.025401421 0.70244151 0.37956795 -0.60208309 0.0011586759
-0.037013356 0.065115608 -0.025246199 0.76958865 0.5514251 0.32196835 0.0012135289
-0.039524652 0.068349056 -0.024921587 0.70603931 0.61193901 0.3564254 0.0011034828
-0.038173757 0.067219347 -0.025850516 0.74032915 0.58130676 0.33763173 0.0011179241
-0.046770889 0.071039043 -0.025313418 -0.19756515 0.87811059 0.43576324 0.0089273835
-0.043506227 0.071143918 -0.025455276 0.23992352 0.87493759 0.42061973 0.008557287
-0.040703963 0.069850758 -0.025747716 0.55240893 0.74095958 0.38186803 0.0041521052
0.015554212 0.071483672 -0.0247794 0.71995795 0.40551102 0.5632242 0.030700944
-0.045972735 0.072137326 -0.026875239 -0.071226031 0.92644989 0.36961815 0.018838558
0.011932888 0.074961856 -0.024049373 0.40645093 0.55299258 0.72732168 0.0014415596
0.014078556 0.074313037 -0.024643142 0.49808761 0.4941763 0.71252972 0.0071603754
0.015838986 0.073536776 -0.025718544 0.77003694 0.32815924 0.54713309 0.023445092
0.0085995011 0.077932447 -0.024260532 0.4852924 0.39161214 0.78174883 0.0048190244
0.010792477 0.07676819 -0.024808159 0.39443463 0.51361156 0.76198721 0.0013629277
0.013384913 0.076272316 -0.025829749 0.48789716 0.50480747 0.71212769 0.0033450376
0.015353193 0.075518183 -0.026538977 0.69109058 0.36360326 0.62464899 0.027018048
0.0080289869 0.079833359 -0.02461773 0.50263047 0.29193038 0.81371945 0.0018618826
0.010395532 0.079263978 -0.025899421 0.4852249 0.37172428 0.79144031 0.0028695983
0.012379726 0.078393817 -0.02668291 0.49202639 0.47727227 0.72809416 0.0023355361
0.0076237288 0.082547195 -0.024965027 0.58738607 0.1758215 0.78997743 0.0017650941
0.0096804202 0.082167976 -0.026428487 0.61026645 0.2137091 0.76282585 0.0020004865
0.0076339981 0.08553227 -0.025327861 0.7002601 -0.0025993183 0.71388316 0.0044304174
0.0092575094 0.084751986 -0.026725475 0.69955105 0.10764848 0.70642775 0.0029538497
0.0079545351 0.088599473 -0.02548909 0.79395312 -0.0077771307 0.60792929 0.0024411923
0.0079562012 0.091752522 -0.02548808 0.8041091 0.17521812 0.56807321 0.0067810621
0.0075782109 0.093110532 -0.026972279 0.80411154 0.17521757 0.56806999 0.006782298
0.064455554 -0.0050980304 -0.022202518 0.72147828 0.33487222 -0.60607719 0.0038259758
0.061816458 -0.0016513419 -0.023149619 0.6907351 0.39266843 -0.60720384 0.00072747847
0.063479997 -0.0024340758 -0.021682149 0.69460851 0.39413759 -0.60180938 0.00093200087
0.061574306 7.990226e-05 -0.022006761 0.6792084 0.41794935 -0.60331929 0.00035537031
0.056579802 0.011924678 -0.021581549 0.56797761 0.48746783 -0.66315651 0.00080394215
0.057572007 0.010864774 -0.021508273 0.58597022 0.51226252 -0.6278742 0.0015758602
0.05506362 0.013757395 -0.021184243 0.56938082 0.48712957 -0.66220111 0.00087667961
-0.010134177 0.0233474 -0.022008041 0.19511357 0.65204084 -0.73264831 0.0056496537
0.044026211 0.023301015 -0.021345364 0.39898551 0.67687684 -0.61858577 0.00011196514
0.036857285 0.026942695 -0.021434503 0.18013933 0.78321022 -0.5950895 0.0027275286
0.039838772 0.025527235 -0.021572949 0.35874224 0.70975918 -0.60625565 0.0015128795
-0.039062686 0.06566184 -0.021564327 0.72295678 0.5917573 0.35659051 0.00084203808
-0.037780873 0.064542308 -0.022418424 0.73872989 0.5776673 0.34724426 0.00044078621
-0.048489351 0.068409204 -0.02200059 -0.17311306 0.84704685 0.50253713 0.013912756
-0.042539556 0.068971418 -0.02163239 0.37822044 0.82575321 0.41842684 0.010406847
-0.04036421 0.067712478 -0.022488406 0.58726138 0.69782525 0.41007799 0.0035701825
-0.038713906 0.066391461 -0.023467721 0.70466214 0.6108166 0.36104611 0.0013048695
0.013148337 0.068674333 -0.021137873 0.56767964 0.44449794 0.69293678 0.01229402
-0.048086554 0.069534734 -0.023559047 -0.31768566 0.84038794 0.43911719 0.0063596214
-0.046019204 0.069756046 -0.022334022 -0.096107222 0.88676733 0.45211387 0.0088133877
-0.043595005 0.069853492 -0.022750204 0.26077455 0.88418502 0.38757372 0.011348546
-0.041577701 0.069396317 -0.023574959 0.49604806 0.74492091 0.44612691 0.0074634724
0.013786274 0.070900075 -0.0219783 0.54209089 0.50098926 0.67464596 0.014284302
0.015121921 0.071342833 -0.023555567 0.72784358 0.38660708 0.56637329 0.027698899
0.0076672407 0.074318498 -0.021634806 0.35492563 0.56309992 0.74628836 0.0020957713
0.010608446 0.073654443 -0.022299614 0.35429814 0.57011402 0.74124414 0.00096401956
0.013381083 0.073034354 -0.023090335 0.53424269 0.52782488 0.66029203 0.0078997137
0.0047773398 0.076773457 -0.021564098 0.48901081 0.34676799 0.80038762 0.0037216831
0.0074717849 0.076463096 -0.022876369 0.39879978 0.43853605 0.80538499 0.0032032519
0.0097907856 0.075596131 -0.023538912 0.38521832 0.52995449 0.75548339 0.002497378
0.0045002578 0.079427004 -0.022206498 0.54232234 0.21745279 0.81154227 0.0021767612
0.0066447724 0.079444014 -0.023629315 0.54443103 0.2209889 0.80917174 0.0025543661
0.0044354214 0.08239767 -0.022390822 0.70078522 -0.028088933 0.7128191 0.0056004007
0.0060062311 0.081431679 -0.023639651 0.60255611 0.12089981 0.7888658 0.0051996554
0.00485601 0.085162796 -0.022498673 0.75686854 -0.1224363 0.64199638 0.0028753616
0.0062554595 0.086730771 -0.023760116 0.73565573 -0.062688246 0.67444861 0.0033881448
0.0052995854 0.088079341 -0.021909442 0.71283644 -0.027461685 0.70079249 0.041107722
0.0064891372 0.088909693 -0.023306407 0.71840948 -0.023079762 0.69523746 0.028815147
0.0029539189 0.090554081 -0.02192661 0.65665013 0.10915295 0.7462548 0.038730063
0.0052337698 0.091173567 -0.022057012 0.70913458 0.078598976 0.70067847 0.039042614
0.0065393844 0.09112224 -0.023209661 0.75694799 0.13937913 0.63843811 0.037296452
0.066794381 -0.0073259436 -0.019539908 0.85667366 0.11971552 -0.50177515 0.0077334172
0.065900154 -0.0053891758 -0.020414526 0.80032754 0.2589474 -0.5407607 0.0038835006
0.066268019 -0.0057878583 -0.020002088 0.80030668 0.25895607 -0.54078722 0.0039105406
0.064820386 -0.0018752991 -0.019746201 0.70704049 0.37737402 -0.59806561 0.0014357045
0.066347316 -0.0023565199 -0.018405318 0.7390359 0.34904775 -0.57618719 0.0021185621
0.062717937 0.00025163873 -0.020549903 0.68409747 0.41908881 -0.59697169 0.0004207922
0.063879572 0.0004583117 -0.019066039 0.67761832 0.44461545 -0.58579051 0.00010791407
0.062691942 0.0069491123 -0.018698489 0.7919085 0.38125631 -0.47699526 0.0024146026
0.060907397 0.010057605 -0.019170089 0.69379526 0.41887906 -0.58582294 0.0031216415
0.05656616 0.013318581 -0.020406146 0.56797367 0.48746243 -0.6631639 0.00079162634
0.058667898 0.013199745 -0.018842816 0.57583278 0.50386637 -0.64384401 0.0013273896
0.06023984 0.012451624 -0.018002642 0.65501839 0.47094029 -0.59090275 0.004113547
0.055269107 0.017621584 -0.018449588 0.49013257 0.5546363 -0.67241997 0.0020560054
0.051820185 0.019621804 -0.018897865 0.52830124 0.61790484 -0.58231556 0.0016879532
0.046684995 0.023417821 -0.01966209 0.41176888 0.68282282 -0.6034894 0.00020724931
0.049765516 0.022436684 -0.018568819 0.50365013 0.61873472 -0.6029129 0.0027719955
-0.006053864 0.025682131 -0.018759517 0.16139045 0.72984791 -0.66428536 0.0077094561
-0.0046625794 0.02523474 -0.019315649 0.081915118 0.75190806 -0.65415901 0.0054764599
-0.0026951362 0.025303725 -0.019257268 0.045114387 0.81934518 -0.57152271 0.0042206929
0.03912669 0.026729727 -0.020795697 0.30755022 0.74994028 -0.58566409 0.0020834766
0.043398809 0.025641805 -0.019353172 0.39531183 0.68635404 -0.61044788 0.000204091
0.045383126 0.02463017 -0.019090835 0.40281788 0.68909276 -0.60240269 0.0002112123
-0.014319107 0.029645737 -0.01824755 0.22739616 0.81484276 -0.53321892 0.0046231872
-0.011014089 0.028168861 -0.018364131 0.35030159 0.74791807 -0.56383276 0.0010314896
0.032512408 0.029040888 -0.019311188 0.13267708 0.79833698 -0.58741379 0.00076356262
0.035123169 0.028949799 -0.019288102 0.16678153 0.79599357 -0.58187467 0.0014306736
0.037721019 0.028163875 -0.01965283 0.22685409 0.78604126 -0.57504469 0.0019795343
0.040417463 0.027931582 -0.018669432 0.33517155 0.73757231 -0.58621424 0.0010434036
-0.037675679 0.062504873 -0.019409362 0.70944089 0.60747027 0.35731426 0.00080305885
-0.039750826 0.065236636 -0.019432796 0.6956985 0.61683285 0.36813167 0.0010808773
-0.038372863 0.063807003 -0.019598303 0.70944214 0.60746098 0.35732764 0.0008294867
-0.049179312 0.067104697 -0.020703111 -0.28839108 0.83690989 0.46520138 0.0079728607
-0.046336375 0.068021066 -0.019289328 -0.25591692 0.83879602 0.48054948 0.010047344
-0.043338906 0.068075329 -0.019527026 0.28894302 0.8488301 0.4427183 0.010722397
-0.041188024 0.066851333 -0.019760838 0.59558594 0.68803883 0.41458407 0.0025685965
0.011439793 0.067726836 -0.018516501 0.50215459 0.58331418 0.6384241 0.018103871
0.012500976 0.068652056 -0.019768953 0.56811833 0.47418678 0.67259824 0.011753402
-0.045156892 0.069135897 -0.02079555 -0.10931593 0.90598547 0.40895039 0.023125969
0.0052064611 0.071621455 -0.018323466 0.29172206 0.67778379 0.67491281 0.0020226382
0.0075935945 0.071236841 -0.018837238 0.26477778 0.67986399 0.68386954 0.00094925682
0.010668986 0.070600241 -0.019354461 0.49708807 0.55017358 0.67097878 0.019837869
0.012715933 0.070233919 -0.020307001 0.56774968 0.44436535 0.69296438 0.012308205
0.0017784049 0.073950149 -0.018595681 0.43774194 0.45299551 0.77664471 0.0058602691
0.0044885804 0.073403135 -0.019496795 0.33112133 0.56667787 0.75447655 0.0024595661
0.0073493733 0.072867036 -0.020311998 0.31061277 0.59491605 0.74134648 0.0020381468
0.0099152233 0.072259068 -0.02072916 0.345662 0.66211879 0.66491842 0.003122088
-0.00046263402 0.076770559 -0.018272774 0.62299174 0.11690737 0.77344292 0.0097039137
0.0015300885 0.076496005 -0.01957665 0.51625615 0.28101733 0.80901724 0.0053190505
0.0039828769 0.075662695 -0.020661902 0.44595775 0.3648802 0.81730294 0.0069197481
-0.00053424586 0.07906834 -0.018289477 0.69260758 -0.11426087 0.71220726 0.0077081933
0.0013234491 0.079391733 -0.019874848 0.62147313 -0.030201627 0.78285307 0.012014756
-0.0001134975 0.081239052 -0.018100087 0.75082898 -0.20926565 0.62646925 0.0035089888
0.0015824942 0.082289219 -0.019613087 0.73255897 -0.23333852 0.6394611 0.0015596496
0.0022924442 0.085298695 -0.019128069 0.65018773 -0.083544709 0.75516629 0.047621306
0.0034673722 0.085748531 -0.02049415 0.75139225 -0.16745993 0.63825303 0.0038786328
-0.0013757095 0.087607279 -0.018347086 0.47661009 0.17347336 0.86182934 0.087912545
0.0019942508 0.088699676 -0.018749177 0.54854709 0.22175576 0.80617642 0.065001339
0.0038722509 0.088547647 -0.019941149 0.70487797 0.09073291 0.70350164 0.035458218
0.0027570159 0.090327978 -0.020307278 0.67763919 0.11783943 0.72589183 0.033875398
0.0042031687 0.090357669 -0.020593248 0.65665257 0.1091404 0.7462545 0.038729716
0.067238957 -0.027300989 -0.015182514 0.92101324 -0.15892595 -0.35563612 0.001006063
0.067604586 -0.021993333 -0.01619038 0.91702193 -0.10182562 -0.38561925 0.0026624065
0.067985274 -0.019092845 -0.015349095 0.90749758 -0.056699276 -0.41621312 0.0014770129
0.06833005 -0.012789771 -0.015169263 0.91898352 -0.082159467 -0.38564122 0.00044819879
0.067899436 -0.01026969 -0.016956262 0.89773762 -0.060334235 -0.43637922 0.0013410277
0.068466738 -0.0070747263 -0.016348483 0.89868712 0.014565683 -0.43834844 0.0019223372
0.068600148 -0.0041916515 -0.015803788 0.87373894 0.15325904 -0.46161893 0.0057051172
0.065728292 -0.00079131272 -0.017942093 0.72575331 0.37401727 -0.57740217 0.0025462157
0.067514077 -0.001434861 -0.016222483 0.80669034 0.3362498 -0.48599049 0.0040096743
0.065460697 0.0007921962 -0.017039616 0.7300027 0.35438541 -0.58438605 0.0049828682
0.066805989 0.00082847069 -0.01534699 0.83542192 0.29688394 -0.46252573 0.0031345179
0.065334156 0.0047316849 -0.015670512 0.82413071 0.26641625 -0.49983087 0.00059257174
0.064109139 0.0074155927 -0.016428476 0.81847036 0.35461459 -0.45205632 0.0017181517
0.062228296 0.010754547 -0.016902829 0.77725631 0.42675105 -0.46233764 0.0021196441
0.063292362 0.0098333778 -0.015883906 0.78179359 0.4230808 -0.4580408 0.0019089507
0.05952128 0.014802366 -0.016579414 0.70675397 0.48387396 -0.51610541 0.0017394886
0.061095495 0.013192086 -0.016089674 0.73431289 0.49591762 -0.46351948 0.0033645178
0.056819353 0.017251477 -0.017600579 0.58889848 0.51802754 -0.62035948 0.0020282422
0.058378316 0.016787788 -0.016342731 0.6377058 0.54698223 -0.54234833 0.0032861037
0.05316944 0.020442363 -0.017001353 0.53082162 0.61486137 -0.5832442 0.0019254882
0.05555163 0.019452343 -0.016385892 0.50145638 0.64042163 -0.58172297 0.0019628019
0.057603579 0.018727507 -0.015461439 0.57460612 0.61564577 -0.53926617 0.001578695
0.050517142 0.023354525 -0.016898511 0.54124963 0.61264825 -0.57594365 0.0020304259
0.051869262 0.022323966 -0.01637378 0.54546446 0.61157334 -0.57310247 0.0018337059
-0.0073941518 0.02679484 -0.017644193 0.28242174 0.80558026 -0.52084386 0.0060618175
0.00052621932 0.026510119 -0.017845087 -0.057124559 0.86306095 -0.50185901 0.0018530076
0.043301623 0.026954528 -0.017846415 0.39306122 0.7073167 -0.5875423 0.00075095985
0.046606287 0.026199996 -0.016481718 0.41640809 0.71523017 -0.5612933 0.00063076813
0.0492067 0.024871966 -0.016276313 0.48023194 0.68501115 -0.54784769 0.0012497987
-0.012686927 0.029802589 -0.017582092 0.30064636 0.79688591 -0.52400821 0.0029694638
-0.010291952 0.028509285 -0.017329093 0.36576957 0.74108064 -0.56303829 0.0010772891
-0.007588346 0.028890572 -0.015356425 0.34219041 0.76268613 -0.54883116 0.0021166112
-0.0051617026 0.027725875 -0.015830997 0.12037725 0.81108719 -0.5724045 0.0037488414
-0.0015118533 0.027627267 -0.0159976 -0.021328926 0.85315603 -0.52121973 0.001021842
0.0013171327 0.027654635 -0.016001893 -0.13103217 0.88013244 -0.45628655 0.0014221077
0.0040480942 0.02757935 -0.017075906 -0.14149292 0.88502485 -0.44352078 0.0013394305
0.0072722291 0.028842052 -0.015592268 -0.16189253 0.89294529 -0.42004704 0.00066219305
0.034603652 0.029896444 -0.017828396 0.13264275 0.7983346 -0.5874247 0.00076594506
0.037714947 0.029438354 -0.017726894 0.21563323 0.80020052 -0.55962622 0.00072332023
0.040481046 0.029364258 -0.01648538 0.3109051 0.79303491 -0.52386409 0.0007094387
0.043076362 0.028119341 -0.016516451 0.38788316 0.74704653 -0.53987783 0.00049465173
0.046441201 0.027435232 -0.01507377 0.42031577 0.7521053 -0.50761431 0.00073109881
-0.018913064 0.031895436 -0.015966473 0.099406786 0.88902152 -0.44694415 0.0032391031
-0.016440189 0.03172268 -0.015949747 0.14420375 0.86754423 -0.47599617 0.0014642128
-0.013549168 0.031107731 -0.015990067 0.26580834 0.81247813 -0.51886922 0.0039609671
-0.011358513 0.030123148 -0.016234884 0.33297265 0.78987765 -0.5149976 0.0024457099
0.020751365 0.032431714 -0.015566511 -0.028056992 0.86992562 -0.49238434 0.0090855779
0.022881065 0.032167085 -0.015672144 0.0095664458 0.85929203 -0.51139581 0.0056513837
0.024452699 0.030117536 -0.017482404 0.004070736 0.82575202 -0.56401867 0.0030014385
0.031410642 0.032250807 -0.015398841 0.035009041 0.82034588 -0.57079512 0.0016058841
0.035268895 0.031674556 -0.015446575 0.17635636 0.80942237 -0.56011957 0.00095785753
0.037309378 0.030572494 -0.016031194 0.24364334 0.80450046 -0.5416798 0.0011887171
-0.03950442 0.062726326 -0.015762139 0.67206454 0.64522231 0.36334199 0.0016658824
-0.038506087 0.061982956 -0.01673574 0.71195531 0.60011375 0.36466849 0.0007124879
-0.048619572 0.065185979 -0.016809564 -0.15567231 0.87485975 0.45867908 0.011178794
-0.046822362 0.065796562 -0.015645642 -0.0099717211 0.89897466 0.43788722 0.015448672
-0.042678252 0.065534696 -0.015538835 0.31925976 0.80540037 0.49940309 0.024696842
-0.040630184 0.06445802 -0.016606778 0.62397701 0.67785585 0.38879836 0.0032188573
-0.038939029 0.063292824 -0.017599639 0.69340336 0.61827809 0.37003249 0.0009763522
0.0072729881 0.065057203 -0.015401616 0.45014918 0.36602429 0.81448877 0.038859144
-0.04627138 0.066619314 -0.016728939 -0.01540333 0.84751946 0.53054082 0.017827662
-0.043613333 0.066621006 -0.016778028 0.2234367 0.85454607 0.46885723 0.014203119
-0.041803651 0.066086709 -0.017553575 0.58635938 0.70345283 0.40166757 0.0021607182
0.0056223157 0.06882067 -0.015170642 0.47299027 0.55596977 0.6835041 0.05379435
0.0080453046 0.068102792 -0.015489183 0.44395158 0.36253002 0.81943822 0.038343992
0.0099616209 0.067719288 -0.016669475 0.5479753 0.34215203 0.76331848 0.025302684
-0.0010407027 0.071461424 -0.015491128 0.37929526 0.57503802 0.72489071 0.0046847183
0.0016872523 0.070861921 -0.016118476 0.29175708 0.65462768 0.69738102 0.0033203282
0.0043926062 0.070294023 -0.016608329 0.24445134 0.72354567 0.6455425 0.0017877321
0.0073757884 0.069767974 -0.017003424 0.29054105 0.71345693 0.63762462 0.0032200995
0.0099055246 0.069320336 -0.017509563 0.45165676 0.59012407 0.6691485 0.011723804
-0.0036053429 0.073972061 -0.015428509 0.60630018 0.20080487 0.76946568 0.014902674
-0.0014537626 0.073511109 -0.016577935 0.46673599 0.37600678 0.80048513 0.007741957
0.00098561868 0.072746836 -0.017442085 0.36895898 0.48772103 0.79120004 0.0066136238
-0.003697667 0.076259755 -0.015569664 0.69401944 -0.072951995 0.71625072 0.011829688
-0.0019118517 0.076357715 -0.017120559 0.6623978 0.022788551 0.74880564 0.0056748348
-0.0032240401 0.078316055 -0.015421918 0.74580377 -0.21605152 0.63015741 0.004803834
-0.0018365664 0.079542704 -0.016608659 0.74687564 -0.20885736 0.63131231 0.0049851472
-0.0082344748 0.083289571 -0.016377563 -0.31894678 0.84369975 0.43179119 0.0083480813
-0.00089414499 0.082488656 -0.016238853 0.75923508 -0.22598621 0.61032146 0.0032454769
0.00033525808 0.083213851 -0.017577514 0.7466262 -0.23242952 0.62331837 0.0028059199
-0.0064073908 0.084196396 -0.015408778 -0.22216919 0.78880405 0.57308722 0.028826332
-0.0045882305 0.085271671 -0.016026 -0.28162482 0.74727762 0.60188347 0.023999183
-0.00092398858 0.085816443 -0.015633417 0.6626718 0.15795413 0.73206323 0.056803003
0.00091604627 0.085758589 -0.017162126 0.6653285 0.095951334 0.74035895 0.057795655
-0.0010449255 0.087240309 -0.01663929 0.47660381 0.17348585 0.86183029 0.087919846
0.00084794313 0.087815024 -0.017375346 0.60464489 0.16552384 0.77910614 0.050975699
0.067055956 -0.028778637 -0.014526628 0.92475373 -0.15942581 -0.34556317 0.0012720546
0.068506919 -0.025060438 -0.012801075 0.92475522 -0.15942994 -0.34555727 0.0012747643
0.068703726 -0.022509303 -0.013823852 0.92502147 -0.14068437 -0.35290688 0.0023032813
0.069240153 -0.019844346 -0.012823243 0.92172974 -0.084566683 -0.37850067 0.0027061801
0.06847436 -0.016062157 -0.014355787 0.90354091 -0.036341947 -0.42695796 0.00039154408
0.069433607 -0.012843674 -0.012750419 0.91843611 -0.053789314 -0.39189509 0.0012978908
0.069485292 -0.010234968 -0.013394312 0.92472482 -0.07050968 -0.37404871 0.00071206799
0.068941526 -0.0089309858 -0.014949818 0.93059194 -0.043709364 -0.36343929 0.0013457868
0.06975095 -0.0074039036 -0.013114484 0.94064748 0.029752659 -0.3380785 0.001715273
0.069531098 -0.0044502052 -0.01305839 0.93010491 0.14762507 -0.33632076 0.0022495559
0.068586685 -0.0014423806 -0.013660181 0.88178766 0.29223716 -0.37019995 0.0011626811
0.069203593 -0.0025445193 -0.012768232 0.89764309 0.27126029 -0.3473537 0.00043667018
0.067674451 0.0013545923 -0.013422634 0.87835944 0.2833783 -0.38494352 0.00068481499
0.066666342 0.004495936 -0.013422606 0.85835224 0.29159603 -0.42214119 0.00094469573
0.065424152 0.0078980094 -0.013634528 0.83136541 0.39107066 -0.39483562 0.0037950708
0.0663068 0.0068942942 -0.012658145 0.83670002 0.3595612 -0.41309664 0.0019083694
0.062839068 0.011446875 -0.014895859 0.78768682 0.46349072 -0.40586433 0.0014469745
0.064007245 0.01032591 -0.013413074 0.81610334 0.45542184 -0.35576171 0.0010161968
0.062105317 0.013509553 -0.01376321 0.79002547 0.47695222 -0.38519648 0.0016758001
0.063179627 0.012586627 -0.012319781 0.81673992 0.4554998 -0.35419744 0.00066792453
0.059637431 0.017117744 -0.014486027 0.70330906 0.51645374 -0.48849958 0.0021195982
0.060891524 0.016325245 -0.013034661 0.76316285 0.50253314 -0.4062548 0.0014919154
0.056628387 0.020296786 -0.014475876 0.54718792 0.63195306 -0.54883569 0.0025497072
0.058481771 0.019231981 -0.013411774 0.68444651 0.60383582 -0.40855256 0.0019801108
0.052965134 0.023238754 -0.014289024 0.55236137 0.64734018 -0.52521199 0.0017814136
0.055495188 0.022027133 -0.013342989 0.57339573 0.66140026 -0.4834947 0.00092636992
0.057483975 0.021011449 -0.012359232 0.64309758 0.6531505 -0.39977494 0.00072815095
0.050009519 0.026209313 -0.013624494 0.51328105 0.71844774 -0.46944153 0.00080598897
0.052228082 0.024832314 -0.013196804 0.5378781 0.69125277 -0.48255232 0.0015113954
0.054150298 0.024122557 -0.012108634 0.5631668 0.69962144 -0.43974185 0.00087720348
-0.0067618792 0.029349977 -0.013857084 0.36381298 0.80578083 -0.4672873 0.0052278265
-0.0046486473 0.029019302 -0.013330913 0.16891828 0.91166532 -0.3746103 0.0060664681
-0.0013052084 0.028877366 -0.013312791 -0.02719133 0.92938226 -0.36811575 0.00282369
0.0021040849 0.02921921 -0.013187978 -0.1447362 0.90029866 -0.4105044 0.0017195706
0.0054612118 0.029510688 -0.014059259 -0.16189259 0.89293694 -0.42006472 0.0006734237
0.043785632 0.02953643 -0.014074825 0.37956282 0.78350699 -0.49198461 0.00092574646
0.046159033 0.028623272 -0.013426043 0.43280438 0.76656079 -0.47441012 0.0007471352
0.048759658 0.027422523 -0.012913803 0.47365028 0.74872357 -0.46375462 0.00072115898
-0.01937657 0.032716803 -0.01447642 0.11412685 0.91884726 -0.37774962 0.0022065395
-0.016102765 0.032605566 -0.013957632 0.14594956 0.91674316 -0.37186125 0.0012911781
-0.01355991 0.032314323 -0.013422268 0.22880813 0.89438075 -0.38435647 0.0010912786
-0.010554716 0.03134267 -0.013755317 0.33612055 0.85170037 -0.40203157 0.0014387522
-0.0077891992 0.030421419 -0.01289629 0.35741076 0.8412441 -0.40566733 0.0015379358
0.0056139054 0.030293567 -0.012416326 -0.15869994 0.91374862 -0.37400237 0.0010825221
0.0082658529 0.030399587 -0.013025723 -0.2103506 0.89758527 -0.38741866 0.0019000064
0.026050108 0.032749087 -0.014068813 0.011494319 0.84103 -0.54086637 0.0033384834
0.028737849 0.032612033 -0.014484145 -0.049800288 0.84218472 -0.53688431 0.0012678435
0.034707151 0.032823082 -0.014047386 0.17732334 0.81997097 -0.5442462 0.0015888981
0.03789974 0.032180499 -0.013458168 0.27841461 0.81550944 -0.5073753 0.000426985
0.04082964 0.031007849 -0.013482423 0.31268576 0.81099719 -0.49448061 0.00052128016
0.043560646 0.030519625 -0.012489807 0.38312414 0.80070704 -0.46052587 0.00067113334
-0.022139387 0.033457063 -0.012826914 0.39729157 0.86354613 -0.31055978 0.019599654
-0.019236421 0.033426285 -0.012887099 0.11413451 0.91884893 -0.37774321 0.0022220339
-0.016997989 0.033266395 -0.012615887 0.13034418 0.92577767 -0.35488895 0.0011895505
0.018587451 0.033375349 -0.013018568 -0.16144137 0.90851706 -0.3854003 0.0027551039
0.021850713 0.03360229 -0.013320729 -0.037792243 0.90790838 -0.41746148 0.0033188753
0.024863536 0.033635762 -0.012906283 0.020607166 0.88012493 -0.47429478 0.00089891895
0.029691156 0.033998698 -0.012353023 -0.021863168 0.8732537 -0.48677513 0.00065117219
0.032215662 0.033506587 -0.013423727 0.037636306 0.86336768 -0.50316966 0.0016809548
0.034321751 0.033669777 -0.01264038 0.15679418 0.86033273 -0.48501876 0.0016373307
0.03710879 0.033215187 -0.012242639 0.26350367 0.8343305 -0.48420912 0.00077740569
-0.025797542 0.037044983 -0.012084495 0.69977218 0.45923689 -0.54719323 0.010605426
-0.039976154 0.061881065 -0.01333674 0.6432513 0.69623041 0.31857663 0.0033739342
-0.03885676 0.060826588 -0.013922201 0.69199467 0.6509794 0.31204048 0.002199142
0.0016313086 0.062765568 -0.012059927 0.54450452 -0.35201755 0.76131362 0.025594188
-0.046103101 0.064866796 -0.013543804 -0.076781593 0.90991801 0.40761963 0.0086480165
-0.043177359 0.064555116 -0.013431393 0.38861454 0.8021307 0.45339286 0.015011825
-0.041259132 0.06347803 -0.013912769 0.61946726 0.69142431 0.37174287 0.0043132049
0.0048606168 0.064757362 -0.012828574 0.6021077 -0.17575437 0.77883029 0.027809717
0.0065942244 0.065232463 -0.014247947 0.59296393 0.34332827 0.72836769 0.050433997
-0.0030996564 0.068888567 -0.012211552 0.25127259 0.74562407 0.61717641 0.0074922652
-0.0013211273 0.068694152 -0.012538925 0.19804123 0.77688563 0.59768587 0.0035886462
0.0016111959 0.068428405 -0.013093664 0.22633339 0.78871727 0.57157522 0.0011027309
0.0046020858 0.067768224 -0.013294995 0.37180671 0.5651409 0.73646152 0.042710811
0.0071088979 0.067228667 -0.014033859 0.45016828 0.36597177 0.81450182 0.038865123
-0.0066775228 0.071216859 -0.012416418 0.49556667 0.36638638 0.78751171 0.019512314
-0.004513822 0.07064534 -0.0132153 0.3543658 0.51688266 0.77926707 0.0089974627
-0.0016916769 0.070127115 -0.013955116 0.26246312 0.65023166 0.71295995 0.0030230964
0.0011534831 0.069474831 -0.014380108 0.24044523 0.77183211 0.58860964 0.0019853693
0.004060538 0.069046684 -0.014953823 0.2497433 0.7520678 0.6099363 0.00061418262
-0.0067318338 0.073328353 -0.012848102 0.71672118 -0.015678396 0.69718367 0.017062677
-0.0047148545 0.073210709 -0.014355263 0.57565135 0.15510078 0.80285078 0.015280151
-0.0062984833 0.07558693 -0.012650118 0.75236052 -0.14541523 0.64250141 0.0078293532
-0.0050598094 0.076656625 -0.013745643 0.75197375 -0.20609869 0.62614602 0.0075811404
-0.012791974 0.080191471 -0.012791974 -0.31562811 0.82270122 0.47280183 0.0021346272
-0.011696948 0.080812924 -0.013059502 -0.32596418 0.81505418 0.47899276 0.0022157645
-0.0040439614 0.079513274 -0.013474102 0.77830088 -0.21901101 0.58845717 0.0029246123
-0.0028705103 0.080460742 -0.014561741 0.7679258 -0.11882267 0.62942129 0.015257002
-0.010103255 0.081614733 -0.013272283 -0.26476058 0.82612193 0.49741772 0.016719999
-0.0073684808 0.08287435 -0.013219424 -0.20884237 0.77973831 0.59024829 0.041324954
-0.0042509343 0.082675971 -0.012691025 0.47358176 0.14206199 0.86921734 0.054101173
-0.0023075568 0.082935594 -0.01419884 0.61317784 0.14019781 0.77740437 0.07558202
-0.0038439103 0.084709346 -0.014018469 0.12699127 0.67763656 0.72434932 0.083765268
-0.0020076626 0.085040443 -0.014501331 0.56224054 0.21475323 0.79860288 0.075345129
0.068484366 -0.026885472 -0.011468858 0.92475557 -0.15942623 -0.34555802 0.0012749783
0.06947121 -0.024463005 -0.0099569038 0.92096585 -0.1576394 -0.35633081 0.0016188738
0.06959042 -0.022391543 -0.010954776 0.93171757 -0.14913541 -0.3311508 0.0012938268
0.070275962 -0.01950185 -0.010444574 0.92840564 -0.12478232 -0.34998894 0.0016669253
0.070590213 -0.016557546 -0.010384281 0.9261567 -0.03055381 -0.37589923 0.0012835535
0.070467882 -0.013438378 -0.010495015 0.92638332 -0.0092480723 -0.37646824 0.0025687404
0.070280895 -0.010393252 -0.010865759 0.94886714 -0.022574419 -0.31486738 0.0016462938
0.070840053 -0.007751029 -0.010007133 0.95379686 -0.021646194 -0.2996715 0.0010112814
0.070724085 -0.0042512887 -0.010054561 0.9389081 0.13155195 -0.3180339 0.0026226086
0.06894999 -0.0005003952 -0.011803164 0.88172752 0.2693153 -0.38733178 0.0007958308
0.06989871 -0.0013280737 -0.010284161 0.91076058 0.24926074 -0.32921767 0.00050565577
0.068579495 0.0018047544 -0.010959391 0.88859737 0.27164665 -0.36959812 0.00044170569
0.069304988 0.0013419595 -0.0096051907 0.90072709 0.25783181 -0.34959039 0.00048536173
0.068142742 0.0043776939 -0.010511041 0.8886587 0.27606556 -0.36616048 0.00052505697
0.065575197 0.0089685172 -0.0117974 0.8034519 0.48371246 -0.34711277 0.00051155046
0.066991188 0.0074748537 -0.010555731 0.84029478 0.39421678 -0.37215304 0.0028759185
0.06476707 0.010812735 -0.010659203 0.80315727 0.47101781 -0.36480212 0.00072141393
0.066391096 0.0093242656 -0.0097369384 0.80025715 0.48069882 -0.35849279 0.00084605534
0.062748589 0.014339893 -0.011311114 0.82687819 0.46052334 -0.32278585 0.00036074538
0.063670769 0.01334615 -0.010195425 0.82501727 0.45566872 -0.33423406 0.00021273849
0.061876837 0.016393179 -0.010414911 0.81497443 0.48740035 -0.31346062 0.0004486455
0.059228946 0.019992536 -0.010742774 0.73026377 0.58073348 -0.35981026 0.0014965223
0.060605276 0.018624859 -0.0099733872 0.75599605 0.56607109 -0.32868445 0.00090932613
0.056042317 0.023379644 -0.010608421 0.61348212 0.70444995 -0.35691741 0.00089814293
0.057628259 0.022025922 -0.010317799 0.64638525 0.66739756 -0.36981964 0.00084749225
0.052589212 0.026049882 -0.01067507 0.54657865 0.75563288 -0.36093041 0.00076737173
0.054613601 0.02480449 -0.010077843 0.5821768 0.73592782 -0.3456594 0.000767752
-0.0037646955 0.02982603 -0.010800086 0.18075985 0.93283069 -0.31169325 0.0044600903
-0.0017329812 0.029731667 -0.010725963 -0.017543672 0.9591704 -0.28228429 0.0023898922
0.0018118954 0.029811194 -0.011533335 -0.14410245 0.93863291 -0.31337315 0.00083796959
0.047108516 0.029522067 -0.010822964 0.45608127 0.79496557 -0.40002462 0.00042497736
0.049413141 0.028377229 -0.010393821 0.51074338 0.77529222 -0.37156844 0.00064917112
0.051284105 0.0273463 -0.0099857813 0.53951687 0.75713801 -0.3683255 0.00090512849
-0.013267533 0.03296677 -0.011331622 0.20032017 0.93213129 -0.30166733 0.00061509502
-0.01037037 0.032496251 -0.010545901 0.30734226 0.89788955 -0.31517461 0.0011335714
-0.0075664134 0.031318162 -0.01045232 0.35768703 0.87603813 -0.32344568 0.0016440131
-0.0047273231 0.03035295 -0.0098400665 0.23874007 0.91694409 -0.3197135 0.003698854
-0.0015941614 0.030123256 -0.009227925 -0.011210402 0.95059568 -0.31022924 0.0029707733
0.0013630326 0.030258894 -0.010054092 -0.14523759 0.93985677 -0.30915254 0.00075239479
0.004895763 0.030926263 -0.010247034 -0.17473938 0.92619139 -0.33411917 0.00031268509
0.0079893693 0.03143587 -0.01038053 -0.23793049 0.91155404 -0.33534786 0.00063416589
0.013564447 0.032742307 -0.011196837 -0.25729015 0.91134608 -0.32132557 0.0004155552
0.040442474 0.032484628 -0.011375283 0.33584139 0.82794738 -0.44912553 0.00040441231
0.04345604 0.031692784 -0.01037198 0.39062262 0.81212014 -0.43344527 0.000534183
0.046051193 0.030599702 -0.0099590439 0.45790914 0.79301947 -0.40179518 0.00042822913
-0.022382626 0.034951821 -0.01047771 0.49547201 0.7625972 -0.41587618 0.021183057
-0.019567324 0.034144785 -0.010667077 0.16618752 0.93304455 -0.31907624 0.0037512295
-0.016658507 0.03379057 -0.010407696 0.15054475 0.95192635 -0.26678181 0.0002347249
-0.013613681 0.033367101 -0.010299052 0.1785145 0.94992465 -0.25646782 0.0005190011
-0.011144986 0.033157114 -0.009220182 0.29385343 0.92032921 -0.25815573 0.0015147245
0.013260657 0.033321634 -0.0095733572 -0.24973179 0.91958576 -0.30330861 0.00033747239
0.017616643 0.034203064 -0.010168674 -0.19094639 0.93215114 -0.30762574 0.00065210677
0.020169932 0.034582417 -0.010468485 -0.10058468 0.9365716 -0.33573231 0.0021156468
0.022861632 0.034748044 -0.010704076 -0.07967291 0.93070656 -0.35698378 0.0014215275
0.025326991 0.034911066 -0.010392729 -0.06467966 0.90483516 -0.42082039 0.0024596588
0.028746136 0.034788843 -0.010783351 -0.033879478 0.88816607 -0.45827198 0.00078716537
0.031387374 0.034964763 -0.01063191 0.049562279 0.90522385 -0.42203468 0.00062680547
0.034468275 0.034723368 -0.010466886 0.14430422 0.89771378 -0.41627678 0.00059315551
0.037633885 0.034091175 -0.010263735 0.24915504 0.8698954 -0.4256804 0.00053658773
0.040391885 0.033327326 -0.0099156257 0.33333775 0.84039485 -0.42734346 0.00063117995
-0.024680624 0.037132371 -0.011007701 0.68006653 0.47783962 -0.55603844 0.010587887
-0.023584811 0.037594575 -0.0096396254 0.71185511 0.39874139 -0.57815886 0.0042527821
-0.025475644 0.040207878 -0.010394472 0.70157504 0.37307721 -0.60712916 0.0014956361
-0.028316516 0.044011187 -0.010814663 0.70487887 0.32985225 -0.6279676 0.0034616145
-0.02600231 0.042301588 -0.0095134508 0.69882321 0.34023857 -0.62919295 0.0041110553
-0.039015185 0.059859011 -0.010067507 0.49191403 0.86221242 0.12087363 0.0098669864
-0.0065917606 0.059072889 -0.0098292921 0.5164361 -0.569408 0.63958442 0.0032670721
-0.048606548 0.061951563 -0.0096538849 -0.1781542 0.92404413 0.3382358 0.011307602
-0.046506278 0.062832549 -0.0091810795 -0.13747612 0.95477313 0.26364484 0.013762879
-0.042793423 0.062676132 -0.0099502299 0.273927 0.88448781 0.37768403 0.012210399
-0.040491693 0.061329745 -0.010644706 0.5773744 0.79053885 0.2041744 0.0089554368
-0.038885035 0.060044114 -0.011816789 0.61059952 0.75682491 0.23320419 0.0090873176
-0.0037590121 0.060725402 -0.010198233 0.45622298 -0.55327833 0.69695318 0.0043933694
-0.0014881626 0.062478025 -0.0097139757 0.45177734 -0.48345903 0.7497763 0.017941441
0.00074424205 0.062785119 -0.011120278 0.56145728 -0.36193913 0.74415439 0.026479952
-0.046066582 0.063465931 -0.010595135 -0.083683223 0.90903473 0.40823162 0.011087963
-0.04383976 0.063557811 -0.010946672 0.27594882 0.88406807 0.37719482 0.012429453
-0.00051315658 0.06376636 -0.0091632064 0.62247849 -0.048226912 0.78114963 0.084407978
0.0016770002 0.064937524 -0.0099887569 0.53785568 -0.27728537 0.7961306 0.032649394
0.0037248309 0.06489744 -0.011508254 0.60882306 -0.21574096 0.76340705 0.033969216
-0.0096234996 0.068476014 -0.009256932 0.50187594 0.43885213 0.74533844 0.025720738
-0.0073296484 0.06813813 -0.0099507766 0.27602065 0.6647191 0.69423413 0.012293209
-0.0045675323 0.06782826 -0.01047423 0.22064368 0.76627994 0.60343313 0.0070104767
-0.0014451426 0.06751892 -0.010488077 0.24626687 0.74451107 0.62052882 0.012392473
0.001332653 0.067045875 -0.010671295 0.33106366 0.61881351 0.71236694 0.035628185
0.0037651877 0.066544257 -0.011307582 0.48984972 0.14634301 0.85943639 0.067964874
-0.009729092 0.0704685 -0.0097995289 0.72063023 0.056158781 0.69104141 0.020347826
-0.0078249117 0.070265181 -0.011176244 0.59501302 0.20075734 0.77823901 0.020722931
-0.0051624766 0.069232553 -0.011856955 0.26443768 0.684412 0.67945039 0.0073169153
-0.0092756283 0.073175848 -0.0095035639 0.75299489 -0.1863078 0.63110065 0.0061418796
-0.0081709716 0.073693112 -0.010900788 0.77472287 -0.16130604 0.61137938 0.0073974016
-0.018607985 0.075860329 -0.0094239125 -0.37925437 0.79913265 0.46642572 0.00081144902
-0.016694255 0.077071883 -0.0098310458 -0.32998434 0.80824888 0.48769268 0.0011842757
-0.014975469 0.077755935 -0.0095060086 -0.30391684 0.79836905 0.51984745 0.0034199553
-0.0073741097 0.076428711 -0.010407991 0.71674567 -0.19547173 0.66937768 0.014527265
-0.0056735459 0.077949345 -0.01199296 0.74174446 -0.13865258 0.65619403 0.022633787
-0.01345407 0.078896314 -0.010476865 -0.3142747 0.81115103 0.49321944 0.0024510333
-0.01043201 0.079864293 -0.01015307 -0.14806113 0.82928586 0.53885335 0.013441786
-0.0071691065 0.079508848 -0.010170202 0.39467838 0.2711263 0.87790632 0.064088807
-0.0054746522 0.079855986 -0.011433344 0.67024714 0.053571705 0.74020183 0.074196577
-0.0095661134 0.081028871 -0.011372148 -0.25981876 0.75921863 0.59672546 0.016196851
-0.0073473854 0.08152324 -0.011200684 -0.04608997 0.71359658 0.6990391 0.023099208
-0.0052264147 0.081565619 -0.011656668 0.54253149 0.19035402 0.8181839 0.062426616
0.070374168 -0.0257094 -0.0079433797 0.69807315 0.32998967 -0.63545328 0.049451638
0.077390999 -0.025118945 -0.0064086551 0.11068349 0.77166533 -0.626324 0.0040982123
0.070097074 -0.022590304 -0.0089578088 0.92838115 -0.1325222 -0.34719786 0.0015408284
0.07129769 -0.019174295 -0.0074073561 0.94222927 -0.091572486 -0.32220864 0.0020220876
0.071589023 -0.016428534 -0.0074019982 0.95504886 -0.023641953 -0.29550421 0.00086537824
0.071484029 -0.01343226 -0.0077565089 0.95980668 0.056049503 -0.27500823 0.0005454176
0.071045622 -0.010985409 -0.0078571858 0.96904385 0.016890865 -0.24631037 0.0018463404
0.071388043 -0.0073155304 -0.0074392348 0.97696722 -0.025802525 -0.21182366 0.00070705952
0.071325339 -0.0042374134 -0.0077742836 0.97210264 0.091165856 -0.21611403 0.0022597793
0.070933662 -0.0014541455 -0.0073020235 0.93602318 0.229867 -0.26649919 0.0015149973
0.070059262 0.0012962394 -0.0075601088 0.92855364 0.25647691 -0.26834267 0.001041
0.068699576 0.0053414782 -0.008355706 0.91597927 0.28436947 -0.28304785 0.0013230672
0.069367558 0.004197163 -0.0069486056 0.92472118 0.2873795 -0.24960703 0.00073470949
0.068104193 0.0076529421 -0.007565402 0.89221227 0.36147067 -0.27073288 0.0010943169
0.065613821 0.011172136 -0.0084804911 0.80860215 0.48958632 -0.32629406 0.0010448421
0.066831961 0.010424087 -0.0072658947 0.82628673 0.47307739 -0.3056927 0.001834737
0.064637966 0.013607981 -0.0074859187 0.81107533 0.49744922 -0.30773544 0.0012477415
0.062248759 0.017213071 -0.0078175208 0.80621505 0.53390819 -0.25487128 0.0002794828
0.063393228 0.016021391 -0.0069746887 0.81059551 0.51952738 -0.27023381 0.00063176511
0.059541985 0.020700773 -0.0089027891 0.74471354 0.60428679 -0.28326541 0.0014303108
0.060933266 0.019500067 -0.00734318 0.78424764 0.56939298 -0.24646966 0.00041314709
0.056975413 0.023841746 -0.0077560549 0.64817446 0.71654284 -0.25775212 0.00084424106
0.058471475 0.022552753 -0.0074090133 0.69442719 0.67344981 -0.25344872 0.0012472444
0.053425774 0.026592128 -0.0076738023 0.58729988 0.76603681 -0.26127848 0.00018134026
0.055524025 0.025089851 -0.0074234279 0.6057179 0.75431317 -0.25321448 0.0003538336
0.049951281 0.029179813 -0.0078302836 0.54292881 0.78450954 -0.29962161 0.0013500297
0.052043669 0.027737126 -0.007331037 0.58088917 0.76519263 -0.27757511 0.00042696908
-0.0093694348 0.032871358 -0.0079313423 0.31886184 0.92439145 -0.20935012 0.0015789053
-0.0074272952 0.032239415 -0.0071888142 0.36850336 0.90198606 -0.22500332 0.00037010119
-0.0047656191 0.031063013 -0.0073699607 0.24006276 0.93646926 -0.2557247 0.0032205235
-0.0016422221 0.03072346 -0.0071895872 -0.007299908 0.96631038 -0.257276 0.0033773035
0.0012821024 0.031050572 -0.0074314801 -0.16405764 0.94964743 -0.26693609 0.00070445135
0.0041128709 0.031615589 -0.0074370825 -0.19432323 0.94085801 -0.27753332 0.00037651288
0.0068460829 0.032102846 -0.007712692 -0.21837626 0.93144745 -0.29106277 0.00056630239
0.044233304 0.03248382 -0.0081173228 0.41970372 0.85265636 -0.31116846 0.0016345885
0.046502851 0.031605314 -0.0073547731 0.4810155 0.82381219 -0.29992929 0.001287846
0.048809133 0.030408209 -0.0067469464 0.53081578 0.79824454 -0.28467578 0.0014072387
-0.021497101 0.035338875 -0.0088585671 0.56073135 0.68509966 -0.4649933 0.01071767
-0.019462422 0.035046361 -0.0075782733 0.35327685 0.87223768 -0.33822605 0.019904682
-0.016487584 0.034459028 -0.0074790111 0.23875967 0.9430173 -0.23175913 0.0077262442
-0.013439541 0.034070514 -0.007380601 0.19060554 0.96448612 -0.18285552 0.00071731361
-0.0107424 0.03346495 -0.0072265258 0.25434965 0.94978034 -0.18227357 0.001386008
-0.0088880332 0.033097282 -0.0060211415 0.34921303 0.92253429 -0.16425818 0.00083168002
0.011187987 0.03355594 -0.0069669518 -0.25862747 0.92231166 -0.2871463 0.00024388252
0.013329701 0.033908263 -0.0077232891 -0.23171476 0.93435246 -0.2707282 0.00028961513
0.016153041 0.034562387 -0.0078893425 -0.2124088 0.93943805 -0.26895839 0.00047905487
0.019203681 0.03533151 -0.0074581364 -0.15643221 0.95256907 -0.26103857 0.00047423222
0.02182978 0.035724815 -0.0074698254 -0.11353005 0.95189285 -0.28462422 0.0011752411
0.025124811 0.035790771 -0.0083304802 -0.057496421 0.9414764 -0.33213887 0.001484197
0.02852208 0.03586239 -0.0087298546 -0.022818588 0.93407226 -0.35635406 0.0010724793
0.030991588 0.0357747 -0.008860819 0.050826434 0.9132216 -0.40428072 0.00098879228
0.034643169 0.0356723 -0.0082197385 0.1538212 0.92878467 -0.33719143 0.0012246066
0.037788872 0.035289664 -0.0074204882 0.25009385 0.90949756 -0.33206525 0.00090808439
0.040515192 0.03439701 -0.0074830232 0.33807635 0.88045734 -0.33241427 0.0014038701
0.043199234 0.033420552 -0.007036543 0.40573561 0.86460918 -0.29636052 0.0015171547
-0.022112465 0.037540499 -0.0075846221 0.75851458 0.47187689 -0.44943058 0.0097157964
-0.020746615 0.036708765 -0.006252693 0.72786587 0.52823168 -0.43724427 0.0077277496
0.023708094 0.036291361 -0.0063586039 -0.11322237 0.95205891 -0.28419113 0.0012019334
0.025737923 0.036303483 -0.0069982233 -0.083017036 0.95415074 -0.28758368 0.0010482253
0.028854782 0.036488567 -0.0069905156 -0.02176222 0.95240718 -0.30405092 0.0018777492
0.031685378 0.036378954 -0.0070963707 0.05763489 0.95421392 -0.29352003 0.00090309611
0.034365673 0.036201142 -0.0067791245 0.14375623 0.94686621 -0.2877124 0.0011625626
-0.024275709 0.041116223 -0.0083086481 0.79239905 0.37764022 -0.47905281 0.0032594814
-0.023223493 0.040474854 -0.0070499806 0.81145 0.36092332 -0.45965558 0.0025142257
-0.024832165 0.043429866 -0.0074726208 0.74343723 0.32242417 -0.58595538 0.0079702521
-0.023745069 0.04246648 -0.006411125 0.8223213 0.25620216 -0.50808275 0.0055885115
-0.024408329 0.046534233 -0.0061976705 0.93774867 0.019010559 -0.34679392 0.013226198
-0.01326533 0.055511821 -0.006728291 0.58937716 -0.49403498 0.63919014 0.0030621698
-0.011311434 0.056841336 -0.0071261679 0.56754655 -0.49425679 0.65848386 0.0026552952
-0.038509 0.059746116 -0.0080494033 0.43680018 0.89668077 -0.071896955 0.015326962
-0.0099378387 0.05850251 -0.0066971113 0.56016546 -0.51832139 0.64618689 0.002410515
-0.0080969883 0.058997419 -0.0079643596 0.53525305 -0.52605742 0.66088402 0.0033213967
-0.048568301 0.061487876 -0.0077456888 -0.12194715 0.97277379 0.19707854 0.014522115
-0.046117384 0.062345061 -0.0075522764 -0.128754 0.95959693 0.25019193 0.012723045
-0.043447755 0.062182065 -0.0074480344 0.16745068 0.95055366 0.26154932 0.008693709
-0.04063876 0.060966585 -0.0077175582 0.37642485 0.92638117 -0.011053652 0.020614605
-0.038393095 0.060129851 -0.0067260684 0.34324315 0.92856842 -0.14122581 0.010965955
-0.0073318407 0.061118636 -0.0068713347 0.55995774 -0.41684377 0.71602273 0.012837715
-0.0048576146 0.061977945 -0.0078825587 0.43910375 -0.4919447 0.75178343 0.014246549
