# .PCD v0.7 - Point Cloud Data file format
VERSION 0.7
FIELDS x y z normal_x normal_y normal_z curvature
SIZE 4 4 4 4 4 4 4
TYPE F F F F F F F
COUNT 1 1 1 1 1 1 1
WIDTH 560
HEIGHT 1
VIEWPOINT 0 0 0 1 0 0 0
POINTS 560
DATA ascii
-0.0034653274 0.07385239 -0.015095577 0.58951783 0.19708768 0.78334236 0.01245075
-0.0014606483 0.07360395 -0.016222877 0.48575169 0.390113 0.78221291 0.007111961
0.00113192 0.072828189 -0.017185705 0.35487771 0.54922742 0.75657851 0.0045277895
-0.0034703556 0.076242141 -0.015311098 0.68530393 -0.080320992 0.72381437 0.010412256
-0.0017012644 0.076578602 -0.016828332 0.69691616 -0.048215292 0.71552998 0.011090412
-0.0030404669 0.07854408 -0.015022337 0.73399472 -0.2540147 0.62986362 0.0028527847
-0.0015515097 0.07948418 -0.016501056 0.74196881 -0.244727 0.62417233 0.0028933247
-0.0006033121 0.082323082 -0.016189126 0.76131719 -0.24640098 0.59973556 0.0010355253
0.00037633089 0.082984865 -0.017221401 0.75426543 -0.25182962 0.60635424 0.00098215474
-0.0003871393 0.085533991 -0.015491995 0.68844318 -0.045566827 0.72385752 0.011934735
0.0010971355 0.085637823 -0.016926058 0.71686465 -0.086756781 0.69179356 0.010029245
-0.00091464992 0.087371796 -0.016131237 0.67700976 -0.075279288 0.7321139 0.0093016652
0.001531779 0.087717056 -0.0174013 0.7080453 -0.087647267 0.70070666 0.0096276747
0.07141833 -0.04291448 -0.013788916 0.33701101 -0.22660947 -0.91382259 0.01595873
0.073452711 -0.043401264 -0.012692118 0.43473139 -0.38317999 -0.81497347 0.0065266932
0.062645838 -0.03948319 -0.014965266 0.71697974 -0.39942244 -0.57131582 0.013418185
0.06441129 -0.039551653 -0.014284246 0.31254554 -0.094589964 -0.94518149 0.057419948
0.068620987 -0.040328089 -0.014770418 0.10200087 0.08817777 -0.99086857 0.0052372133
0.070223391 -0.041039821 -0.014520829 0.14954726 -0.13334806 -0.97972137 0.021721838
0.073559172 -0.040414423 -0.013506791 0.35194096 -0.15573654 -0.92297542 0.009820831
0.076073572 -0.040477209 -0.012338308 0.5043782 -0.26505703 -0.82179523 0.0051880074
0.064295046 -0.037390068 -0.01433037 0.58171099 -0.23957501 -0.77731341 0.039884008
0.068022318 -0.037404466 -0.013727839 0.129976 0.30558217 -0.9432528 0.013925791
0.070797078 -0.037464179 -0.013843675 0.080643907 0.30223849 -0.94981498 0.0080350386
0.073633991 -0.037983168 -0.013657361 0.25848609 0.094877772 -0.96134442 0.021625128
0.076602675 -0.037482254 -0.01265156 0.38775703 -0.012659008 -0.92167473 0.0082691116
0.065361872 -0.034700576 -0.014191763 0.70338219 -0.18667522 -0.68586141 0.051559951
0.066808924 -0.034436572 -0.012788257 0.43810946 0.12545511 -0.8901242 0.038121767
0.070183396 -0.034575425 -0.012505278 0.16323406 0.38668004 -0.90765256 0.038767613
0.073554814 -0.034411583 -0.012707397 0.032781936 0.3527233 -0.93515325 0.0086206226
0.076254986 -0.034599815 -0.012507847 0.28172335 0.25226736 -0.92573923 0.02543691
0.065823689 -0.032822739 -0.014768019 0.82112163 -0.24889143 -0.51362658 0.01365158
0.066840827 -0.031454403 -0.013453236 0.81580663 -0.23646587 -0.52777207 0.016488392
0.075727761 -0.032848924 -0.012022451 0.19072676 0.35300958 -0.9159736 0.013299935
0.067691244 -0.028589748 -0.013326113 0.86877561 -0.11432984 -0.48182741 0.01458284
0.0683752 -0.025654953 -0.013434717 0.92062771 -0.19789486 -0.33657426 0.00018795955
0.069071911 -0.024211066 -0.012118891 0.93455952 -0.16569602 -0.31487027 0.00083169097
0.068725891 -0.022627611 -0.014170411 0.91570854 -0.083639316 -0.39304239 0.0027156651
0.069292486 -0.022307575 -0.012641429 0.9348287 -0.13687916 -0.3276574 0.0014411969
0.068805285 -0.019460334 -0.014153987 0.88897461 0.0041306778 -0.4579379 0.0020608515
0.069463849 -0.019479947 -0.012705136 0.90532482 -0.062335014 -0.42012063 0.002670899
0.068720706 -0.016439814 -0.014184926 0.86865366 -0.028108327 -0.49462193 0.0010320867
0.069601685 -0.016572595 -0.012671106 0.88044518 -0.033592999 -0.47295645 0.0019432686
0.068859585 -0.013546621 -0.014289382 0.8829996 -0.10121574 -0.45833069 0.0018118637
0.069407828 -0.013385773 -0.01318968 0.8991701 -0.036770191 -0.43605176 0.0017664591
0.068846136 -0.010891278 -0.014974038 0.91588098 -0.099180594 -0.38900539 0.00090738363
0.06956061 -0.010395875 -0.013514178 0.92321539 -0.071189322 -0.37763128 0.00044824291
0.069679387 -0.0075131659 -0.013706669 0.92994523 -0.048606995 -0.36447123 0.00083385198
0.069551356 -0.0045631356 -0.013623953 0.93066025 0.14896035 -0.33418924 0.0013098214
0.068536595 -0.0012050206 -0.014118884 0.86736429 0.29897156 -0.39786327 0.0013650404
0.069203399 -0.0021640987 -0.013060836 0.89328003 0.26668334 -0.36184356 0.0005076931
0.067670815 0.0014311097 -0.013638348 0.84257424 0.30482903 -0.44401342 0.0041248123
0.06589976 0.0051282691 -0.014860116 0.81358504 0.23946983 -0.52984303 0.0009594505
0.06683062 0.0044035446 -0.013502344 0.85332417 0.26406631 -0.44956294 0.00072808797
0.065391228 0.0078547373 -0.014082988 0.82999104 0.33803582 -0.44367412 0.0023313414
0.0662954 0.0069180792 -0.013043201 0.83791447 0.36930451 -0.40188754 0.0015895361
0.062873669 0.011913395 -0.014578283 0.78726012 0.48539108 -0.3802855 0.00059310568
0.064112052 0.010356539 -0.013599034 0.81222504 0.46841905 -0.34766945 0.00046139761
0.062128004 0.013724267 -0.013812214 0.79559976 0.46623945 -0.38683575 0.00080642244
0.063254759 0.012329162 -0.012954876 0.8104918 0.46065977 -0.36179498 0.00094904198
0.059522964 0.017350761 -0.014580662 0.68127024 0.55092227 -0.48203278 0.0029973944
0.06084634 0.016312158 -0.013438812 0.75442702 0.50687718 -0.41703171 0.0012219541
0.056492411 0.020423021 -0.014508635 0.52736753 0.64073622 -0.55797911 0.0019019363
0.058419839 0.019339474 -0.013578985 0.65581572 0.59739286 -0.46154904 0.0029454823
0.053113695 0.023352893 -0.014090046 0.57061172 0.6103757 -0.54940313 0.0011260379
0.055317193 0.022246314 -0.013331573 0.56116623 0.66312701 -0.4953334 0.0013722605
0.057263218 0.021232491 -0.012557447 0.60011244 0.66035801 -0.45143381 0.001897563
0.049750302 0.026278535 -0.013852038 0.46646383 0.73368156 -0.49408793 0.00067310664
0.052178465 0.025096586 -0.012968739 0.53393513 0.70256865 -0.47043648 0.00047352858
0.05446377 0.024017211 -0.012009338 0.56350529 0.68192554 -0.46630403 0.0014906881
-0.0068841265 0.029555434 -0.013711646 0.37401065 0.81690735 -0.43906534 0.0021326698
-0.004671026 0.029012684 -0.013263747 0.18248504 0.89495242 -0.40713561 0.0070850635
-0.0015577768 0.028660377 -0.013761593 0.022667184 0.90423435 -0.42643455 0.0015667818
0.00096159946 0.029010648 -0.013042629 -0.083783396 0.91560555 -0.39325139 0.002280789
0.0032015063 0.028894043 -0.014099754 -0.15886892 0.89522105 -0.4163411 0.00082304591
0.0070953546 0.029427025 -0.014308356 -0.1024979 0.86069477 -0.49869713 0.0042468063
0.043687172 0.02948253 -0.014251577 0.35745814 0.78036118 -0.5130887 0.0012858484
0.046441808 0.028506132 -0.013410055 0.42051911 0.7655974 -0.48685145 0.00054255483
0.049044583 0.027496437 -0.01258203 0.47632158 0.75432056 -0.45179439 0.00052218785
-0.028764848 0.032285586 -0.014309406 0.29736492 0.25769505 -0.91932982 0.0030317307
-0.025928408 0.03235846 -0.013871558 0.11901609 0.50784713 -0.85318607 0.035820931
-0.019151591 0.032730538 -0.01426209 0.044523772 0.89958912 -0.43446192 0.0033147221
-0.015767276 0.032605641 -0.013793957 0.15822028 0.91201407 -0.37841347 0.0013264656
-0.013250646 0.032228157 -0.01351817 0.20945248 0.89544082 -0.39282995 0.0010032783
-0.010242213 0.031375729 -0.013536877 0.32776898 0.83660471 -0.43893045 0.0029298763
-0.0079652304 0.030554492 -0.012946523 0.36732954 0.82334846 -0.43262717 0.0023238433
0.0058412706 0.030076327 -0.012672603 -0.1720482 0.89796293 -0.40504554 0.0011125184
0.0084205866 0.030194236 -0.013264194 -0.17206408 0.89796001 -0.4050453 0.0011345247
0.020806728 0.0327655 -0.014812201 -0.022942968 0.87362909 -0.48605129 0.0060283942
0.022991039 0.032792352 -0.014739707 0.076014303 0.85959882 -0.50528383 0.0037833517
0.025451621 0.032581124 -0.014342774 0.074050546 0.83815837 -0.54037678 0.0023705584
0.028613415 0.032608695 -0.014240749 -0.039823085 0.83351052 -0.55106658 0.0017923434
0.03131564 0.032830536 -0.014464214 -0.010640056 0.82832873 -0.56014127 0.0020803825
0.034792844 0.032529481 -0.014353362 0.14594579 0.8002215 -0.58167458 0.0010970704
0.037634771 0.032064561 -0.013734548 0.26275077 0.80514807 -0.53169411 0.00090620888
0.040361628 0.03113205 -0.013570657 0.29868656 0.8153559 -0.49596474 0.00052773306
0.043181051 0.030474504 -0.012876324 0.36313567 0.79868519 -0.47982743 0.00090523978
-0.030472107 0.035137713 -0.014327158 0.33408216 0.14269856 -0.93167925 0.00067421928
-0.028485056 0.034109127 -0.013771885 0.33998889 0.22353998 -0.91347545 0.0043803421
-0.025786402 0.034764711 -0.012473181 0.40303054 0.29572463 -0.86609083 0.016906805
-0.02314383 0.033525437 -0.012720302 0.13515675 0.73148745 -0.66832536 0.036931198
-0.019276397 0.033421945 -0.01285557 0.071814671 0.88489294 -0.46022508 0.0042048641
-0.016899332 0.033143476 -0.012912519 0.1399764 0.92456329 -0.35438579 0.0011254317
0.020291405 0.033614051 -0.012885161 -0.075440288 0.90779322 -0.41257745 0.0047840578
0.02276052 0.033525199 -0.013328302 0.040340915 0.87580383 -0.48097846 0.0017232768
0.025218017 0.033620339 -0.012744305 0.041330323 0.85657966 -0.51435697 0.0030952818
0.027966147 0.03350639 -0.012666787 -0.034345485 0.84935004 -0.52671134 0.0018678013
0.031730317 0.03362751 -0.013027456 0.0012288103 0.86368454 -0.50403136 0.0015780233
0.034378037 0.033442616 -0.012982664 0.14208674 0.85339177 -0.50153154 0.0018250418
0.036305621 0.03316202 -0.012741596 0.20978531 0.82467115 -0.52526903 0.0022083533
-0.030991109 0.037582207 -0.014315244 0.3781544 0.17030288 -0.90994298 0.0011798753
-0.028583799 0.037871234 -0.013264358 0.41333002 0.22248086 -0.88298386 0.0041824579
-0.026232256 0.037171815 -0.012292395 0.53029031 0.22619644 -0.81708473 0.0065301973
-0.031351514 0.04073352 -0.013772363 0.45069015 0.18880109 -0.87248641 0.0040046708
-0.028585697 0.040280487 -0.012389117 0.46728304 0.29933807 -0.83189136 0.0046641785
-0.026588231 0.039147425 -0.01204586 0.57460409 0.32015601 -0.75321329 0.0044081467
-0.033511125 0.043910492 -0.014318193 0.38822934 0.19074558 -0.90160638 0.002052634
-0.031227672 0.043546364 -0.013330747 0.54011309 0.22116372 -0.81201261 0.0034646485
-0.029471904 0.043490507 -0.012075752 0.59575379 0.21201837 -0.77467781 0.0034831224
-0.034647122 0.046776626 -0.013890418 0.52117795 0.18276681 -0.83364844 0.032412108
-0.03164272 0.046500426 -0.01257582 0.45313746 0.38190404 -0.80549103 0.0048516686
-0.029893352 0.045568399 -0.012066662 0.51713562 0.2921499 -0.80449939 0.0065244576
-0.034787774 0.049533859 -0.013201125 0.713579 -0.085886657 -0.69529021 0.042439885
-0.035637181 0.05143068 -0.014296755 0.84743673 -0.23412596 -0.47648296 0.021665409
-0.010112487 0.057539575 -0.012484916 0.47728881 -0.876504 0.062737957 0.0072977403
-0.0067221788 0.05926029 -0.013603096 0.43837273 -0.89778322 0.042599108 0.0050441339
-0.0057994984 0.059252579 -0.012018442 0.40518099 -0.91075152 0.079749562 0.005167244
-0.003153414 0.060557421 -0.013926685 0.41308397 -0.90907907 0.054192297 0.0030376231
-0.0023958264 0.060736317 -0.012908734 0.41304612 -0.9090963 0.054192703 0.0029706957
0.0010101886 0.062208999 -0.013454061 0.45293435 -0.87953961 0.14581041 0.011376604
0.0029603513 0.063330941 -0.012404576 0.52395767 -0.80762935 0.2705608 0.037353221
0.0049525523 0.064381108 -0.013277916 0.52756876 -0.70605618 0.4723939 0.088600345
0.0070660138 0.065382138 -0.014100249 0.63225251 -0.46017939 0.62329096 0.057083558
-0.00084433286 0.06877856 -0.012451611 0.20904115 0.75123596 0.62605613 0.0034489608
0.0018576614 0.068378374 -0.012708075 0.27011135 0.73613322 0.62060273 0.011389137
0.0047184676 0.067958966 -0.013215321 0.42830002 0.58844846 0.6857751 0.051249549
0.0073823356 0.067310765 -0.013944318 0.45138237 0.31520104 0.83480674 0.072104335
0.0090321191 0.067357562 -0.014764681 0.67148459 0.1983327 0.7139836 0.061954539
-0.0063027162 0.071939386 -0.012567639 0.63886321 0.20528519 0.74142551 0.011592178
-0.0043753651 0.071010381 -0.013182757 0.39279374 0.48662058 0.78032911 0.0094668055
-0.0017068291 0.07018321 -0.013640394 0.26453638 0.68111807 0.6827141 0.0053246035
0.0015252169 0.069624536 -0.014332175 0.2443969 0.71788079 0.6518569 0.0019806996
0.0042528459 0.069233775 -0.014898889 0.27601227 0.731749 0.62318593 0.0016015926
-0.0065756179 0.073548228 -0.012558307 0.70895684 -0.062351793 0.70249015 0.020160366
-0.0049911318 0.073539905 -0.013831707 0.66484404 0.0018705218 0.74697989 0.01757312
-0.0061582881 0.075293757 -0.012528732 0.74522972 -0.16037448 0.64723468 0.0069276807
-0.0048715156 0.076606944 -0.013530089 0.74117678 -0.21740533 0.63513142 0.0069587342
-0.0039097378 0.079265371 -0.013266227 0.74957895 -0.24854997 0.61347723 0.0033306617
-0.0024990367 0.080282666 -0.014656626 0.75451881 -0.25182685 0.60604006 0.0017348782
-0.0035768447 0.082281828 -0.012629701 0.70480758 -0.14996661 0.69336587 0.011917336
-0.0021203875 0.082502022 -0.014075186 0.71736574 -0.17749764 0.67370689 0.0093212519
-0.0040471721 0.08423163 -0.013029411 0.6800248 -0.12245597 0.72289062 0.0057820641
-0.0013883305 0.084871136 -0.014482813 0.6986109 -0.050121203 0.71374416 0.014057532
0.074087799 -0.045892473 -0.010685556 0.52827096 -0.5270654 -0.66568148 0.0076903584
0.075702772 -0.045627046 -0.0094261393 0.57707453 -0.54430383 -0.60886651 0.002596583
0.074362695 -0.044679251 -0.011581913 0.49761546 -0.4474819 -0.74306041 0.0075292196
0.076627448 -0.043335687 -0.010522638 0.58425808 -0.44457367 -0.67896736 0.00184974
0.078395054 -0.042632677 -0.0093411654 0.61906719 -0.46210757 -0.63499004 0.0024505968
0.077575684 -0.040701617 -0.011251832 0.5694893 -0.29489195 -0.76728135 0.0039899019
0.079203635 -0.040356535 -0.010004441 0.65719306 -0.36145821 -0.66139638 0.002571163
0.079582565 -0.037470721 -0.010681921 0.65551627 -0.20398577 -0.72710943 0.0032402799
0.081033528 -0.03662765 -0.0095292181 0.74548125 -0.16732091 -0.64518327 0.0042039962
0.068967044 -0.033177327 -0.011609256 0.51834834 0.2073921 -0.82964057 0.032885324
0.070424348 -0.033062413 -0.011568293 0.15980615 0.44988519 -0.87867248 0.037390035
0.077508017 -0.033548392 -0.011979006 0.38071966 0.16134785 -0.910505 0.010908647
0.079682238 -0.034449425 -0.010980792 0.46615976 0.11533485 -0.87715048 0.011542572
0.081419155 -0.034370996 -0.0095005427 0.72254813 0.046725638 -0.68973976 0.010538056
0.068188228 -0.031533632 -0.011384428 0.61941153 0.16779551 -0.76692504 0.049861934
0.070055373 -0.031086108 -0.010442711 0.19083147 0.40648183 -0.8935076 0.028008103
0.073453456 -0.031044856 -0.010710668 -0.022650868 0.52671099 -0.84974259 0.0045920284
0.07656119 -0.031361036 -0.011083844 0.067011535 0.5196591 -0.85174167 0.0050281985
0.07948453 -0.03152737 -0.010215252 0.43280208 0.35654789 -0.82798302 0.006626931
0.081136256 -0.03250527 -0.0094906688 0.64445043 0.24012333 -0.72596449 0.011926969
0.068603456 -0.028405318 -0.011231239 0.84530354 -0.078620762 -0.52847016 0.014218699
0.069652371 -0.028579185 -0.0096772667 0.6610288 0.19381134 -0.72489858 0.064320728
0.073494487 -0.029317873 -0.0094374465 -0.0024177842 0.60774285 -0.79413021 0.0052538887
0.076923467 -0.029466227 -0.0098598301 0.12805662 0.55440897 -0.82233334 0.008439064
0.07861881 -0.029538382 -0.0095224828 0.32401738 0.48085687 -0.81473279 0.006007317
0.068891846 -0.026122557 -0.011335378 0.88590455 -0.13433535 -0.44399008 0.0051771412
0.069519751 -0.025420634 -0.010074469 0.90108603 -0.12196202 -0.416136 0.0054664174
0.069936864 -0.022605333 -0.010265352 0.92819607 -0.14003247 -0.34473613 0.0014730055
0.070420012 -0.019622693 -0.010315948 0.92802954 -0.107156 -0.35676154 0.00077725505
0.070733361 -0.016402487 -0.010503631 0.92264718 -0.042037953 -0.38334706 0.0012326163
0.070492551 -0.013457111 -0.010814699 0.93093437 0.016267467 -0.36482397 0.0020139071
0.070512466 -0.010487951 -0.010677918 0.94302267 -0.034051269 -0.33098158 0.0019299446
0.07081683 -0.0074756071 -0.010778246 0.95250589 -0.023790086 -0.30358934 0.00098162203
0.070649974 -0.0044923066 -0.0106722 0.94368112 0.11568993 -0.30997044 0.0013356304
0.06994459 -0.0014947286 -0.010660834 0.91154134 0.24305597 -0.33168709 0.00038381436
0.068636134 0.0018308822 -0.011253776 0.88749087 0.274564 -0.37010071 0.00064171304
0.069356464 0.0012055469 -0.009972916 0.89514005 0.26216599 -0.36054581 0.00046132031
0.068219036 0.0045326389 -0.010645931 0.88565117 0.27933025 -0.3709403 0.00044655224
0.065926947 0.0086938264 -0.011848196 0.80028689 0.48140457 -0.35747805 0.00067433633
0.067116767 0.0074819229 -0.010645262 0.83691865 0.41438168 -0.35756803 0.0017788935
0.064978123 0.010641962 -0.010828727 0.79942214 0.48639768 -0.35262087 0.00065002346
0.066435844 0.0095547037 -0.0096071735 0.79929405 0.48162189 -0.35940126 0.00058278901
0.062728524 0.014424611 -0.011728786 0.82721013 0.44861236 -0.33833477 0.0002204037
0.063727006 0.013328962 -0.01049458 0.82974905 0.44684687 -0.33443153 0.00025101926
0.061929338 0.016457882 -0.010690547 0.80723041 0.4962478 -0.31955782 0.00049014983
0.063118741 0.015224291 -0.0094857663 0.81648427 0.4864701 -0.31096673 0.00059122621
0.059190676 0.020093445 -0.010990358 0.70230603 0.62159336 -0.34696952 0.00094509451
0.060555428 0.018674308 -0.010491773 0.75775295 0.55857116 -0.33735549 0.00084373105
0.056118451 0.023237627 -0.010960969 0.58440202 0.7073974 -0.39757165 0.0025751258
0.057853524 0.021873059 -0.010461706 0.65687782 0.6548062 -0.37381867 0.0011659507
0.052792866 0.02612401 -0.010440206 0.55857205 0.75362366 -0.34648046 0.000609165
0.054730538 0.024757106 -0.010249281 0.57121551 0.72940904 -0.37639773 0.0013273699
-0.003938687 0.029848943 -0.010898863 0.19248113 0.92809975 -0.31871918 0.0039804177
-0.0018596879 0.029604647 -0.011022307 0.015710982 0.94946963 -0.31346542 0.0036355555
0.00031139431 0.02974854 -0.010801628 -0.088282987 0.94853938 -0.304104 0.0034406164
0.047100402 0.029463416 -0.011021527 0.44280049 0.79439569 -0.41576824 0.00062060874
0.049583804 0.02840271 -0.010286479 0.51648396 0.76694155 -0.38084769 0.00080997677
0.051613677 0.027456637 -0.0094019445 0.54876077 0.76043522 -0.34727496 0.0011981466
-0.012863787 0.032882035 -0.011423245 0.20194776 0.93145251 -0.30267683 0.0008147558
-0.010151783 0.032393631 -0.010812578 0.2986818 0.89960289 -0.31859657 0.0015725853
-0.0074671078 0.031267505 -0.010624486 0.37302858 0.86917311 -0.32463485 0.0012726248
-0.0049598874 0.030349182 -0.010235897 0.23903865 0.90937901 -0.34042665 0.0046779346
-0.001006997 0.030045442 -0.0094756335 0.022427242 0.95166808 -0.30630875 0.0031858629
0.0020848557 0.030300846 -0.01008375 -0.14112511 0.93201077 -0.33382592 0.001158138
0.0045142109 0.03070775 -0.010363095 -0.18296447 0.92722726 -0.32676226 0.0004386683
0.007824827 0.031163791 -0.010837902 -0.16971216 0.92145914 -0.3494437 0.00057657697
0.040774882 0.032507628 -0.011079147 0.32487175 0.82827646 -0.45652661 0.00041698958
0.043493398 0.031682108 -0.010404749 0.39426452 0.81399655 -0.42657381 0.00014016616
0.045962997 0.030646125 -0.010026449 0.43570206 0.79718733 -0.41791889 0.00046042778
0.048031051 0.030030731 -0.0090961158 0.47737953 0.78906602 -0.38663101 0.00036663908
-0.024374817 0.035371847 -0.011319563 0.578044 0.37981293 -0.72222382 0.014661463
-0.022471339 0.035045944 -0.010382387 0.49719092 0.60115415 -0.62563163 0.023708405
-0.0196597 0.034281109 -0.010363784 0.15050989 0.93059117 -0.33368674 0.0045450283
-0.016661378 0.033776447 -0.010536606 0.15461642 0.94819617 -0.27752081 0.00032802703
-0.01385055 0.033415478 -0.010302656 0.1658195 0.94716895 -0.27454504 0.00059307582
-0.011651922 0.033239204 -0.0096651465 0.27215159 0.91698772 -0.29166257 0.0016705836
0.017745411 0.03450124 -0.0090643317 -0.16392049 0.94684708 -0.27678642 0.00052374176
0.019155916 0.034267701 -0.01065252 -0.14205764 0.92503703 -0.35231537 0.0017212123
0.022431845 0.034629196 -0.010762637 -0.067136809 0.92589998 -0.37175506 0.0015467638
0.025579818 0.034848269 -0.010388307 -0.014600393 0.91056395 -0.41311026 0.0017456979
0.028392851 0.034860492 -0.01042835 -0.022989722 0.89265203 -0.45015985 0.00050901627
0.031456601 0.034856554 -0.010668731 0.018079391 0.89675349 -0.44216093 0.0011570094
0.034444187 0.034692373 -0.010484377 0.13598478 0.89880747 -0.41671714 0.0006058109
0.03743726 0.033957276 -0.010620041 0.24822687 0.86717653 -0.43172705 0.00053863216
0.04026024 0.033502735 -0.00969721 0.32052591 0.84101915 -0.4358325 0.00061875355
-0.024818989 0.037603166 -0.010996263 0.57378554 0.29619926 -0.76356804 0.005007593
-0.023394575 0.03734941 -0.0096351439 0.67432821 0.36658269 -0.64101374 0.004859224
-0.027564505 0.04156144 -0.011102582 0.55869615 0.33607799 -0.75822842 0.0068030097
-0.02531188 0.040404402 -0.010150571 0.63124615 0.3905465 -0.67007595 0.0046282955
-0.023765963 0.039187703 -0.0091585517 0.72160703 0.34117442 -0.60239804 0.0019983889
-0.028117465 0.043578681 -0.010690275 0.63904983 0.27362239 -0.71885055 0.0046212124
-0.026403522 0.043253768 -0.0093807001 0.67304248 0.28548175 -0.68228585 0.0050397376
-0.030571273 0.047578163 -0.011354804 0.4767203 0.33988917 -0.81068689 0.010510189
-0.028401272 0.046418667 -0.010276502 0.60317057 0.28068328 -0.74659365 0.0072521199
-0.033306796 0.049445637 -0.011401266 0.53198701 0.2968145 -0.79302645 0.016447524
-0.031405441 0.049030636 -0.010753198 0.47129905 0.35923508 -0.80549818 0.0064963768
-0.028226707 0.049093816 -0.0094741154 0.46904743 0.32850233 -0.81980532 0.012566144
-0.015991535 0.054036718 -0.0095926821 0.53306031 -0.83918417 0.10778055 0.0034269951
-0.013520394 0.055335443 -0.01021488 0.5297392 -0.84482139 0.075187653 0.0051839463
-0.010885759 0.056664851 -0.010485571 0.51441348 -0.85655242 0.041191142 0.0040932423
-0.0079197492 0.058200724 -0.010204995 0.47816378 -0.87562972 0.068058997 0.0089273052
-0.0056525632 0.059287507 -0.010679181 0.48864901 -0.85105371 0.19217126 0.015457978
-0.0039568534 0.060536586 -0.0097987242 0.51102179 -0.81449133 0.27470088 0.010147184
-0.0017061143 0.061571222 -0.010569041 0.44947097 -0.80505782 0.38711473 0.02094488
0.00068189082 0.062577195 -0.01116171 0.47264037 -0.79610693 0.37792161 0.024482515
-0.00070111512 0.063147604 -0.0092152357 0.45031917 -0.4725627 0.75755996 0.022567637
0.0017864548 0.064447872 -0.010046451 0.58001244 -0.35978293 0.73085004 0.025462829
0.004116517 0.06514328 -0.011270079 0.50933868 0.03019934 0.86003613 0.068660714
-0.0091430545 0.06865792 -0.0093426704 0.51170844 0.41668898 0.75134867 0.028425617
-0.0072762147 0.06838575 -0.0098384414 0.36593017 0.55078417 0.75015461 0.037453439
-0.0046700002 0.067944489 -0.010249225 0.21161602 0.74465227 0.63301784 0.0061456584
-0.00136285 0.067834966 -0.010669716 0.18426295 0.79272103 0.58106852 0.0027388423
0.0015218898 0.067101732 -0.010444916 0.36940074 0.69585472 0.61589718 0.030136673
0.0041426155 0.066688985 -0.011254571 0.52097631 0.12348643 0.84459156 0.060808606
-0.0095134424 0.070599556 -0.0095850434 0.71166855 -0.024394747 0.70209169 0.024427101
-0.0075629051 0.070544347 -0.011083237 0.58017367 0.22986275 0.78138447 0.013411822
-0.0051159859 0.06952028 -0.0117338 0.31254646 0.55029768 0.77426565 0.015816392
-0.0091525968 0.072353631 -0.0096471608 0.77103323 -0.11247636 0.62678283 0.0086862119
-0.0079760356 0.073561393 -0.010676444 0.78106308 -0.1918495 0.59425098 0.0077991714
-0.0070090718 0.076415233 -0.010420648 0.77794772 -0.25503835 0.57424098 0.0025304125
-0.0057993392 0.07701923 -0.011843003 0.75090426 -0.25593567 0.6088019 0.0027224736
-0.0068426039 0.079210594 -0.0097085908 0.76816201 -0.16465825 0.61872017 0.0080761099
-0.0053084637 0.079571612 -0.011249816 0.74574894 -0.1761805 0.64250982 0.0074342974
-0.0066874432 0.081133224 -0.010511398 0.73289776 -0.082904585 0.67526859 0.0069542928
-0.0050927415 0.0819536 -0.011514065 0.71030498 -0.081706308 0.69913584 0.0093378406
0.074470088 -0.047415607 -0.008552894 0.54685163 -0.63538265 -0.54519922 0.0063342396
0.076742098 -0.046468835 -0.0072849095 0.59535801 -0.63910931 -0.48691705 0.0023437366
0.078458935 -0.045363918 -0.006645143 0.64717305 -0.5895232 -0.48335221 0.0015206611
0.079605475 -0.043407012 -0.0073504033 0.6743592 -0.49485996 -0.54804492 0.0023412162
0.081103541 -0.042052165 -0.0065829754 0.73106533 -0.43581662 -0.52498311 0.0023365114
0.080442511 -0.040730152 -0.0083814636 0.71298575 -0.33591378 -0.61547804 0.0020966355
0.081478931 -0.040078629 -0.0072284373 0.7829836 -0.32016316 -0.5333218 0.0015979126
0.080788217 -0.038815122 -0.0089569241 0.73036683 -0.27314252 -0.62606496 0.0022988345
0.08207833 -0.037463091 -0.0076926947 0.78864831 -0.22854488 -0.57078975 0.0012320714
0.082796097 -0.034467462 -0.0076685534 0.79734445 -0.073305249 -0.59905612 0.0055442462
0.080618866 -0.030440217 -0.008891657 0.47402349 0.34477985 -0.81020278 0.0080232844
0.082295693 -0.031621024 -0.0076846075 0.6625241 0.21253763 -0.71825463 0.0083757257
0.070777111 -0.027728572 -0.0082744332 0.56590819 0.30909011 -0.76433706 0.055851419
0.073530324 -0.027601052 -0.0081190988 0.060094882 0.64615327 -0.76083803 0.0077138599
0.076189786 -0.027841775 -0.0085669281 0.014590485 0.62693137 -0.77893788 0.0021075273
0.079661891 -0.028415056 -0.0083487071 0.36997068 0.43550822 -0.82064259 0.014922139
0.082205683 -0.028586205 -0.0070379553 0.52178121 0.35591435 -0.77528656 0.0071589299
0.070886247 -0.025361098 -0.0074393819 0.71265531 0.10558143 -0.69352359 0.04045926
0.073033974 -0.025768161 -0.0064919889 0.18302472 0.52306044 -0.83241194 0.039093394
0.076165713 -0.026102936 -0.0070420085 0.017843656 0.66304058 -0.74837077 0.00233554
0.079343267 -0.026182879 -0.0069893869 0.19711654 0.60632378 -0.77040029 0.0061344919
0.08158543 -0.026553329 -0.0064818114 0.47664708 0.48209062 -0.73511642 0.0090064211
0.071088374 -0.022475561 -0.0072259223 0.87058562 0.097718999 -0.4822154 0.025485178
0.071422748 -0.019311408 -0.0075321952 0.94090575 -0.10414174 -0.32225895 0.0010999863
0.071663588 -0.01654952 -0.0079075303 0.94608206 -0.046395589 -0.32058719 0.00088005682
0.072043844 -0.015616109 -0.0065665618 0.95964855 -0.03018694 -0.27957717 0.00083185296
0.071619667 -0.013413965 -0.0079159327 0.95263314 0.065236047 -0.29704261 0.00099193433
0.072073303 -0.013940529 -0.0065559894 0.95800513 0.068342671 -0.2784878 0.0013533878
0.071226344 -0.010504981 -0.007817395 0.96752483 0.017427811 -0.25217462 0.0028098978
0.071574479 -0.0074097365 -0.0076300208 0.9768995 -0.01665012 -0.21304932 0.00075851643
0.071564674 -0.0043217824 -0.0076892092 0.96598148 0.092540972 -0.24148694 0.0027033431
0.071011513 -0.0013262173 -0.0076783127 0.93881911 0.22251244 -0.26288196 0.00095443457
0.070137016 0.0015139302 -0.0076745152 0.92301691 0.25740084 -0.28598002 0.0010963874
0.068737909 0.0054073655 -0.0087051466 0.91286725 0.28043577 -0.29669699 0.0016947293
0.069394201 0.0042624595 -0.0075346078 0.92496133 0.26876774 -0.26871997 0.0008452711
0.068266802 0.0076310821 -0.0076876157 0.87858653 0.38235432 -0.28616577 0.0013082463
0.069102764 0.006211556 -0.0067759529 0.89756989 0.34303856 -0.27693462 0.0019079996
0.065620176 0.011561878 -0.008179781 0.80064231 0.50091052 -0.32872567 0.0010692371
0.066934615 0.010297255 -0.0075947274 0.81882936 0.47422141 -0.32346943 0.0017030763
0.064742945 0.013537137 -0.0077529391 0.8122642 0.48033756 -0.33091211 0.0012452627
0.066248566 0.012039087 -0.0064912289 0.80614412 0.49075794 -0.3305878 0.0012045768
0.062415216 0.017137771 -0.0080035497 0.80739522 0.52601302 -0.26725128 0.00036202979
0.063593231 0.015782584 -0.0073565682 0.81453735 0.5028407 -0.28927502 0.00032299466
0.059781212 0.020712608 -0.0087214755 0.74376488 0.59944499 -0.2957691 0.0019283217
0.061140578 0.019347101 -0.0076011228 0.7814011 0.564134 -0.26676786 0.00098512939
0.056841187 0.023629459 -0.0089589804 0.63589966 0.69514751 -0.33526331 0.00073829485
0.058487028 0.022605026 -0.0077004726 0.67209297 0.6948536 -0.25586998 0.00075880089
0.060168266 0.02107502 -0.0071268179 0.7479614 0.60645717 -0.2697469 0.0015093868
0.053508461 0.026651273 -0.0077052764 0.58246481 0.76809782 -0.26600862 0.00017910147
0.05546663 0.025184616 -0.0077074002 0.58746231 0.75955617 -0.27921757 0.00034401796
0.057029411 0.024337886 -0.0065626651 0.61548662 0.7485885 -0.24655943 0.00044550098
0.050041046 0.029365139 -0.0075059002 0.55410939 0.78326494 -0.28188434 0.00064664794
0.052045636 0.027964845 -0.0071012909 0.57196945 0.77119261 -0.27948684 0.00051479938
-0.0095740948 0.032779895 -0.0089392737 0.28774121 0.92784232 -0.23730485 0.002002588
-0.0073633031 0.032226585 -0.0075326571 0.37002715 0.89830279 -0.23692201 0.00036929754
-0.0046505914 0.031053465 -0.0074969553 0.24219146 0.93587649 -0.25588748 0.0033286929
-0.0016054894 0.030568225 -0.0076773637 0.042182215 0.96154994 -0.27137122 0.0031754712
0.0010507345 0.031035308 -0.0070677921 -0.1616827 0.94951773 -0.26883981 0.00052689249
0.0042843563 0.031684443 -0.0070182458 -0.19649553 0.93993133 -0.27913907 0.00031069911
0.0060723256 0.031542666 -0.0086559504 -0.18010598 0.93280566 -0.31214666 0.00076331769
0.04417425 0.032651514 -0.0079372013 0.40491584 0.84588009 -0.34717432 0.0018369301
0.046531543 0.031682458 -0.007320934 0.47413185 0.83346522 -0.28378624 0.00098216825
0.048736554 0.030534815 -0.0068383394 0.51479065 0.80203557 -0.30286878 0.0014078323
-0.021297446 0.035510819 -0.0084356964 0.59698355 0.6035499 -0.52852458 0.029566895
-0.019629015 0.035258397 -0.0073578032 0.51180184 0.76869243 -0.3836287 0.018566987
-0.01669473 0.0345474 -0.0073668296 0.23875871 0.9414826 -0.2379176 0.0068133879
-0.013391166 0.034086801 -0.0074618906 0.1845644 0.96358478 -0.19349509 0.00068847748
-0.01050235 0.033448655 -0.0072619659 0.27549803 0.9451139 -0.17567156 0.00092736282
0.012632614 0.033585742 -0.0078635812 -0.25341013 0.93400413 -0.25183237 0.00067412783
0.016150767 0.034681402 -0.0071461052 -0.21507944 0.94862843 -0.23204525 0.00062023691
0.019619675 0.035313319 -0.0075159073 -0.16567828 0.94943696 -0.26668382 0.00042657545
0.022536002 0.035555195 -0.0081064003 -0.10659196 0.94857079 -0.29807988 0.0010007827
0.025392488 0.035787806 -0.0082646208 -0.056984186 0.94046366 -0.33508357 0.0013626093
0.027944786 0.035711315 -0.0088499784 -0.025818059 0.90286225 -0.42915416 0.0012512563
0.031694163 0.035810694 -0.008565451 0.038897723 0.93495858 -0.35261777 0.0015267521
0.034724943 0.035651661 -0.0082163755 0.14939316 0.92641735 -0.3455902 0.0014388128
0.037495039 0.035360452 -0.0074712555 0.22082068 0.91483963 -0.33809268 0.0010419666
0.040572397 0.034464292 -0.0073404191 0.33396637 0.88601846 -0.32161742 0.001491884
0.043171767 0.033509444 -0.0070049344 0.40425819 0.86343348 -0.30175811 0.0016606122
-0.022031739 0.03769961 -0.0075250287 0.74814433 0.46177688 -0.47648942 0.0077975057
-0.020767964 0.036629122 -0.0065483949 0.68994278 0.53318268 -0.4895868 0.0039156368
0.022989938 0.036143359 -0.0063901842 -0.12300123 0.96821213 -0.21779789 0.00063014554
0.025760667 0.036346838 -0.0066671148 -0.082554221 0.95270514 -0.29246837 0.0011446765
0.028648529 0.036332145 -0.0073172064 -0.021678794 0.95146543 -0.30699104 0.0015972279
0.031473082 0.036396571 -0.0069985911 0.045959398 0.9511162 -0.30539435 0.0010404501
0.034422502 0.036207464 -0.0067243068 0.13591759 0.94705522 -0.29088271 0.0010966531
-0.024424152 0.041671246 -0.0082144886 0.73965991 0.39117372 -0.54761881 0.0093261227
-0.023170479 0.040365841 -0.0073118317 0.80225456 0.36324525 -0.47375157 0.0022342519
-0.024909077 0.043697696 -0.0075402418 0.78623235 0.27131003 -0.55518425 0.0052384394
-0.023733171 0.042639509 -0.0064988099 0.80145144 0.24124572 -0.54724413 0.0058259293
-0.025427829 0.04645412 -0.0074438392 0.70568204 0.052162949 -0.70660591 0.020703178
-0.025270846 0.04898629 -0.0076371348 0.71309406 0.027066395 -0.70054573 0.019172046
-0.023561649 0.050049104 -0.0068080835 0.59041494 -0.65715206 -0.46857372 0.061484702
-0.018952474 0.052138034 -0.0071338862 0.52964282 -0.84726143 0.040330425 0.0073534795
-0.017392134 0.05299237 -0.0068779984 0.55582786 -0.82432574 0.10743622 0.0053204196
-0.015327682 0.054198794 -0.0075254887 0.51350862 -0.8522892 0.099559426 0.0049634892
-0.012892641 0.055603158 -0.0072517819 0.52536047 -0.8205694 0.22508292 0.018004118
-0.010806772 0.056683883 -0.0077764615 0.5116331 -0.79713976 0.32062405 0.017363012
-0.010009621 0.057956807 -0.006743778 0.57294834 -0.65761793 0.48915121 0.020933792
-0.0079878168 0.059074044 -0.0076311324 0.56054699 -0.62294245 0.54564619 0.010346802
-0.0058523938 0.059920084 -0.008676216 0.43884081 -0.7418775 0.50698769 0.016322359
-0.0073340288 0.061126448 -0.0064974451 0.52224284 -0.43246564 0.73500741 0.0034660085
-0.0047443006 0.061704699 -0.0078111831 0.49694684 -0.56815279 0.65593165 0.011376778
-0.0019555793 0.06285736 -0.0085825175 0.46959746 -0.49226382 0.73290831 0.019077726
-0.01209629 0.065985568 -0.0060573518 0.45335579 0.43034238 0.78056002 0.035560086
-0.0037009746 0.06469477 -0.0068373755 0.42986029 -0.16387922 0.8878985 0.03172715
-0.0014695161 0.064606011 -0.0078286063 0.28303853 -0.37724364 0.88180292 0.047657143
0.0004107205 0.065403923 -0.008520171 0.60369974 0.0077488837 0.79717416 0.11463792
-0.012805736 0.067679398 -0.006346364 0.66984707 0.019916875 0.74223197 0.0074142218
-0.010675372 0.067766078 -0.0077044158 0.51012284 0.33297431 0.7930339 0.023895012
-0.0077626673 0.06674055 -0.0075197644 0.19050911 0.73630321 0.64927953 0.0030993228
-0.004790945 0.066466279 -0.0078360634 0.33144337 0.67371905 0.66049069 0.04244059
-0.0015716739 0.066289991 -0.0082214996 0.36701724 0.27828154 0.88761348 0.073420048
0.00021528534 0.066024825 -0.0085193664 0.60370171 0.0077285264 0.79717278 0.11463804
-0.012375167 0.069865368 -0.0063102692 0.72551006 -0.075891331 0.68401444 0.0092918193
-0.01095954 0.070676431 -0.0077745132 0.73151422 -0.090418398 0.67580432 0.0071970746
-0.010377307 0.073477998 -0.0071963654 0.739097 -0.23409317 0.63161385 0.002999187
-0.0088012572 0.074765362 -0.008625403 0.78148431 -0.22856538 0.58055156 0.0022491827
-0.010026311 0.076123223 -0.0071090907 0.73592257 -0.2341029 0.635306 0.002804768
-0.0085044401 0.076631032 -0.0083226608 0.76595968 -0.23127303 0.59984869 0.0022475044
-0.0081880596 0.078540862 -0.0085870251 0.76000285 -0.16721411 0.62804079 0.0069595706
0.076125838 -0.048869967 -0.0039605722 0.57078397 -0.75097412 -0.33202955 0.0051895524
0.077644482 -0.047248296 -0.0048496574 0.62060803 -0.69726837 -0.35869569 0.0036808006
0.079172537 -0.046252638 -0.0038624019 0.65852159 -0.67938787 -0.3236995 0.0026897984
0.080468833 -0.044269066 -0.0052050599 0.72774237 -0.59308642 -0.3444407 0.0046251565
0.081700593 -0.043145232 -0.0043864567 0.75744289 -0.50374377 -0.41535819 0.0037148308
0.082779348 -0.040489618 -0.0047973939 0.83964807 -0.34130469 -0.42249525 0.0012973803
0.083532147 -0.037820913 -0.0051183659 0.84107727 -0.28137621 -0.46197003 0.0015768743
0.084436439 -0.037124094 -0.0039398395 0.85888845 -0.2963511 -0.41771609 0.0010191817
0.083808161 -0.035690006 -0.0059107691 0.84230381 -0.19151743 -0.50383079 0.0031336648
0.084885933 -0.034424905 -0.0046495185 0.8529284 -0.11998735 -0.5080514 0.0073233265
0.084976822 -0.031509791 -0.0047234828 0.83023822 0.039420187 -0.55601317 0.005689661
0.083738148 -0.028020538 -0.0058696903 0.7482698 0.24506865 -0.61646867 0.010244773
0.084826551 -0.028597279 -0.004463369 0.79579812 0.22131698 -0.56367028 0.011848645
0.073932678 -0.024677793 -0.0055424534 0.2970677 0.64070022 -0.70799297 0.041923802
0.076876342 -0.024555231 -0.0055528432 0.051347818 0.74239051 -0.66799682 0.0095486017
0.079810485 -0.024692342 -0.0055390969 0.13519154 0.67524159 -0.72510135 0.0037366177
0.082834199 -0.025341729 -0.0048351628 0.50648838 0.57024556 -0.64675301 0.017512897
0.084467381 -0.026174722 -0.0039646826 0.72821742 0.42125398 -0.54059643 0.013341335
0.072944842 -0.022621889 -0.0045684539 0.63524139 0.38398722 -0.67009121 0.052139807
0.076572768 -0.023314515 -0.004077856 0.084663086 0.7807346 -0.61910069 0.0076837097
0.079589583 -0.023397326 -0.0040594637 0.13164996 0.79764956 -0.58857739 0.0051512378
0.081882089 -0.023731895 -0.0038175322 0.36700746 0.73163664 -0.57446796 0.0074368496
0.071961567 -0.020001348 -0.0059948415 0.94456285 -0.0349195 -0.32646856 0.0053328499
0.072518051 -0.019501591 -0.0045041568 0.93768072 0.040737048 -0.34510195 0.010815246
0.07237798 -0.01650135 -0.0048258309 0.97869867 -0.024116805 -0.20388043 0.0014026049
0.072429523 -0.013509912 -0.0047056554 0.98175138 0.047889981 -0.1840402 0.00065401563
0.071829803 -0.010176838 -0.0055716 0.97681129 0.050465565 -0.20806934 0.0018536745
0.072272122 -0.010808049 -0.0043680589 0.97553557 0.065861523 -0.2097441 0.0013313033
0.071857065 -0.0078459075 -0.0055144965 0.9825815 -0.01349933 -0.18534093 0.0010706434
0.07214541 -0.0072123786 -0.0042819413 0.98654342 0.01970667 -0.16230735 0.00076056941
0.071921274 -0.004153077 -0.0055710459 0.98274368 0.063197896 -0.17384152 0.0016007413
0.072159253 -0.0047357399 -0.0042147171 0.99001455 0.048143387 -0.13248961 0.00087278825
0.071638964 -0.0015367459 -0.0048529874 0.96792769 0.18634962 -0.1684927 0.00042012963
0.072036549 -0.0025804499 -0.0037355821 0.9742313 0.16251181 -0.15640739 0.00094160828
0.070943967 0.0014420169 -0.0047769169 0.94516248 0.2658608 -0.18969986 0.00035209575
0.069992296 0.0045323926 -0.00464577 0.93865216 0.29511285 -0.1784392 0.0010530355
0.068777733 0.0081556793 -0.0048562959 0.90827107 0.38827872 -0.15583074 0.0015449374
0.069256701 0.0068225283 -0.0045736134 0.92892605 0.3365131 -0.15445189 0.0010506922
0.067756645 0.01043832 -0.0047108992 0.86776066 0.45415878 -0.20181979 0.0031378202
0.065424502 0.014101634 -0.0048258118 0.82986927 0.51657772 -0.21086608 0.0023477878
0.066440925 0.012660467 -0.0045802305 0.83071089 0.51529789 -0.21068348 0.0027974248
0.062870309 0.017678542 -0.0056228265 0.80663675 0.56701463 -0.16682793 0.0011064252
0.063993238 0.016423432 -0.0046645463 0.82171082 0.53950047 -0.18365923 0.0015340688
0.061816595 0.019490629 -0.0047394419 0.80986512 0.56646132 -0.15244675 0.0012983336
0.059008483 0.023002861 -0.0048374785 0.69308609 0.70394981 -0.15519796 0.00083335419
0.060413022 0.021488003 -0.0047467486 0.7730521 0.61404902 -0.15916747 0.0013975134
0.053843837 0.026986415 -0.0059972852 0.58456033 0.77022326 -0.25503996 0.00011591095
0.055697601 0.025865383 -0.0048596812 0.61863059 0.76100314 -0.19537267 0.00068525941
0.057542108 0.024466734 -0.0044092136 0.6623103 0.72815293 -0.17646064 0.00073005451
0.050757181 0.029709695 -0.0048214793 0.5764299 0.79200125 -0.20115329 0.00041227162
0.05237807 0.028602356 -0.0042307694 0.59018177 0.77702802 -0.21889025 0.0002642498
0.054258514 0.027137544 -0.0044931807 0.60090649 0.77133042 -0.20966834 0.00033745027
-0.0068862056 0.032613527 -0.0047874535 0.35062736 0.92303526 -0.15832382 0.00066861173
-0.0043922495 0.031777795 -0.0043321769 0.27401844 0.94853884 -0.15870705 0.003036513
-0.0015041438 0.031305667 -0.0044004172 0.030798564 0.97786409 -0.20696206 0.0033614228
0.0010937211 0.031399298 -0.0053845495 -0.16762178 0.96092707 -0.22027723 0.001404178
0.0041536037 0.032341972 -0.0043438077 -0.21258427 0.95899606 -0.1874422 0.0019379816
0.0084050102 0.032960825 -0.0059554279 -0.24176334 0.93179315 -0.27076194 0.00046864632
0.046840198 0.032336697 -0.0043557016 0.47861791 0.85583979 -0.19612019 0.00072028348
0.049376652 0.0308233 -0.0042286767 0.52962196 0.8264336 -0.19107112 0.00061671593
-0.018696029 0.035668634 -0.0047549666 0.51241934 0.79836321 -0.31629518 0.01804889
-0.016601108 0.035038538 -0.0045276266 0.3220152 0.92014861 -0.22278407 0.012678339
-0.013472964 0.034501847 -0.0045001153 0.19821338 0.97174537 -0.12814976 0.00038381503
-0.010606762 0.033905469 -0.0044755097 0.25539812 0.95842433 -0.12725823 0.00065250858
-0.0082962736 0.033278618 -0.0042280755 0.32459486 0.93681812 -0.13042206 0.00047869366
0.0085302284 0.033690296 -0.0033056587 -0.25908446 0.94707489 -0.18953715 0.00089889299
0.014306176 0.03478872 -0.0052178651 -0.21827729 0.95602256 -0.19589747 0.00070375775
0.016689295 0.035526894 -0.0042150989 -0.19881357 0.96330541 -0.18032156 0.00074271858
0.018919781 0.0358814 -0.0045130402 -0.17976834 0.96248752 -0.20322673 0.00050279667
0.038580824 0.035864335 -0.0049344948 0.26339298 0.94401342 -0.19865282 0.0017461857
0.040704507 0.035268366 -0.0042989203 0.36270395 0.91361356 -0.18372816 0.00076086289
0.043575637 0.034018826 -0.0043388698 0.40757704 0.89238828 -0.19371116 0.00071144832
0.04555748 0.033190392 -0.0034972653 0.45294854 0.87012494 -0.19421679 0.00072350859
-0.021265766 0.038423877 -0.0052600801 0.77998883 0.55116707 -0.29636526 0.0046094665
-0.020066891 0.037224274 -0.004407994 0.66681439 0.66133136 -0.34351033 0.015278187
0.020619873 0.036073215 -0.0051396936 -0.16155815 0.96781635 -0.19295213 0.00069646002
0.022542667 0.036505383 -0.0043155216 -0.14025746 0.97192377 -0.18892333 0.00061044411
0.025698418 0.036859006 -0.0044431807 -0.075917348 0.97856688 -0.19142456 0.00072197354
0.028727895 0.037061468 -0.0045167953 -0.029003436 0.97798336 -0.20665745 0.00094758288
0.031467445 0.03707866 -0.0041497611 0.042725198 0.97735399 -0.20725249 0.0009426914
0.034563657 0.036751483 -0.0044680415 0.13581428 0.96975315 -0.20281355 0.00083747797
0.037246123 0.036367312 -0.0041918806 0.21098685 0.95923364 -0.18803021 0.0012026804
0.039079323 0.036027156 -0.0033879057 0.26335961 0.94402176 -0.19865699 0.0017531725
-0.02201793 0.040389083 -0.0045591197 0.86471522 0.39729723 -0.30728248 0.00340197
-0.023128727 0.043447319 -0.0046205162 0.90971881 0.23590368 -0.34170318 0.0061890776
-0.024035532 0.046345815 -0.0056076944 0.90618491 -0.033095326 -0.42158461 0.026339799
-0.023521079 0.046477389 -0.0044894884 0.94224703 -0.036171764 -0.33295962 0.02079973
-0.022480607 0.049494307 -0.0044504004 0.72812182 -0.65093946 -0.21474737 0.065696336
-0.018914195 0.052053571 -0.0042811395 0.62239057 -0.7498126 0.22452413 0.0093102166
-0.017292786 0.053297419 -0.0043999851 0.58928609 -0.77040976 0.24333252 0.011536277
-0.01570531 0.054665439 -0.0042436956 0.62887287 -0.69968277 0.33906201 0.010459537
-0.014000477 0.056000803 -0.0045980476 0.60712981 -0.61119586 0.50777262 0.012727219
-0.013002979 0.058154207 -0.0039959187 0.57057405 -0.47316074 0.67124075 0.0091032144
-0.011154156 0.059011731 -0.0049534985 0.57488155 -0.43470824 0.69320995 0.0053822338
-0.012292891 0.060465682 -0.0033817589 0.55338651 -0.22805265 0.80109626 0.010828834
-0.01057512 0.061410598 -0.0041743428 0.5014438 -0.27428824 0.82056081 0.012765724
-0.0082483673 0.062251672 -0.0051890425 0.49250537 -0.3426415 0.80002201 0.0088391639
-0.015533564 0.065119043 -0.0036181856 0.51479727 0.35823539 0.77887821 0.018044446
-0.013609102 0.065108009 -0.0045945258 0.39964274 0.46766883 0.78839803 0.025503777
-0.010481657 0.064202584 -0.0041262317 0.24117292 0.42902318 0.87050253 0.031806555
-0.0072602825 0.064680435 -0.0051670354 0.44334048 0.077643208 0.89298421 0.050152496
-0.005252922 0.064456649 -0.0059764534 0.35566455 0.071654372 0.93186277 0.058700006
-0.015394522 0.067456402 -0.0035202564 0.63632846 0.019088428 0.77118212 0.007725806
-0.01422039 0.067508914 -0.004787853 0.64699936 0.021605372 0.76218438 0.0075785997
-0.015854377 0.070637494 -0.0033794313 0.5078764 0.041211899 0.86044359 0.014728176
-0.013499181 0.070443854 -0.0047077215 0.63781369 -0.028042 0.76968014 0.011004799
-0.015795246 0.072688676 -0.0040480644 0.50788629 0.041184168 0.86043906 0.014729394
-0.013037659 0.073168948 -0.0049901786 0.60612035 -0.11595286 0.78687549 0.0067963349
0.07684914 -0.048956137 -0.00151949 0.63952267 -0.73949254 -0.21014659 0.0032600085
0.079518735 -0.046597943 -0.0013271809 0.67167503 -0.71386772 -0.19810468 0.00062944734
0.082698151 -0.043279275 -0.0018449697 0.78946412 -0.55772752 -0.25629345 0.004362388
0.083776094 -0.041062456 -0.002111983 0.87512839 -0.38414937 -0.29424402 0.0030450805
0.084460661 -0.039896671 -0.0012508134 0.89159387 -0.35217562 -0.28466249 0.0021830401
0.085119896 -0.037463885 -0.0018752033 0.90255272 -0.3039875 -0.30494294 0.0013886511
0.086146198 -0.034468666 -0.0017306507 0.92827892 -0.18021531 -0.32530096 0.0029321692
0.08644712 -0.031478927 -0.001755498 0.93489897 0.0035474978 -0.35489622 0.0033625376
0.086007871 -0.028481362 -0.0017076519 0.91517657 0.18564579 -0.35775337 0.00122032
0.083838664 -0.024316635 -0.0029239506 0.52675748 0.57941467 -0.62193668 0.016616944
0.085145079 -0.025430696 -0.0017728386 0.82661068 0.4090251 -0.38654017 0.011692242
0.074088819 -0.021667628 -0.0020485893 0.63694346 0.65750629 -0.40247804 0.051556017
0.076483831 -0.022068802 -0.0018364001 0.22808756 0.91229963 -0.34012571 0.0368522
0.079647124 -0.022001889 -0.0017267583 0.10073698 0.90736699 -0.40808976 0.0037365451
0.082624577 -0.022852469 -0.0017322451 0.39619297 0.80348009 -0.44435439 0.010337912
0.084472753 -0.02363845 -0.00087534264 0.66450942 0.64418817 -0.37874636 0.0077447365
0.073171109 -0.019451696 -0.0017467102 0.88347626 0.34319904 -0.31887949 0.057613473
0.072895631 -0.016514782 -0.0017889045 0.98854107 0.0546843 -0.140699 0.0014130753
0.072874062 -0.013539817 -0.00178406 0.99296671 0.033271085 -0.11362277 0.0005988286
0.07268437 -0.010333982 -0.0017796862 0.9914059 0.061671201 -0.11537359 0.0011173217
0.072478577 -0.0074797608 -0.0017758564 0.99433464 0.047024749 -0.095327467 0.0010545105
0.072379924 -0.0045876997 -0.0017714084 0.99578458 0.066295713 -0.063387185 0.00060084421
0.071891122 -0.00059474644 -0.002135152 0.9783954 0.19593187 -0.065977797 0.0014990659
0.072177894 -0.0018909931 -0.0015946083 0.98924243 0.13665913 -0.052188404 0.0010661376
0.071427338 0.0015043177 -0.0016976285 0.96318775 0.25448364 -0.086645372 0.0013049099
0.070477016 0.0045598899 -0.0016042261 0.94535321 0.31753269 -0.074029215 0.00075134425
0.068874121 0.008586375 -0.0016808361 0.91932553 0.38939327 -0.056688122 0.00023555338
0.069434904 0.0072325598 -0.0014706227 0.93129158 0.35830179 -0.065695159 0.00052024669
0.067982033 0.010621266 -0.0016047801 0.89346755 0.44514576 -0.059673727 0.00058347516
0.065650642 0.014557444 -0.0017198274 0.83828765 0.53909016 -0.081582472 0.00043520003
0.066624269 0.013108863 -0.0015426924 0.85565811 0.51226664 -0.073702842 0.00066980859
0.064202674 0.016708883 -0.0016104421 0.81930423 0.56709647 -0.084511437 0.00052945665
0.061996903 0.019752327 -0.0016575754 0.80142945 0.59555006 -0.055054031 0.00019345531
0.063025229 0.018377131 -0.0011825264 0.81342959 0.57688755 -0.074384354 0.00039218841
0.059242893 0.023302265 -0.0015724845 0.71959186 0.69037604 -0.074621893 0.00058969576
0.060460862 0.021861875 -0.0015698636 0.7782231 0.62454534 -0.065664776 0.00059249008
0.0560445 0.026276447 -0.001677357 0.65480608 0.74681497 -0.11617406 0.00049155083
0.057867154 0.0246877 -0.0015213141 0.6883989 0.71863604 -0.098331854 0.00080361613
0.052633636 0.02904137 -0.0015724209 0.59442997 0.79231977 -0.13741329 0.00028813179
0.054527633 0.027554188 -0.0017956257 0.6241793 0.76833713 -0.14162679 0.00059496227
-0.0061817453 0.032722451 -0.0017071143 0.3033556 0.94925606 -0.082995638 0.0012293524
-0.0046399771 0.032192715 -0.0013618425 0.26791066 0.95978326 -0.083903939 0.0012799749
-0.0021163211 0.031684287 -0.001896444 0.050984565 0.99122787 -0.12193412 0.0072613726
0.00073504006 0.03199175 -0.0013469359 -0.10569926 0.9806993 -0.16448887 0.005003674
0.047165193 0.032617133 -0.0015157405 0.48400578 0.86766988 -0.11352231 0.00033705533
0.049570777 0.031211326 -0.0012073761 0.52841121 0.83927077 -0.12808652 0.00032294969
-0.016536415 0.035418537 -0.0017407574 0.39083576 0.90884238 -0.14578411 0.012611995
-0.013309554 0.034729164 -0.0016426034 0.21560703 0.97380757 -0.07219702 0.00045612632
-0.010442999 0.034181524 -0.0013130401 0.24687748 0.96728325 -0.058435202 0.00069007115
-0.0076844939 0.033341546 -0.0013694242 0.31246719 0.94715124 -0.072586171 0.00038730729
0.010590903 0.034325138 -0.0026313066 -0.24708943 0.95662379 -0.15432976 0.00076700677
0.013661169 0.035271008 -0.0013067275 -0.21119934 0.96695811 -0.14278252 0.00040954651
0.040806957 0.035660312 -0.0013639049 0.35200185 0.93008584 -0.10504779 0.00071666716
