# .PCD v0.7 - Point Cloud Data file format
VERSION 0.7
FIELDS x y z normal_x normal_y normal_z curvature
SIZE 4 4 4 4 4 4 4
TYPE F F F F F F F
COUNT 1 1 1 1 1 1 1
WIDTH 569
HEIGHT 1
VIEWPOINT 0 0 0 1 0 0 0
POINTS 569
DATA ascii
-0.0063129365 -0.019077983 0.032508604 0.2703577 -0.0940632 0.95815384 0.0032893417
-0.0056340843 -0.020846508 0.031993236 0.33055404 -0.11066711 0.93727624 0.0024225691
0.061916575 -0.019679319 0.030142039 0.73230511 -0.067432016 0.67762977 0.00091212784
-0.0067423233 -0.016426381 0.032799248 0.22681662 -0.080242813 0.97062629 0.0018098613
-0.0048811585 -0.016176656 0.032630268 0.23274001 -0.10806382 0.96651661 0.0020704139
0.061329022 -0.012665913 0.031139199 0.72379327 0.012039555 0.68991184 0.0016595486
0.060127243 -0.011874141 0.032455403 0.68507129 -0.00057953451 0.72847581 0.0053566485
0.059733286 -0.0034355698 0.032838829 0.56551534 0.21338364 0.7966553 0.0055283131
0.061064493 -0.0040684575 0.031585298 0.71218717 0.20030096 0.67280686 0.0024469162
0.059123449 -0.0011418222 0.032474682 0.59808624 0.26222095 0.75731963 0.0015705227
0.060934305 -0.0015017808 0.030953249 0.70288116 0.2555292 0.66382456 0.0024419974
0.056969389 0.0026259811 0.032571137 0.58205169 0.3607299 0.72875905 0.0010847778
0.058588732 0.0016349819 0.031683322 0.61849588 0.3399117 0.70846516 0.00060355751
0.060459305 0.00058907369 0.030540125 0.65483189 0.33895233 0.67550462 0.00081615982
-0.013642646 0.005814082 0.032853521 0.026127929 0.23104049 0.97259331 0.010862808
0.053891361 0.0059191785 0.032885902 0.49990666 0.44915912 0.74050623 0.00083633297
0.05599016 0.0046628774 0.03234452 0.52787161 0.3833994 0.7578631 0.00079187646
0.058098815 0.0042430852 0.030773479 0.6002664 0.40238875 0.69120443 0.0013620844
-0.037720568 0.0083757313 0.032951754 -0.1885218 0.32961258 0.92510271 0.0059506129
-0.027124241 0.0084969532 0.032989305 0.1370483 0.34211025 0.92961192 0.0016078645
-0.025487229 0.0082239406 0.03290474 0.089482546 0.4212977 0.90249717 0.0032266281
-0.022496901 0.008517026 0.032736465 -0.062557884 0.39490584 0.91658932 0.003567107
-0.020510554 0.0084567871 0.032976862 -0.0023700711 0.32555613 0.94551975 0.0074742548
-0.015725378 0.0082038036 0.032725688 0.20766345 0.27836362 0.93775773 0.0040420559
-0.013499874 0.007858417 0.032162659 0.11450712 0.32135025 0.9400118 0.013132813
-0.01084082 0.0079393955 0.032322843 -0.12958536 0.42467627 0.89602327 0.002609073
-0.0080763455 0.00833093 0.032661427 -0.21336275 0.46123099 0.86124462 0.00032238467
0.052884053 0.0081213834 0.03218117 0.461716 0.48994523 0.73944032 0.0017753204
0.055306092 0.00734775 0.031200146 0.5169614 0.49253336 0.70011556 0.0015330091
0.057283595 0.0063946587 0.030250527 0.5852682 0.460435 0.66742843 0.00087800832
-0.037048195 0.010320976 0.032114908 -0.15368778 0.44601616 0.88173109 0.0012829069
-0.034590971 0.010644318 0.032278433 -0.11691035 0.46904823 0.8754003 0.00075375021
-0.031595092 0.011046145 0.032404225 -0.033793069 0.48704663 0.87272197 0.00088265759
-0.028412985 0.010800107 0.032376539 0.12549573 0.41539836 0.90094119 0.00096631632
-0.02540925 0.010385004 0.031967867 0.11221018 0.41386166 0.90339768 0.0014919998
-0.022551026 0.010470026 0.031810377 -0.091914482 0.39833772 0.91262192 0.0023638587
-0.01955949 0.010788152 0.032461263 -0.076533511 0.34812009 0.93432063 0.0036308032
-0.016318236 0.010694306 0.032241154 0.22822507 0.37191603 0.89977312 0.0028753704
-0.013522726 0.010570024 0.031047903 0.21141592 0.41960669 0.88274205 0.0071403813
-0.010443213 0.01037711 0.030976847 -0.11152327 0.4849298 0.86741322 0.0025721788
-0.0075836442 0.010524449 0.031551652 -0.21777532 0.47790903 0.85098583 0.00018003478
-0.0046932353 0.01080309 0.032242116 -0.18616094 0.48802647 0.85274512 0.0004784677
-0.0016155784 0.011085544 0.032541525 -0.19373454 0.46520457 0.86374277 0.0012323156
0.00065672398 0.011973109 0.032693867 -0.23182136 0.47798818 0.84722263 0.0011263697
0.047980815 0.011640094 0.032589596 0.32372043 0.60226989 0.72970963 0.0028800827
0.049890898 0.010727895 0.031959794 0.40947685 0.53059387 0.74215823 0.0036781356
0.052313168 0.01019897 0.030917266 0.46446788 0.44253969 0.76709074 0.0048516467
0.054274336 0.0092450688 0.030455165 0.50948179 0.4843187 0.71124095 0.0012483193
-0.036277175 0.012760477 0.030880632 -0.096179359 0.49671909 0.86256576 0.00065298058
-0.034376383 0.013205663 0.030747879 -0.072733663 0.53342253 0.84271592 0.00080097996
-0.031464249 0.013559242 0.030791903 -0.042430393 0.53465813 0.84400254 0.00068767992
-0.02850401 0.013705896 0.030838735 0.044764657 0.52261198 0.85139465 0.0022059989
-0.02576579 0.013440714 0.030693436 0.038381528 0.48603371 0.87309688 0.0032985485
-0.022428561 0.013591756 0.030655166 -0.099532396 0.45880547 0.88294441 0.0027366495
-0.019457003 0.013459435 0.031232251 -0.064978875 0.45569539 0.88776094 0.0035584809
-0.016540304 0.013596947 0.030918673 0.19119415 0.49177527 0.84947151 0.0044705211
-0.013963886 0.012602979 0.030313781 0.19711272 0.46316653 0.86407369 0.0060652024
-0.0095368028 0.012307864 0.030047104 -0.073022485 0.41322574 0.90769607 0.0068916501
-0.007335464 0.012738666 0.030414589 -0.20408791 0.46858892 0.85951877 0.00038353301
-0.0044447682 0.013410362 0.030744394 -0.1705956 0.5099256 0.84313291 0.00080322748
-0.0013761558 0.013547665 0.031166136 -0.21447036 0.51597822 0.82931834 0.0024359734
0.001527531 0.013665031 0.032083504 -0.25419104 0.48362213 0.83755398 0.00043873233
0.0042123329 0.014134826 0.032535426 -0.1919972 0.44612786 0.87413216 0.00067931722
0.0075071342 0.014643988 0.032847375 -0.15828229 0.41118124 0.89770639 0.0015239995
0.0091351122 0.014835155 0.032907546 -0.18384771 0.36177012 0.91395974 0.0007446229
0.032705218 0.013725938 0.032901287 0.16899741 0.2979331 0.9395082 0.014598614
0.034740899 0.013636726 0.032474037 0.038893946 0.4386737 0.89780432 0.03414201
0.037325595 0.014013665 0.032193355 -0.0067330636 0.56597131 0.82439739 0.014615424
0.040527411 0.014230358 0.032375254 0.030396391 0.61972862 0.78422731 0.0062970011
0.04366238 0.014012235 0.03213558 0.16503316 0.62431067 0.76354444 0.0037025232
0.046517648 0.013413233 0.031775396 0.31833628 0.56101489 0.76414943 0.004578202
0.049421117 0.013589765 0.030563969 0.33616984 0.45267463 0.82587862 0.0036453528
0.051567502 0.012803853 0.030205749 0.40972519 0.38401535 0.82744038 0.0012836438
-0.019609824 0.015052061 0.030239616 -0.031436313 0.56238109 0.82628036 0.0029718322
-0.00032676756 0.015285855 0.030314788 -0.21242641 0.57096851 0.79301322 0.0026740723
0.0017924173 0.016051775 0.030732675 -0.29345286 0.55168301 0.78072488 0.0014139301
0.0045570107 0.016483566 0.031315655 -0.23941672 0.50597227 0.82865661 0.0016901975
0.0073887175 0.016559923 0.031895272 -0.18430485 0.44718269 0.87524825 0.00084701867
0.010212527 0.016840037 0.032373466 -0.21319464 0.42067191 0.88180679 0.0022092527
0.012652528 0.017454984 0.032713953 -0.20621911 0.42835194 0.87976611 0.0012495085
0.032248888 0.017133346 0.032725342 0.26755646 0.19510093 0.94358313 0.0033416753
0.034488045 0.016481139 0.031860188 0.28313568 0.22983426 0.93113393 0.0034935144
0.037688076 0.016701739 0.030907383 0.11848605 0.33710888 0.93398005 0.0074330033
0.040436212 0.016507054 0.031104112 0.087056153 0.42808121 0.8995375 0.0039616353
0.043370105 0.016387809 0.030718714 0.18469046 0.48203054 0.85646719 0.001191208
0.046058245 0.015683172 0.030442791 0.25226423 0.52236807 0.81455165 0.0028818706
0.0053182156 0.018579781 0.030285636 -0.26893637 0.55551726 0.78681248 0.0020314609
0.0075811744 0.018857531 0.030648071 -0.20242399 0.52778703 0.82490319 0.00061706506
0.01048937 0.019352525 0.03094466 -0.2080045 0.52106476 0.82778358 0.00042760302
0.013574208 0.019555826 0.031688958 -0.21200548 0.48528695 0.84826308 0.00024853725
0.016395072 0.019685956 0.032303635 -0.13607611 0.48033002 0.86646777 0.00091904902
0.019367794 0.019824488 0.032452028 -0.080415055 0.46396938 0.88219374 0.00033557139
0.022191707 0.020096451 0.03260643 -0.087852664 0.43862963 0.8943634 0.00052486558
0.025452215 0.020589402 0.03269599 0.01247248 0.41995078 0.90746117 0.0027708877
0.028744865 0.020015208 0.032512937 0.16265345 0.39603737 0.90371358 0.001700841
0.031560164 0.01968712 0.032118119 0.24991795 0.34994695 0.90281677 0.002870332
0.03439223 0.019496279 0.031299409 0.29012001 0.33057252 0.89808255 0.0022521536
0.037202422 0.019214233 0.030370928 0.20291686 0.34455118 0.91657472 0.0047810217
0.040529467 0.018733265 0.030062918 0.13667963 0.40896651 0.90225554 0.0022651854
0.011609808 0.021118876 0.030160764 -0.22890507 0.51695824 0.82483733 0.00057011558
0.013947887 0.021870337 0.030406617 -0.23491439 0.50284153 0.83184469 0.00033220026
0.016636988 0.022400806 0.03077906 -0.13567884 0.51546919 0.84609854 0.00087007385
0.019420655 0.022456212 0.031011201 -0.10342585 0.51668704 0.84990442 0.0004934842
0.022516921 0.022461237 0.031417351 -0.089028656 0.49874902 0.86216205 0.0006034628
0.025618343 0.022550253 0.03158813 0.013032434 0.48622757 0.87373501 0.0016534921
0.028504454 0.022515398 0.031293068 0.14279945 0.50703597 0.85001343 0.0010260695
0.031392571 0.022369677 0.030795297 0.20601708 0.49745846 0.84266967 0.0014857288
0.034135003 0.021669563 0.030437673 0.26888874 0.43536171 0.85916179 0.00083112181
-0.031220503 0.026197297 0.03115005 0.58696979 -0.047768921 0.80819839 0.00577068
0.022863241 0.024425564 0.030280074 -0.064417414 0.56308424 0.82388508 0.00088403805
0.025596589 0.024602495 0.030290227 0.017877202 0.57780683 0.81597769 0.0017956549
0.027747383 0.024313053 0.030307189 0.14953323 0.59302211 0.79117924 0.00092330645
-0.066405915 0.029453179 0.031221952 -0.92838293 0.3307043 0.16952822 0.0070083756
-0.033609971 0.027602455 0.032944798 0.6332621 0.030419048 0.77333939 0.0086317994
-0.031772003 0.029203974 0.032136992 0.57544041 -0.041537218 0.81678814 0.0060975039
-0.029400781 0.029779708 0.030664463 0.6569618 -0.033907741 0.75316095 0.0050498
-0.066304095 0.030390574 0.030535178 -0.92838293 0.3307043 0.16952822 0.0070083756
-0.065286852 0.032233339 0.032472271 -0.8837893 0.33409756 0.32755947 0.0044143987
-0.033601724 0.031925984 0.032701105 0.62156546 0.17598581 0.76333827 0.013023676
-0.031417187 0.031518105 0.031621825 0.5449751 0.27920103 0.79060036 0.0027093571
-0.029416384 0.031227896 0.030371914 0.64365023 0.20342387 0.73778927 0.0052599302
-0.064673193 0.034367256 0.031390656 -0.90424013 0.33560714 0.26404101 0.0042374204
-0.036127519 0.035577938 0.032592967 0.59058958 0.44642398 0.67224222 0.0050034188
-0.034223143 0.034618568 0.031911187 0.53399181 0.40236375 0.7436102 0.0058045727
-0.031647567 0.034246981 0.030738983 0.49274597 0.37614647 0.78467518 0.0017468688
-0.06342414 0.037633818 0.031969372 -0.92098218 0.26631606 0.28437236 0.0035679282
-0.036892783 0.037766378 0.032015625 0.64433169 0.41893998 0.63978583 0.00570845
-0.034803886 0.037243988 0.030726559 0.49361542 0.42970067 0.7561093 0.0032326509
-0.032991916 0.036824126 0.030058047 0.44578215 0.44230855 0.77822977 0.00032997821
-0.062662497 0.040808599 0.031738713 -0.9027046 0.25804207 0.34429425 0.0042099478
-0.037579324 0.04030161 0.031334408 0.7635029 0.28134313 0.5812996 0.0064662099
-0.035896726 0.039250884 0.03023049 0.59797949 0.45518476 0.65971768 0.0067260517
-0.061953947 0.04365832 0.031495329 -0.81533468 0.34560838 0.46452579 0.0014347958
-0.038168274 0.043299109 0.031614576 0.83761334 0.1132967 0.53438538 0.0052929721
-0.06077598 0.04655312 0.031444285 -0.71785867 0.46235582 0.5204863 0.0034630261
-0.059397615 0.047247984 0.032645438 -0.65882039 0.52047843 0.54319239 0.0029727742
-0.038291611 0.046411738 0.031716853 0.82056117 0.02987471 0.57077748 0.0050436803
-0.060607173 0.048237503 0.030103112 -0.69970846 0.52960467 0.47950697 0.0024083746
-0.058456615 0.049379382 0.031489823 -0.61483878 0.57811761 0.53642642 0.0012699935
-0.056145322 0.050510261 0.032386776 -0.47551551 0.64015794 0.60339266 0.00051384047
-0.039543983 0.050003126 0.032530036 0.67136741 0.24392505 0.6998331 0.0055492339
-0.038132012 0.049248852 0.031098207 0.71870041 0.1162375 0.68553519 0.0073267384
-0.05733043 0.051412728 0.030367112 -0.55373836 0.62136853 0.55432403 0.0010169776
-0.055301875 0.052256167 0.031144982 -0.45419645 0.6900776 0.56347001 0.00060531654
-0.052835375 0.053129755 0.03197708 -0.34635302 0.71917892 0.60234642 0.0024090423
-0.049734261 0.053748231 0.032561902 -0.15619835 0.76293105 0.62732625 0.0016181532
-0.046520643 0.05395142 0.032738097 0.0078241639 0.74839044 0.6632123 0.002159934
-0.043240834 0.053582393 0.032609515 0.18473524 0.66923165 0.71972346 0.0040107104
-0.040437128 0.052702747 0.031954419 0.40654048 0.50989562 0.7581104 0.007537547
-0.038395192 0.052327424 0.030584605 0.60127443 0.27835822 0.74898988 0.0077877957
-0.052099653 0.05449491 0.030653361 -0.33447671 0.76309162 0.55300683 0.0018480172
-0.049413931 0.054898787 0.03112378 -0.16806734 0.79521233 0.58257258 0.0013098622
-0.046452146 0.055129148 0.03125811 -0.031901151 0.77944326 0.62566 0.0019939707
-0.043528806 0.055105895 0.03119739 0.12123527 0.71695441 0.68649721 0.0070685516
-0.040818967 0.054884128 0.030707572 0.30062324 0.5882529 0.75072247 0.0089366958
-0.038844578 0.054073468 0.030250028 0.40318015 0.48013809 0.7790463 0.0081015155
-0.036621518 -0.057133131 0.034353115 -0.7702859 0.17762235 0.6124621 0.0041216854
-0.035471082 -0.05729818 0.035473853 -0.70067459 0.18257567 0.6897254 0.0086441785
-0.015096515 -0.057105724 0.034748584 0.17181353 0.26527187 0.94874173 0.024245461
-0.012078986 -0.057175606 0.034730166 -0.50365728 0.28988844 0.81381452 0.061244171
-0.036599293 -0.054807451 0.033807945 -0.77898586 0.24679202 0.57643276 0.0035864513
-0.034956776 -0.055299297 0.035611026 -0.60175264 0.23783374 0.76244926 0.0025488797
-0.018405318 -0.054974776 0.035696808 0.28626472 0.21244949 0.93430066 0.0016979184
-0.016297854 -0.055405527 0.035068069 0.26924852 0.23199615 0.93471009 0.0032238709
-0.013331135 -0.055289771 0.034122001 -0.20016333 0.2350059 0.95116085 0.051839452
-0.011276029 -0.055284996 0.03561563 -0.63884008 0.21966457 0.73731327 0.026178923
-0.036001846 -0.053542431 0.034145169 -0.75140673 0.25181341 0.60989988 0.0051709544
-0.034785114 -0.052374441 0.034688365 -0.6564638 0.34891915 0.66881293 0.0056376015
-0.032816857 -0.051154301 0.035549968 -0.49263456 0.43396118 0.75431341 0.0086350357
-0.021901825 -0.051764775 0.035644565 0.28369936 0.39371791 0.8743574 0.0049237926
-0.019815972 -0.052440926 0.035401769 0.22307061 0.35876933 0.90637958 0.0032305343
-0.016793136 -0.052417569 0.034531612 0.26397881 0.31205833 0.91265261 0.0025209039
-0.013800879 -0.052520085 0.033537295 0.058151558 0.34858388 0.93547189 0.019038066
-0.011430179 -0.052010663 0.034333985 -0.56326777 0.31213376 0.76505023 0.040219836
-0.033975583 -0.049680412 0.03383445 -0.50414985 0.62456775 0.59644616 0.0067501855
-0.031591434 -0.049098905 0.034757476 -0.2804974 0.66967416 0.68764651 0.0066454052
-0.028601259 -0.049025726 0.035350408 -0.034299064 0.68484479 0.72788131 0.0036655909
-0.025562473 -0.049053472 0.035037298 0.21168374 0.66365504 0.71746212 0.0085597504
-0.02277077 -0.0493262 0.034335051 0.23328984 0.60140312 0.76412696 0.0062501687
-0.019803245 -0.049606044 0.033970024 0.13195282 0.57290429 0.80893087 0.0072763097
-0.017133415 -0.049796503 0.033611279 0.17869374 0.43913633 0.88047028 0.0056051197
-0.014553569 -0.050678186 0.033372723 -0.017122708 0.41897729 0.9078353 0.023060687
-0.010124698 -0.049650222 0.034187607 -0.5682714 0.50197989 0.65198457 0.019880803
-0.0086593628 -0.04851152 0.035232536 -0.60701114 0.59435087 0.5275268 0.0037776052
-0.031166678 -0.047706414 0.033410471 -0.29858512 0.76787722 0.56675529 0.0074158991
-0.028558645 -0.047664993 0.033804256 -0.036546353 0.80615914 0.59056902 0.0036931324
-0.025819983 -0.047695305 0.033566527 0.11175472 0.78917027 0.60392153 0.0029793992
-0.0075027375 -0.046850007 0.034355879 -0.52839196 0.66651344 0.5258913 0.0042588506
-0.0051694317 -0.04585997 0.035206798 -0.49000791 0.72557956 0.48314223 0.0017438686
-0.004422769 -0.044392481 0.033888668 -0.44312584 0.77731574 0.44656432 0.0024198587
-0.0017519047 -0.043615811 0.034485739 -0.39111874 0.80365956 0.44850579 0.0031096037
0.00024488568 -0.043316409 0.035108145 -0.30867964 0.84583628 0.43506068 0.0047205836
0.053403936 -0.030902147 0.035389036 0.55866146 -0.030980872 0.82881701 0.00029616852
-0.012826894 -0.027092323 0.033132318 -0.0093393009 -0.081163146 0.99665707 0.0032214611
-0.011404991 -0.027222555 0.033095229 0.080125436 -0.061996125 0.99485493 0.0017022735
0.054937977 -0.02815718 0.034307774 0.56397498 -0.02116224 0.82552069 0.0004082497
-0.015938945 -0.024195474 0.033223581 -0.021303847 -0.12048154 0.99248695 0.0015135484
-0.013468981 -0.024501411 0.033135943 -0.0086365985 -0.090131663 0.99589241 0.0024113948
-0.010628139 -0.024293154 0.033195604 0.12332255 -0.063175708 0.99035364 0.0024021189
-0.010323797 -0.021134997 0.033370715 0.14702065 -0.054297235 0.98764193 0.0012304824
-0.0084676892 -0.022215515 0.033059418 0.28197664 -0.059293747 0.9575873 0.0024860865
-0.018621452 -0.020358842 0.033594325 -0.020207452 -0.094579026 0.99531233 0.0033307311
-0.017157614 -0.018866878 0.03402416 -0.031513799 -0.088281766 0.99559689 0.0037694336
-0.013007008 -0.020617787 0.033519723 0.06554997 -0.11427634 0.99128407 0.0012756564
-0.01024662 -0.019625332 0.033369809 0.1690392 -0.051693093 0.98425281 0.0019276355
-0.0080693588 -0.01949903 0.033114385 0.24978931 -0.049253564 0.96704674 0.0018552376
-0.018668447 -0.017023573 0.033651255 0.060644072 -0.10374186 0.99275374 0.010166314
-0.016138291 -0.016388047 0.034257315 0.0024521591 -0.073699944 0.99727744 0.0052113351
-0.013586238 -0.01645468 0.03435874 0.063240223 -0.061447822 0.99610484 0.0064719589
-0.010694742 -0.016757293 0.03366781 0.17794688 -0.055240422 0.98248839 0.0014414258
-0.0080315024 -0.017177906 0.033062302 0.22684158 -0.080235533 0.97062099 0.0018358461
0.056943074 -0.015183245 0.035085406 0.59779793 0.076635174 0.7979753 0.0023764274
-0.033337206 -0.014996381 0.034419041 -0.084957696 -0.18862331 0.97836775 0.0032115057
-0.031464078 -0.013233483 0.035288863 -0.0871903 -0.19390768 0.97713751 0.0037944857
-0.024932781 -0.014027476 0.035418384 0.047389809 -0.23657328 0.97045732 0.0050071818
-0.022521771 -0.014285789 0.035343964 0.14360072 -0.15951408 0.97669548 0.0041237632
-0.019429736 -0.01451242 0.034198791 0.095107161 -0.12379472 0.98773956 0.0094903503
-0.016279757 -0.013505029 0.03377362 -0.089328609 -0.016461128 0.99586618 0.0030985125
-0.014213506 -0.014127078 0.034311712 -0.050874311 -0.072662078 0.99605829 0.0073496923
-0.0076403022 -0.014530002 0.033112854 0.24247184 -0.14461374 0.95931971 0.0023162558
0.055961862 -0.012877005 0.035510957 0.59782922 0.076628827 0.79795253 0.0023584545
0.05822413 -0.012755603 0.03406439 0.60821664 0.023137242 0.79343379 0.0030378078
-0.030570339 -0.010255641 0.035792682 -0.14790614 -0.11167343 0.98267639 0.0043992619
-0.01544103 -0.0090858983 0.033995483 -0.026788589 -0.037937287 0.99892092 0.016531168
-0.013405338 -0.010195251 0.034740482 -0.056171872 -0.050853372 0.99712515 0.007651215
-0.010650069 -0.010129335 0.035116319 0.046452805 -0.12069927 0.99160165 0.010829112
-0.0085967854 -0.010293907 0.034354314 -0.030054105 -0.20344329 0.9786253 0.010130262
-0.0034307688 -0.0095030349 0.035298828 -0.54674816 0.23764315 0.80286497 0.037059829
0.056092232 -0.010818035 0.034916382 0.58851594 0.063967325 0.80595106 0.0037060101
0.057818096 -0.010528327 0.034047458 0.55751061 0.057054143 0.8282069 0.0022430231
-0.043028459 -0.0067913882 0.033961877 -0.4075518 0.12526406 0.9045499 0.0021665858
-0.041299794 -0.0069440645 0.034982115 -0.40749618 0.12525471 0.90457618 0.0021715437
-0.038922273 -0.0074318787 0.035902381 -0.33817539 0.061449066 0.93907481 0.0050227218
-0.031099811 -0.0078345668 0.035785034 -0.069294177 -0.11379123 0.99108517 0.005553856
-0.019120984 -0.0073399562 0.035575073 0.38219044 0.14139573 0.91320193 0.0011036228
-0.0165991 -0.0072771022 0.034326021 0.12346113 0.0050319675 0.99233663 0.022485942
-0.013263765 -0.0075682513 0.034727227 -0.078756019 0.0092878621 0.99685061 0.0072153686
-0.010444113 -0.0073618069 0.034909785 -0.083034322 -0.06795314 0.99422711 0.0092929667
-0.0085566267 -0.0080168042 0.034310572 -0.061453 -0.08351969 0.99460953 0.0055597154
-0.0034065694 -0.0062283198 0.035545804 -0.36201739 0.050890058 0.93078119 0.034341965
0.05553158 -0.0071311756 0.035280723 0.56531143 0.0055001732 0.82485914 0.005189131
0.058183722 -0.0078743668 0.033997387 0.51362222 0.004959642 0.85800213 0.0018912954
-0.042361747 -0.0045076553 0.034167897 -0.40747449 0.12524731 0.90458697 0.0021761816
-0.040247492 -0.0044575999 0.035360154 -0.40753654 0.12528297 0.90455413 0.0022061903
-0.038566679 -0.0030405857 0.035777196 -0.31302664 0.13705447 0.9398033 0.0053697489
-0.021667749 -0.0033652845 0.035681501 0.17559265 0.1560199 0.9720211 0.011450242
-0.019490149 -0.0045669079 0.035186689 0.35239223 0.17834221 0.91870219 0.001491148
-0.016877981 -0.0045367354 0.034159418 0.13655172 0.052545302 0.98923838 0.011453224
-0.013510887 -0.0047266344 0.034397632 -0.16264784 0.0019583139 0.98668224 0.0034614049
-0.011313428 -0.0042371298 0.034954965 -0.14040999 -0.077176161 0.98708099 0.0063203522
-0.0064302683 -0.0032139937 0.035726089 -0.082181834 -0.067150809 0.99435252 0.0012583081
-0.0044094212 -0.0041735522 0.035443284 -0.20533645 0.031488597 0.9781847 0.033582691
-0.0027128533 -0.0041651037 0.035798721 -0.40178147 0.0178937 0.91556078 0.045595385
0.055697158 -0.0046019708 0.035081986 0.55069911 0.08562129 0.83030093 0.004449768
0.058467891 -0.0045868554 0.03390846 0.52027988 0.084428862 0.84981209 0.0030875751
-0.040284466 -0.0015435437 0.034523267 -0.39026004 0.22502346 0.89278299 0.0025839859
-0.037641026 -0.0010526056 0.035563201 -0.31025201 0.29487383 0.90376604 0.0015729503
-0.027631739 -0.0012293063 0.035844684 0.15702379 0.19501905 0.96814829 0.0027616711
-0.025512265 -0.0021083402 0.035662491 0.054235619 0.13119237 0.98987222 0.0063942918
-0.022818249 -0.0019542959 0.035676904 0.13099205 0.083612278 0.9878512 0.012927335
-0.019359009 -0.0017484939 0.034754734 0.30130714 0.056087568 0.95187616 0.0019646683
-0.016309353 -0.0011555081 0.033995077 0.11955822 0.081106588 0.98950875 0.0043453593
-0.013674807 -0.0015005763 0.034126025 -0.1763262 0.09776254 0.97946489 0.0062544458
-0.010443803 -0.000925612 0.035350326 -0.21724541 0.041938283 0.97521567 0.0032435569
-0.0074070864 -0.00081173546 0.035851352 -0.12986314 0.022615315 0.991274 0.0068279966
-0.0050470904 -0.00051113073 0.035823271 -0.11353943 -0.064837515 0.99141562 0.0041562454
-0.002027899 -0.002637798 0.035895914 -0.46189442 0.025441021 0.88656992 0.030073425
0.053799838 -0.00022856334 0.035907023 0.55480254 0.23382978 0.79844713 0.0041820277
0.055828005 -0.001517251 0.034823488 0.53578138 0.16821462 0.82743108 0.0032166191
0.058016989 -0.0016869553 0.033483777 0.53778976 0.22725908 0.81187159 0.0044627218
-0.039974388 0.0010246369 0.033833615 -0.32089952 0.2774097 0.90557569 0.0016668354
-0.037454214 0.0016336829 0.034616817 -0.28397381 0.31567958 0.90537578 0.0026923378
-0.034715708 0.0017574123 0.035356417 -0.14960223 0.3610988 0.9204492 0.0027745881
-0.031313024 0.0020749536 0.035304878 -0.0018960871 0.3773388 0.92607337 0.0020493101
-0.028507004 0.0016814861 0.035187677 0.087067164 0.26779696 0.95953327 0.0034273416
-0.025747713 0.0014010274 0.035275124 -0.041600581 0.21012799 0.9767884 0.0066651879
-0.022228172 0.001916664 0.0357075 0.096575975 0.12899964 0.98693067 0.012675793
-0.019597523 0.0014881454 0.034789082 0.26731139 0.086975142 0.95967698 0.0031200731
-0.016659589 0.0016679754 0.033911526 0.14089118 0.12123752 0.98257375 0.0034944778
-0.013053674 0.0013362813 0.033966742 -0.14376622 0.17805596 0.97346151 0.0094263218
-0.010359094 0.0017179385 0.034837253 -0.27633822 0.22026986 0.93547761 0.0026298335
-0.0076168645 0.0019348185 0.035591092 -0.18546042 0.13808201 0.97290176 0.0059790215
-0.00086010143 0.0020530117 0.035588928 -0.12374429 0.25636172 0.95862722 0.021908805
0.0011724755 0.001610045 0.035581097 -0.26400724 0.28924638 0.92012864 0.018105822
0.053318251 0.0018732874 0.035276584 0.54724073 0.33551261 0.76678467 0.0012998156
0.0552467 0.0014619966 0.03419916 0.5490405 0.31458646 0.77433181 0.00058722857
0.057199612 0.00045759697 0.033311166 0.55902088 0.31623179 0.76648098 0.00079342601
-0.039636794 0.0038371917 0.033407591 -0.22479872 0.20496771 0.9526037 0.0020090765
-0.03746929 0.0041140406 0.033823587 -0.20976566 0.21431647 0.95397419 0.0029439251
-0.034371816 0.004333748 0.034297112 -0.12597729 0.28337047 0.95070022 0.0044696964
-0.032005977 0.0042916592 0.034474064 -0.015834456 0.28266969 0.95908666 0.0036081639
-0.028358575 0.0047659916 0.034418728 0.042389553 0.27324268 0.96101075 0.0023838687
-0.02543781 0.0044586584 0.034582626 -0.043276202 0.31704679 0.94742203 0.0043688393
-0.022521425 0.0044491584 0.034938589 0.042512275 0.30792275 0.95046109 0.0067378096
-0.019608174 0.0042581344 0.034254935 0.1861762 0.25473782 0.94891894 0.0059362529
-0.016417429 0.0046633217 0.033630598 0.17120026 0.19329235 0.96608931 0.0019175194
-0.013506969 0.0039328276 0.033359166 -0.075497001 0.25257102 0.96462846 0.0080832476
-0.010532483 0.0046377797 0.033883762 -0.2385971 0.32385474 0.91552687 0.0024591661
-0.0075352616 0.0044635888 0.034793198 -0.21828794 0.36422324 0.90536833 0.0013563674
-0.0045633018 0.004871496 0.03529368 -0.064396493 0.31322044 0.94749463 0.0054016612
-0.0019251009 0.0043024388 0.035094544 -0.069472358 0.24266632 0.96761906 0.013161764
0.00083142892 0.0050673354 0.035575196 -0.15362658 0.19062814 0.96956676 0.0071981456
0.0053240359 0.0046263277 0.035961825 -0.093144558 0.48085693 0.87183756 0.01594688
0.0075023705 0.0052143587 0.035742912 -0.087118268 0.52330482 0.84768063 0.021025175
0.0099620027 0.0057075075 0.035594419 -0.16021371 0.70243865 0.69347781 0.017040294
0.050537661 0.0050733523 0.03574989 0.51999205 0.39995375 0.7547484 0.0012182971
0.052416842 0.0046248669 0.03448204 0.51925004 0.40032682 0.75506151 0.00094382477
0.054790981 0.0037245823 0.033430919 0.51652724 0.37969881 0.76748192 0.00060802116
-0.039171986 0.0067875027 0.033153407 -0.18363748 0.22395553 0.95714217 0.0030420409
-0.037228823 0.007112815 0.033427533 -0.13932377 0.26055828 0.95535243 0.0036410005
-0.034597851 0.0077036275 0.033542886 -0.10778127 0.28378478 0.9528113 0.0024997296
-0.031324361 0.0076440512 0.033971254 0.016015528 0.28790459 0.95752519 0.0037607746
-0.028587637 0.0074282601 0.033845834 0.11533087 0.34897724 0.93000728 0.0016715575
-0.025546189 0.006918462 0.033540424 0.010005734 0.41778791 0.90848953 0.0035673946
-0.022708314 0.006924015 0.033782024 0.014443412 0.40773273 0.91298711 0.003623571
-0.019562121 0.0072469176 0.033434413 0.049100742 0.25309458 0.96619469 0.0049422774
-0.017017715 0.0073287156 0.033320967 0.14976704 0.22780977 0.9621188 0.003391756
-0.010076103 0.0064450111 0.03327927 -0.18928887 0.42498532 0.88518769 0.0027897495
-0.0074299173 0.0070425929 0.033578895 -0.21240474 0.44649285 0.86921132 0.00050136389
-0.0047195535 0.0075454633 0.03399286 -0.13747148 0.39525461 0.90822655 0.0040348587
-0.001426228 0.007626256 0.034369655 -0.14420459 0.37295967 0.91657305 0.0050412328
0.0015271559 0.0075293873 0.035136934 -0.1688372 0.31074539 0.9353776 0.0024005263
0.0046318164 0.0074836058 0.035441425 -0.0035217144 0.26873913 0.96320653 0.0018012975
0.0076127425 0.0074167019 0.035075642 0.0070034629 0.32341006 0.94623297 0.007047296
0.010753446 0.0075100618 0.035276745 -0.20132227 0.43145785 0.87938243 0.018260986
0.013568401 0.0073510786 0.035401061 -0.24442197 0.50330639 0.82881874 0.028917456
0.016359752 0.0079569044 0.035412222 -0.067131385 0.605919 0.79268885 0.051247373
0.019630088 0.007989483 0.035456561 -0.010297702 0.55920494 0.82896554 0.056172423
0.022408554 0.0075714188 0.035553589 -0.05173815 0.73743308 0.67343569 0.051829144
0.025236441 0.0076836073 0.035731066 -0.002068385 0.6490981 0.76070184 0.043068726
0.028682496 0.0083118454 0.035494931 0.0050178198 0.60085684 0.79934096 0.018003892
0.03085047 0.0086474912 0.035621259 -0.16654411 0.65330404 0.73855048 0.0061372914
0.047020063 0.0086345226 0.035617296 0.34672686 0.55424118 0.75670153 0.00098241435
0.049557529 0.0076410999 0.034799367 0.49076989 0.49592546 0.71638179 0.0013640395
0.051861301 0.0069211056 0.033656295 0.49797824 0.46769923 0.73025692 0.0011871461
-0.033354726 0.0091681983 0.033197224 -0.092384517 0.39373353 0.91457039 0.00091275305
-0.031355735 0.0093976073 0.03326828 0.0061944965 0.39379328 0.91917813 0.0039820443
-0.029056026 0.0092438143 0.033220645 0.1246463 0.40323019 0.90656978 0.0012140645
-0.01849933 0.0090423645 0.033158246 -0.0057711327 0.35010499 0.93669271 0.0072900988
-0.0042928718 0.0092089847 0.033209857 -0.18037203 0.46375185 0.86740994 0.00069330283
-0.0012255652 0.0096681518 0.03345092 -0.17350173 0.47176513 0.86448526 0.0011429166
0.0015216498 0.010475545 0.033817995 -0.18810987 0.41461003 0.89034444 0.0010526966
0.0046057245 0.010501802 0.034298502 -0.090507634 0.36320138 0.92730421 0.0040746084
0.0075641028 0.010629912 0.03433815 -0.023598539 0.30651268 0.95157403 0.0017034246
0.010377918 0.010382187 0.034367319 -0.10714076 0.2482453 0.96275395 0.0023376206
0.013470879 0.010912582 0.034767829 -0.11751375 0.23540121 0.96476775 0.005520029
0.016211271 0.010777979 0.034954872 -0.10563973 0.21185176 0.97157562 0.014571974
0.019504782 0.011715334 0.035356104 -0.050912503 0.12045648 0.99141216 0.0025598241
0.022505587 0.010034704 0.03539107 0.027666528 0.19079673 0.98123956 0.017227896
0.02562133 0.010831465 0.035291515 0.083698988 0.25564337 0.9631412 0.020003695
0.028497435 0.0103189 0.034665208 0.12392551 0.34960788 0.92866397 0.014112161
0.031805526 0.010374094 0.034488633 -0.099496946 0.54967773 0.82943034 0.0088805277
0.034426067 0.010971336 0.034595426 -0.096627846 0.6475004 0.75591409 0.013555319
0.037355807 0.011358412 0.035295933 -0.11244173 0.7233448 0.68127012 0.002313196
0.04047868 0.011426618 0.035215285 0.052891213 0.70415169 0.70807695 0.0012435259
0.043521769 0.011033532 0.035101891 0.17986904 0.65882969 0.73047292 0.0014346921
0.04633924 0.010535466 0.034499824 0.31262767 0.60881811 0.72911203 0.00098133914
0.048771579 0.0099814674 0.033656184 0.44537175 0.57573241 0.68569404 0.0010628955
0.0047316882 0.012785289 0.033329181 -0.15089452 0.41656557 0.8964954 0.0016008841
0.0075270124 0.013227429 0.033429205 -0.073151469 0.36049041 0.92989004 0.0020364807
0.010525126 0.013404244 0.033702292 -0.13814166 0.29639676 0.94502163 0.002853584
0.013570083 0.013878126 0.034277514 -0.14853334 0.2390883 0.95957005 0.0018054084
0.016395085 0.013517153 0.034669314 -0.12511225 0.2423095 0.96209824 0.0018860308
0.01963722 0.013935383 0.035108428 -0.055858072 0.23131883 0.97127312 0.0045823837
0.022625826 0.013475219 0.035152782 0.046789404 0.23683846 0.97042179 0.002331614
0.025536895 0.013620385 0.034701072 0.15180053 0.17757094 0.97232974 0.0035477928
0.028222943 0.013482302 0.034078564 0.19531228 0.19258943 0.96164566 0.0038564219
0.031028133 0.013207816 0.033354618 0.19714545 0.18992963 0.96180058 0.0067810193
0.035094254 0.012216257 0.033456072 -0.048862129 0.63990527 0.76689869 0.012522427
0.037532859 0.01263149 0.033781327 -0.1017988 0.72716117 0.67887682 0.0026995004
0.040599044 0.012929342 0.033678472 0.031261493 0.65801883 0.75235224 0.0061824243
0.043382384 0.012619592 0.033581976 0.16932309 0.69279754 0.70097172 0.0010919507
0.045600101 0.012124879 0.033427618 0.29878074 0.63707107 0.71054244 0.0010793494
0.01123523 0.015512306 0.03329125 -0.19117138 0.36054233 0.91294175 0.00098966563
0.013799753 0.016344475 0.033488069 -0.16214615 0.38037106 0.91050887 0.0019449842
0.016559049 0.01667214 0.033826534 -0.12341046 0.36029327 0.92463964 0.0011745309
0.019482506 0.016524889 0.034119781 -0.054553013 0.35619104 0.93281931 0.0016298451
0.022524895 0.016624676 0.034098946 0.0080756983 0.32805115 0.94462532 0.0022797745
0.025275962 0.016490435 0.034052603 0.084515989 0.25358874 0.96361285 0.0028849577
0.028692402 0.016677152 0.033735257 0.17642142 0.19382972 0.96504176 0.0032361872
0.031061674 0.016602771 0.033192489 0.24671234 0.17852201 0.9525035 0.0036019501
0.017161041 0.018124169 0.033265211 -0.12667118 0.39762095 0.90876406 0.002401372
0.019426281 0.018152952 0.033274323 -0.057350088 0.409228 0.91062802 0.00054448529
0.022907432 0.018804165 0.033287264 -0.05289894 0.39888388 0.91547441 0.0016234476
0.025513733 0.019276744 0.033292104 0.02736133 0.36046314 0.93237209 0.0022932412
0.027911142 0.018828673 0.033262808 0.1330833 0.36737895 0.92050064 0.0024687373
-0.065465093 0.028944246 0.034265805 -0.85874069 0.18138789 0.47923154 0.0055997437
-0.034976304 0.029154079 0.034584839 0.75246578 0.17085147 0.63608575 0.013604197
-0.064346217 0.031547628 0.034885462 -0.79881942 0.28249401 0.53111643 0.0058775605
-0.036498182 0.032471806 0.035622064 0.7626676 0.31715962 0.56369138 0.0066528576
-0.035046343 0.03138395 0.034107756 0.73662525 0.24706256 0.62955809 0.012671911
-0.063766584 0.034031209 0.0340974 -0.83981508 0.31099966 0.44496042 0.0018983422
-0.062866151 0.034968123 0.035011671 -0.85260421 0.29695028 0.42998439 0.0016300158
-0.037066419 0.034727547 0.034642272 0.72616357 0.40955892 0.55222094 0.0041464558
-0.03549286 0.033451129 0.033531994 0.74000865 0.31091848 0.59642005 0.0068413364
-0.063390166 0.036341894 0.033174053 -0.88522226 0.30895749 0.34774527 0.0081541594
-0.062219929 0.037364203 0.034817044 -0.85546523 0.26576874 0.44446176 0.00087803666
-0.039349228 0.037789822 0.035606798 0.79320949 0.35613608 0.4939492 0.0019455196
-0.038242094 0.03736148 0.034121145 0.77628738 0.3716518 0.50916874 0.0015360453
-0.06149165 0.040397935 0.034518905 -0.84077412 0.28802741 0.45840934 0.0014851809
-0.039593611 0.040595613 0.034678448 0.84562582 0.18365297 0.50118709 0.0014599219
-0.038823336 0.039902791 0.033382595 0.81439209 0.20561993 0.54266578 0.0032302977
-0.060767051 0.043180756 0.034064867 -0.78189737 0.3572908 0.51086175 0.0032760061
-0.059361 0.043974634 0.035431694 -0.72023118 0.40845668 0.56074071 0.0020546687
-0.039878558 0.043502964 0.034621835 0.81624925 0.11166587 0.56680506 0.0019901446
-0.060236961 0.045363285 0.03328497 -0.70434231 0.44940379 0.54948896 0.0030983938
-0.058459505 0.046414495 0.034376182 -0.6391685 0.5014838 0.58307606 0.0015737314
-0.056451648 0.047273938 0.035369199 -0.54754478 0.56448406 0.61769933 0.00088779628
-0.040371675 0.046833951 0.034657735 0.68563724 0.26626313 0.67749947 0.00719616
-0.057596084 0.048265491 0.033526067 -0.57342309 0.58385009 0.57472169 0.0019615614
-0.055196524 0.049356401 0.034349628 -0.45438579 0.62848258 0.63130265 0.00027763192
-0.052680254 0.050274473 0.035215978 -0.31515917 0.66887176 0.67326462 0.0023712376
-0.050483894 0.050603222 0.035759401 -0.098762766 0.67847627 0.72795326 0.0025735651
-0.046014115 0.050594758 0.035851367 0.090439454 0.62932503 0.77186179 0.0033718559
-0.043281343 0.050015252 0.035379209 0.37673622 0.50185734 0.77859426 0.012271379
-0.040885221 0.049619373 0.034094699 0.57909137 0.39202425 0.71482176 0.0061044209
-0.054633148 0.051099192 0.033014219 -0.47327226 0.64572561 0.59920937 0.00046909001
-0.0523214 0.051797707 0.033798676 -0.34515753 0.69622642 0.6293925 0.001827084
-0.049569573 0.052274991 0.034257028 -0.16139054 0.72388935 0.67077368 0.0016657823
-0.046670817 0.052364923 0.03434645 0.060835566 0.68517941 0.72582936 0.0035649159
-0.043810274 0.052184876 0.033965264 0.26762095 0.605088 0.74983174 0.0050162286
-0.041478533 0.051604174 0.033442251 0.43348387 0.52765942 0.73052531 0.006269115
-0.024878666 -0.057595648 0.03772011 0.24700886 0.18265383 0.95164287 0.0018003456
-0.021858707 -0.057231702 0.037040398 0.26425183 0.20984051 0.94134897 0.0023991039
-0.018861517 -0.057413712 0.036218897 0.279035 0.17132774 0.94487369 0.0014329463
-0.033543691 -0.055211648 0.036792666 -0.60174018 0.23784237 0.76245636 0.0025754052
-0.031491969 -0.054792792 0.037825387 -0.43966645 0.23882504 0.86582673 0.0085680746
-0.028482625 -0.054833606 0.03843002 0.022104587 0.24420123 0.96947259 0.011686943
-0.025510313 -0.055187989 0.03795426 0.26183257 0.22853081 0.93766594 0.002965356
-0.022156334 -0.055259403 0.036780197 0.26428515 0.20979857 0.94134897 0.0024114957
-0.019921239 -0.055563048 0.036315016 0.26413569 0.22641321 0.93753362 0.00077099475
-0.010141477 -0.055483662 0.037106719 -0.77303994 0.17958474 0.60840666 0.0051097018
-0.0089921057 -0.054706153 0.03846278 -0.78819656 0.20988701 0.57852709 0.0017050972
-0.031672627 -0.052493833 0.036962733 -0.35837215 0.38135704 0.85213625 0.0072282515
-0.02872844 -0.052177195 0.037582636 -0.025664357 0.3787404 0.92514706 0.0076285545
-0.025790693 -0.052321579 0.037266206 0.23423371 0.37288219 0.89782703 0.0045740684
-0.023277413 -0.052630842 0.03647732 0.28326303 0.3905583 0.87591451 0.0050459532
-0.010012925 -0.052500408 0.036577262 -0.7728284 0.31771022 0.54936004 0.0048451852
-0.0086506279 -0.051929336 0.037799828 -0.76292813 0.3150689 0.56451064 0.0047008391
-0.030911393 -0.050795168 0.036411475 -0.30284414 0.52538341 0.79514629 0.0062319092
-0.028646097 -0.050291214 0.036544271 -0.049266044 0.59196937 0.80445331 0.0076577216
-0.026056519 -0.050560355 0.036473352 0.2062528 0.56884313 0.7961641 0.004029077
-0.0075854594 -0.04954385 0.037286751 -0.67322886 0.52057916 0.52512872 0.0032470531
-0.0057391636 -0.048387378 0.037997663 -0.54792261 0.66359746 0.50933206 0.0012545619
-0.0066666603 -0.0479316 0.036404423 -0.57519144 0.64871603 0.49831957 0.0020438468
-0.0044339895 -0.047012173 0.03735422 -0.51713276 0.69392377 0.50104249 0.0017111897
-0.0022778078 -0.045687638 0.037895009 -0.44286317 0.782628 0.43745363 0.0037665686
-0.00091964193 -0.044516433 0.037309669 -0.39641583 0.79781967 0.4542447 0.002771826
0.001296025 -0.044096351 0.037687898 -0.21140479 0.86634552 0.45249677 0.0048613753
0.0040398017 -0.04451726 0.038820986 -0.037834361 0.86071503 0.50767928 0.0060874936
0.048089117 -0.032883555 0.038917396 0.53114617 -0.14242944 0.83522314 0.0017080924
0.054793119 -0.015148832 0.03653378 0.63810015 0.072620243 0.76652104 0.0033526418
0.053018909 -0.012235845 0.038076304 0.67806584 0.083478697 0.73024523 0.00060813082
0.054959103 -0.013469106 0.036296114 0.63810164 0.072611012 0.76652068 0.0033531089
-0.028494341 -0.010264195 0.036502585 -0.079652384 -0.12129742 0.98941517 0.0052220579
-0.026458271 -0.010673821 0.036384568 -0.053537305 -0.1700449 0.98398101 0.0039130999
-0.0024009869 -0.010116693 0.037256151 -0.82951343 0.061938334 0.55504155 0.014433868
0.052079976 -0.010168302 0.038662005 0.60786808 0.11763897 0.78527546 0.0027329465
0.054838076 -0.0093237981 0.036062691 0.62987745 0.027223814 0.77621728 0.0037035991
-0.038139567 -0.0063147726 0.036227915 -0.31531888 0.092432976 0.94447345 0.004430959
-0.032680616 -0.006178529 0.03626762 -0.00021454258 -0.091845915 0.99577314 0.0016145008
-0.028548753 -0.0073351455 0.036403358 -0.086638875 -0.020299796 0.99603295 0.0035359741
-0.025544202 -0.0066244011 0.036844846 -0.0071090711 0.061531708 0.99807978 0.0053488738
-0.022489499 -0.0068500005 0.036779482 0.13498104 0.061479855 0.98893905 0.010060458
-0.020488061 -0.0076094777 0.036206022 0.32131198 0.10600056 0.94102204 0.0056624035
-0.0020465627 -0.0073803454 0.037450675 -0.82950765 0.061940357 0.55505002 0.014430705
0.052972231 -0.0073252465 0.037854362 0.62234777 0.094869502 0.77697045 0.0022075814
-0.037405286 -0.0042565619 0.036358912 -0.28080392 0.12680925 0.95135087 0.0044270046
-0.034604765 -0.0047335192 0.036688708 -0.052143496 -0.027329663 0.99826562 0.0092573781
-0.027674187 -0.0044394913 0.036352575 -0.0050520846 0.026254846 0.99964249 0.010584387
-0.025442149 -0.0045582177 0.036387991 0.013392461 0.18059255 0.98346674 0.0038846559
-0.022401433 -0.0048065819 0.0363154 0.18130124 0.20178348 0.96250361 0.0057124253
-0.0013558832 -0.004378038 0.037495669 -0.68614239 0.30550653 0.66020787 0.02011917
5.3554273e-19 -0.0030189764 0.038589921 -0.71612537 0.438757 0.54282302 0.0014747445
0.050747469 -0.0042633158 0.03893308 0.4013662 0.15430357 0.90282643 0.0066744075
0.052270949 -0.0043629445 0.037851442 0.56494117 0.16643345 0.80817163 0.0023590783
0.05428271 -0.0044878265 0.036055882 0.57422602 0.11190499 0.81101286 0.0044475724
-0.036765575 -0.0017800189 0.036148723 -0.25878587 0.23107888 0.93788719 0.0053338669
-0.034541387 -0.0017554206 0.036545888 -0.15155995 0.19390853 0.9692415 0.0026247068
-0.031505093 -0.0012097731 0.036628429 0.052056789 0.3056528 0.95071888 0.0054014367
-0.028885083 -0.0017185382 0.036400761 0.15695724 0.19499443 0.96816403 0.0027555802
-0.00067492679 -0.0018683703 0.03672399 -0.5078693 0.3172003 0.80090737 0.034537263
0.00095204142 -0.0010489201 0.037820969 -0.62478691 0.44672781 0.64037138 0.037197575
0.049910851 -0.0013754324 0.038645469 0.34616366 0.25338799 0.90330797 0.0067163571
0.052381471 -0.0013945648 0.037195697 0.54344457 0.2068745 0.81355453 0.0029016363
-0.034244768 0.00041848619 0.036098804 -0.14720741 0.34309581 0.92769343 0.0030883821
-0.031543743 0.00061802845 0.036157943 0.022588389 0.33793342 0.94089884 0.0034056758
-0.029550478 0.00033215774 0.036073219 0.11468536 0.25799814 0.95931453 0.0045849774
-0.02284123 0.00020741089 0.036036242 0.09577658 0.066481978 0.99318027 0.0091653606
-0.0041242964 0.0022158797 0.0361683 -0.041065242 0.12282319 0.99157858 0.0080279075
-0.0015622204 0.0013275178 0.036252413 -0.15356487 0.19794901 0.96810848 0.031803619
0.0021221426 0.00085207057 0.03698295 -0.43852034 0.55876774 0.7039023 0.033300869
0.0042861709 0.0018165007 0.037658833 -0.42006013 0.61902946 0.66359025 0.042626165
0.0064476826 0.0026326154 0.038373463 -0.39598224 0.74962813 0.53033537 0.010905292
0.044225764 0.0020937501 0.038852025 0.26455566 0.30284795 0.91558367 0.0032606812
0.046495341 0.0011259596 0.03874398 0.2330222 0.26902264 0.93451995 0.0024148126
0.049549572 0.0015134476 0.037922356 0.38264629 0.30437306 0.87231809 0.0024775167
0.052135039 0.0014038772 0.036507405 0.52794307 0.34042382 0.77806664 0.0012058651
0.0023271069 0.0049967631 0.036072847 -0.21736875 0.24276064 0.94541955 0.01627435
0.0043790829 0.0039335527 0.036250133 -0.14891353 0.40035534 0.90417933 0.021393826
0.0076780873 0.0037733247 0.037256237 -0.27299044 0.7982409 0.5369243 0.012491482
0.010631251 0.0047781384 0.037391122 -0.2479551 0.80240601 0.54282862 0.012710326
0.013470108 0.0055078538 0.037908874 -0.25025323 0.86620748 0.43250206 0.0034977288
0.015565507 0.0058727064 0.038404182 -0.16617303 0.8745423 0.4555901 0.0065050316
0.029798537 0.0059823422 0.038436498 0.0081515498 0.81510395 0.57925737 0.0075670662
0.031295437 0.0058311666 0.038564093 -0.0020809642 0.77066416 0.6372382 0.014986543
0.041443214 0.0051831608 0.038890131 0.25714055 0.29051667 0.92167181 0.0037820896
0.043628838 0.0047679134 0.038473319 0.24101579 0.27160215 0.93174225 0.0010419181
0.046615779 0.0045181098 0.03790728 0.24709709 0.28547773 0.92598355 0.0014609009
0.049353853 0.0043995511 0.036902156 0.45583123 0.40290961 0.79365081 0.0020296613
0.051390871 0.0031895048 0.036226038 0.52300042 0.37023067 0.76772374 0.00099419628
0.014086552 0.0061865915 0.036601961 -0.23259178 0.77321833 0.58994448 0.0099651981
0.016737048 0.0066135367 0.037246618 -0.17587985 0.8877756 0.42534795 0.0055522961
0.019443113 0.0067839194 0.037450284 -0.0041436953 0.92047077 0.39078951 0.0032303052
0.022466943 0.006757698 0.03740906 0.0064107259 0.92894298 0.37016743 0.0016259496
0.025543597 0.0067952983 0.037453622 -0.028757423 0.92063689 0.38935941 0.0043981462
0.028399339 0.0067619774 0.037233684 -0.031371929 0.83359814 0.55147988 0.0081594894
0.031624354 0.007291819 0.037123758 -0.21323735 0.70836014 0.67287129 0.002594193
0.034354351 0.0076937238 0.037878588 -0.21948972 0.60564077 0.76486832 0.0018042962
0.037569825 0.0081357434 0.038386609 -0.076712057 0.54584706 0.83436584 0.0060486305
0.04056409 0.0078547746 0.038303521 0.13838583 0.457923 0.87815481 0.0069140298
0.043568518 0.0077423672 0.037583873 0.2505216 0.44935438 0.85750777 0.0041124094
0.04639649 0.0072723222 0.036812838 0.32387882 0.44930381 0.83260345 0.0035247563
0.048393771 0.0062297829 0.036442406 0.44337136 0.45594245 0.77171129 0.0016776652
0.034698524 0.0095260097 0.036353495 -0.24016289 0.67932475 0.69342589 0.00074031705
0.037476793 0.0098602865 0.036846302 -0.097386189 0.68228483 0.72457117 0.0037802756
0.040438134 0.0098376488 0.036839511 0.088838585 0.62834489 0.77284569 0.0027076378
0.04316894 0.0096003944 0.036493629 0.23421942 0.60821122 0.75843281 0.0018224348
-0.063981377 0.026661959 0.036630556 -0.69903135 0.11574444 0.70566165 0.0042831679
-0.062428821 0.025896175 0.03804829 -0.5932709 0.029212076 0.80447274 0.0039357669
-0.036102369 0.026952719 0.036059264 0.84428602 0.14655592 0.51546329 0.0022514984
-0.063708976 0.028483242 0.036765203 -0.71778059 0.13111828 0.68381214 0.0029390368
-0.062295496 0.029067084 0.038046233 -0.64485836 0.091361433 0.75882196 0.0014885332
-0.036988884 0.028572725 0.037985712 0.85976607 0.13278244 0.49312371 0.0016620574
-0.063305885 0.0313778 0.036475588 -0.74437535 0.23643634 0.6245023 0.0031012692
-0.061796594 0.031366993 0.037924651 -0.67274302 0.15154611 0.72418964 0.0040690452
-0.037316423 0.031551503 0.037514485 0.78680301 0.31895521 0.52840197 0.0019144453
-0.061646283 0.034525499 0.037153643 -0.78622669 0.21213087 0.58038616 0.0058535854
-0.039527737 0.035125405 0.038061377 0.72125757 0.41298184 0.55608761 0.0014218427
-0.038204674 0.034047123 0.037119653 0.75384736 0.40982085 0.51357675 0.0003632748
-0.06077043 0.03792141 0.0372696 -0.80053532 0.2727083 0.53364152 0.0024599817
-0.059684511 0.038506605 0.038749672 -0.76772016 0.26617175 0.58288789 0.0051708915
-0.04053941 0.037490204 0.037634123 0.75343341 0.34409204 0.56030238 0.0056317193
-0.060346432 0.040007509 0.03681457 -0.78000563 0.33400682 0.52917928 0.0028767965
-0.059116423 0.040971678 0.037860997 -0.68477947 0.40585795 0.60527372 0.004678471
-0.042366467 0.041012447 0.038587667 0.65186018 0.23834746 0.71990883 0.0034110986
-0.040988084 0.040347382 0.037021514 0.79179496 0.18649271 0.58161956 0.0041482286
-0.05798611 0.043289829 0.037403237 -0.62306589 0.47139791 0.62415773 0.002446264
-0.055947848 0.044205889 0.038419798 -0.4569039 0.54625612 0.7020278 0.0011169689
-0.042961467 0.043801997 0.038279921 0.55576456 0.29202041 0.77836359 0.0091906926
-0.041422449 0.043513644 0.036835622 0.73348314 0.1742254 0.65699923 0.0049405131
-0.057351701 0.045241065 0.036445506 -0.57510859 0.5187605 0.63256437 0.00078770705
-0.055270307 0.046361513 0.03713537 -0.46764943 0.57376218 0.67238444 0.0012540926
-0.052788746 0.046942934 0.038185999 -0.28519255 0.59595942 0.75066477 0.0035596406
-0.049406439 0.047517546 0.038466942 -0.031719856 0.59755188 0.80120254 0.0031275512
-0.046211615 0.047017261 0.038367037 0.20840155 0.50641608 0.83672667 0.003841171
-0.043554109 0.046488978 0.037579048 0.43749306 0.39625725 0.80720508 0.0065921429
-0.041652549 0.045989938 0.036375143 0.65345871 0.28636947 0.70070273 0.0053182663
-0.052143969 0.048850708 0.036809567 -0.30805367 0.63100827 0.71199119 0.0032056996
-0.049287289 0.049311571 0.037055884 -0.054791369 0.63744456 0.76854563 0.0037780839
-0.046573073 0.049341395 0.036885079 0.13910957 0.58232129 0.80096841 0.0051803328
-0.043758549 0.048687331 0.036509447 0.43212003 0.45952737 0.77595544 0.0067132353
0.016156532 -0.057267137 0.041273795 0.3105787 1.5238142e-05 0.95054764 0.00027508824
-0.0074873865 -0.055019777 0.040684316 -0.73279989 0.18295613 0.65538645 0.0040845629
0.014607206 -0.055773109 0.041647613 0.3105787 1.5238142e-05 0.95054764 0.00027508824
0.01612106 -0.056070693 0.041188914 0.31057137 1.5117255e-05 0.95055008 0.00027859572
-0.0073553305 -0.05214069 0.040077168 -0.7108103 0.33913028 0.61623001 0.0066927448
-0.0057612844 -0.051712096 0.041520678 -0.59643561 0.34607017 0.72422373 0.0083475607
0.014517441 -0.05257529 0.041684274 0.31652024 0.061437104 0.94659412 0.0017652198
