# .PCD v0.7 - Point Cloud Data file format
VERSION 0.7
FIELDS x y z normal_x normal_y normal_z curvature
SIZE 4 4 4 4 4 4 4
TYPE F F F F F F F
COUNT 1 1 1 1 1 1 1
WIDTH 549
HEIGHT 1
VIEWPOINT 0 0 0 1 0 0 0
POINTS 549
DATA ascii
-0.0055514532 -0.040372185 -0.020514164 -0.89179325 0.14373101 -0.42900601 0.033729296
-0.02259673 -0.037208393 -0.018815467 -0.46945605 -0.23613651 -0.85079408 0.0031314769
-0.020015391 -0.03734025 -0.019707957 -0.28622049 -0.28219783 -0.91566491 0.0022458332
-0.017073572 -0.03801012 -0.020041313 -0.29193479 -0.21746449 -0.93138778 0.0021854546
-0.0057348507 -0.037329402 -0.020557739 -0.93334889 -0.14970389 -0.32626447 0.0047261147
-0.024405167 -0.034050111 -0.018633772 -0.58036411 -0.24950105 -0.7751947 0.0010790431
-0.022651324 -0.034474108 -0.019640751 -0.45101747 -0.25587317 -0.85505092 0.0020910853
-0.019920291 -0.034509208 -0.020618429 -0.27142555 -0.28324723 -0.91983652 0.0013415582
-0.017984044 -0.03525234 -0.020694375 -0.24102765 -0.27094167 -0.93193144 0.0011643493
-0.0063077793 -0.035775334 -0.02055867 -0.90460974 -0.23130895 -0.35801879 0.0040455963
-0.025219327 -0.031499993 -0.018832205 -0.55814743 -0.24825139 -0.79173392 0.0027691284
-0.023084963 -0.03147671 -0.0202059 -0.46832249 -0.25091547 -0.8471809 0.002307903
-0.034306969 -0.027213868 -0.018202282 -0.24309053 -0.79790938 -0.55158639 0.0028756221
-0.031399675 -0.027412955 -0.018573038 -0.15582976 -0.79531521 -0.58582485 0.00078953448
-0.028199056 -0.027907088 -0.018869733 -0.30144459 -0.65356213 -0.69425327 0.014222219
-0.02555863 -0.028475406 -0.019613435 -0.36303023 -0.43657529 -0.82317138 0.0097995857
-0.023477523 -0.028906696 -0.020553289 -0.41084811 -0.37125111 -0.83269227 0.0051742531
-0.039442256 -0.024549855 -0.018497474 -0.45779437 -0.71326202 -0.5307368 0.00063456758
-0.037403043 -0.025240025 -0.019215174 -0.39052492 -0.73859322 -0.54951817 0.001089561
-0.034828838 -0.026127784 -0.019624537 -0.24382326 -0.79715014 -0.55236024 0.0028711748
-0.03176938 -0.026226507 -0.020219538 -0.12702313 -0.80878627 -0.57422101 0.00058437017
-0.028919946 -0.026563888 -0.02034455 -0.12972991 -0.77009219 -0.62460238 0.004432647
-0.043241259 -0.021742325 -0.018967912 -0.47873285 -0.6848067 -0.54941303 0.0014899956
-0.040659428 -0.022843117 -0.019687882 -0.45172659 -0.69909751 -0.55426151 0.00075823843
-0.038264941 -0.023632918 -0.020590179 -0.41315645 -0.68335325 -0.60193861 0.00049889844
-0.046049602 -0.019061996 -0.019291569 -0.58073723 -0.53174311 -0.61643612 0.0029983963
-0.044232026 -0.020079641 -0.020091522 -0.5198338 -0.61147755 -0.59654677 0.0031751711
-0.048475768 -0.016135484 -0.018708847 -0.66578937 -0.38710755 -0.63786542 0.0010713582
-0.047055434 -0.01672614 -0.020040318 -0.65846002 -0.42655498 -0.62006557 0.0010927311
-0.051238384 -0.012370954 -0.018344685 -0.68682152 -0.37037802 -0.62537694 0.00109444
-0.049288753 -0.013407011 -0.019512594 -0.67508173 -0.3927356 -0.62451857 0.0002687446
-0.047677979 -0.014422916 -0.020772478 -0.67296147 -0.39093462 -0.62792748 0.00085207628
-0.051713426 -0.010431534 -0.018874403 -0.74780184 -0.25924662 -0.61121488 0.0031695743
-0.05009786 -0.010742546 -0.020357637 -0.72098154 -0.27156651 -0.63752437 0.0029755025
-0.051947434 -0.0075171557 -0.01924655 -0.78291142 -0.096412197 -0.61461723 0.0016597582
-0.05061039 -0.0077008768 -0.02080611 -0.74176806 -0.099053495 -0.66330129 0.0017638175
-0.05176511 -0.00448245 -0.019443516 -0.77001941 -0.052154373 -0.63588518 0.00087748712
-0.050667398 -0.0045009414 -0.020965327 -0.71380752 -0.019841883 -0.70006073 0.0019180987
-0.052118201 -0.0015860802 -0.019341059 -0.75013494 0.019876342 -0.66098595 0.0024846066
-0.050677057 -0.0028308013 -0.020996004 -0.70058805 0.026026001 -0.71309119 0.0018232522
-0.051932979 0.0012856647 -0.019334747 -0.71350199 0.17065354 -0.67955297 0.0019009952
-0.05047961 0.0023107319 -0.02048092 -0.69653726 0.18303697 -0.69378191 0.0016850907
-0.051300675 0.0044556754 -0.018743072 -0.67756277 0.23355401 -0.6973961 0.00066881283
-0.050031532 0.0045841546 -0.019990331 -0.63933742 0.25616786 -0.7250005 0.0021887037
-0.051412851 0.0069898157 -0.018033965 -0.65520126 0.25163352 -0.71231449 0.0010213276
-0.049466237 0.0074517326 -0.019469444 -0.58913815 0.28974345 -0.75429767 0.0012576692
-0.047644172 0.0080124866 -0.020718545 -0.52794802 0.30631369 -0.79211289 0.002097788
-0.048947919 0.010368445 -0.018638832 -0.57313645 0.32979134 -0.75016826 0.00057148811
-0.046601262 0.010558217 -0.020183269 -0.48559609 0.34844947 -0.80173516 0.00077553693
-0.04441807 0.011556714 -0.020935617 -0.44983757 0.35022238 -0.82157797 0.0002469426
-0.048181444 0.012597662 -0.018257767 -0.5552395 0.35049394 -0.75423008 0.00039691164
-0.046466175 0.013628163 -0.018873084 -0.49779949 0.35049653 -0.79331452 0.00056960189
-0.044019058 0.013834563 -0.020147523 -0.43535519 0.35643131 -0.82669371 7.4446456e-05
-0.045604497 0.015892752 -0.018417537 -0.48883098 0.36494392 -0.79237628 0.00045187349
-0.04360513 0.016411608 -0.019275669 -0.44489527 0.36106625 -0.81957269 0.00010824911
-0.040920991 0.016683791 -0.020551935 -0.4437896 0.34970054 -0.825082 0.00029481715
-0.042869475 0.018238671 -0.018889345 -0.43672559 0.38914415 -0.81107181 0.00063305581
-0.040809792 0.019214552 -0.019475233 -0.43281913 0.40893811 -0.8033911 0.0015212088
-0.038881239 0.01905841 -0.020687379 -0.44157812 0.41153631 -0.79727453 0.0014922513
-0.040078618 0.021699242 -0.018417396 -0.35111344 0.37327689 -0.85871047 0.0068931077
-0.036913197 0.021418387 -0.020169422 -0.3914046 0.46726686 -0.79275733 0.0017976785
-0.036422975 0.024534347 -0.018284425 -0.29462498 0.38376239 -0.87517011 0.020308034
-0.046175301 0.050091617 -0.019409832 -0.61332214 -0.7335996 -0.29269007 0.011108357
-0.043727431 0.048946362 -0.019490108 -0.25615677 -0.88515681 -0.38843426 0.0172609
-0.04072408 0.048748512 -0.019474067 -0.10544842 -0.89321429 -0.43709123 0.017589584
-0.038947832 0.048978612 -0.019221172 -0.12266117 -0.91254276 -0.39015371 0.01691043
-0.048604947 0.053192463 -0.019363968 -0.8535471 -0.48573825 -0.18845613 0.0081310542
-0.047454298 0.051780753 -0.019843429 -0.80858952 -0.52567208 -0.26429504 0.0035496089
-0.049394451 0.055385929 -0.019539509 -0.96516085 -0.21384569 -0.15077977 0.0097605465
-0.049494073 0.058682203 -0.019589446 -0.98486382 -0.16684844 -0.046956934 0.0061898506
-0.050391287 0.061519004 -0.019597037 -0.99832731 0.0041974224 0.057662509 0.021177182
-0.049943883 0.064368285 -0.01975647 -0.89525253 0.35878062 0.26419559 0.021512168
-0.049196858 0.066388927 -0.020386539 -0.84135282 0.41597942 0.34508917 0.011100343
-0.047625579 0.066969305 -0.019145973 -0.83011544 0.4281911 0.35715654 0.0097512025
-0.039159585 -0.060115401 -0.015066117 -0.43518713 -0.5119952 -0.74058968 0.049033608
-0.037559055 -0.0601606 -0.015727868 -0.19067897 -0.88184166 -0.43127352 0.02853802
-0.034710865 -0.060300082 -0.016237678 -0.16736864 -0.92602712 -0.33832157 0.023768002
-0.03151492 -0.060344536 -0.016700856 -0.14280315 -0.97152424 -0.1890711 0.029399132
-0.02820142 -0.060406111 -0.016692499 -0.0090022851 -0.99179393 -0.12752949 0.012877642
-0.025641236 -0.060389873 -0.016480595 -0.0058156443 -0.99168265 -0.12857598 0.016792407
-0.022959992 -0.060350657 -0.016270217 0.0030561949 -0.99980938 -0.019286904 0.00036774375
-0.020241354 -0.060309999 -0.016372401 0.039899793 -0.99917114 0.0080622388 0.0001985194
-0.016835248 -0.060106236 -0.016502338 0.045377985 -0.99892449 0.0095134517 9.3942639e-05
-0.040142111 -0.058516331 -0.015354222 -0.54145861 -0.28357026 -0.79146099 0.081722923
-0.037249565 -0.058781233 -0.016635219 -0.44868305 -0.20725764 -0.869326 0.06765487
-0.035139479 -0.058428098 -0.017549112 -0.3890439 -0.1494443 -0.90901661 0.041683763
0.035326779 -0.057786863 -0.01658817 -0.5736329 -0.81156647 -0.1109286 0.011279621
0.037573151 -0.059090782 -0.016705461 -0.5966152 -0.79984266 -0.065589488 0.012498189
0.044895411 -0.058812231 -0.015929932 0.067125373 -0.99519515 -0.071280129 0.00024024099
-0.0399746 -0.055984046 -0.015093528 -0.54950291 0.27166712 -0.79009086 0.0088213151
-0.037738752 -0.055474654 -0.01588968 -0.40772593 0.30685118 -0.86000115 0.00554517
-0.034471773 -0.055735089 -0.017130163 -0.33733687 0.26357371 -0.90373278 0.0012539251
-0.031738002 -0.054990798 -0.017867362 -0.32357815 0.31705874 -0.89149928 0.0017432603
0.0052646622 -0.055288855 -0.016393051 0.037773095 -0.99891204 -0.027346948 6.930964e-06
0.0086180698 -0.055148508 -0.016512979 0.034601644 -0.9989205 -0.030992584 0
0.011818699 -0.055055462 -0.016626913 0.029911675 -0.99907333 -0.030948326 0
0.01483835 -0.055015791 -0.015709097 0.026870897 -0.99908549 -0.033257391 1.2650897e-05
0.015152579 -0.054939583 -0.017429106 0.019351073 -0.99972624 -0.013147688 0.00040418818
0.018386584 -0.054857664 -0.01651665 0.028039066 -0.99921858 -0.027858522 4.1588308e-05
0.021629807 -0.054783106 -0.016282827 0.032881171 -0.99920964 -0.022337003 8.2181286e-06
0.025035609 -0.054679468 -0.016399004 0.01342539 -0.99968815 -0.021054575 0.00029675954
0.02853995 -0.054562651 -0.016518835 -0.13534334 -0.98995757 -0.040818937 0.005567688
0.031503681 -0.05494339 -0.01661393 -0.36141959 -0.92983818 -0.069114551 0.010586102
0.033951867 -0.056176621 -0.016681025 -0.5817154 -0.79183871 -0.18600705 0.013579459
-0.036700167 -0.053511232 -0.015550274 -0.37535268 0.51911557 -0.76787329 0.0062199873
-0.034674052 -0.052839953 -0.015940212 -0.32401237 0.50277519 -0.8013944 0.0049524787
-0.031695034 -0.053070832 -0.017076788 -0.32170516 0.41190842 -0.85254753 0.0010993762
-0.029068585 -0.051381696 -0.01710337 -0.34582922 0.49521852 -0.79696971 0.0010012828
-0.031123959 -0.050674647 -0.015794091 -0.33925369 0.58845115 -0.73391569 0.0023553956
-0.027847495 -0.049102481 -0.016092239 -0.39063111 0.48228058 -0.7841 0.0033903404
-0.025788933 -0.049168184 -0.01710932 -0.39322457 0.41102475 -0.82245553 0.0030198833
-0.023926904 -0.048315968 -0.017667912 -0.43773615 0.27458346 -0.85614896 0.0055114427
-0.027632445 -0.046770003 -0.015036553 -0.59811044 0.32450858 -0.7327742 0.0081070559
-0.025522079 -0.046486009 -0.016184166 -0.5188477 0.24220707 -0.81983703 0.0052465638
-0.022955744 -0.046182122 -0.017528949 -0.381944 0.20594686 -0.9009465 0.0038962562
-0.025329011 -0.043481581 -0.015791727 -0.57390016 0.073040128 -0.81566155 0.0063699302
-0.022872658 -0.043634266 -0.017253319 -0.44014072 -0.0021550418 -0.89792621 0.0084694754
-0.020933032 -0.042842671 -0.017872388 -0.32409921 -0.061089203 -0.94404858 0.0047386419
-0.025368223 -0.040355686 -0.015982641 -0.61994928 -0.15451254 -0.76927811 0.0046173371
-0.022747757 -0.040730506 -0.01759346 -0.42122841 -0.21439773 -0.88124925 0.0048549757
-0.027280238 -0.036659498 -0.015340114 -0.70259839 -0.19818348 -0.68343163 0.004557698
-0.025631556 -0.037560217 -0.016532533 -0.63980818 -0.25964889 -0.72334498 0.0034476074
-0.023623297 -0.03834011 -0.017833361 -0.49369833 -0.25515211 -0.83135992 0.0026119289
-0.027750278 -0.034267064 -0.015672391 -0.72318888 -0.24545066 -0.64556319 0.0035285375
-0.025938854 -0.034692738 -0.017297601 -0.61294919 -0.24753509 -0.75034636 0.0012834896
-0.031547736 -0.030258389 -0.015276782 -0.28501043 -0.73257792 -0.61814123 0.0055614249
-0.027994189 -0.031439971 -0.016305586 -0.6072554 -0.42448056 -0.67160785 0.012907181
-0.02665549 -0.031634908 -0.017814407 -0.55920368 -0.33096933 -0.76009899 0.0061943834
-0.03715672 -0.027686143 -0.016137667 -0.38249794 -0.7075699 -0.59417188 0.0020422756
-0.034480788 -0.028599679 -0.016293487 -0.24397387 -0.75679982 -0.60640812 0.0024289323
-0.031690098 -0.028786555 -0.016845366 -0.23362996 -0.73350739 -0.63826638 0.0059869806
-0.028699253 -0.029229343 -0.017275982 -0.404044 -0.5747968 -0.71158767 0.01430447
-0.042356957 -0.024279121 -0.015906356 -0.46404982 -0.72479969 -0.50923777 0.00064358709
-0.04041921 -0.02535858 -0.016444206 -0.46932283 -0.71688408 -0.5155707 0.00049931346
-0.037916008 -0.026485069 -0.016996209 -0.39588988 -0.72658777 -0.5615527 0.0026327432
-0.048325095 -0.021291817 -0.015473187 -0.53947109 -0.68236464 -0.49330476 0.0055636149
-0.046200559 -0.021991732 -0.016139386 -0.4730444 -0.69971919 -0.53537101 0.0033544216
-0.043552216 -0.02285648 -0.0169133 -0.47405455 -0.7145226 -0.51451886 0.00077712664
-0.041619569 -0.023848787 -0.017641895 -0.46413121 -0.71859509 -0.51788342 0.00058832398
-0.051116414 -0.018222073 -0.015211366 -0.6584276 -0.44452658 -0.60734612 0.00515607
-0.04931695 -0.019304605 -0.016192446 -0.60002452 -0.50490928 -0.62051362 0.0050646318
-0.046926029 -0.020186469 -0.017448047 -0.53040868 -0.55389428 -0.64176917 0.0068898099
-0.051598798 -0.016153373 -0.015665703 -0.72582257 -0.34703341 -0.59392703 0.0014875436
-0.049914617 -0.016694779 -0.017109361 -0.66951144 -0.36517635 -0.64683896 0.00079402397
-0.052306276 -0.013325181 -0.01635842 -0.75522083 -0.33946589 -0.56071782 0.0013339864
-0.050598036 -0.014528518 -0.017521964 -0.6644237 -0.36642331 -0.65136409 0.00074929954
-0.054290872 -0.0099909566 -0.015210276 -0.74990702 -0.25238648 -0.61150682 0.0023650005
-0.053211886 -0.010566886 -0.016693424 -0.78261107 -0.22947204 -0.57867306 0.0017961609
-0.054596335 -0.0074818851 -0.015538568 -0.74347097 -0.14894348 -0.65197152 0.0014029593
-0.053520236 -0.0074566663 -0.017062137 -0.77889651 -0.10371421 -0.61851728 0.0017846369
-0.054951664 -0.0044337395 -0.015874 -0.73564291 -0.12012623 -0.66663271 0.00068468135
-0.053264953 -0.0044525322 -0.017502554 -0.76319879 -0.08970163 -0.63990718 0.0015962542
-0.055190392 -0.0015112418 -0.01619494 -0.73870891 0.0035904581 -0.67401499 0.0033308575
-0.053665772 -0.0016597779 -0.017700391 -0.72676575 -0.014077637 -0.68674111 0.002226166
-0.054753017 0.0013866161 -0.016139602 -0.74127012 0.1580556 -0.65233195 0.0010643508
-0.053403992 0.001762872 -0.017621368 -0.72411561 0.16289634 -0.67016524 0.0015927468
-0.054450642 0.0043946533 -0.015525097 -0.72717685 0.18344988 -0.66148317 0.00075199129
-0.052793033 0.0045709149 -0.017143516 -0.70106727 0.20817523 -0.68203205 0.0006776753
-0.054100007 0.0064460547 -0.015442573 -0.70512605 0.20619339 -0.67844057 0.00051248563
-0.052818272 0.007516738 -0.016434325 -0.69349974 0.21610066 -0.6872834 0.00060305995
-0.051895566 0.010321932 -0.016260568 -0.64517576 0.3085539 -0.69895834 0.00043052778
-0.050257921 0.011115847 -0.017365588 -0.62346876 0.3098543 -0.71782798 0.00040394245
-0.051437821 0.01314675 -0.015317179 -0.6522463 0.38088664 -0.65536261 0.00057947473
-0.049767207 0.013743913 -0.016498394 -0.59436643 0.37441099 -0.71171969 0.0013821677
-0.048940424 0.016407397 -0.015834965 -0.60733145 0.35231721 -0.71205419 0.0029104759
-0.046773132 0.016740607 -0.017325917 -0.50537765 0.36446986 -0.78214777 0.00054460688
-0.048250511 0.018832292 -0.015189588 -0.60043865 0.0807117 -0.79558718 0.01570365
-0.046542645 0.019655472 -0.016054846 -0.49928507 0.20083894 -0.84283936 0.018534951
-0.043802131 0.019562138 -0.017698145 -0.39224809 0.31367713 -0.86472428 0.0046589295
-0.049034581 0.023012711 -0.0152176 -0.43650755 -0.18055691 -0.88139683 0.0068629147
-0.04681557 0.022577412 -0.015855275 -0.44165552 -0.12695278 -0.88815731 0.010412905
-0.044086225 0.022256758 -0.016788291 -0.30575693 0.12799315 -0.94346726 0.016089939
-0.040867891 0.023463786 -0.017443188 -0.25670069 0.15068038 -0.95467275 0.019647285
-0.051117837 0.026200315 -0.015187763 -0.45992377 -0.19543295 -0.86618483 0.0020492866
-0.049641121 0.025179207 -0.015622294 -0.35513937 -0.17123297 -0.91899693 0.0029318708
-0.046509169 0.025325924 -0.016613033 -0.25376707 -0.11160924 -0.9608047 0.0012829064
-0.042812873 0.026446827 -0.017411947 -0.24658158 -0.058185589 -0.96737379 0.0045453459
-0.040729456 0.025322404 -0.017476089 -0.22428347 0.16879359 -0.95979464 0.018225139
-0.051364295 0.028548723 -0.015210184 -0.41905284 -0.071741551 -0.90512311 0.0020727238
-0.04978567 0.028647223 -0.015901983 -0.38130406 -0.055210348 -0.92279965 0.0019742202
-0.047170121 0.028554419 -0.016634408 -0.25176829 -0.070470974 -0.96521842 0.0012841914
-0.043188661 0.028413057 -0.0174265 -0.17521687 -0.071034029 -0.98196393 0.00026643529
-0.051651984 0.031593129 -0.015240358 -0.44739792 -0.016325859 -0.89418596 0.0013051693
-0.049504749 0.031638764 -0.016272914 -0.3516503 -0.035596963 -0.93545443 0.0017787945
-0.047673818 0.030439455 -0.016642481 -0.26408494 -0.068135187 -0.96208972 0.0017138202
-0.043869704 0.031665318 -0.017448261 -0.21336702 -0.032038122 -0.97644669 0.00094072893
-0.051485758 0.034175869 -0.015280093 -0.43669558 0.10364657 -0.89361876 0.0025224637
-0.049768474 0.03454338 -0.016143959 -0.38794136 0.11670653 -0.91426533 0.0027051216
-0.045597825 0.033664409 -0.017410858 -0.19784081 0.0089548994 -0.98019326 0.0023114085
-0.044610418 0.035624962 -0.017478198 -0.22534715 0.090579242 -0.9700588 0.0027306043
-0.049508356 0.037667073 -0.015651289 -0.41942018 0.15488552 -0.89448148 0.0019405311
-0.046757616 0.036671422 -0.016765594 -0.3080706 0.13785113 -0.94132334 0.0015285935
-0.044366188 0.038662843 -0.016883299 -0.24516077 0.14953852 -0.95788014 0.00062410597
-0.049262755 0.040041566 -0.015433952 -0.41899484 0.14250945 -0.89673537 0.0020298029
-0.047179285 0.040621869 -0.015998319 -0.30981654 0.15013431 -0.93886817 0.0015451204
-0.042522367 0.040373217 -0.01697655 -0.2901617 0.090857677 -0.95265472 0.002871922
-0.046758592 0.043955285 -0.015571803 -0.36593428 0.020920437 -0.9304055 0.0094946288
-0.044206571 0.043509953 -0.016306154 -0.32071415 -0.012276815 -0.94709653 0.0084254649
-0.046436999 0.046965744 -0.015808994 -0.53360718 -0.30079684 -0.79043323 0.042664424
-0.043491855 0.046893358 -0.016815552 -0.2503581 -0.44992268 -0.85725749 0.045071058
-0.040926784 0.047519024 -0.017467722 -0.013329886 -0.79569602 -0.60554957 0.061948601
-0.048249573 0.050482821 -0.015606359 -0.80311388 -0.28036481 -0.52574104 0.03731833
-0.046982087 0.049497671 -0.016712708 -0.63123274 -0.58060271 -0.51424277 0.021716697
-0.044163242 0.048333365 -0.017683774 -0.37509632 -0.78648728 -0.4906531 0.040419865
-0.049115583 0.052489311 -0.016470069 -0.87790436 -0.32745308 -0.34936854 0.014755712
-0.047985006 0.051372908 -0.017580599 -0.83511186 -0.38175792 -0.3960419 0.015820941
-0.049726732 0.055465296 -0.016619192 -0.96189994 -0.11541003 -0.24784875 0.0048620598
-0.049951728 0.058561552 -0.016600024 -0.99242806 -0.0014209221 -0.12281903 0.012818692
-0.050019611 0.061460622 -0.016425118 -0.96336162 0.22539161 0.14537196 0.033114661
-0.049169581 0.063853569 -0.016652834 -0.81317639 0.52443403 0.25241446 0.010483664
-0.046923805 0.065495729 -0.015849739 -0.73868561 0.5737775 0.35372722 0.0054977196
-0.047201507 0.066087127 -0.017168611 -0.74398351 0.5534178 0.37445608 0.0046449881
-0.040191744 -0.06015623 -0.013225396 -0.30637541 -0.92322415 -0.23192953 0.021567248
-0.037563317 -0.06031666 -0.013306755 -0.16557567 -0.96084398 -0.22217931 0.022289058
-0.034435503 -0.060437638 -0.013403711 -0.065034263 -0.98408753 -0.16535494 0.021938547
-0.030833254 -0.060448326 -0.01351734 -0.0045114886 -0.9998824 -0.014654169 8.3304338e-05
-0.028475782 -0.060476184 -0.013591476 0.0066167992 -0.99983543 -0.016896488 0.00024015356
-0.025734192 -0.060413461 -0.013678762 0.019590767 -0.99978673 0.0065305606 5.2509536e-06
-0.022831926 -0.060318366 -0.013458602 0.022941796 -0.99968725 0.0099548222 3.4930742e-06
-0.020087998 -0.06027158 -0.013543922 0.039904967 -0.99919522 0.0040632109 0.00021027395
-0.016776508 -0.060091611 -0.012696316 0.032441411 -0.99943823 -0.0084178569 0.00031993023
-0.042578697 -0.058553968 -0.013077298 -0.86196339 -0.26538879 -0.43195823 0.068539679
-0.04152577 -0.05871141 -0.01422909 -0.76782089 -0.26487696 -0.58334488 0.068430111
-0.016343862 -0.059983902 -0.014298514 0.047445606 -0.99884796 0.0071902466 0.00012999114
0.032581989 -0.057496987 -0.012587151 -0.56402147 -0.73021668 -0.38556892 0.0046675908
0.034464668 -0.058475807 -0.013518699 -0.49555516 -0.79130125 -0.3581444 0.010983194
0.037928294 -0.05937336 -0.013679472 -0.18777186 -0.97317278 -0.13295281 0.022452479
0.044282842 -0.058946207 -0.013379365 0.070604488 -0.99627233 -0.049561862 0.00072888291
-0.042229299 -0.056294676 -0.012606928 -0.79622483 0.29030061 -0.53080267 0.0087614702
-0.041064098 -0.055233758 -0.013558798 -0.70009214 0.35445738 -0.61986369 0.013169312
0.0048126518 -0.055400658 -0.013368386 0.030757379 -0.9990499 -0.030875957 0
0.0081006698 -0.055275656 -0.013463989 0.031272285 -0.99896574 -0.033008177 1.3803234e-06
0.011334812 -0.055173595 -0.013557944 0.029330347 -0.99900556 -0.033582076 6.3288695e-05
0.014563963 -0.055082336 -0.013310213 0.029770939 -0.99898559 -0.033786967 5.3546333e-05
0.017673548 -0.055029456 -0.013398044 0.031967986 -0.99906182 -0.029213585 6.115307e-05
0.02126978 -0.054869272 -0.013500314 0.030202391 -0.99905175 -0.03135965 8.2433406e-05
0.02478849 -0.05473822 -0.013600439 -0.018183673 -0.997284 -0.071372531 0.0018621441
0.028293753 -0.054764248 -0.013486999 -0.164028 -0.96357876 -0.21121258 0.010988521
0.031569667 -0.055719085 -0.013662257 -0.41602337 -0.84004074 -0.3482185 0.014633823
0.033538468 -0.056631569 -0.014888391 -0.56276298 -0.77632123 -0.28394222 0.005977232
-0.040264685 -0.053080514 -0.012770698 -0.66544104 0.55839348 -0.4953635 0.0043759453
-0.038328614 -0.052079 -0.013533663 -0.53188008 0.60495609 -0.59256375 0.0093886917
-0.035442077 -0.051576462 -0.014704056 -0.34092683 0.57695842 -0.74221814 0.0029329932
-0.037478141 -0.050889768 -0.012812547 -0.46141204 0.7177555 -0.52146524 0.0064057326
-0.034514889 -0.049880847 -0.013220526 -0.35983223 0.72252381 -0.59032196 0.0049791485
-0.031858958 -0.048958868 -0.01377801 -0.49636579 0.65361279 -0.57132417 0.0069810813
-0.029521815 -0.048287906 -0.014639959 -0.41747746 0.55915511 -0.71628076 0.0045223637
-0.030914335 -0.047399126 -0.012739737 -0.49813035 0.68793571 -0.52783579 0.0050574197
-0.028908296 -0.046137843 -0.013524169 -0.61751902 0.4517799 -0.64386731 0.014985085
-0.028013438 -0.043583538 -0.013457515 -0.77697676 0.17144157 -0.60573512 0.011286934
-0.026930138 -0.042646676 -0.014485255 -0.72188419 0.11945821 -0.68162519 0.0092509696
-0.027924351 -0.040362995 -0.013340754 -0.82653004 -0.039382186 -0.5615133 0.010029824
-0.026903113 -0.041325402 -0.014502813 -0.77804834 -0.056984939 -0.62561446 0.0060075358
-0.028138785 -0.037512366 -0.013580975 -0.84743321 -0.16260108 -0.5053888 0.0064204098
-0.0289224 -0.034533922 -0.013575286 -0.77554655 -0.42628485 -0.46562734 0.01619686
-0.039095357 -0.030177301 -0.01238323 -0.41832477 -0.69311523 -0.58702266 0.004970606
-0.037183858 -0.030618273 -0.012848109 -0.34965655 -0.75759298 -0.5511744 0.0040324256
-0.034570221 -0.030941781 -0.013442958 -0.22748879 -0.80644405 -0.54579931 0.0018049581
-0.031458475 -0.031615023 -0.013559743 -0.41678032 -0.69927722 -0.58078009 0.015212059
-0.029421959 -0.032398582 -0.013991033 -0.62236118 -0.53771919 -0.56879228 0.018534977
-0.042275999 -0.027360437 -0.012322783 -0.57686025 -0.63520819 -0.51355892 0.0008708922
-0.040254198 -0.028178578 -0.013345103 -0.47470656 -0.65904105 -0.58336824 0.0013641255
-0.03758106 -0.029122613 -0.014304704 -0.37773317 -0.70287752 -0.60272777 0.0040661837
-0.045624956 -0.024252106 -0.012751195 -0.48951745 -0.76652151 -0.41571319 0.0031000641
-0.043529287 -0.025363814 -0.013460027 -0.52262515 -0.69289672 -0.49674657 0.0030787424
-0.041243237 -0.026341768 -0.014395199 -0.48414311 -0.67186558 -0.56053734 0.0013870168
-0.049330097 -0.021862801 -0.013206716 -0.56622666 -0.7295143 -0.38366166 0.004920925
-0.046801396 -0.023233386 -0.013714457 -0.48116109 -0.77640957 -0.40702841 0.0035074772
-0.052034017 -0.019310955 -0.013080962 -0.71694279 -0.53883505 -0.44232324 0.0074716513
-0.050395913 -0.020273119 -0.014253405 -0.7101444 -0.51413459 -0.4809995 0.0099567939
-0.054148406 -0.015713679 -0.012311454 -0.82938313 -0.35171115 -0.43407708 0.0041515902
-0.053106967 -0.016615517 -0.013528181 -0.79649067 -0.3321749 -0.50523514 0.0014708776
-0.054662347 -0.013321154 -0.012939842 -0.81592089 -0.31959134 -0.48180345 0.0030018964
-0.05364272 -0.013990104 -0.01422494 -0.80346447 -0.31250957 -0.50673717 0.0028827463
-0.057124443 -0.0098499181 -0.012088377 -0.79323483 -0.34123719 -0.50431693 0.0055088364
-0.055667687 -0.010666893 -0.013435648 -0.77209073 -0.28356296 -0.56874239 0.004575015
-0.057420447 -0.0075340378 -0.012374494 -0.82266772 -0.16632254 -0.54364938 0.004986689
-0.056096312 -0.0076161888 -0.013888637 -0.74729937 -0.1720576 -0.64182538 0.00044737352
-0.057678863 -0.0043679001 -0.0127802 -0.84246165 -0.090825282 -0.53104538 0.0041504498
-0.056503158 -0.0048539247 -0.014228771 -0.80000693 -0.12239642 -0.58737385 0.0038428281
-0.057758626 -0.0016407719 -0.012958734 -0.86232883 0.035643868 -0.50509256 0.0038061296
-0.056662548 -0.0012987015 -0.014431245 -0.77770406 0.031189816 -0.62785643 0.003102791
-0.057419166 0.0014381562 -0.012610557 -0.84223586 0.11996394 -0.52559239 0.0026034492
-0.056228362 0.0016315895 -0.014132001 -0.7693063 0.14589345 -0.62199914 0.00041518526
-0.05726856 0.0046660495 -0.012243509 -0.84821355 0.1342535 -0.512357 0.0020511374
-0.056142889 0.0044457205 -0.013754422 -0.7852962 0.1425688 -0.60248148 0.0031187744
-0.057073373 0.0064359582 -0.012268528 -0.8059659 0.21546958 -0.55135459 0.0045083365
-0.055620033 0.0074424455 -0.013554404 -0.7554158 0.21772045 -0.61801684 0.0028340423
-0.053984758 0.0085355528 -0.014856361 -0.71207911 0.23555683 -0.66140485 0.00057127135
-0.054772455 0.01032601 -0.013202906 -0.72303325 0.31850642 -0.61300606 0.00060824311
-0.053350829 0.010603214 -0.014656941 -0.68271422 0.30190909 -0.66539621 0.00024668608
-0.054401953 0.012777006 -0.012414843 -0.71056068 0.36314952 -0.60268223 0.0010326109
-0.052844252 0.013285668 -0.013816259 -0.68113244 0.36943233 -0.63212204 0.0011053853
-0.051934402 0.015949301 -0.012895997 -0.68690765 0.33677241 -0.64400488 0.0062747467
-0.05033936 0.016832097 -0.013923643 -0.66429144 0.30056867 -0.68437952 0.011411987
-0.051679857 0.020378452 -0.012702393 -0.59842414 -0.099701144 -0.79495168 0.013806573
-0.049788069 0.019441115 -0.013715521 -0.62616473 0.038126845 -0.77875811 0.013884624
-0.052522875 0.022708587 -0.013249751 -0.4872424 -0.31584823 -0.81414658 0.0006957071
-0.049986355 0.022090824 -0.014360107 -0.47118986 -0.23837836 -0.84920895 0.0066515217
-0.05489327 0.025805021 -0.012753097 -0.49334547 -0.24655262 -0.83415943 0.0011973799
-0.052680746 0.025328623 -0.01395991 -0.47622335 -0.21467634 -0.85271645 0.0012659668
-0.0559416 0.028654182 -0.012859032 -0.4652243 -0.14476369 -0.8732754 0.0017873612
-0.053126704 0.0283498 -0.014200564 -0.46585608 -0.09958557 -0.87923878 0.001219382
-0.057219505 0.031500597 -0.012539355 -0.53294969 0.00048953574 -0.84614682 0.0061341356
-0.055108089 0.031555135 -0.013546268 -0.43968725 -0.0250965 -0.89780027 0.0018521954
-0.05292866 0.031164488 -0.014452606 -0.44913185 -0.015704777 -0.89332741 0.0012009785
-0.057203162 0.033625156 -0.012563147 -0.57582694 0.19751483 -0.79335433 0.0051043238
-0.05572626 0.034262244 -0.013243661 -0.46771002 0.1581981 -0.86960948 0.0047465721
-0.052550029 0.034683708 -0.01445592 -0.46698424 0.12539043 -0.87533021 0.0030581676
-0.054900862 0.037636079 -0.012546947 -0.54332983 0.2375253 -0.80521697 0.0038283581
-0.052144904 0.037564952 -0.01409825 -0.51107931 0.1715524 -0.84223968 0.0003419923
-0.050974075 0.038755495 -0.014718115 -0.47474509 0.17353496 -0.86284572 0.0011564875
-0.054395478 0.040492773 -0.012083188 -0.57567096 0.18851566 -0.7956537 0.0037746751
-0.052732937 0.04046772 -0.013278005 -0.53876024 0.1489221 -0.8291921 0.0017213328
-0.050217334 0.040973436 -0.014610603 -0.43614599 0.16083415 -0.88538641 0.0017519568
-0.052889708 0.043609306 -0.012797467 -0.59339672 0.12353244 -0.7953741 0.005283921
-0.049893536 0.043693308 -0.014494594 -0.43789396 0.095144555 -0.89397782 0.0021469088
-0.05263152 0.046466086 -0.012771892 -0.63648391 0.14149353 -0.75820035 0.0067667491
-0.049631495 0.046394769 -0.01453646 -0.50684643 -0.0090389494 -0.86198902 0.010075855
-0.051852036 0.049465895 -0.012503969 -0.67152178 0.151986 -0.72523016 0.0075430614
-0.049499322 0.049616184 -0.014210557 -0.73011136 -0.17487122 -0.6605736 0.031465355
-0.051125526 0.052530318 -0.012297884 -0.7662428 0.065845735 -0.63916844 0.014007496
-0.050110918 0.052540101 -0.014020155 -0.82527804 -0.12074934 -0.55166632 0.019259235
-0.051090889 0.055297952 -0.012605852 -0.92414492 0.073872656 -0.374832 0.013019181
-0.050608627 0.055335347 -0.014190371 -0.9311859 -0.069057837 -0.35794395 0.0040356037
-0.05101981 0.057036486 -0.012347728 -0.96489501 0.1506533 -0.21513045 0.0086772935
-0.050534073 0.058441613 -0.013678369 -0.9778465 0.10264936 -0.18242629 0.0088532297
-0.049641646 0.061342854 -0.013520534 -0.92352229 0.37933609 0.056664404 0.017355934
-0.048543047 0.063004881 -0.01379098 -0.84059298 0.51757109 0.15976071 0.0085081048
-0.047479816 0.064023204 -0.01383587 -0.84038132 0.50237811 0.20340952 0.0082565676
-0.042094909 -0.060273677 -0.0098726712 -0.48751852 -0.83076894 -0.26860496 0.10071218
-0.040766284 -0.06030789 -0.01065331 -0.2732093 -0.94123966 -0.19855602 0.014256348
-0.037946373 -0.060416974 -0.010271763 -0.023808341 -0.99958611 -0.016151173 0.00021892214
-0.03446484 -0.060445212 -0.010356488 -0.0058836895 -0.99996638 -0.0057148742 0.00012134098
-0.030946985 -0.060477555 -0.010441938 0.0061247842 -0.99988037 0.014197802 4.1992105e-05
-0.028194537 -0.060404349 -0.010509817 0.017539902 -0.99971634 0.016112719 9.5220625e-05
-0.025536984 -0.060363412 -0.010575133 0.023589179 -0.99963272 0.013337765 2.6302072e-05
-0.022568753 -0.060252003 -0.010648641 0.024446839 -0.99964172 0.010894748 5.2653249e-06
-0.019994397 -0.060248125 -0.01071136 0.031469952 -0.99949116 -0.0051993146 0.0001871889
-0.017008184 -0.06014929 -0.010468323 0.020627111 -0.99969089 -0.013880671 0.0002411653
-0.043584447 -0.058754701 -0.01070131 -0.77958971 -0.4315654 -0.45386258 0.058023661
0.029711252 -0.057150658 -0.0091414601 -0.59355253 -0.68221474 -0.42694077 0.00082875293
0.031505767 -0.058267687 -0.010107839 -0.44300076 -0.80192614 -0.40083003 0.013193825
0.034536581 -0.059403986 -0.010514957 -0.26704288 -0.93854505 -0.21868064 0.022144966
0.038117364 -0.059571978 -0.01035212 -0.044212472 -0.99727064 -0.059130136 0.0051080137
0.041714076 -0.059508011 -0.010068168 0.040227417 -0.99918252 0.0040000305 0.0031661855
0.042229898 -0.05939519 -0.011519015 0.070618518 -0.99627119 -0.049565881 0.00070232333
0.047563247 -0.058965489 -0.0094618499 0.030290123 -0.99946505 0.012339988 0.003031644
-0.042895366 -0.055879246 -0.010513288 -0.79988778 0.37343562 -0.46981418 0.0055724168
-0.041855324 -0.054430757 -0.010834031 -0.76921576 0.4529309 -0.4507336 0.0021326696
0.0044698194 -0.055485453 -0.010351706 0.029402252 -0.99903047 -0.032764409 5.3279535e-05
0.0076464801 -0.05538727 -0.010423359 0.030330667 -0.9990983 -0.029707687 3.2157317e-05
0.010714613 -0.055325009 -0.010492306 0.028083667 -0.99913758 -0.030586006 8.8091583e-05
0.014188579 -0.055173382 -0.010571007 0.031701423 -0.99893051 -0.033659294 2.0100704e-05
0.017419256 -0.055090725 -0.010643307 0.035053372 -0.99886155 -0.032355662 5.5611716e-05
0.020891372 -0.054959837 -0.010030054 0.02908431 -0.99896324 -0.035021897 9.8315286e-05
0.022088543 -0.054909926 -0.010630061 0.01301646 -0.99848801 -0.053406123 0.00077053142
0.025006138 -0.054924298 -0.010346976 -0.072116069 -0.99102122 -0.1125882 0.0061300029
0.028608877 -0.055518072 -0.010437319 -0.4412291 -0.82694942 -0.34852761 0.016457159
0.030592384 -0.056351319 -0.011278567 -0.49065766 -0.76659435 -0.41423199 0.0062154206
-0.042655393 -0.053411271 -0.0092200907 -0.72995967 0.49333298 -0.47305548 0.0059799962
-0.040814769 -0.052471016 -0.010518066 -0.66797006 0.55999666 -0.49012214 0.0090250326
-0.039561834 -0.050647307 -0.0097160684 -0.5605098 0.70767915 -0.43013832 0.0038600694
-0.037926283 -0.049879134 -0.010369135 -0.47500584 0.76746887 -0.43053555 0.0027549041
-0.03472146 -0.048612248 -0.010871719 -0.42403138 0.8071503 -0.41073811 0.0026984341
-0.033490818 -0.047827628 -0.010497987 -0.47837999 0.7813136 -0.40087605 0.0069653736
-0.031340737 -0.046257146 -0.010469743 -0.63496989 0.63699663 -0.43709096 0.020476593
-0.029870452 -0.045476969 -0.01185634 -0.65511668 0.49209428 -0.57329339 0.013262293
-0.03028257 -0.043813288 -0.0098331757 -0.86552036 0.27201024 -0.42057681 0.008812408
-0.029503357 -0.043230999 -0.011130041 -0.87034202 0.22813782 -0.43641475 0.009620199
-0.030019403 -0.04161761 -0.0093888193 -0.92324376 0.12418124 -0.36359298 0.0044903099
-0.029273713 -0.040440783 -0.0107961 -0.91583425 0.051650248 -0.39822099 0.004871815
-0.029328315 -0.037469376 -0.010696998 -0.91340387 -0.15410058 -0.37675774 0.011611017
-0.034037389 -0.033067249 -0.0096851885 -0.30137697 -0.87627953 -0.37590712 0.0041238894
-0.03108589 -0.033973459 -0.010289461 -0.56273425 -0.65197939 -0.50818604 0.037545834
-0.029678386 -0.034942389 -0.011341651 -0.81518751 -0.42596176 -0.39246136 0.017252417
-0.040080853 -0.030718813 -0.01030433 -0.47934327 -0.79795235 -0.36537939 0.0060984078
-0.037437376 -0.031883609 -0.010467542 -0.29495648 -0.88461095 -0.36119837 0.0031517325
-0.034687117 -0.032406788 -0.010959852 -0.25004867 -0.87213546 -0.42054176 0.0040734429
-0.032023031 -0.032623019 -0.011722599 -0.43353498 -0.72243023 -0.53864831 0.017554272
-0.045153543 -0.027076591 -0.0091824383 -0.59143442 -0.66718376 -0.4528479 0.00053978409
-0.043161973 -0.028205967 -0.010250133 -0.58868957 -0.67596102 -0.44330737 0.0024188173
-0.041333977 -0.029351724 -0.011095793 -0.57601088 -0.68641233 -0.44390273 0.0056977659
-0.048187397 -0.02427645 -0.0091401041 -0.60565645 -0.68990815 -0.39649349 0.0031543758
-0.046337664 -0.025139011 -0.010202225 -0.58999693 -0.70397311 -0.39538011 0.0025814492
-0.044436675 -0.02631516 -0.010977276 -0.59675324 -0.64944333 -0.47128436 0.00058835279
-0.051272258 -0.021315774 -0.010007843 -0.6953001 -0.68293405 -0.22396167 0.0012779777
-0.049577344 -0.02265474 -0.010314808 -0.62784278 -0.72547305 -0.28196147 0.0030857113
-0.047337264 -0.023640094 -0.011301959 -0.55517334 -0.73202091 -0.39487702 0.0039736363
-0.054054309 -0.018059274 -0.0093670785 -0.7883476 -0.54201442 -0.29108158 0.0045793536
-0.052722666 -0.019625241 -0.010312391 -0.73399216 -0.63290507 -0.24634665 0.0040817834
-0.05474446 -0.016382726 -0.010272879 -0.86131829 -0.37437326 -0.34347546 0.0036738601
-0.053830594 -0.017972242 -0.011186894 -0.78817618 -0.53270137 -0.30823305 0.0054176073
-0.055743758 -0.01352864 -0.010275142 -0.86521226 -0.37517345 -0.33264485 0.0037817366
-0.057704829 -0.010303847 -0.010178431 -0.84899288 -0.39942864 -0.34593031 0.0035169041
-0.0566586 -0.011757836 -0.010527843 -0.84232795 -0.43540913 -0.31765136 0.0029077735
-0.058523484 -0.0074898391 -0.010263775 -0.91043013 -0.16709851 -0.37841129 0.0062608281
-0.058722798 -0.0044052457 -0.010208471 -0.93202233 -0.021600267 -0.36175653 0.0035299906
-0.058794703 -0.0015008777 -0.010395325 -0.93384916 0.025657414 -0.35674563 0.0030026503
-0.058617957 0.0014626919 -0.010287066 -0.92731321 0.067732356 -0.36810684 0.0030671428
-0.058112942 0.0044159195 -0.010384738 -0.9013378 0.11993198 -0.41618085 0.0017791855
-0.057654489 0.0073478827 -0.010330875 -0.87475282 0.21979408 -0.43185422 0.0019811301
-0.056674823 0.0086460374 -0.01168903 -0.80443525 0.23576064 -0.54525304 0.0043540946
-0.057253685 0.010069217 -0.0096373968 -0.84615046 0.29239097 -0.44557479 0.0019966105
-0.056335624 0.010593545 -0.010989872 -0.81541198 0.30963379 -0.48911163 0.0016116175
-0.055502981 0.013321204 -0.010422364 -0.80686933 0.31582114 -0.49921834 0.0014997229
-0.053850241 0.014755188 -0.011829779 -0.69516349 0.33254194 -0.63730961 0.0072261272
-0.054651421 0.016337454 -0.0096905828 -0.73182929 0.090687752 -0.67542702 0.018885225
-0.052954447 0.016910931 -0.011127176 -0.66919297 0.17099163 -0.72314781 0.01755422
-0.057068374 0.020766679 -0.0093194395 -0.59655184 -0.38672003 -0.70325923 0.0028402838
-0.055270147 0.019722551 -0.010015258 -0.59614831 -0.32075909 -0.73601693 0.0078540547
-0.052824333 0.019292913 -0.011327561 -0.57565886 -0.18645687 -0.79614741 0.01524875
-0.057794318 0.022854595 -0.0096603688 -0.59352458 -0.40487438 -0.69556117 0.0023320548
-0.055673894 0.022417322 -0.011080814 -0.51351535 -0.34628174 -0.78510565 0.00078109885
-0.053742211 0.02138168 -0.011901803 -0.50067139 -0.34230039 -0.79508412 0.0006842172
-0.060342696 0.026196072 -0.0094486028 -0.73398447 -0.30812317 -0.6052494 0.0068289316
-0.058502626 0.025479674 -0.010572315 -0.61465096 -0.35251209 -0.70564824 0.0030691668
-0.056221657 0.024941813 -0.011746499 -0.5058493 -0.28617492 -0.81376928 0.0010992305
-0.060668368 0.028477175 -0.0095811738 -0.79679918 -0.10477351 -0.59509122 0.0081425915
-0.059071213 0.028423497 -0.01120807 -0.63664961 -0.14050561 -0.75824499 0.010382164
-0.060513448 0.031505466 -0.0096447952 -0.78433496 0.076178655 -0.61564237 0.0063998108
-0.059027847 0.0314789 -0.011239187 -0.60259092 0.016044574 -0.79788888 0.0055069821
-0.060241152 0.033755351 -0.0095658703 -0.77307248 0.20964324 -0.59867233 0.003476413
-0.058738973 0.034565952 -0.010874598 -0.6644069 0.22944219 -0.71128041 0.0029987334
-0.058128763 0.037375312 -0.010188572 -0.66694254 0.30176938 -0.68126571 0.0023970418
-0.056483913 0.037681013 -0.011575535 -0.62653184 0.29451707 -0.72160763 0.0015256371
-0.057450719 0.040062837 -0.0096279047 -0.6665675 0.27839574 -0.69150817 0.00084366056
-0.055807091 0.04070225 -0.010858607 -0.62125099 0.28246975 -0.73092961 0.0014252859
-0.055055451 0.04352241 -0.010597247 -0.73816556 0.21789941 -0.63846016 0.0043049068
-0.054616939 0.046327617 -0.010275067 -0.7793715 0.18521969 -0.5985598 0.0027084607
-0.053745903 0.047001883 -0.011528291 -0.76308858 0.18153718 -0.62027425 0.0025448154
-0.054269753 0.049400654 -0.0097435173 -0.78425717 0.17421035 -0.59547579 0.0025501871
-0.053330243 0.049467877 -0.010992623 -0.7590701 0.20793639 -0.61690772 0.002547726
-0.054195829 0.052223708 -0.0093187392 -0.76160127 0.20662357 -0.6142233 0.0018609833
-0.052735742 0.052651264 -0.010643776 -0.76888132 0.18242112 -0.61281645 0.0036260774
-0.052065983 0.055586644 -0.010402892 -0.86382937 0.23200673 -0.44718203 0.012565053
-0.051327694 0.057722759 -0.010288887 -0.84194517 0.38604781 -0.37695554 0.012355611
-0.050500736 0.059166141 -0.010790605 -0.90736908 0.29966035 -0.29476285 0.015246761
-0.049191747 0.061325699 -0.010758342 -0.88169444 0.46759543 -0.063003056 0.018451551
-0.042908523 -0.060148511 -0.0078971917 -0.34137475 -0.93672806 -0.077484123 0.014257247
-0.040477004 -0.060359988 -0.0071074688 -0.12152452 -0.99255157 0.008560189 0.0068258564
-0.037958004 -0.060420014 -0.00725037 -0.019170931 -0.99975413 0.011142397 6.8443544e-05
-0.034451697 -0.060407002 -0.0074466933 0.00090409076 -0.99982703 0.018575134 6.4916308e-06
-0.030858008 -0.06035015 -0.0071691349 0.0082053449 -0.99981737 0.017255992 2.6185911e-05
-0.027952278 -0.060342479 -0.0074232342 0.012189503 -0.99980736 0.015387771 3.6850168e-05
-0.0254126 -0.060331851 -0.007467282 0.0095344661 -0.99995363 0.001405503 0.00011844565
-0.022618394 -0.060264517 -0.007515979 0.018444341 -0.99982584 -0.0028654775 8.1721271e-05
-0.019755688 -0.060188312 -0.0075658085 0.016201671 -0.99985462 -0.0053155134 0.00026576113
-0.017202668 -0.060197704 -0.0076100351 0.0086426418 -0.99992472 -0.0087160105 0.00034128083
-0.0147029 -0.060227755 -0.0073338933 0.0033225494 -0.99998176 -0.0050339205 0.00027252434
-0.045534112 -0.058372188 -0.0073714647 -0.92368931 -0.32993093 -0.19479135 0.0564439
-0.044598788 -0.059038073 -0.0082767922 -0.87026185 -0.41187027 -0.27019843 0.057427812
0.029123804 -0.058058519 -0.007194493 -0.54580146 -0.76775408 -0.33564037 0.0095850397
0.031180725 -0.059228446 -0.0076578334 -0.43297935 -0.8356927 -0.33785596 0.013411715
0.034389645 -0.059675552 -0.0074396357 -0.078896359 -0.99677938 -0.014363389 0.01449953
0.037916332 -0.05961626 -0.0074925348 0.017978059 -0.99794555 0.061494354 0.0028875924
0.041281525 -0.059602607 -0.0079030944 0.036844272 -0.99353099 0.10741773 0.0029589036
0.043051176 -0.059215575 -0.0064909458 0.051348243 -0.99560243 0.078352153 0.0033641146
0.04655014 -0.05918546 -0.0076272152 0.029164555 -0.99540341 0.091222569 0.0041505685
-0.045304891 -0.05652757 -0.0071494966 -0.96853971 -0.072289675 -0.23812795 0.070690371
-0.044239659 -0.055188753 -0.0078868214 -0.86188501 0.32573116 -0.38865602 0.010797685
0.0073323455 -0.055464461 -0.0077278577 0.024027197 -0.99946451 -0.022212522 3.3896114e-05
0.010238002 -0.055441361 -0.0074379058 0.028223559 -0.99922609 -0.027396942 5.8184512e-05
0.01344434 -0.055353887 -0.0074891476 0.033569679 -0.99912179 -0.025073683 7.3911731e-05
0.016991574 -0.055193763 -0.0075464635 0.031693999 -0.99914432 -0.026573369 9.3445524e-05
0.020292651 -0.055103131 -0.0075989575 0.021068761 -0.99917227 -0.03479781 7.4142117e-05
0.023441823 -0.055058371 -0.0073013604 -0.11892608 -0.98945457 -0.082682349 0.0060072769
0.026161609 -0.055361737 -0.0071075386 -0.44707412 -0.84255588 -0.30037382 0.018881759
0.027763177 -0.056316543 -0.0074996711 -0.53233987 -0.79171473 -0.29966986 0.016821705
-0.043189026 -0.052524362 -0.0072119646 -0.79083169 0.55341291 -0.26137984 0.011104628
-0.041719899 -0.051479135 -0.0084518865 -0.73253876 0.58775818 -0.34340557 0.015841398
-0.042044207 -0.05094672 -0.007242389 -0.68325394 0.67355746 -0.28192985 0.012158607
-0.040597443 -0.049897846 -0.007122729 -0.55833703 0.78384387 -0.27175078 0.0062135383
-0.037834533 -0.048776105 -0.0079394653 -0.43892375 0.83264869 -0.3377012 0.0011073513
-0.034609146 -0.047129463 -0.0073959706 -0.48814249 0.81647348 -0.30836332 0.015853325
-0.031828519 -0.045592666 -0.0077200062 -0.77780867 0.59411114 -0.20505014 0.032838885
-0.030940836 -0.043523259 -0.007483107 -0.93344486 0.30802011 -0.18385975 0.0078409128
-0.030353824 -0.040467124 -0.007460901 -0.98847741 0.12172048 -0.089980938 0.012814031
-0.030343691 -0.037387688 -0.0073941532 -0.94733822 -0.2850804 -0.14587499 0.017711699
-0.029984832 -0.038333293 -0.0087888241 -0.97206175 -0.14338654 -0.1858394 0.016608385
-0.036333796 -0.033171367 -0.0068365731 -0.28403595 -0.93100655 -0.22923858 0.00078179734
-0.03446256 -0.033612359 -0.0073913955 -0.33851403 -0.91092598 -0.23584333 0.0016777207
-0.031366061 -0.034942143 -0.0076141297 -0.71451283 -0.66064793 -0.23025136 0.038066775
-0.042562481 -0.030282037 -0.0068579591 -0.52425838 -0.79607493 -0.30235389 0.0015820158
-0.040565599 -0.031195337 -0.0074304673 -0.46025661 -0.84433758 -0.27433178 0.0013018321
-0.037794646 -0.032398354 -0.0075268289 -0.35616261 -0.90484142 -0.23325981 0.00059299282
-0.035665259 -0.032949593 -0.0087159574 -0.25278074 -0.93441427 -0.25094178 0.0021853528
-0.046077207 -0.027708175 -0.007000911 -0.60380006 -0.7010482 -0.37941656 0.0022001625
-0.043894507 -0.029059662 -0.0075810412 -0.55585515 -0.76181221 -0.33266675 0.0011592023
-0.048746284 -0.024886128 -0.0069187325 -0.69588757 -0.64389598 -0.31802264 0.0043185875
-0.047320109 -0.026138281 -0.0077508991 -0.66541535 -0.65508229 -0.35789609 0.002749892
-0.051674835 -0.021683553 -0.0070532337 -0.66842288 -0.69915205 -0.25376609 0.0016775512
-0.050058555 -0.023058072 -0.0075581721 -0.68969822 -0.6755088 -0.26077613 0.0015275228
-0.054700825 -0.018808635 -0.006819102 -0.74550647 -0.58580112 -0.31789476 0.0033527815
-0.053106617 -0.019997604 -0.0074912589 -0.70351672 -0.6545071 -0.27692002 0.002176522
-0.055897854 -0.016514027 -0.0072311265 -0.86355662 -0.37580329 -0.33621699 0.0033531245
-0.057192728 -0.012957296 -0.0064952821 -0.88059598 -0.36685848 -0.2999427 0.0035050497
-0.056562599 -0.013590795 -0.0076997438 -0.8724286 -0.37739781 -0.31054652 0.0031079892
-0.058420461 -0.010444694 -0.0071857045 -0.85542047 -0.43299678 -0.2842001 0.0016721215
-0.0602649 -0.0072775632 -0.0064508077 -0.90931219 -0.25869334 -0.32592809 0.012684211
-0.059544478 -0.0077352384 -0.0078277197 -0.90656799 -0.19443783 -0.37460431 0.0079359822
-0.060387913 -0.0049283607 -0.0064009223 -0.92746574 0.059579276 -0.36913079 0.0030515331
-0.059481166 -0.0042641875 -0.0078534335 -0.9269526 0.022789361 -0.37448558 0.0041309879
-0.060045768 -0.0028906853 -0.0060404092 -0.92789906 0.037742101 -0.37091619 0.0031479809
-0.059370648 -0.0013995913 -0.0072414931 -0.94656914 0.015648996 -0.32212099 0.0029389458
-0.060237985 0.0017475568 -0.0062364531 -0.93943661 0.0052895052 -0.3426818 0.0032406822
-0.059497315 0.0012827336 -0.007750059 -0.9345386 0.016000031 -0.35550195 0.0032315298
-0.060152128 0.0036866346 -0.0062773973 -0.92996746 0.14122584 -0.33943465 0.0032096426
-0.059426498 0.0045679999 -0.0074877916 -0.91076928 0.15441969 -0.38295418 0.0018612788
-0.05892488 0.0074719707 -0.0073074913 -0.91294873 0.21875067 -0.34448907 0.00019878276
-0.058090761 0.010465696 -0.0074732741 -0.89242351 0.2583957 -0.36988086 0.0009366101
-0.057581056 0.012971247 -0.0067792339 -0.87377465 0.2096549 -0.43881971 0.0044776076
-0.05651322 0.013994135 -0.0079617091 -0.85014564 0.27637017 -0.44818741 0.0045932434
-0.057220969 0.016790321 -0.0062922314 -0.79468352 -0.10899195 -0.59715903 0.018717844
-0.056099016 0.01650228 -0.0077733002 -0.84438068 -0.017467994 -0.5354588 0.020463441
-0.058185034 0.019830119 -0.0071216719 -0.67574245 -0.40862697 -0.61351132 0.0025585019
-0.056371406 0.018810995 -0.008214416 -0.7146793 -0.37896073 -0.58789641 0.0041187736
-0.06067476 0.022856921 -0.0065844967 -0.69889396 -0.41142026 -0.58504748 0.0015544065
-0.059063092 0.022201693 -0.0079777027 -0.66730696 -0.42300779 -0.61299741 0.00091247214
-0.061344091 0.025475789 -0.0074881222 -0.81051111 -0.25595751 -0.52683729 0.011038764
-0.059789266 0.024230327 -0.008670032 -0.70893371 -0.36959159 -0.60067886 0.0026902996
-0.061777383 0.028478261 -0.0073670396 -0.89821005 -0.0070118462 -0.43951055 0.0016408224
-0.061612196 0.031484071 -0.0074188286 -0.90038264 0.079041384 -0.42785931 0.0007748754
-0.061170358 0.034463104 -0.0074410704 -0.85677505 0.15578525 -0.49159685 0.004631008
-0.060854543 0.037355885 -0.0069270902 -0.78991836 0.17224519 -0.58852416 0.0029929839
-0.059485141 0.037797946 -0.008422019 -0.72317374 0.27403718 -0.63397431 0.0019794123
-0.060340844 0.040346183 -0.0065242527 -0.75135326 0.25836936 -0.60721779 0.0019580417
-0.058762621 0.040584166 -0.0080613047 -0.69134998 0.27426764 -0.66844022 0.00077666255
-0.058580033 0.043188434 -0.0073528015 -0.74392861 0.30539447 -0.59439415 0.004128783
-0.056490395 0.044365745 -0.0086793154 -0.68803132 0.27408272 -0.67193121 0.0012538832
-0.057947826 0.04599186 -0.0067191422 -0.74832636 0.34583312 -0.56604517 0.0044107097
-0.055783629 0.046854064 -0.0082165487 -0.78187305 0.24096139 -0.57498878 0.0034172076
-0.055529207 0.049528509 -0.0077398098 -0.84201276 0.13192917 -0.52307677 0.00089349149
-0.055415507 0.052292496 -0.0074922061 -0.80387777 0.16855675 -0.57041144 0.0025560942
-0.054816246 0.055260513 -0.0069978964 -0.72395563 0.2835789 -0.62886512 0.0040262998
-0.053692978 0.055646781 -0.0082273558 -0.73957133 0.30207372 -0.60148621 0.0023269365
-0.054386731 0.05726786 -0.006451726 -0.73035043 0.29840645 -0.61444432 0.0022263872
-0.052417658 0.058143012 -0.0079117268 -0.75626361 0.37273309 -0.53771317 0.0056393286
-0.043534487 -0.060041796 -0.0053675449 -0.51579982 -0.85664487 0.010488584 0.057258178
-0.040793288 -0.060238045 -0.0045007551 -0.078967705 -0.99547672 0.052822944 0.00052566308
-0.03761531 -0.060330272 -0.0042329342 -0.017240634 -0.99929398 0.033381905 4.8866859e-05
-0.034654927 -0.060360257 -0.0040007406 -0.00090919423 -0.99975497 0.022117287 0.00012331658
-0.031292312 -0.060331073 -0.0045261607 -0.00028788706 -0.99993342 0.011531526 6.077376e-05
-0.027863225 -0.060319733 -0.0043314635 -7.6107215e-05 -0.99999952 -0.001010011 5.9304217e-05
-0.025328547 -0.060310513 -0.0043568881 0.03030082 -0.99950182 0.0088270176 0.00061062729
-0.02300893 -0.060362995 -0.004379937 0.029683594 -0.99944156 0.015347159 0.00079107902
-0.020135935 -0.06028359 -0.0044090748 0.035548702 -0.99787921 0.054528687 0.0048980783
-0.017698264 -0.060321085 -0.0044332654 -0.013320345 -0.99841601 0.054663856 0.0045253057
-0.014913526 -0.060279857 -0.0044615478 -0.041009892 -0.99242985 0.11576298 0.0079696132
