# .PCD v0.7 - Point Cloud Data file format
VERSION 0.7
FIELDS x y z normal_x normal_y normal_z curvature
SIZE 4 4 4 4 4 4 4
TYPE F F F F F F F
COUNT 1 1 1 1 1 1 1
WIDTH 553
HEIGHT 1
VIEWPOINT 0 0 0 1 0 0 0
POINTS 553
DATA ascii
-0.038322344 0.042486317 -0.0091893282 0.36103174 0.69808328 -0.6183331 0.00055634894
0.050535977 0.043302171 -0.011033508 -0.22926636 0.55193371 -0.80175191 0.0004109398
0.052841343 0.043918625 -0.011391843 -0.18633382 0.52423209 -0.83093947 0.00096170825
0.055142894 0.044444423 -0.011608773 -0.15854175 0.51331961 -0.84342605 0.002014973
0.058255117 0.044762015 -0.011868723 0.015377528 0.39781541 -0.91733664 0.002284823
0.06250339 0.044169836 -0.011657566 0.30214405 0.21389583 -0.92895508 0.0031012928
0.064908773 0.043340992 -0.011029355 0.45976153 0.11776876 -0.88019872 0.0031574338
0.067141049 0.043334361 -0.009723179 0.58666492 0.061865378 -0.80746329 0.0033015832
-0.066482455 0.046229254 -0.0092766928 -0.53386116 0.0043768617 -0.84556085 0.0040137111
-0.06435737 0.046738043 -0.010280997 -0.35963389 0.15856449 -0.91952205 0.0040422315
-0.061481286 0.046249188 -0.011453456 -0.29860562 0.22423539 -0.92766005 0.0045170486
-0.058470767 0.046891052 -0.011666338 -0.082752511 0.39023241 -0.91699004 0.0044339253
-0.05533142 0.047098648 -0.011513402 0.071687452 0.50362664 -0.86094207 0.0031557542
-0.05244584 0.046772305 -0.011277903 0.1752515 0.57914096 -0.79616749 0.0018606283
-0.049464557 0.046384197 -0.010687898 0.24916627 0.63141376 -0.73432475 0.0026864733
-0.046634104 0.045880172 -0.010006624 0.31465879 0.6825034 -0.65968102 0.0023946029
-0.044606715 0.045603205 -0.0092894705 0.32946405 0.69395506 -0.64021862 0.0019972718
0.052618463 0.045670029 -0.0099355923 -0.21301055 0.56171513 -0.79943901 0.0006158959
0.055972889 0.046216346 -0.010604834 -0.1477887 0.51861984 -0.84213531 0.001389116
0.058885828 0.046294507 -0.011086558 -0.0041490579 0.44115132 -0.89742309 0.0031893821
0.061588947 0.046383839 -0.011049028 0.12000344 0.37285811 -0.92009562 0.0040978896
0.064731933 0.046227816 -0.010366334 0.40912625 0.19912803 -0.89048511 0.0039981082
0.066816293 0.046115179 -0.0095273769 0.55466384 0.1292831 -0.82196951 0.0036684475
-0.066422492 0.049030557 -0.0091659352 -0.4984026 0.083273657 -0.86293697 0.0023678509
-0.064523704 0.049407154 -0.0095408931 -0.21310656 0.32656953 -0.92083549 0.0056547127
-0.061653554 0.049634695 -0.010029736 -0.11207407 0.42946264 -0.89610344 0.0058160755
-0.058531236 0.049205005 -0.010423685 0.025406444 0.51077521 -0.85933876 0.0041344692
-0.055548567 0.049216166 -0.010071672 0.13440791 0.59636813 -0.79137832 0.0031081066
-0.052759841 0.048709616 -0.0097646406 0.24439579 0.64694107 -0.72231436 0.0024203274
-0.049966957 0.048247289 -0.0090812221 0.31760031 0.68224531 -0.65853733 0.0019049631
0.055611704 0.048146497 -0.0090290448 -0.1974522 0.57164353 -0.79638958 0.00051996519
0.059068017 0.048589036 -0.0096779158 -0.10213095 0.53011578 -0.84175205 0.0014732946
0.061675746 0.048996594 -0.0097340392 0.032377556 0.44729203 -0.89380175 0.0031003191
0.065103754 0.048835795 -0.0094186943 0.34227115 0.27763945 -0.89764518 0.003486654
0.066417523 0.048692677 -0.0091306055 0.35546151 0.29872203 -0.88567054 0.0058718249
-0.064328037 0.051086463 -0.0091143232 -0.18328765 0.38527948 -0.90441436 0.0096394736
-0.061533321 0.051273238 -0.0090977447 -0.039563444 0.51493448 -0.85631609 0.005914744
-0.059163593 0.051043093 -0.0091101369 0.072972275 0.6098218 -0.78917199 0.0013253748
-0.0097710174 0.002871474 -0.0061761346 -0.16407572 -0.86874139 -0.46729818 0.0011997463
-0.0072474997 0.0027087955 -0.0065393238 -0.12519662 -0.86923569 -0.47828358 0.0017307656
-0.004351066 0.0024729499 -0.0068732728 -0.093081333 -0.86782664 -0.4880704 0.0018134977
-0.0014869595 0.0023636234 -0.0070525557 -0.052374881 -0.8705892 -0.48921499 0.0018691268
0.0014917507 0.0023033675 -0.00718559 -0.031409491 -0.87135136 -0.48965329 0.0019409886
0.004517932 0.0022272542 -0.0072056651 0.00059537013 -0.8755995 -0.48303744 0.0018389658
0.00748127 0.0022996061 -0.0071779913 0.029733697 -0.87716508 -0.47926748 0.0019424758
0.010500669 0.002384254 -0.0071231164 0.055376608 -0.8812651 -0.46936703 0.0018038306
0.01345221 0.0025346179 -0.0068876888 0.091483168 -0.88303262 -0.46030897 0.0017620343
0.016359633 0.0027378707 -0.0065819263 0.11775985 -0.88861889 -0.44327092 0.0014331458
0.018793207 0.0028879098 -0.0062736799 0.16165684 -0.89645791 -0.41258982 0.0013062221
-0.021242172 0.0058433395 -0.0062244553 -0.31251252 -0.83347434 -0.45569339 0.0017013996
-0.019123523 0.005536742 -0.0068581477 -0.26366416 -0.84389448 -0.46725088 0.0016071704
-0.016504195 0.0051029553 -0.0073106973 -0.22517848 -0.83720481 -0.49838009 0.0016625345
-0.013476796 0.0044480069 -0.0075594485 -0.20224823 -0.83599138 -0.51011187 0.0018160619
-0.010505073 0.0038187085 -0.0076220999 -0.15429178 -0.8422994 -0.51645505 0.0011364393
-0.0075791869 0.0036109739 -0.0079866089 -0.11909842 -0.8365249 -0.5348286 0.0017203401
-0.0045492817 0.0034402634 -0.0083745401 -0.092399552 -0.82693148 -0.55465901 0.0014509106
-0.0015170234 0.0033052142 -0.0085415142 -0.053696044 -0.80512202 -0.59067363 0.0010422234
0.0014212042 0.0032413146 -0.008663456 -0.034585003 -0.79734588 -0.6025309 0.0008543579
0.0045184493 0.0031944721 -0.0087472955 -0.0043418999 -0.82044965 -0.57170236 0.0014257183
0.007520705 0.0032262569 -0.0086907763 0.022234892 -0.8162964 -0.57720518 0.0012851009
0.01053132 0.0032848166 -0.0086339936 0.049999136 -0.81964839 -0.5706808 0.0011317347
0.013614756 0.0033829485 -0.0083868206 0.08306732 -0.85559666 -0.51093471 0.0018066936
0.016599109 0.003514773 -0.0080235228 0.10787418 -0.86025983 -0.49831337 0.001592562
0.019598573 0.003751342 -0.0076352451 0.15865086 -0.86761999 -0.47123823 0.001115688
0.022486554 0.0042603095 -0.0075006112 0.17905682 -0.87655562 -0.44675368 0.0015186017
0.025504624 0.0049037705 -0.0075031654 0.20799807 -0.86735022 -0.45215076 0.0013649841
0.028311335 0.0054596155 -0.0070852614 0.24144419 -0.86856204 -0.43278709 0.0016250269
0.030653238 0.0057944939 -0.0064170365 0.2858417 -0.86966133 -0.40247193 0.0014370164
-0.02779163 0.0086199995 -0.0066586183 -0.33851936 -0.82454926 -0.45334667 0.0014780394
-0.025370955 0.0081198271 -0.0073757097 -0.30507863 -0.81352246 -0.4950842 0.0014884002
-0.022552887 0.0072064665 -0.0075851637 -0.30411172 -0.8194927 -0.4857446 0.0014389545
-0.01961459 0.006578079 -0.0082512507 -0.25307083 -0.80899751 -0.53054512 0.0024573568
-0.017244231 0.0062225717 -0.0087462328 -0.2174145 -0.77449173 -0.59404844 0.00084143109
0.026769018 0.0061240369 -0.0089024017 0.21965145 -0.80145872 -0.55625278 0.0012146621
0.02897585 0.0063294438 -0.0083949054 0.2333931 -0.84488207 -0.48135439 0.0015566307
0.031653546 0.0067506614 -0.0076998579 0.28248575 -0.85139894 -0.44195211 0.0013191168
0.034504186 0.0076656402 -0.0075145955 0.30717129 -0.83939123 -0.44840619 0.0016262551
0.037225783 0.0084456317 -0.007060546 0.33138946 -0.84452623 -0.42066199 0.0015376584
0.039302845 0.0088467523 -0.0062958412 0.38290256 -0.83793974 -0.38889921 0.0015663288
-0.036100574 0.01194098 -0.0061411983 -0.40689826 -0.79942036 -0.44199657 0.0014819051
-0.034080889 0.01142503 -0.0069839018 -0.36924398 -0.80586946 -0.46285331 0.0014775734
-0.031435285 0.010637811 -0.007495543 -0.32987463 -0.81432199 -0.47755876 0.0017881676
-0.028742915 0.0097659891 -0.0079021268 -0.32483169 -0.80147326 -0.50212049 0.0017573069
-0.026400458 0.0093032559 -0.008626502 -0.29533324 -0.76933241 -0.5664857 0.0012401431
0.038042095 0.0093995826 -0.0082749305 0.32404035 -0.81796247 -0.47532657 0.0014044537
0.040554475 0.01014166 -0.0075575798 0.38014719 -0.82269144 -0.42269 0.0013456839
0.043274462 0.011242368 -0.0072296653 0.39137983 -0.8142218 -0.42879438 0.0014926587
0.045353621 0.011810445 -0.0064121261 0.42997968 -0.80361551 -0.41148445 0.001516303
-0.039934002 0.014396662 -0.0069582467 -0.43025124 -0.77409703 -0.4643895 0.0013502518
-0.037493605 0.013492492 -0.0075544612 -0.40328035 -0.78237164 -0.47461531 0.0015916982
-0.034870919 0.012539674 -0.0081822816 -0.36502859 -0.78560448 -0.49957967 0.0017860163
-0.032729201 0.012067666 -0.0088395216 -0.33001953 -0.73844856 -0.58803135 0.0014957266
0.044234503 0.012334262 -0.0083852643 0.38968629 -0.77391559 -0.49919853 0.0010067144
0.046597272 0.01320323 -0.0075858962 0.44684425 -0.78958237 -0.42058283 0.00118514
0.049107317 0.014356147 -0.0070516239 0.46995109 -0.77231377 -0.42740768 0.0012957611
0.051118728 0.014967654 -0.0061686989 0.49093318 -0.76906377 -0.40929884 0.0013311199
-0.045640092 0.017756628 -0.0065062065 -0.51181632 -0.7416411 -0.43360415 0.0010955184
-0.043279164 0.016619503 -0.0072918409 -0.48383099 -0.7493844 -0.45202944 0.0011041909
-0.040865041 0.01556851 -0.0080426661 -0.43140927 -0.75377256 -0.49569452 0.0020604981
-0.038641628 0.01501437 -0.0087859677 -0.38081884 -0.75818467 -0.52927589 0.0017969403
0.050115507 0.015545703 -0.008058792 0.47993198 -0.7585324 -0.44078779 0.0017510838
0.052427519 0.016714571 -0.0073890225 0.51519817 -0.74369854 -0.42600861 0.0011403448
0.054505821 0.017677072 -0.0065593123 0.53315544 -0.72660583 -0.43334663 0.0011434448
-0.04887794 0.020485288 -0.0071726199 -0.52965254 -0.70432556 -0.47264546 0.0013615906
-0.046648588 0.019072851 -0.0074660522 -0.49890673 -0.71727687 -0.48642167 0.0021035045
-0.044536877 0.018327914 -0.0085158469 -0.49550271 -0.68486089 -0.53426838 0.0015839171
0.053635899 0.018307144 -0.0085010491 0.51632178 -0.68300694 -0.51663655 0.0016042273
0.055675223 0.019246554 -0.0076441779 0.55513477 -0.70136869 -0.44710997 0.0013294666
0.057675701 0.02038984 -0.0068730265 0.5830043 -0.66427517 -0.4678081 0.0011200305
-0.054260712 0.023827553 -0.0063426839 -0.56330138 -0.70246512 -0.43501073 0.0010660955
-0.052257825 0.023085257 -0.0072510466 -0.54510701 -0.68718183 -0.48024929 0.001572294
-0.05014981 0.021859949 -0.0077859266 -0.52267343 -0.7040351 -0.48077747 0.0016509235
0.056784481 0.021155028 -0.0088940086 0.54505092 -0.61145473 -0.57362235 0.0011493344
0.058823828 0.022126434 -0.0077652284 0.597794 -0.64022988 -0.48243961 0.001494803
0.060745656 0.023301601 -0.0069478992 0.61638957 -0.61567461 -0.49092633 0.0012650992
-0.057212017 0.026615333 -0.0064347452 -0.58553082 -0.66946 -0.45713997 0.0011928329
-0.055170435 0.025577798 -0.0074124308 -0.56498116 -0.67584813 -0.47331345 0.0020676055
-0.053072151 0.024515579 -0.0083614495 -0.53398198 -0.66024667 -0.52814543 0.0018411729
0.059853807 0.024158239 -0.0089132581 0.57611775 -0.5489589 -0.60558438 0.0011251612
0.061881255 0.025187002 -0.0077798213 0.64811683 -0.55973548 -0.51637262 0.0024133211
0.063575543 0.026293 -0.0067843404 0.67944545 -0.54298168 -0.49348226 0.0016810168
-0.060328942 0.029646609 -0.0064470088 -0.64672989 -0.58914095 -0.48441023 0.0011439784
-0.058356345 0.028429359 -0.0074336571 -0.61257273 -0.61038125 -0.50218469 0.0020834955
-0.056495335 0.027437212 -0.0083572166 -0.57600272 -0.61583388 -0.53755885 0.0018385503
0.00095170626 0.029900003 -0.0089129964 0.043333098 0.77230102 -0.63377708 0.00045915821
0.0030502744 0.029939283 -0.0086703151 0.022386955 0.78819752 -0.61501509 0.00032473876
0.0070996392 0.029947789 -0.0087036183 -0.0084617445 0.79695326 -0.60398173 0.00051049789
0.062763482 0.027323654 -0.0087375175 0.62806964 -0.50956678 -0.58810735 0.0021653739
0.064571917 0.028442608 -0.0075469962 0.71059883 -0.453583 -0.53787714 0.0019718122
0.066227205 0.029644519 -0.0063909329 0.73141587 -0.46305192 -0.50061333 0.0017130421
-0.063187011 0.032726176 -0.0062619364 -0.67929041 -0.54942417 -0.48651582 0.0012047098
-0.061133403 0.031387117 -0.0073199137 -0.6585716 -0.5459289 -0.51792389 0.0019582962
-0.059436716 0.030694429 -0.0085730208 -0.60815245 -0.54356557 -0.57852149 0.0020489963
-0.01306433 0.032542553 -0.0084349699 0.22724812 0.78274721 -0.57936609 0.0014023194
-0.010418285 0.032081183 -0.0081229052 0.19244799 0.82643092 -0.52912742 0.0035904546
-0.0077968985 0.031778425 -0.007737942 0.1668326 0.83691317 -0.52129 0.0024662844
-0.0044236477 0.031283248 -0.0076487116 0.11289336 0.83645219 -0.53628612 0.0026237727
-0.0013795979 0.030744076 -0.0079276497 0.061261553 0.82770544 -0.55780888 0.0018335452
0.001608494 0.030735428 -0.0076093655 0.03765659 0.78261924 -0.62136066 0.00044747806
0.0040977891 0.030623116 -0.0076606255 0.014920354 0.78791797 -0.61559951 0.00033661292
0.0077443481 0.030419221 -0.0079987077 -0.026380358 0.79658324 -0.60395306 0.00080006954
0.06546893 0.030979486 -0.0084043406 0.68437541 -0.35455918 -0.63711715 0.0014114016
0.066870391 0.03171701 -0.0071010031 0.74043059 -0.39094025 -0.54674327 0.0020829698
-0.064235583 0.035088334 -0.0070626782 -0.6977067 -0.49567977 -0.51721072 0.0022199105
-0.062455196 0.034065366 -0.0082290303 -0.64985651 -0.46366677 -0.60224551 0.003302102
-0.022481002 0.035535399 -0.0086207446 0.29725036 0.74780351 -0.59365988 0.0014955024
-0.019385677 0.034833767 -0.0078998646 0.30073333 0.80237937 -0.51550639 0.0016763514
-0.016518198 0.033977855 -0.0078487061 0.24990135 0.79029036 -0.55945551 0.00098167115
-0.013789245 0.033628657 -0.0070247687 0.24073616 0.84133792 -0.4839386 0.001814035
-0.011440214 0.033373103 -0.0062703295 0.22944865 0.85414654 -0.46667668 0.0015079029
0.065846689 0.033026472 -0.0088724382 0.7115559 -0.33733281 -0.61635607 0.0015853038
0.067730762 0.034406263 -0.007583024 0.75662911 -0.28877771 -0.58661729 0.0017916806
0.069175303 0.035552703 -0.0063230195 0.78964633 -0.30340511 -0.53329539 0.0028979655
-0.066642664 0.038107812 -0.0064904047 -0.70604175 -0.42365691 -0.56746799 0.0024898329
-0.064962819 0.037097167 -0.0077544311 -0.66369098 -0.4208028 -0.61841679 0.0061848196
-0.028147608 0.038452893 -0.0077749216 0.36238542 0.80959707 -0.46176773 0.0019144079
-0.025463255 0.037280023 -0.0078603784 0.32247835 0.76544619 -0.55686605 0.0012908349
-0.022688072 0.036373146 -0.0075107943 0.31165963 0.78750283 -0.53170252 0.0011841939
-0.020749323 0.036115851 -0.0064150337 0.29300314 0.84567225 -0.4460803 0.0015269599
0.068243004 0.037262257 -0.0081327762 0.75982523 -0.18935871 -0.62193966 0.0023925968
0.069467984 0.037581939 -0.0066900426 0.79647344 -0.21208358 -0.56626022 0.0021476985
-0.067085266 0.040476173 -0.0074540037 -0.70537275 -0.30850509 -0.6381802 0.002812176
-0.065675594 0.040016413 -0.0087018786 -0.66555512 -0.26576054 -0.69742936 0.0032088754
-0.034735892 0.041386258 -0.0081839468 0.36300057 0.75102651 -0.55153406 0.0014008901
-0.032004528 0.040321574 -0.0077703376 0.36571932 0.76120204 -0.53555661 0.0010880973
-0.02969832 0.039416522 -0.0074080108 0.36552206 0.76911467 -0.52426732 0.0010060655
0.068484195 0.040263932 -0.0084758168 0.72707897 -0.090723917 -0.68053317 0.0021535391
0.069798619 0.040432114 -0.0069979005 0.78959578 -0.11654586 -0.60245794 0.0023453559
-0.069414504 0.043690719 -0.0064379075 -0.73980945 -0.25266823 -0.62357098 0.0029313066
-0.067222394 0.043016307 -0.0082858354 -0.69226801 -0.23215669 -0.68327749 0.0040828381
-0.0422609 0.044667412 -0.0089447862 0.33173659 0.74181056 -0.58281046 0.0031542999
-0.040192634 0.044306815 -0.0079625575 0.36901778 0.73228407 -0.57235128 0.0018486744
-0.037587903 0.043045662 -0.0078437179 0.38890406 0.75414795 -0.52916396 0.001142478
-0.035003338 0.042261228 -0.0068954397 0.40233374 0.79585564 -0.45248356 0.0011093711
0.068522684 0.043418393 -0.0085976953 0.65907913 0.021421935 -0.75176841 0.0025393257
0.06999018 0.043357026 -0.0070247166 0.77549803 -0.01843084 -0.63108087 0.0028851267
-0.069718808 0.046392601 -0.0067921337 -0.68907177 -0.1400815 -0.71102554 0.0035188957
-0.067593776 0.046635643 -0.0085082753 -0.53466558 -0.01506178 -0.84492952 0.0056361915
-0.048548713 0.047941405 -0.0086599998 0.330984 0.72952199 -0.59853768 0.0011866973
-0.04617149 0.047660157 -0.0075392518 0.34883213 0.72708035 -0.5913294 0.0012845529
-0.043598697 0.046612009 -0.0071637803 0.36270803 0.73794234 -0.56910801 0.00094393193
-0.040844988 0.045362074 -0.0067813625 0.42313069 0.77958262 -0.46174818 0.0015144189
0.068234883 0.04646631 -0.0084999567 0.58026302 0.11363486 -0.80646253 0.003656911
0.069903433 0.046583984 -0.0070000309 0.7390632 0.060890388 -0.67087853 0.0032582812
-0.069919974 0.049608603 -0.0069388617 -0.64621377 -0.041253209 -0.76204062 0.0062678964
-0.067553274 0.049422592 -0.0083553046 -0.38247555 0.19578831 -0.90298361 0.0024239803
-0.065597773 0.050968032 -0.0088434527 -0.18328792 0.38528052 -0.90441388 0.0096402606
-0.05476867 0.050805524 -0.0084950253 0.20958026 0.67761081 -0.7049253 0.0028790955
-0.05180968 0.049792737 -0.0082386024 0.30274621 0.70446599 -0.64192867 0.0019943614
-0.049858619 0.049521565 -0.0074797925 0.33165035 0.72716486 -0.60103178 0.001213985
-0.047053814 0.048695818 -0.0067148432 0.36151099 0.73617411 -0.57215154 0.00095615583
0.058680207 0.050092749 -0.0084133977 -0.10298016 0.52405179 -0.84543771 0.0015914587
0.061816815 0.050677594 -0.0087096775 0.028659683 0.45692921 -0.88904119 0.003592653
0.065109931 0.050492685 -0.0088204658 0.13758275 0.39105332 -0.91002655 0.0051088398
0.067878261 0.049425606 -0.0080675501 0.52380121 0.18308344 -0.83193314 0.0041965516
0.069832854 0.049388964 -0.0067171701 0.70491946 0.10582273 -0.70134884 0.0040627769
-0.07028693 0.052716762 -0.0064997477 -0.39616916 0.16885926 -0.90251678 0.0054360181
-0.067553699 0.052328013 -0.0077464799 -0.30722055 0.27228069 -0.91185457 0.0071977698
-0.064481802 0.052469343 -0.0082105203 -0.086373866 0.47101974 -0.87788379 0.009336398
-0.061520021 0.052841526 -0.0078941127 0.03808555 0.59721684 -0.80117512 0.004744757
-0.05838624 0.052161787 -0.0079878299 0.12974274 0.66799998 -0.73276383 0.0028393473
-0.055492848 0.051547095 -0.0078708418 0.22466372 0.70634067 -0.67127424 0.0026611555
-0.05302402 0.051539615 -0.0067722262 0.29348972 0.71141094 -0.63855952 0.0024417683
0.059718709 0.052266825 -0.0069373096 -0.19061147 0.55873668 -0.80714345 0.00094844413
0.062003843 0.05215735 -0.0077993749 -0.086383462 0.48353046 -0.87105465 0.0023385452
0.065050088 0.052086361 -0.008045679 0.20226386 0.34906748 -0.9150089 0.0040183985
0.067936823 0.052518729 -0.0071775867 0.50997609 0.18603453 -0.83983064 0.006164697
0.069490016 0.052188516 -0.0064917216 0.65140337 0.12356812 -0.74860179 0.0043095136
-0.070127741 0.055079989 -0.0062315329 -0.31147587 0.2406739 -0.91927081 0.0070708562
-0.0674657 0.055315465 -0.0065795816 -0.077457346 0.41961521 -0.90439123 0.011446607
-0.064675726 0.054918215 -0.0067065838 0.086475305 0.59038568 -0.80247545 0.008978934
-0.061589051 0.054498732 -0.0063498281 0.19912206 0.70752096 -0.6780594 0.0090649882
0.062725864 0.054043796 -0.0067027067 -0.15926905 0.49723768 -0.85287052 0.0023265867
0.065288909 0.055169746 -0.0065326341 0.12232073 0.34974781 -0.92882407 0.0062089334
0.068307713 0.055021442 -0.0063429824 0.4875325 0.19152771 -0.85183871 0.0081803473
0.069333673 0.054860681 -0.0061196764 0.53558737 0.1889974 -0.82305902 0.0091806892
0.067180045 0.057009444 -0.0060062818 0.063509107 0.35622346 -0.93224007 0.023099152
-0.015213788 0.002965092 -0.003301522 -0.25491902 -0.92732346 -0.274021 0.0019061991
-0.013167212 0.0026708413 -0.0040567573 -0.21698475 -0.92383921 -0.31533909 0.0022740192
-0.010467577 0.0022795838 -0.0044969092 -0.15866131 -0.93288755 -0.32333806 0.0018291175
-0.0075223553 0.0018753483 -0.0045444886 -0.13113528 -0.93279642 -0.33569992 0.002066256
-0.0044903266 0.0014274012 -0.0044840002 -0.095608011 -0.93580014 -0.33931869 0.0023032927
-0.0015408577 0.0012240108 -0.0045180968 -0.050105479 -0.93691796 -0.34593958 0.0024259686
0.0014783293 0.0010953437 -0.0045159697 -0.030484522 -0.93691278 -0.34823146 0.002495182
0.0045444486 0.0010085568 -0.0044936961 0.0044265743 -0.93874788 -0.34457633 0.0024606828
0.0075147073 0.0011261775 -0.0045018611 0.037881542 -0.93962473 -0.3401033 0.0024687592
0.010521806 0.0012606707 -0.0044947439 0.063473321 -0.94203508 -0.32945597 0.0022069376
0.01351227 0.0015537689 -0.0045148102 0.10155144 -0.94341081 -0.31569508 0.0019881011
0.01650014 0.0019383576 -0.0045153885 0.1248833 -0.94612205 -0.29875976 0.0017273558
0.019495321 0.0023689482 -0.0044787512 0.16331908 -0.94491875 -0.28364679 0.001646643
0.022138281 0.0027350329 -0.0038895393 0.19622488 -0.94289172 -0.26916736 0.0018175595
0.024205668 0.0029120732 -0.0031068111 0.19010434 -0.97107881 -0.14445174 0.0024952576
-0.024310013 0.005925939 -0.0033119828 -0.35365483 -0.89663988 -0.26639277 0.0019481777
-0.022262093 0.0054747667 -0.004259449 -0.32161105 -0.89293343 -0.31501797 0.0019909742
-0.019368874 0.0045904187 -0.004610471 -0.27176586 -0.89930815 -0.34261945 0.0021495223
-0.016516203 0.0037545564 -0.0044947718 -0.26020262 -0.90829962 -0.32754585 0.0017989018
-0.013864967 0.003318944 -0.0052788849 -0.22476511 -0.90266263 -0.36698869 0.0019875208
-0.011430423 0.0030386299 -0.0058456776 -0.16993245 -0.8918432 -0.41921201 0.0024826175
0.020763911 0.003142088 -0.0058913557 0.18385574 -0.90222716 -0.39010653 0.0015338594
0.022878155 0.0032697134 -0.0051250863 0.20262237 -0.9259001 -0.31883097 0.0018751015
0.02555084 0.0036759682 -0.0045475601 0.24631672 -0.92553633 -0.28759465 0.0014516381
0.028506927 0.0044821883 -0.0044958596 0.26138133 -0.91846019 -0.29683444 0.0018151249
0.031425156 0.0053259111 -0.0044455868 0.28375921 -0.91918951 -0.27307761 0.0018919175
0.033527303 0.0057783616 -0.0036850346 0.32078245 -0.91062707 -0.26049358 0.0016474175
-0.03071928 0.0086871926 -0.0039483998 -0.36401129 -0.88047874 -0.30373189 0.0019039165
-0.028493274 0.0079887807 -0.00457665 -0.345402 -0.87912017 -0.32839787 0.0018100649
-0.025521809 0.006842949 -0.0046130661 -0.34862903 -0.88144869 -0.31860027 0.0016841741
-0.023283441 0.0062988591 -0.0053933971 -0.33102015 -0.87560058 -0.35178018 0.0021041411
0.032669704 0.0061098733 -0.0056377337 0.30602637 -0.89950454 -0.31183225 0.0021256255
0.034726974 0.0065534059 -0.0046903971 0.34253818 -0.89666837 -0.28045231 0.0016441945
0.037512008 0.0075479248 -0.0044958978 0.34432745 -0.89452469 -0.28506869 0.0015294215
0.040043917 0.008501417 -0.0042126994 0.38494694 -0.88667256 -0.25617898 0.0018800382
0.042002715 0.0089295385 -0.0030321786 0.36901584 -0.91834897 -0.14304729 0.0031089776
-0.036770642 0.011498233 -0.0042590383 -0.41431096 -0.85086966 -0.32305926 0.0020631072
-0.034403782 0.010461533 -0.0045369323 -0.38766274 -0.86169392 -0.32741609 0.0015735709
-0.031861089 0.0095172971 -0.0048910934 -0.37715107 -0.86880046 -0.32084697 0.0019800961
-0.029790536 0.0090925256 -0.0059045516 -0.36343345 -0.82536423 -0.43207633 0.0013457779
0.041268397 0.0093462495 -0.0050233416 0.41826281 -0.86830211 -0.26666021 0.0015942497
0.043495577 0.010215825 -0.0044764862 0.4197 -0.86986142 -0.25921619 0.0015040222
0.046052188 0.011408441 -0.0042213225 0.44673821 -0.85386312 -0.26710078 0.0017317355
-0.042584326 0.014528164 -0.0040858258 -0.49026769 -0.81445831 -0.31031483 0.0020459406
-0.040482011 0.013586229 -0.0046166037 -0.46007282 -0.82019484 -0.34001991 0.0016418226
-0.038091883 0.012440214 -0.0049095838 -0.43640518 -0.83635473 -0.33175474 0.0017891672
0.04732478 0.012386978 -0.0049361903 0.48163757 -0.83313268 -0.27187338 0.0015579547
0.049528804 0.013501885 -0.0044846623 0.50051612 -0.81816947 -0.28298819 0.0016101993
0.051620767 0.01460185 -0.0040954961 0.51145673 -0.80968195 -0.28779727 0.0019801932
-0.046073429 0.017042574 -0.0043188836 -0.54252201 -0.78248399 -0.30559543 0.0016314429
-0.043942317 0.015689991 -0.0046175583 -0.51941228 -0.79441619 -0.31482336 0.0017333118
0.052957047 0.015749807 -0.0046751895 0.54403943 -0.79281574 -0.27470765 0.0014435122
0.055183694 0.017183453 -0.0043340675 0.55707973 -0.7795499 -0.28629386 0.0018520774
0.05702715 0.017877324 -0.0032651913 0.57840568 -0.79524904 -0.18173014 0.0027197946
-0.051520225 0.020753184 -0.0036894113 -0.5677824 -0.76719183 -0.29839545 0.0015734106
-0.049537539 0.019595828 -0.0045352834 -0.56949109 -0.76394486 -0.30342716 0.0015983786
-0.047403973 0.018313125 -0.005212626 -0.54588348 -0.77485877 -0.31875548 0.0023946802
0.056442499 0.018374329 -0.0050920914 0.57474142 -0.76104283 -0.30080923 0.0021434345
0.058377359 0.019666212 -0.0044203587 0.61759955 -0.72415602 -0.3068696 0.0022374156
0.060197517 0.020762866 -0.0033809978 0.64072335 -0.71423566 -0.28167537 0.0023638573
-0.054907579 0.023515947 -0.0041125515 -0.59447801 -0.74818796 -0.29463631 0.001814592
-0.052674733 0.022035534 -0.0047355341 -0.58642161 -0.74740738 -0.31223702 0.0019649619
-0.050694216 0.021056229 -0.00583862 -0.59201074 -0.7256037 -0.35074583 0.0030599078
0.059661601 0.021316871 -0.0054289396 0.63390279 -0.68911612 -0.35112134 0.0019992075
0.061494846 0.022547647 -0.0044862223 0.67354989 -0.67835826 -0.29353124 0.0016926347
0.063245326 0.023789229 -0.0034811562 0.70569098 -0.64546049 -0.29220027 0.0020967696
-0.057926163 0.026081864 -0.0041849501 -0.6189658 -0.7203871 -0.31292757 0.0021039697
-0.056126244 0.024740918 -0.0045848545 -0.60420656 -0.74184453 -0.29086271 0.0017213494
0.062767409 0.02430285 -0.00546761 0.68660814 -0.63117856 -0.36080873 0.0020731578
0.064323768 0.025564142 -0.0044340007 0.73598927 -0.60495311 -0.3038938 0.0019121631
0.066035904 0.026880447 -0.003094 0.78516108 -0.57197553 -0.23741543 0.0044390042
-0.061149847 0.029445557 -0.0045974026 -0.67344034 -0.63786477 -0.37363979 0.002298035
-0.05926428 0.027651692 -0.0049809879 -0.65803623 -0.68058395 -0.32217059 0.0019235783
0.065585509 0.027578311 -0.0050695627 0.76168185 -0.55526447 -0.3339493 0.0022353109
0.066780344 0.028809182 -0.0043163402 0.78624755 -0.51739126 -0.337818 0.0025490588
-0.063475117 0.031775959 -0.0040466497 -0.65663284 -0.57341439 -0.48992792 0.0043489514
-0.061831169 0.030522406 -0.0051635657 -0.69704241 -0.61333364 -0.37142125 0.0034003595
-0.0044584875 0.032750763 -0.0046604918 0.11409225 0.87146425 -0.47700423 0.00096745242
0.068118274 0.031324562 -0.0046537812 0.822725 -0.42959759 -0.37224931 0.0026485212
0.069235139 0.032552615 -0.0035782603 0.83987367 -0.41231906 -0.35299468 0.0030983791
-0.066424593 0.035452537 -0.0040363283 -0.76444912 -0.52069765 -0.38012025 0.0024647815
-0.065134026 0.034351382 -0.0049276804 -0.74016601 -0.55288035 -0.38272387 0.0029737048
-0.018877516 0.035816114 -0.0055827932 0.29973674 0.8893491 -0.34527695 0.0029134143
-0.016522922 0.035334826 -0.0051015946 0.26231375 0.85614836 -0.44519827 0.00066391396
-0.013581418 0.034744024 -0.0044437367 0.24138886 0.86297637 -0.44385046 0.0003620518
-0.010667021 0.034102853 -0.004094833 0.2035425 0.86854154 -0.45189169 0.0007390051
-0.0079660676 0.03336953 -0.0045263874 0.18641461 0.86843324 -0.45942712 0.0010624599
0.068796068 0.033604193 -0.0055522206 0.82944196 -0.33787876 -0.44481912 0.0024350618
0.069781721 0.034624334 -0.0043739076 0.86232495 -0.33477297 -0.3798984 0.0030611493
-0.067496791 0.037208229 -0.0042021922 -0.78206354 -0.50272876 -0.36829385 0.0038575933
-0.02527591 0.038507689 -0.0051368573 0.37069848 0.8743844 -0.31310487 0.0020075291
-0.022633642 0.037637316 -0.0045775236 0.33477819 0.88547534 -0.32226849 0.0030252032
-0.020408981 0.037023038 -0.0039017498 0.33076036 0.89326346 -0.30443078 0.0026054329
0.0706755 0.037463889 -0.0044921529 0.88683087 -0.24740613 -0.3902837 0.002823038
-0.069441587 0.040297613 -0.0039347797 -0.8128835 -0.41081256 -0.4128601 0.0038006715
-0.068386793 0.039868727 -0.0054252185 -0.7627874 -0.39388403 -0.51284575 0.0047569512
-0.033424258 0.041989885 -0.0057856217 0.40478796 0.80928218 -0.42568663 0.00052889122
-0.031496067 0.041520897 -0.0046068737 0.42434365 0.85034311 -0.31120589 0.0024538904
-0.028603563 0.040130634 -0.0046080253 0.37840495 0.87535745 -0.30093032 0.0021313776
-0.026488341 0.039605204 -0.0036894372 0.36140975 0.88201809 -0.30236909 0.0021412221
0.071260788 0.040351417 -0.0046431553 0.88372749 -0.15284845 -0.44233808 0.0030359998
0.072078027 0.041280851 -0.0032706063 0.92892438 -0.16498308 -0.33148161 0.0032950977
-0.070342153 0.043307085 -0.0046020462 -0.8205626 -0.32322273 -0.47138539 0.0073710536
-0.036890645 0.044072647 -0.0050326977 0.44342691 0.84425986 -0.30099496 0.0014123467
-0.034793377 0.043231864 -0.0044960105 0.44539386 0.83469456 -0.32389721 0.0023312001
0.071458302 0.043337181 -0.0049475529 0.87567198 -0.051203739 -0.48018405 0.0033583136
0.072219029 0.043469321 -0.0034862892 0.91607958 -0.078229398 -0.3932918 0.0032910286
-0.072485171 0.047049627 -0.0033325439 -0.8516677 -0.30572721 -0.42566776 0.0067741191
-0.071302697 0.046515197 -0.0048709419 -0.80390114 -0.22474319 -0.55066627 0.0054212739
-0.042700015 0.047119632 -0.0052700164 0.46195138 0.81158519 -0.35767359 0.0025724566
-0.040486787 0.046193019 -0.0045835418 0.4547987 0.82385635 -0.33825853 0.0025709185
-0.038179826 0.045099776 -0.0041807136 0.43470976 0.84089422 -0.32237297 0.0022525685
0.071484126 0.046451632 -0.0049024462 0.86641687 0.011051591 -0.49919906 0.0037885329
0.072256543 0.046389453 -0.0035390898 0.89208883 -0.0085267499 -0.45177957 0.0037890922
-0.072622314 0.049719743 -0.0041250987 -0.75147325 -0.16561586 -0.63863862 0.0052722511
-0.071227841 0.049384385 -0.0057667182 -0.69495857 -0.11773949 -0.70934474 0.0042917924
-0.048710179 0.050261054 -0.005464178 0.37879816 0.80157501 -0.46258998 0.0034465429
-0.046435993 0.049492911 -0.004464603 0.44104975 0.82162422 -0.36112151 0.003113911
-0.044067021 0.048289936 -0.0042484803 0.43702185 0.83140039 -0.34319875 0.0025830979
0.071279868 0.049403727 -0.0050907331 0.81824219 0.049494453 -0.57273912 0.0045458307
0.072249793 0.049433168 -0.0035582504 0.88189685 0.0088807875 -0.47135872 0.0044899764
-0.073273756 0.052567251 -0.0043227095 -0.68682623 -0.12262186 -0.71640319 0.0080354167
-0.071401305 0.053007573 -0.0058446191 -0.4993054 0.069117233 -0.86366481 0.0062390757
-0.055030063 0.053383883 -0.0049079773 0.29518619 0.82416928 -0.48333237 0.0030589297
-0.052372575 0.052500848 -0.0045026997 0.35522988 0.84492457 -0.39989287 0.003769181
-0.049837258 0.051305875 -0.0044313543 0.38799992 0.82095242 -0.41891918 0.0018910755
0.071142495 0.052586932 -0.0048929718 0.74698693 0.08126653 -0.65985328 0.0052252249
0.072244458 0.052366152 -0.0035464934 0.83061141 0.029630788 -0.55606353 0.0055260742
-0.075255483 0.055191748 -0.0031186026 -0.70452589 -0.45788804 -0.54220098 0.042123836
-0.072879434 0.055585973 -0.0049195467 -0.4023321 0.17859401 -0.89790481 0.014779718
-0.070632853 0.055921886 -0.0057216585 -0.21954399 0.29617238 -0.9295603 0.011818285
-0.067441329 0.056697689 -0.00588872 0.025450429 0.53929847 -0.84173006 0.0089770025
-0.064139627 0.056113619 -0.0056703524 0.18087444 0.61972421 -0.76369256 0.0084808012
-0.062218815 0.055920381 -0.0050144163 0.22009249 0.68554032 -0.69396955 0.0061065424
-0.058930647 0.055062275 -0.0043481393 0.30213189 0.82201266 -0.48271266 0.0031714407
-0.056566231 0.054126401 -0.004570812 0.28972682 0.84004223 -0.45868015 0.0025932826
0.064419828 0.056142971 -0.0056868596 -0.006729187 0.413571 -0.910447 0.0063425917
0.067585669 0.056463305 -0.0059603588 0.26863942 0.27055401 -0.92446387 0.0071836766
0.070923358 0.055469658 -0.004761714 0.66623175 0.097618647 -0.73932791 0.0070475298
0.072226718 0.05553237 -0.0034001691 0.79832971 0.03685496 -0.60109186 0.0070655956
-0.072010614 0.057008523 -0.0053417608 -0.28218892 0.17305432 -0.94362152 0.031669393
-0.070329599 0.058049392 -0.0051298714 -0.11698899 0.46968937 -0.87504601 0.024384461
-0.06764932 0.058379445 -0.0046923957 0.035139136 0.5635727 -0.82531875 0.00912649
-0.064609773 0.057766017 -0.0042550359 0.24871199 0.66865665 -0.70074284 0.0049695466
-0.062380165 0.057330392 -0.0033143479 0.22817883 0.69567162 -0.68115747 0.0074673821
0.064966001 0.058059972 -0.0047399327 -0.30430746 0.433505 -0.848216 0.0080914581
0.068356641 0.058778405 -0.005289766 0.38826805 0.18252242 -0.90329039 0.0076194988
0.070887156 0.058619533 -0.0043657902 0.6567623 0.051801778 -0.75231642 0.011083183
0.072240032 0.058715742 -0.0033836321 0.75796658 0.012884025 -0.65216613 0.017582854
-0.06774728 0.060190197 -0.0030454241 0.34957385 0.78079271 -0.51784265 0.034447882
0.065776289 0.061053012 -0.0036530523 -0.31807643 0.33331957 -0.88753897 0.015852509
0.067969166 0.061412826 -0.0045359316 0.090254962 0.18896236 -0.97782785 0.015919417
0.070881411 0.061398648 -0.004214027 0.56324899 0.01912632 -0.82606584 0.019318949
0.072386421 0.061576944 -0.0033406143 0.74359506 -0.042882465 -0.66725361 0.020406159
0.068406984 0.064315535 -0.004092623 0.19856466 0.061085485 -0.97818232 0.013461925
0.070867971 0.06448786 -0.0040735053 0.46521291 -0.037726589 -0.88439453 0.020047994
0.072527945 0.064741328 -0.0033771701 0.57911003 -0.079173759 -0.81139582 0.017509216
0.068333209 0.067345157 -0.0037680413 -0.097829372 0.037237521 -0.99450624 0.019302115
0.07093136 0.067317568 -0.0041909106 0.33313364 -0.10112744 -0.93744081 0.014150798
0.072861657 0.067592099 -0.0036030661 0.57734597 -0.13822347 -0.80471474 0.01436658
0.068386957 0.069803715 -0.0035054698 -0.2362671 0.0082355244 -0.97165322 0.013490153
0.071043715 0.070420012 -0.0043202084 0.24595173 -0.15628897 -0.95659894 0.013143832
0.073441684 0.070557021 -0.0037491613 0.55197704 -0.22393024 -0.80322886 0.016700668
0.075198069 0.07145758 -0.0030746944 0.80292368 -0.2350616 -0.547777 0.028775729
0.068655625 0.073442414 -0.0035054833 -0.39760321 0.033349648 -0.91695118 0.017867647
0.071131669 0.073236436 -0.004624295 0.23379104 -0.17804179 -0.95584673 0.015146515
0.073729858 0.073320903 -0.0043707546 0.56022215 -0.18979135 -0.80630666 0.025490234
0.075465322 0.073465846 -0.0034738814 0.7182346 -0.21219169 -0.66265661 0.05250299
0.068735763 0.075388305 -0.0033974694 -0.34652066 -0.0407717 -0.93715584 0.022326047
0.070632897 0.075456634 -0.0046138475 0.089377135 -0.1494416 -0.98472273 0.032434467
0.073398232 0.075200997 -0.0047760978 0.47101659 -0.22090395 -0.85401684 0.02994029
0.075332992 0.075016715 -0.0036496606 0.4093284 -0.22761075 -0.88354039 0.028216211
-0.01579468 0.0027871539 -0.0014316491 -0.24662621 -0.9548288 -0.16576359 0.0011977664
-0.013487216 0.0021765928 -0.0015357094 -0.22123699 -0.96062094 -0.16811177 0.0015908908
-0.010488656 0.0015536869 -0.0015877635 -0.15707693 -0.97209787 -0.17421962 0.0025068086
-0.0074974536 0.0011210761 -0.0015539151 -0.13659687 -0.97525024 -0.17386293 0.003416134
-0.0044552013 0.00069178786 -0.001524069 -0.10003954 -0.97878087 -0.17882986 0.004427576
-0.0014740629 0.00049232721 -0.0015455055 -0.054010492 -0.98637259 -0.15540916 0.0045573567
0.0014854482 0.00037411929 -0.001527383 -0.027460093 -0.9907133 -0.13316569 0.002585456
0.0045341835 0.00030418811 -0.0015255557 0.0076530739 -0.99174404 -0.12800446 0.0032379495
0.0074882885 0.00043332684 -0.0015450437 0.043530133 -0.98683995 -0.15573066 0.0042459955
0.010503493 0.00058013189 -0.0015074232 0.072686553 -0.98618746 -0.14883205 0.0039108666
0.013530127 0.00088176451 -0.0015501698 0.11207298 -0.98056751 -0.16101849 0.003856522
0.016494175 0.0012739046 -0.0015105512 0.138632 -0.97898823 -0.14954346 0.0034013337
0.019514183 0.0017313166 -0.0015293402 0.17119735 -0.97697675 -0.12731008 0.0020848156
0.022477044 0.0023522435 -0.0015089735 0.19534485 -0.97347999 -0.11906748 0.002036168
0.024799088 0.0028313873 -0.0012994052 0.21835068 -0.97098565 -0.097518817 0.0018686125
-0.02473636 0.0057233963 -0.0013513953 -0.34963208 -0.91720706 -0.19102003 0.00066259323
-0.022503493 0.0048831673 -0.0014888681 -0.33001754 -0.92226386 -0.2012901 0.0005432528
-0.019377837 0.0038092781 -0.0016172432 -0.287931 -0.94166207 -0.17426541 0.001318906
-0.01730782 0.003243611 -0.0017406062 -0.276595 -0.94528931 -0.17298353 0.00080691086
0.026237452 0.0032110077 -0.0017272709 0.26648256 -0.95808661 -0.10515263 0.0018133707
0.028503781 0.0038483951 -0.0014954888 0.27971417 -0.95437253 -0.10456086 0.001563378
0.031487279 0.0047389343 -0.0015172578 0.29036978 -0.95168465 -0.099908657 0.0012074468
0.034056451 0.0055903108 -0.0013843697 0.32291627 -0.94158667 -0.095601596 0.0018342974
-0.033033062 0.0089300172 -0.00052211602 -0.39554584 -0.89208913 -0.2184501 0.0018182421
-0.031331159 0.0084019806 -0.0015192939 -0.38318914 -0.89957964 -0.20957717 0.00039899332
-0.028501552 0.0072478061 -0.0016923579 -0.3561646 -0.90741402 -0.22303966 0.00096291152
-0.026143778 0.0062992126 -0.0016496598 -0.35770825 -0.91083914 -0.20595372 0.00084546825
0.035511535 0.006191982 -0.0018063132 0.36578006 -0.92556989 -0.097597614 0.0016578821
0.037515599 0.0069234152 -0.0014992636 0.37123325 -0.92304909 -0.10082797 0.001575705
0.040500261 0.0081700431 -0.0015219034 0.3891322 -0.91379356 -0.11643661 0.0015891326
0.042198036 0.0088956235 -0.00087698572 0.41851589 -0.90168005 -0.10870867 0.0020253512
-0.039204624 0.011940571 -0.00083661248 -0.444754 -0.86018395 -0.24955456 0.0023998376
-0.037527461 0.011212545 -0.001494345 -0.43412539 -0.87315464 -0.2216665 0.0013319285
-0.034445211 0.0097501194 -0.0016616366 -0.40066028 -0.88441384 -0.23933971 0.0010936679
-0.032818574 0.009078661 -0.0018673763 -0.38462785 -0.8942858 -0.22872344 0.0010778777
0.041861754 0.0090572136 -0.0028582916 0.4085753 -0.90263528 -0.13533577 0.0022583802
0.043643732 0.0096569946 -0.0015561761 0.44266081 -0.88935399 -0.11445912 0.0016679075
0.046477932 0.011081219 -0.0015080142 0.45901182 -0.88037217 -0.11938585 0.001517879
0.048143938 0.011906357 -0.00058743829 0.48074213 -0.87214381 -0.090841837 0.0026191324
-0.042914264 0.014146415 -0.0015915583 -0.51598603 -0.82790667 -0.21983847 0.0021446887
-0.040577251 0.012830925 -0.0015250975 -0.45961565 -0.85375607 -0.2446508 0.0014788399
-0.038816452 0.012103981 -0.0027483038 -0.45260203 -0.86110276 -0.23163223 0.0013715867
0.047923505 0.012040912 -0.0024614763 0.49403855 -0.86096889 -0.12107293 0.0023490358
0.049570981 0.012856788 -0.0015639098 0.51234704 -0.8518253 -0.10906069 0.0015204967
0.052039444 0.014313369 -0.001437427 0.52782214 -0.84363848 -0.098376483 0.0017900189
-0.048238739 0.017763896 -0.0011492608 -0.56574172 -0.79418164 -0.2218374 0.00143838
-0.046547968 0.016629945 -0.0014831023 -0.55068839 -0.79932094 -0.24047555 0.002154792
-0.044610742 0.01532597 -0.0017788623 -0.55411822 -0.79980421 -0.23079498 0.002487784
0.053510014 0.015350024 -0.0016735564 0.55719483 -0.82432061 -0.1001471 0.0018358263
0.055495758 0.016709594 -0.0015184595 0.5622946 -0.81888008 -0.11515275 0.0020547782
0.057227325 0.017849766 -0.0010517096 0.59178424 -0.79662842 -0.12318536 0.002374355
-0.051827662 0.020477695 -0.0015488418 -0.59394985 -0.77786124 -0.20531796 0.0014234135
-0.049727455 0.018913865 -0.0015783744 -0.57198524 -0.78579134 -0.23529726 0.0010927352
0.058668941 0.019073779 -0.001569258 0.62208438 -0.77430457 -0.11603267 0.0021465265
0.060469206 0.020553939 -0.0013598264 0.66269362 -0.73965698 -0.11723796 0.0032305552
-0.0550774 0.022948664 -0.0013679778 -0.61113644 -0.7678045 -0.19232433 0.001140267
-0.053300116 0.021598294 -0.001623209 -0.60624868 -0.76719069 -0.20947804 0.0013392501
0.061960656 0.022003496 -0.0016040971 0.69687188 -0.70918721 -0.10687866 0.0023552105
0.063475363 0.023505056 -0.0013858731 0.72755235 -0.67573977 -0.11850449 0.0029989576
-0.060176566 0.026993753 -0.00080668967 -0.683267 -0.70679939 -0.18325095 0.0009491542
-0.058270745 0.025620436 -0.0016734903 -0.6425522 -0.74113405 -0.19454329 0.00093657523
-0.056580596 0.024170956 -0.0012959734 -0.62952274 -0.75014138 -0.20245758 0.0011471144
0.064974695 0.025247494 -0.0015754062 0.76484597 -0.63314223 -0.11891779 0.0026007907
0.06621033 0.026740087 -0.0012398361 0.79394341 -0.59228361 -0.13731001 0.0034619784
-0.061414275 0.028663052 -0.0015959919 -0.7061708 -0.68268192 -0.18779814 0.0010937705
-0.059922796 0.027216762 -0.0023387531 -0.67636913 -0.70414031 -0.21612772 0.0019587029
0.067375883 0.02844535 -0.0015333103 0.82837236 -0.54822391 -0.1151076 0.0024142046
-0.064046338 0.031414885 -0.0014624953 -0.75747228 -0.63153833 -0.16551477 0.0015895017
-0.062846102 0.030226082 -0.0023753215 -0.72610438 -0.66196442 -0.18594503 0.0017444649
0.068666615 0.030563645 -0.0016931635 0.85418034 -0.50423461 -0.12697762 0.0029213941
0.069507979 0.031988218 -0.0013739908 0.88944757 -0.43756309 -0.13199085 0.0035809742
-0.066704117 0.034762036 -0.0014864352 -0.80087984 -0.58071178 -0.14616871 0.0019788397
-0.06558083 0.033486694 -0.0020292865 -0.78166229 -0.60075659 -0.16761751 0.00202753
0.070581861 0.034433458 -0.0015610536 0.92143649 -0.35729671 -0.15262307 0.0033564374
-0.069257572 0.038344856 -0.000940372 -0.83404988 -0.5332948 -0.14127107 0.0027630252
-0.0683285 0.037246909 -0.0018848762 -0.81972867 -0.54153717 -0.18650045 0.0018726306
-0.023723392 0.03878957 -0.0015794737 0.37370944 0.89156848 -0.25582612 0.0011405211
-0.020656632 0.037515275 -0.0015661006 0.32930124 0.9024514 -0.27774477 0.0012851552
0.071565367 0.037331186 -0.0016502053 0.93913287 -0.28618118 -0.19007832 0.0035447786
0.072097473 0.038666841 -0.00078507973 0.95905006 -0.24002464 -0.15037006 0.0072092717
-0.069926828 0.039777946 -0.001842771 -0.85493404 -0.46582377 -0.22824547 0.0035615428
-0.029125452 0.041124512 -0.0013112167 0.39028642 0.90069145 -0.19087036 0.0041638981
-0.026104534 0.039791074 -0.0014728078 0.37229249 0.91341168 -0.16455244 0.0012013846
0.071909636 0.039573558 -0.0026456132 0.95635462 -0.1910698 -0.22108391 0.003901456
0.072360978 0.040564999 -0.0013952417 0.97432566 -0.15620361 -0.1621418 0.0037987547
-0.072226778 0.044562854 -0.0013047365 -0.92979872 -0.32202482 -0.17825383 0.0096531818
-0.071716428 0.043706696 -0.0018188093 -0.87849563 -0.34557438 -0.32988453 0.0031159681
-0.034615561 0.043848913 -0.0016332972 0.44439387 0.88325888 -0.14955875 0.001319974
-0.031672928 0.042386599 -0.0013730888 0.43988341 0.8846969 -0.15431793 0.0021848623
0.072728865 0.043333996 -0.0014660341 0.97842902 -0.091888465 -0.18502213 0.0048281387
-0.072888911 0.046671677 -0.0015635885 -0.9343642 -0.29319081 -0.20249118 0.0091666467
-0.040544972 0.047043059 -0.0015642024 0.47603986 0.86455178 -0.16104762 0.0013029031
-0.037818529 0.04549985 -0.001600317 0.46796128 0.87045825 -0.15269141 0.0015969395
0.072857909 0.04649229 -0.0015415141 0.98263907 -0.031071583 -0.18290719 0.0055964501
-0.073757775 0.049734034 -0.0021798364 -0.85182792 -0.27867064 -0.44354457 0.0079933973
-0.046378884 0.050388347 -0.0011692168 0.47903186 0.86087102 -0.17155045 0.0011181438
-0.043758221 0.048850965 -0.0015941188 0.48591703 0.85713118 -0.17091188 0.001219872
0.07296624 0.049483761 -0.0015070274 0.9779321 -0.028596753 -0.20695671 0.0073133125
-0.075517103 0.052874289 -0.0012434208 -0.86813271 -0.3522605 -0.34965426 0.026623541
-0.074671522 0.051976889 -0.0023156933 -0.82184255 -0.24480414 -0.51443738 0.0091656493
-0.052814543 0.053624343 -0.0022075323 0.40520668 0.88134253 -0.24298736 0.00212647
-0.049585465 0.052043796 -0.0017470066 0.46430036 0.85894316 -0.21596737 0.0012664073
0.073048539 0.052446045 -0.0015598316 0.97254479 -0.025145069 -0.23135352 0.0095714116
-0.075395271 0.054261733 -0.0026371083 -0.8162421 -0.35575974 -0.45517454 0.0302813
-0.060385834 0.056753427 -0.0020043566 0.39532638 0.82578361 -0.40224198 0.0086963065
-0.058071956 0.055754177 -0.0018691809 0.36457542 0.87800425 -0.31015065 0.0015488414
-0.0568524 0.055300824 -0.0018479 0.36206597 0.86308211 -0.35213286 0.0010247407
-0.053272914 0.054050867 -0.00063054735 0.40476555 0.88140768 -0.24348596 0.0019709545
0.073113829 0.055454146 -0.0015641856 0.95904392 -0.01853274 -0.28265056 0.013281578
-0.066477537 0.0598993 -0.0027550198 0.23086989 0.70782816 -0.66759151 0.019996138
-0.064243518 0.059218585 -0.0016319021 0.46682653 0.80959541 -0.3558487 0.01347491
-0.06181518 0.057526909 -0.0021156669 0.33786345 0.79175043 -0.5089004 0.0060461406
0.073258676 0.058571044 -0.0015526031 0.92790198 -0.032115094 -0.37143824 0.016896753
-0.066996649 0.060028847 -0.0028687916 0.34963912 0.78075486 -0.51785558 0.034443576
0.064878002 0.061498895 -0.0024520145 -0.30822459 0.34681138 -0.88584399 0.016450986
0.073565565 0.061499793 -0.0015976195 0.91707003 -0.10228861 -0.38538244 0.01885104
0.065786012 0.064239047 -0.0022664554 -0.35382625 0.1391423 -0.92490345 0.015565878
0.066505969 0.065142646 -0.0028514029 -0.43265221 0.18617518 -0.8821286 0.0094558271
0.073956825 0.064577237 -0.0016345624 0.88609141 -0.17427263 -0.429501 0.022817388
0.066839144 0.067011915 -0.0026390362 -0.27855751 0.081417896 -0.95696229 0.014043258
0.074386112 0.067250341 -0.0020286872 0.83308542 -0.23403955 -0.50119263 0.025214387
0.075256027 0.068067834 -0.00077063014 0.93945295 -0.24795927 -0.23652576 0.032335851
0.06759131 0.070878588 -0.0025642985 -0.41888869 0.024007905 -0.90772015 0.0093791327
0.074665673 0.070024416 -0.002627424 0.73081267 -0.27785116 -0.62346739 0.017294265
0.075771905 0.070677705 -0.0013993336 0.88764101 -0.27122211 -0.37219894 0.019977981
0.067882858 0.073589608 -0.0025654496 -0.39761406 0.033307806 -0.91694802 0.017866045
0.074989259 0.072120599 -0.0029958081 0.68863893 -0.40296525 -0.6028229 0.035994127
0.076650307 0.073041014 -0.00162216 0.91410977 -0.24198322 -0.32534203 0.049686816
0.06830962 0.075695053 -0.0027526421 -0.46018881 0.032440245 -0.88722831 0.0092990091
-0.018385796 0.0029022184 0.0023699168 -0.24576879 -0.96928614 -0.0090589747 0.0079236515
-0.016265001 0.0025256556 0.0017020005 -0.22453469 -0.97441155 -0.010310739 0.0060434812
-0.013534003 0.0019148556 0.0015329571 -0.20224884 -0.97933179 -0.0021512578 0.0017311928
-0.010552616 0.0013938108 0.0015123212 -0.15608533 -0.98527139 0.069840081 0.0047075772
-0.0076363808 0.0010305542 0.0016063075 -0.12427663 -0.98754925 0.096445277 0.0047580972
-0.0044132988 0.00059922569 0.0013879357 -0.087821677 -0.99499214 0.047727786 0.0024712
-0.0015516902 0.00042641279 0.0014900266 -0.048040554 -0.99636978 0.070281573 0.0036944961
0.0014257635 0.00032158179 0.0014730837 -0.016908323 -0.99645305 0.082434341 0.0030296438
0.0045164688 0.00026021976 0.0014387168 0.016604695 -0.99383146 0.10965139 0.0034395612
0.0074972901 0.00038483259 0.0014668641 0.046971936 -0.98614621 0.15908861 0.0050170296
0.010504578 0.00052655308 0.0014253324 0.072093509 -0.98306412 0.16848579 0.0065875133
0.013457067 0.00081283267 0.001426057 0.11214931 -0.9802708 0.16276257 0.0066119395
0.016480135 0.0012195365 0.0014395295 0.13568924 -0.97896302 0.15238014 0.0050467583
0.019515252 0.0016845522 0.0014669626 0.17453007 -0.97595769 0.1305598 0.0038499378
0.022535564 0.0023142037 0.001424367 0.19297813 -0.97435796 0.115698 0.0033133181
0.0249118 0.0028114545 0.0012889341 0.21390408 -0.97355282 0.080249667 0.0029442401
-0.027613442 0.0057750498 0.0023593884 -0.32945755 -0.94104487 -0.076761 0.011565493
-0.025391666 0.0053406944 0.001642333 -0.3080765 -0.94440001 -0.11488042 0.0060635833
-0.022504438 0.0044007082 0.0015316985 -0.32550186 -0.9420073 -0.081674643 0.0018853209
-0.019589353 0.0034697221 0.0014432804 -0.29335684 -0.95364958 -0.067039087 0.0027163548
-0.017600678 0.0030884661 0.00073720567 -0.25012177 -0.96442157 -0.085616164 0.0020282038
0.026286425 0.0031839665 0.0017173301 0.26757768 -0.95827001 0.10060202 0.0027335782
0.028492616 0.0037978955 0.0014338534 0.28313556 -0.95385462 0.099977925 0.0024389022
0.031519715 0.0047022644 0.0014559982 0.28599879 -0.95397842 0.09016639 0.0017352691
0.03412433 0.0055785407 0.0013893438 0.32014123 -0.9433639 0.087029584 0.0026807915
-0.034173034 0.0084665259 0.0019955831 -0.38275883 -0.91206664 -0.1470717 0.0052714408
-0.0314846 0.0077221785 0.0014981736 -0.35590023 -0.92083305 -0.15937866 0.0031402742
-0.028673692 0.0066943695 0.0013128449 -0.36991024 -0.91544491 -0.15851526 0.0038293824
-0.026629638 0.006247133 0.00060727284 -0.33758801 -0.9296096 -0.14785257 0.0042476868
0.035576828 0.0061636833 0.0016833297 0.36897781 -0.92508823 0.089816764 0.0024724717
0.037493903 0.0068727261 0.0014543402 0.3734228 -0.92306793 0.092201695 0.0023691978
0.040502757 0.008128413 0.001454515 0.38680252 -0.91581255 0.10803293 0.0022210625
0.042250905 0.0088980906 0.00093721453 0.41342807 -0.90545923 0.096025154 0.0027227991
-0.042191099 0.011900346 0.0027109089 -0.45482159 -0.88620907 -0.088152163 0.015962558
-0.040195797 0.011358622 0.001939325 -0.43809688 -0.88141882 -0.17655574 0.007746987
