# .PCD v0.7 - Point Cloud Data file format
VERSION 0.7
FIELDS x y z normal_x normal_y normal_z curvature
SIZE 4 4 4 4 4 4 4
TYPE F F F F F F F
COUNT 1 1 1 1 1 1 1
WIDTH 556
HEIGHT 1
VIEWPOINT 0 0 0 1 0 0 0
POINTS 556
DATA ascii
-0.034791909 0.01908474 -0.01444372 -0.24746785 -0.48835015 -0.8368237 0.0016335637
-0.032376543 0.018529544 -0.014789444 -0.20711654 -0.45920494 -0.86384809 0.0017928432
0.044126127 0.018489288 -0.014702208 0.30100796 -0.49901292 -0.81263793 0.0014501848
0.046699107 0.019200766 -0.014072794 0.34085175 -0.4982698 -0.79721224 0.0010562664
0.049365263 0.019627918 -0.013054079 0.40579268 -0.55392492 -0.72697967 0.0015148696
0.051650297 0.020455761 -0.012393852 0.44482177 -0.57015711 -0.69069129 0.0014607199
-0.048123546 0.02396518 -0.012119617 -0.4474338 -0.57631099 -0.6838631 0.00096659421
-0.045923155 0.023460578 -0.012595692 -0.41670266 -0.54906297 -0.72449207 0.0012984457
-0.043414608 0.022594931 -0.013272893 -0.37684226 -0.50405681 -0.77712071 0.0013474089
-0.040700242 0.0222748 -0.014274163 -0.32116854 -0.46725234 -0.82372689 0.0009958992
-0.038300876 0.021485373 -0.014700705 -0.27915329 -0.4437291 -0.85157382 0.0026111659
-0.0065641096 0.023650613 -0.014923311 0.063453026 0.41473317 -0.90772802 0.0043815644
-0.0041177399 0.023636423 -0.014780756 0.060929034 0.40554628 -0.91204154 0.0029038645
-0.0015427079 0.023405163 -0.014742427 0.042016637 0.41440073 -0.90912408 0.0023063638
0.001401729 0.02330525 -0.014701379 0.017262964 0.43133992 -0.90202433 0.0022730343
0.0044409744 0.02340115 -0.01464906 -0.012615909 0.43688414 -0.89942932 0.0023569616
0.0076139905 0.023462579 -0.014717559 -0.044471998 0.43818653 -0.89778328 0.0022275515
0.010331617 0.023604849 -0.014812022 -0.062256105 0.44173959 -0.89498061 0.003005971
0.012628176 0.023782697 -0.014867927 -0.07365977 0.42571586 -0.90185374 0.0033209126
0.047687773 0.021255475 -0.014843968 0.34080938 -0.45766008 -0.82121634 0.0018444825
0.049850132 0.022045041 -0.014371045 0.36769447 -0.42991614 -0.82460469 0.0013863615
0.052514229 0.022497246 -0.013274197 0.42857906 -0.47426328 -0.76902169 0.0018981678
0.054763198 0.023265148 -0.012465488 0.47514936 -0.50306487 -0.72191328 0.0016597635
-0.051522873 0.026700784 -0.012156431 -0.45720729 -0.55283308 -0.69666141 0.0016739086
-0.049068805 0.026015921 -0.012701797 -0.41897079 -0.52660859 -0.73969376 0.001246086
-0.046557441 0.025521254 -0.013610432 -0.377013 -0.47616732 -0.79443431 0.0018082375
-0.04382633 0.024984792 -0.014507134 -0.32854193 -0.42008522 -0.84592468 0.0013318254
-0.041837018 0.024282951 -0.01489192 -0.27720362 -0.3452245 -0.89664835 0.0030619858
-0.016264344 0.026680207 -0.014846787 0.16699721 0.44876465 -0.87790787 0.0029211079
-0.013462603 0.026170908 -0.014591315 0.15790883 0.45946434 -0.8740465 0.0023691354
-0.010511604 0.025761599 -0.014328002 0.13613868 0.48890692 -0.86164743 0.0015848441
-0.0075137075 0.025473967 -0.014074944 0.10301467 0.51197988 -0.85279816 0.0011884808
-0.0045192433 0.025339209 -0.013835815 0.081081249 0.53018504 -0.84399629 0.0015876745
-0.0015153332 0.025412189 -0.013537847 0.042969327 0.55440885 -0.8311345 0.0018142336
0.0015895999 0.025255129 -0.013515194 0.018926337 0.53960294 -0.84170693 0.0018903435
0.0045761713 0.025467703 -0.013343965 -0.01417351 0.54550308 -0.83798897 0.0017510215
0.0074845008 0.02527369 -0.013561924 -0.039928298 0.54257965 -0.83905482 0.0014891914
0.010569078 0.02520253 -0.013823484 -0.080631912 0.54916757 -0.8318134 0.0015546354
0.013496608 0.025335087 -0.014031102 -0.10042845 0.5241192 -0.84570277 0.0014474257
0.016669767 0.025487805 -0.01439253 -0.13538368 0.51341987 -0.84739083 0.001531655
0.018923482 0.026190719 -0.01432375 -0.14279518 0.49033508 -0.85975641 0.0015881438
0.021651924 0.02660032 -0.014638421 -0.15518551 0.47478604 -0.86631155 0.0019270505
0.050888963 0.024169575 -0.01483134 0.3833915 -0.39166072 -0.83642864 0.0011605776
0.052933946 0.025082551 -0.014431446 0.39196789 -0.35586625 -0.8483634 0.0012468476
0.055518735 0.02545994 -0.013260312 0.45841107 -0.4099133 -0.78856218 0.001779622
0.057647705 0.026254512 -0.012404699 0.50757802 -0.42925054 -0.7470665 0.0020915915
-0.054395601 0.029693056 -0.012254081 -0.48653984 -0.47131827 -0.73562092 0.0017126952
-0.052073285 0.028699955 -0.012766413 -0.43909147 -0.47541332 -0.76235217 0.0016734749
-0.049581602 0.028442286 -0.013841536 -0.36600953 -0.40011919 -0.84020329 0.0014843313
-0.046846323 0.02779828 -0.014695262 -0.32355317 -0.36254266 -0.87400007 0.0020831935
-0.024689253 0.029787658 -0.01484704 0.19460939 0.5088653 -0.83856028 0.0020799059
-0.022179671 0.029360356 -0.014560699 0.201783 0.47750732 -0.85514343 0.0029694755
-0.019384718 0.028787715 -0.014238711 0.19026065 0.52164966 -0.83167452 0.0019993845
-0.016481392 0.028434509 -0.013797041 0.18690833 0.54331988 -0.8184551 0.0013850862
-0.013593212 0.028353198 -0.013170824 0.17576087 0.56286341 -0.80764651 0.0012778899
-0.01043417 0.028043186 -0.012749356 0.15401419 0.6118049 -0.77587003 0.0015782317
-0.0076308995 0.027600117 -0.012612145 0.11960892 0.61944824 -0.77587205 0.0014555057
-0.0050858054 0.027380131 -0.012456047 0.091580585 0.61143345 -0.7859785 0.0013984675
-0.0016413985 0.027199307 -0.012216257 0.065821975 0.61005712 -0.78961879 0.0014693695
0.0015920706 0.027097341 -0.012112298 0.024289964 0.61599809 -0.78737313 0.001483009
0.0048287958 0.027135558 -0.012037687 -0.004078208 0.61410451 -0.78921419 0.0011912277
0.010578934 0.027314309 -0.012248334 -0.075215645 0.60303873 -0.79415804 0.00045954043
0.013812881 0.027595943 -0.012335778 -0.11357396 0.61191845 -0.78272396 0.00061743788
0.017140789 0.027784728 -0.012759059 -0.15169251 0.60122836 -0.78454691 0.0009233522
0.020091325 0.027783595 -0.013427239 -0.1681149 0.5832743 -0.79468763 0.0011743697
0.022517519 0.028346797 -0.013525287 -0.16473958 0.56426251 -0.80899233 0.0012131177
0.025543626 0.028299309 -0.014325979 -0.1898147 0.55281365 -0.81139851 0.0015043572
0.028160768 0.028943866 -0.014512105 -0.17840472 0.51354545 -0.83931088 0.0018278925
0.030766506 0.029661037 -0.014687136 -0.19591184 0.5249148 -0.82830125 0.0015157986
0.053644888 0.027250087 -0.014934148 0.34647363 -0.2241077 -0.91089612 0.0032468827
0.05573884 0.028280601 -0.014310868 0.41755071 -0.28212354 -0.86374629 0.0013635958
0.058423787 0.028560786 -0.012990221 0.48233196 -0.33244064 -0.8104561 0.0021882511
0.060363095 0.029555727 -0.012241369 0.54735267 -0.35476163 -0.7579903 0.0020532652
-0.057269685 0.032536712 -0.012137154 -0.52344149 -0.41005099 -0.74690509 0.0022285953
-0.055262491 0.031634711 -0.012545193 -0.45418382 -0.38750422 -0.8022204 0.0025492674
-0.052722685 0.031189557 -0.013640734 -0.39877373 -0.35443193 -0.84578818 0.0018240878
-0.050195284 0.03104125 -0.014689486 -0.33506915 -0.26869401 -0.90306818 0.0024269309
-0.030625694 0.032818891 -0.014655646 0.22011763 0.48095009 -0.84866667 0.0017204927
-0.028396182 0.032162767 -0.014428932 0.2311587 0.48896831 -0.84111571 0.0021854511
-0.025436183 0.031500779 -0.014011188 0.22805668 0.54562473 -0.80640173 0.0016680061
-0.022627944 0.031382095 -0.01325795 0.23855714 0.58221883 -0.77724624 0.0018232035
-0.01978015 0.030894689 -0.012826609 0.22680697 0.608316 -0.7605986 0.0022465421
-0.016990572 0.03040687 -0.012407273 0.20044017 0.64150721 -0.74046749 0.0013903539
-0.014747978 0.030003851 -0.012058803 0.1861641 0.62734663 -0.7561608 0.001785349
0.025461435 0.030468369 -0.012637007 -0.19182634 0.55689698 -0.80812651 0.00096598192
0.028815709 0.030853629 -0.013217499 -0.20197281 0.57121384 -0.79556382 0.00047829776
0.031478927 0.03143907 -0.01350048 -0.20036614 0.56562555 -0.79995072 0.00065940188
0.034432724 0.031323761 -0.01447054 -0.21748307 0.54974705 -0.80652303 0.0011475524
0.037540592 0.032323115 -0.014655763 -0.23309061 0.50561816 -0.83067387 0.0023799152
0.039570384 0.032770295 -0.014870455 -0.20460367 0.49448526 -0.84476131 0.0017370855
0.056314014 0.031078346 -0.01475569 0.36750418 -0.15550821 -0.91692853 0.0025174571
0.058598701 0.031385414 -0.01377558 0.43596405 -0.20025919 -0.8774004 0.0015983758
0.060931165 0.031705361 -0.012581963 0.51820946 -0.25213471 -0.81724352 0.0025859673
-0.057518348 0.034402695 -0.012427287 -0.48554981 -0.32117888 -0.81307167 0.0029976554
-0.055395223 0.034112375 -0.013437222 -0.41186377 -0.25326768 -0.87534207 0.0037650545
-0.052635521 0.034067679 -0.014563317 -0.33867708 -0.18270752 -0.92299283 0.0034002042
-0.050719041 0.033070512 -0.014948152 -0.24882682 -0.15338734 -0.95632505 0.0061783721
-0.037206993 0.035653699 -0.014751001 0.20382734 0.4463287 -0.87134671 0.0024693806
-0.034362178 0.034910481 -0.014431085 0.22930732 0.49753183 -0.83658838 0.0019180604
-0.03145941 0.03452218 -0.013777114 0.25560674 0.5589025 -0.78885555 0.0018700742
-0.02868437 0.034222014 -0.01305278 0.27122197 0.60184598 -0.75114584 0.0018351086
-0.025807187 0.033709213 -0.012442964 0.26455015 0.64096153 -0.72054261 0.0016995855
-0.02367962 0.033169486 -0.012083403 0.24933331 0.63965511 -0.7270999 0.0010952675
0.032530684 0.033001602 -0.012430439 -0.22775558 0.57372093 -0.78674752 0.00069651025
0.034398526 0.033658382 -0.012554199 -0.21905217 0.56280625 -0.79703534 0.00074911327
0.03754589 0.034134764 -0.013316467 -0.24333711 0.55338109 -0.79659051 0.00055319141
0.040152635 0.033800576 -0.014422518 -0.20123164 0.47238311 -0.85811412 0.00094765163
0.043778449 0.035328034 -0.014527208 -0.18520822 0.44278812 -0.87728935 0.00151801
0.045673415 0.035892129 -0.014676106 -0.14664353 0.40259609 -0.90355527 0.0015287609
0.056609496 0.03446079 -0.014857179 0.29142141 -0.015573146 -0.95646799 0.0025478278
0.058604904 0.034416966 -0.014227751 0.36386523 -0.052399438 -0.92997646 0.0027715005
0.061475359 0.034472354 -0.012918063 0.45871142 -0.12920153 -0.87914211 0.0027857493
0.063162543 0.035499834 -0.012163601 0.55217981 -0.12964655 -0.82358313 0.002888211
-0.060625367 0.038380519 -0.012065154 -0.50161046 -0.21219794 -0.83866495 0.0039386265
-0.058387723 0.037418425 -0.012817344 -0.43359938 -0.18205738 -0.88252288 0.0064051594
-0.055512469 0.037187684 -0.01399909 -0.35194078 -0.11199071 -0.92929852 0.0045850528
-0.052509461 0.037304342 -0.014862864 -0.23938385 -0.025995668 -0.97057694 0.0039728074
-0.050449163 0.038733568 -0.014916705 -0.083490394 0.15536135 -0.98432326 0.0066674538
-0.046377875 0.038610615 -0.014891355 0.080258816 0.33366564 -0.93926871 0.0039074807
-0.043226581 0.038278501 -0.014644249 0.15780506 0.4346844 -0.88664931 0.0031612935
-0.040427949 0.037747994 -0.014328192 0.20149587 0.49021459 -0.84799117 0.0017235611
-0.037485939 0.037505798 -0.013644896 0.2412335 0.53836125 -0.8074488 0.0016352475
-0.034613471 0.037156519 -0.012917481 0.28667879 0.60770237 -0.74061662 0.0015785847
-0.032147471 0.036583904 -0.012433621 0.29169118 0.63512057 -0.7152189 0.0020933023
0.04110663 0.036606699 -0.012704338 -0.25113267 0.54382199 -0.8007434 0.00025716424
0.043737434 0.037114576 -0.01333244 -0.22620232 0.52226049 -0.82223874 0.0009468433
0.046799276 0.037071135 -0.014230065 -0.16155986 0.45841974 -0.87392783 0.0014236369
0.049411338 0.037553396 -0.014513214 -0.12423885 0.41950941 -0.89920884 0.0021290274
0.052578736 0.03799599 -0.014648204 -0.046075508 0.35766017 -0.9327144 0.0024441842
0.055790294 0.037361629 -0.014692381 0.2029119 0.1193512 -0.97189611 0.0021110422
0.058771957 0.03712729 -0.014116335 0.32264388 0.034015927 -0.94590908 0.0028710037
0.061620943 0.037391193 -0.013062264 0.40843573 -0.010712771 -0.9127242 0.0023729606
0.063378371 0.037630644 -0.01223045 0.52251661 -0.069211178 -0.84981549 0.0025125581
-0.060578495 0.04070434 -0.012316377 -0.41948441 -0.064217784 -0.90548825 0.0043110242
-0.058202751 0.040439777 -0.013270495 -0.32571876 0.0072128791 -0.94543922 0.0045618289
-0.055627432 0.039910413 -0.013984519 -0.26213893 0.025371341 -0.96469659 0.0049400977
-0.053189736 0.04022098 -0.014382437 -0.20726404 0.070900321 -0.97571242 0.0048301192
-0.049424659 0.040474504 -0.014402795 0.039426453 0.36615884 -0.92971677 0.004422694
-0.046449263 0.040449969 -0.014060865 0.12164918 0.45809472 -0.88053995 0.0027319957
-0.043481562 0.040435284 -0.013422445 0.22422361 0.52744997 -0.81946343 0.0018703821
-0.040691845 0.04011311 -0.0127959 0.26865596 0.60124052 -0.75255144 0.0019542531
-0.03813827 0.039391521 -0.012444407 0.29351375 0.61887002 -0.72859424 0.001803544
0.047206197 0.040025834 -0.01251173 -0.22821814 0.54487401 -0.80686361 0.00068394869
0.049790848 0.039942656 -0.013265313 -0.16745815 0.46867621 -0.86735255 0.0011432742
0.052712101 0.040357303 -0.013587794 -0.090291619 0.4245024 -0.90091348 0.0020401182
0.055603456 0.04045172 -0.013761647 0.028498165 0.33272836 -0.94259202 0.0026740686
0.05897934 0.039960388 -0.013615251 0.25281668 0.15959592 -0.95426041 0.0029440306
0.061816573 0.040185273 -0.012802586 0.3800489 0.069419473 -0.9223578 0.0026859136
0.06333372 0.040528145 -0.01219504 0.44898599 0.075897262 -0.89030957 0.0031886676
-0.060807545 0.043146651 -0.012244293 -0.35258213 0.073489524 -0.93289077 0.0050494745
-0.058688261 0.043434735 -0.012841932 -0.23305541 0.14999922 -0.96082532 0.0040699011
-0.055448458 0.043163419 -0.013446492 -0.13651758 0.25293159 -0.95780402 0.0039892518
-0.05241086 0.043435823 -0.013283089 0.047862936 0.40901041 -0.91127366 0.0046392647
-0.049617231 0.043438602 -0.012946404 0.14376232 0.48075148 -0.86499155 0.0033587944
-0.04668789 0.042865302 -0.012671298 0.20785521 0.55623782 -0.80460906 0.0029262335
-0.043934233 0.042272057 -0.012256152 0.26068005 0.58523053 -0.76782227 0.001688918
0.053070217 0.042444944 -0.012486393 -0.17930079 0.50991505 -0.84133095 0.0019029926
0.055916607 0.042973887 -0.012640486 -0.028683914 0.41124713 -0.91107237 0.0025031106
0.058602825 0.043209959 -0.012632963 0.065511204 0.35408717 -0.93291509 0.0031662872
0.061578386 0.042736009 -0.012400416 0.31705123 0.18103239 -0.93097031 0.0025372615
0.063163951 0.042283647 -0.012122598 0.31628546 0.20144753 -0.92702878 0.0051035257
-0.060284041 0.04515719 -0.012092978 -0.23866077 0.18281326 -0.95374024 0.0076837898
-0.058546267 0.045338988 -0.012388984 -0.17056675 0.28116184 -0.94438076 0.0040792297
-0.055662002 0.045684818 -0.012356624 0.0078652641 0.45534068 -0.89028251 0.0037621178
-0.052967057 0.045499038 -0.012275808 0.11561022 0.52610451 -0.84252495 0.0031194137
-0.050944503 0.045113344 -0.012076698 0.17134343 0.58469027 -0.7929557 0.0017636806
-0.015283859 0.0058156275 -0.0091888765 -0.21133485 -0.75392509 -0.62204063 0.0016653213
-0.013226223 0.0055928975 -0.009433141 -0.1804948 -0.75694346 -0.62805903 0.0015462572
-0.010482531 0.0053210072 -0.0097720074 -0.1447491 -0.75094712 -0.64430279 0.0013146745
-0.0074441102 0.005038348 -0.010014475 -0.11156727 -0.75286973 -0.64864469 0.0012469775
-0.0044734133 0.0048881029 -0.010253457 -0.082124934 -0.74056143 -0.66695148 0.001326819
-0.0015117633 0.0047187353 -0.010356781 -0.05575892 -0.74267137 -0.66733062 0.0014989875
0.0014896058 0.0046537109 -0.010478318 -0.033625405 -0.74420178 -0.66710794 0.0015068568
0.0045008203 0.0045742844 -0.010486011 -0.00704489 -0.75066346 -0.66064721 0.0014523971
0.0075056069 0.0046030725 -0.010503695 0.012595726 -0.756446 -0.6539349 0.0014413466
0.010512288 0.0046841991 -0.010474406 0.041479222 -0.76004761 -0.6485424 0.001471219
0.013495266 0.0048024864 -0.010372736 0.068342991 -0.76955515 -0.63491273 0.0014277672
0.01650594 0.0049873716 -0.010230985 0.096803784 -0.78265762 -0.61487889 0.0013853301
0.019466629 0.005237062 -0.01000986 0.13108829 -0.7883516 -0.60109705 0.0011977605
0.02235161 0.005522456 -0.0096820798 0.16068977 -0.79530448 -0.58452517 0.0010520503
0.024879836 0.0057777162 -0.0092798742 0.19453903 -0.80007613 -0.56747931 0.00076942734
-0.024442747 0.0089169387 -0.0091890125 -0.29747799 -0.74853623 -0.59262162 0.0012750649
-0.022320474 0.008504766 -0.0096461195 -0.27245232 -0.73804927 -0.61729491 0.0010118244
-0.01938441 0.007964504 -0.010169605 -0.2421979 -0.7285524 -0.64074296 0.001596475
-0.016509371 0.0074095074 -0.010510196 -0.19781448 -0.72532558 -0.65937269 0.0010575718
-0.013586692 0.0070333867 -0.010923242 -0.16469529 -0.69959009 -0.69530505 0.0013260017
-0.010570239 0.0067164018 -0.011246537 -0.13066211 -0.68975037 -0.71215999 0.0012737457
-0.0075678639 0.0064632278 -0.01150268 -0.10143432 -0.70138246 -0.70553082 0.0015263936
-0.0046673641 0.0062779603 -0.011696779 -0.07448978 -0.70193011 -0.70833987 0.0012307256
-0.0015335622 0.0061791409 -0.011868747 -0.048950642 -0.68585211 -0.7260927 0.0019555083
0.0013587881 0.0060942303 -0.011890315 -0.031960867 -0.68073666 -0.7318306 0.0022809189
0.0044472571 0.0060433843 -0.011921324 -0.0023985142 -0.68153298 -0.73178345 0.0023584401
0.0082055666 0.006079738 -0.011978919 0.00045475093 -0.69494855 -0.71905935 0.0017935468
0.011003506 0.0060385768 -0.011871651 0.021476926 -0.70012099 -0.71370113 0.00205452
0.013575155 0.0061593521 -0.01183778 0.049835529 -0.71899521 -0.69322592 0.0014701615
0.01672121 0.0062571489 -0.011699166 0.078786917 -0.69859564 -0.71116573 0.0014047726
0.019661168 0.0064771897 -0.01151428 0.1134415 -0.7055558 -0.69951558 0.0014215531
0.022614026 0.0066921241 -0.011149805 0.14581305 -0.75869304 -0.63492006 0.0012650298
0.025597125 0.0070146527 -0.010710963 0.18201147 -0.77852124 -0.60064679 0.00088487938
0.02848742 0.0075769941 -0.010468499 0.20762417 -0.77301121 -0.59945464 0.0013608416
0.031398151 0.0081550973 -0.010130777 0.25159687 -0.77415997 -0.58084017 0.0013490155
0.034055546 0.0086262273 -0.0095556956 0.287559 -0.77966738 -0.55626303 0.0011868504
0.03618848 0.0089648254 -0.0090483679 0.32558471 -0.77379674 -0.54335368 0.0017044805
-0.033031024 0.011958123 -0.0090185776 -0.35067493 -0.73751074 -0.57715255 0.0019726288
-0.030945789 0.011693424 -0.0094525237 -0.315191 -0.7407521 -0.59324622 0.0011185406
-0.028278617 0.011134968 -0.010051343 -0.29404217 -0.73130411 -0.61541331 0.0015814587
-0.025501518 0.010509219 -0.010541481 -0.26436713 -0.70940685 -0.65333903 0.0011614533
-0.022604195 0.0099063283 -0.011053627 -0.25209695 -0.69381648 -0.6745857 0.0012462223
-0.019890258 0.0093803555 -0.011488235 -0.21628971 -0.67879087 -0.70175618 0.0010875962
-0.017671308 0.009063798 -0.011872782 -0.19458868 -0.67689353 -0.7098946 0.0012101812
0.029631412 0.0090727648 -0.011770925 0.20716673 -0.72887355 -0.6525529 0.0012604817
0.031817321 0.0094076423 -0.011532421 0.23071052 -0.70572543 -0.66986889 0.00086778711
0.034671415 0.0098763602 -0.010897025 0.26997536 -0.75465226 -0.59800768 0.0014526864
0.037475049 0.010622154 -0.010463797 0.29769364 -0.75711817 -0.58150715 0.0011744528
0.040221419 0.011330797 -0.0098586539 0.35105953 -0.74975842 -0.56090957 0.0011709953
0.042290494 0.011794809 -0.0092392918 0.38017601 -0.75361329 -0.53622121 0.0012896798
-0.036959417 0.014455855 -0.0095153805 -0.37405702 -0.71944094 -0.58522308 0.0010079072
-0.034270015 0.013795617 -0.010212685 -0.32021871 -0.7162295 -0.62006068 0.0014616612
-0.031701304 0.013170263 -0.010765392 -0.29802793 -0.70816302 -0.64006603 0.0011503532
-0.028674478 0.012536573 -0.011412838 -0.26148623 -0.67830521 -0.68667817 0.0015667778
-0.026556661 0.012260107 -0.011927198 -0.24234495 -0.65309429 -0.71745157 0.0027009975
0.038592707 0.012192939 -0.011804936 0.29757291 -0.68737352 -0.66254669 0.0020915286
0.040802438 0.012666685 -0.011203274 0.32314962 -0.70964527 -0.62608135 0.0009842338
0.043501537 0.013454658 -0.010530543 0.36563531 -0.72870159 -0.57905519 0.0012856106
0.046127666 0.01430935 -0.0098299282 0.41785645 -0.71582204 -0.55945939 0.0012379986
0.048105158 0.014824955 -0.0091369962 0.4375675 -0.72110903 -0.53715599 0.00099997397
-0.042659778 0.017675851 -0.0094499774 -0.45456335 -0.67621195 -0.57974964 0.0011613223
-0.040250201 0.016755173 -0.010045934 -0.40022379 -0.68460399 -0.60921121 0.001654299
-0.037663795 0.016061939 -0.010864416 -0.35942659 -0.67733794 -0.64189237 0.0013492827
-0.03523583 0.015460075 -0.011513624 -0.30863911 -0.67349702 -0.67167234 0.0013257846
0.044625312 0.015218136 -0.011812507 0.36404529 -0.65297878 -0.66414583 0.0022297828
0.046825733 0.015797803 -0.011116695 0.39688849 -0.67795074 -0.61875874 0.0015431643
0.04935506 0.016681543 -0.010307215 0.43630865 -0.68092489 -0.58819729 0.0015339727
0.051634967 0.017559569 -0.0095460126 0.4849849 -0.66641301 -0.56628913 0.00130388
-0.046080008 0.020413624 -0.0097917141 -0.47936222 -0.64727622 -0.59265965 0.00093315262
-0.043494705 0.019354861 -0.010571547 -0.42524302 -0.63826126 -0.64170933 0.0016167912
-0.041013066 0.018502614 -0.011360165 -0.38222846 -0.62462026 -0.6809926 0.0012877008
0.050335884 0.018465566 -0.011513468 0.4416199 -0.62549913 -0.64321285 0.00069137436
0.052642629 0.01931365 -0.010646624 0.46649677 -0.62220013 -0.62868732 0.002052492
0.054904062 0.020247033 -0.0097841239 0.52155024 -0.62583369 -0.57992899 0.0015282496
-0.051484108 0.023834672 -0.0092047248 -0.50429118 -0.65458113 -0.5632174 0.0011706608
-0.049142845 0.023015831 -0.010088407 -0.47751904 -0.61652029 -0.62600178 0.0013592808
-0.046704974 0.022162259 -0.011050402 -0.4362742 -0.58099914 -0.68709892 0.0010345969
-0.044494316 0.021232985 -0.011725781 -0.42377758 -0.59470981 -0.68317842 0.00093859754
0.053656269 0.021289196 -0.011703881 0.48471826 -0.57857937 -0.65596807 0.00094863452
0.055772994 0.022154376 -0.010874922 0.49681544 -0.54830098 -0.67271131 0.0016871264
0.057942081 0.023063026 -0.0098823076 0.56130171 -0.56501859 -0.60472667 0.0016810102
-0.05440234 0.026411638 -0.0093973679 -0.53264201 -0.61332232 -0.58320516 0.001150068
-0.052322779 0.02576416 -0.010359134 -0.48818946 -0.59229112 -0.64098537 0.0019711973
-0.049924746 0.024851423 -0.011270058 -0.45069367 -0.5868991 -0.67262518 0.0015411255
0.056723915 0.024239518 -0.011780159 0.50690657 -0.4969466 -0.7043364 0.00089925411
0.058804128 0.025230939 -0.010889165 0.5366447 -0.46415502 -0.70467901 0.0011901222
0.06081159 0.026021317 -0.0097563332 0.59669113 -0.50984263 -0.6196937 0.0013912841
-0.057465233 0.029299954 -0.0093774777 -0.56178033 -0.55324596 -0.61507869 0.0019100237
-0.055336222 0.028528912 -0.010452531 -0.51543713 -0.53097403 -0.67260045 0.0015353884
-0.05317362 0.027770862 -0.011494407 -0.46598408 -0.51098073 -0.72232783 0.0010599056
-0.012880108 0.029713804 -0.011879656 0.18797916 0.64744449 -0.73856574 0.0014718539
-0.010809588 0.029474022 -0.011603368 0.15040693 0.67081308 -0.72621453 0.0013940422
-0.0072326101 0.029156739 -0.011095342 0.12224035 0.64360559 -0.75553244 0.0013545431
-0.0041691763 0.028424231 -0.011356032 0.091893487 0.6532073 -0.75158226 0.00092015852
-0.0014372062 0.028490793 -0.010934075 0.06738352 0.67982072 -0.73027617 0.0016858429
0.0014625494 0.028355386 -0.010859969 0.039663199 0.68817306 -0.72446167 0.0012795428
0.0045794002 0.028224122 -0.010929063 -0.01131988 0.66681516 -0.74513721 0.0013423781
0.0075972714 0.028021585 -0.011213453 -0.039488874 0.6570946 -0.75277311 0.0012029679
0.010582788 0.028453574 -0.011030594 -0.07434348 0.64601463 -0.75969613 0.00085206795
0.013497165 0.028648026 -0.011156048 -0.11803485 0.62183917 -0.77419883 0.00068186043
0.017013958 0.029029639 -0.011560326 -0.14478591 0.61412537 -0.77581382 0.00050720538
0.05957837 0.027509378 -0.011775917 0.54396826 -0.40190601 -0.73659366 0.0013755016
0.061593909 0.028395737 -0.010640729 0.57859582 -0.38587549 -0.71855891 0.0010421929
0.063488208 0.029220924 -0.009440681 0.64652663 -0.42782152 -0.6316424 0.0014647394
-0.06044754 0.032657638 -0.0093094241 -0.6053803 -0.49717665 -0.62155461 0.0018657875
-0.058234923 0.031326186 -0.010250751 -0.55665398 -0.4799619 -0.6780656 0.0018032646
-0.056244221 0.030770719 -0.011441645 -0.51302004 -0.46519938 -0.72138751 0.0015775441
-0.022168888 0.032839809 -0.011796282 0.25449559 0.6623857 -0.70461142 0.00091925258
-0.019369483 0.032208052 -0.011481964 0.23820177 0.66040486 -0.71212733 0.00098834105
-0.01648891 0.03181152 -0.010839161 0.22091934 0.69255519 -0.68670374 0.0011276131
-0.01378258 0.031497627 -0.010246216 0.19852322 0.70971775 -0.67593586 0.00087372609
-0.010268407 0.031007417 -0.0097738281 0.16627055 0.72748792 -0.66566914 0.0010212371
-0.0080297403 0.030502401 -0.0097993258 0.14489198 0.73607004 -0.66121644 0.001036301
-0.0054353727 0.030319519 -0.0093756542 0.1144762 0.76466572 -0.63417786 0.0010975671
-0.0021911878 0.030111412 -0.0090293372 0.079888046 0.76008373 -0.64489585 0.0011519621
0.02206542 0.030643404 -0.011243491 -0.19557108 0.59411502 -0.78024316 0.001085454
0.062307213 0.031172207 -0.011450227 0.57997811 -0.2932291 -0.76002777 0.0015751695
0.064180098 0.031605262 -0.010076358 0.64220852 -0.34178662 -0.68611228 0.0017521968
-0.063103437 0.035642285 -0.0090349521 -0.64749759 -0.43170062 -0.62799793 0.0016046173
-0.061247844 0.035039801 -0.010077553 -0.57440388 -0.39840311 -0.71507704 0.0041547394
-0.058995713 0.034014467 -0.011285243 -0.51827949 -0.34823689 -0.78110009 0.0015406429
-0.027712308 0.035512857 -0.011502872 0.29756504 0.65250897 -0.69691247 0.0020591021
-0.025337175 0.03481425 -0.011152127 0.28232011 0.67084652 -0.68575531 0.0008155948
-0.022605911 0.034338724 -0.010412459 0.26794526 0.69449145 -0.6677478 0.00098106882
-0.019397337 0.033556025 -0.0098872688 0.2490961 0.70111322 -0.66812515 0.0013078719
-0.017262459 0.033135913 -0.0094487909 0.24477579 0.78068 -0.57499874 0.0018969126
0.062870398 0.033498622 -0.011825482 0.55621099 -0.19091186 -0.80881512 0.0019097778
0.064687751 0.034339514 -0.010662741 0.60910356 -0.22230445 -0.76129729 0.0015112486
0.0663893 0.034880403 -0.0093682995 0.68353826 -0.2556617 -0.68367571 0.001806736
-0.06363 0.037554707 -0.0094755627 -0.61721516 -0.34962168 -0.70484763 0.0024090093
-0.061345834 0.037167989 -0.011030396 -0.53021848 -0.26860628 -0.80418843 0.0016003891
-0.059739389 0.036955152 -0.011964722 -0.52532047 -0.29576954 -0.79784632 0.0026349407
-0.03370269 0.038427401 -0.011378503 0.31305563 0.6671356 -0.67596322 0.0012976223
-0.031373039 0.037774488 -0.010862887 0.31640235 0.68474519 -0.65651631 0.00090443407
-0.029045939 0.037153598 -0.010337357 0.30254 0.69538081 -0.65185511 0.0011085734
-0.026255762 0.036311697 -0.0098383017 0.30621117 0.70574343 -0.63887465 0.00058569736
0.064768694 0.03725845 -0.011228565 0.57421041 -0.1090313 -0.81141514 0.0017814892
0.066798322 0.037456099 -0.0096589923 0.67185175 -0.15660127 -0.72394139 0.0024348206
-0.064248845 0.040304132 -0.010016959 -0.59771788 -0.25702906 -0.75938743 0.0031685592
-0.061845474 0.040168583 -0.011584422 -0.47232783 -0.13917725 -0.87036556 0.0028906688
-0.04248384 0.041978855 -0.011868499 0.2942408 0.64461064 -0.70561999 0.0010599642
-0.039820392 0.041283764 -0.011444 0.29974437 0.64505708 -0.70289016 0.0016963035
-0.037421089 0.040869717 -0.010648903 0.32327157 0.68098629 -0.65707934 0.001094799
-0.034905303 0.040050954 -0.01018374 0.32184756 0.69183201 -0.64636111 0.001087531
-0.03216511 0.039343335 -0.0094351983 0.33047155 0.70562547 -0.62680238 0.00093248842
0.046428829 0.040530875 -0.01172008 -0.21654055 0.52959853 -0.82014364 0.00066160661
0.048175707 0.041587725 -0.011668115 -0.23860081 0.54993731 -0.80039907 0.00053599378
0.06489934 0.040416636 -0.011353133 0.5110659 0.022772461 -0.85923982 0.0029557301
0.06708622 0.040418461 -0.0098000448 0.6303708 -0.039041366 -0.77531183 0.0028681273
-0.066370882 0.04358007 -0.0092535084 -0.59985751 -0.13029405 -0.78942668 0.0033588361
-0.064631276 0.043721456 -0.010391488 -0.50580478 -0.049503785 -0.86122632 0.0027539821
-0.062024385 0.04372213 -0.011690371 -0.3960917 0.043667782 -0.91717201 0.0049503348
-0.048441473 0.044740319 -0.011740599 0.2289782 0.60197151 -0.76498318 0.0015227225
-0.046005305 0.044019114 -0.01155961 0.26050276 0.61800456 -0.74176043 0.0016370065
-0.043428261 0.043681439 -0.010740397 0.30964968 0.66345763 -0.68113214 0.0011067885
-0.040748965 0.042845491 -0.01026992 0.31727144 0.66668099 -0.67444438 0.0010757543
-0.038375363 0.04242954 -0.0093463175 0.35195714 0.68419582 -0.63875055 0.00069689372
0.050517559 0.043411091 -0.010927651 -0.23578973 0.5639357 -0.79144162 0.00055254268
0.052891359 0.043879025 -0.011447662 -0.20720533 0.54687262 -0.81116974 0.00170583
0.055171844 0.044440836 -0.011682116 -0.16690101 0.512393 -0.84237611 0.0032676759
0.057900842 0.04476504 -0.011894894 -0.0033435642 0.43070278 -0.90248764 0.003099801
0.062135939 0.044424068 -0.011730609 0.29986256 0.22589517 -0.92685157 0.002367629
0.064694583 0.043392651 -0.011141617 0.4584949 0.11313891 -0.88146579 0.0025933362
0.067118809 0.043354422 -0.0097578848 0.58777565 0.062300626 -0.80662155 0.0029936733
-0.066528209 0.046410799 -0.0093300929 -0.52474034 0.01984233 -0.85103095 0.0041924301
-0.064142592 0.046731904 -0.010467143 -0.36885324 0.17649506 -0.91257703 0.0048723379
-0.061563954 0.046319984 -0.01145334 -0.27093995 0.23445939 -0.93360603 0.0056177336
-0.058564994 0.046925176 -0.011692272 -0.066283241 0.40936211 -0.90996116 0.0062589981
-0.055290598 0.047138363 -0.011516928 0.077900894 0.50510401 -0.85953557 0.0028746806
-0.052214582 0.046827674 -0.011223254 0.18309781 0.57944071 -0.79418111 0.002248347
-0.04946886 0.046414886 -0.010701291 0.25960943 0.64277208 -0.72072679 0.0019670981
-0.046584774 0.04589409 -0.010024068 0.31948194 0.69314122 -0.64613199 0.0016573371
-0.044606615 0.045543164 -0.0093992585 0.32600591 0.6961627 -0.63959175 0.0019594526
0.052824654 0.046027333 -0.0096538197 -0.21316148 0.57509482 -0.78982788 0.00077242916
0.055880941 0.046166129 -0.010647217 -0.18169986 0.54555053 -0.81814408 0.0025428247
0.058861583 0.046200275 -0.011177361 -0.012457243 0.44783318 -0.89403039 0.0025947464
0.06195081 0.046110824 -0.011120426 0.20028076 0.32528794 -0.92416197 0.0033209492
0.064935029 0.046170209 -0.010408225 0.42143163 0.19072208 -0.88657796 0.0036969446
0.066850521 0.046126809 -0.0095297107 0.54487252 0.13983086 -0.8267777 0.002560054
-0.066715412 0.048870631 -0.0090912804 -0.48437449 0.10717807 -0.86827087 0.0041614133
-0.064398229 0.049075373 -0.0098248227 -0.30125317 0.25176597 -0.9197067 0.0036193123
-0.06140257 0.049599338 -0.010159492 -0.087698966 0.45618284 -0.88555413 0.005841285
-0.05843557 0.049360022 -0.010372282 0.018237943 0.52499872 -0.85090756 0.0042128866
-0.055533994 0.04917172 -0.010138634 0.13031837 0.60444719 -0.78591394 0.003511884
-0.052668799 0.048653882 -0.0098141562 0.22788766 0.64125162 -0.73270983 0.0031045452
-0.050339885 0.048393302 -0.0091549549 0.29486817 0.69469488 -0.65608817 0.0011791555
0.055626243 0.048120234 -0.009060028 -0.22373673 0.5904296 -0.7754578 0.00028671927
0.05914009 0.048510078 -0.0097845979 -0.12812667 0.53747928 -0.83348644 0.0036895804
0.06178857 0.049055785 -0.0097491974 0.062653966 0.43596256 -0.89778119 0.0034712099
0.065045603 0.048598684 -0.0095542436 0.34288803 0.27545562 -0.89808244 0.0043330216
0.066216156 0.048751716 -0.0091535393 0.4630712 0.23747225 -0.85391569 0.0031061962
-0.063860014 0.051301043 -0.0090695359 -0.19352666 0.39450532 -0.89828336 0.0093710525
-0.061491601 0.051161118 -0.0092574731 -0.03136614 0.53289878 -0.84559745 0.0060834796
-0.059853513 0.051245216 -0.0091090417 0.039838448 0.5999108 -0.79907447 0.0063569243
-0.012344441 0.0029808402 -0.0060550221 -0.22066601 -0.86724323 -0.44631344 0.0015282884
-0.009827164 0.0028597615 -0.0063285544 -0.16422778 -0.86792666 -0.46875632 0.0014959283
-0.0072799814 0.0026455612 -0.0066516655 -0.11796656 -0.86131781 -0.49418163 0.0016655364
-0.0044021113 0.002451448 -0.0068853684 -0.083687566 -0.86506367 -0.49463254 0.0017739896
-0.0014470605 0.0023409335 -0.007092006 -0.0551254 -0.86750931 -0.49435702 0.0017530698
0.0014787008 0.0022619404 -0.0072058067 -0.02802307 -0.86908251 -0.49387285 0.0017851674
0.0044931863 0.0022267441 -0.0072315224 0.00040959383 -0.87228113 -0.48900452 0.0017232125
0.0074960911 0.0022600889 -0.007206982 0.028673301 -0.87497824 -0.48331255 0.0017430484
0.01047162 0.0023740018 -0.0071457066 0.057667904 -0.8781063 -0.47497755 0.0017099077
0.013450819 0.002523747 -0.0069461721 0.086277895 -0.88106179 -0.4650659 0.0016403581
0.016319467 0.0026866067 -0.0066341273 0.1174774 -0.88327336 -0.45390233 0.0016365744
0.018743504 0.0028673627 -0.0063178577 0.15903498 -0.89093006 -0.42538393 0.0012527974
-0.021252645 0.0058598332 -0.0062492313 -0.31284729 -0.83143634 -0.45917329 0.0015292164
-0.01920332 0.0054688998 -0.0068033892 -0.27671888 -0.83307886 -0.47896364 0.0017914239
-0.016296769 0.0050105094 -0.0074738725 -0.22631805 -0.82713509 -0.51441973 0.0021247452
-0.013478941 0.0043040509 -0.0074842838 -0.19689623 -0.8430295 -0.50053293 0.0017224237
-0.01054573 0.0038335414 -0.0077031418 -0.15698546 -0.83505636 -0.5272916 0.0012469589
-0.0075174044 0.0035973517 -0.0081166904 -0.11466716 -0.83028269 -0.54541934 0.0017120824
-0.0045222878 0.0034164621 -0.0083877472 -0.083398819 -0.81791693 -0.56925958 0.0012574777
-0.0016096411 0.0033013306 -0.0085843159 -0.05611841 -0.79854393 -0.59931493 0.00091204583
0.0014610002 0.0032052945 -0.008687852 -0.030841239 -0.8086831 -0.58743554 0.00113962
0.0045152665 0.0031879747 -0.0087578502 -0.0049672369 -0.81478214 -0.57974583 0.0012516764
0.0075334031 0.0031927256 -0.0087175863 0.022858018 -0.82275993 -0.56792933 0.0013429933
0.010555957 0.0032742068 -0.0086436002 0.051396955 -0.81777883 -0.57323301 0.0010736145
0.013600917 0.0033773633 -0.0084478622 0.078757219 -0.83790058 -0.54011106 0.0013738257
0.016620776 0.0035004953 -0.00808468 0.10780017 -0.85695523 -0.50399083 0.0015466771
0.019612813 0.003721839 -0.0076701562 0.15193215 -0.86346865 -0.48097664 0.0012342834
0.02251594 0.0041887774 -0.0075171646 0.180819 -0.87342262 -0.45214754 0.001400723
0.025506055 0.0048589562 -0.0075091515 0.2074524 -0.86365157 -0.45942307 0.0014348769
0.028340926 0.0054173726 -0.0071675684 0.23674561 -0.86841851 -0.43566146 0.0016149613
0.030644558 0.0057714842 -0.0064998805 0.2852695 -0.86898768 -0.40432867 0.0013834516
-0.027860707 0.0086579649 -0.0066968459 -0.33406869 -0.8242265 -0.45721856 0.0015348144
-0.025389457 0.0080856448 -0.007365203 -0.3044489 -0.80748463 -0.50525182 0.00146473
-0.022585241 0.0071614161 -0.0075916443 -0.30587646 -0.81955159 -0.48453557 0.0011854847
-0.019766131 0.0065094978 -0.0081806341 -0.26151261 -0.79873246 -0.54188335 0.0015596568
-0.017480887 0.0061851479 -0.008771291 -0.23802733 -0.76871318 -0.59365231 0.0013247664
0.026763638 0.0060929656 -0.0089093586 0.21799928 -0.79787564 -0.5620237 0.00096963166
0.029015308 0.0063125039 -0.0084805815 0.2313606 -0.83294261 -0.50267166 0.0012144557
0.031648267 0.0067103584 -0.0077287797 0.28068301 -0.84955591 -0.44662261 0.0012583133
0.034511484 0.0075948439 -0.0075352737 0.29969898 -0.83996189 -0.45237654 0.0015174617
0.037240278 0.0084043508 -0.0071043312 0.33290273 -0.84595639 -0.41657355 0.001284965
0.039341275 0.0088528106 -0.0062919226 0.37953585 -0.83712363 -0.39392453 0.0013646344
-0.036200792 0.011926641 -0.0061629894 -0.38881978 -0.8032313 -0.45126346 0.0015884949
-0.034134306 0.011432072 -0.006982367 -0.35847071 -0.8116383 -0.46123967 0.0012141368
-0.031452183 0.01058215 -0.0074715153 -0.33356708 -0.81275201 -0.47766852 0.001745576
-0.028693099 0.0097330334 -0.0079287458 -0.31925136 -0.80244559 -0.50414252 0.0017542121
-0.026283391 0.0093007861 -0.0087041147 -0.30314738 -0.76355314 -0.57016516 0.0011835587
0.038076978 0.0093840975 -0.0083129816 0.32784665 -0.81275463 -0.48160827 0.0011473167
0.04056488 0.010066428 -0.0075725187 0.37690133 -0.82522744 -0.42064825 0.0011584543
0.04330717 0.011197164 -0.0072623375 0.3934392 -0.80992132 -0.43500936 0.0013737973
0.045358505 0.011806638 -0.0064414158 0.42556158 -0.80500883 -0.41334981 0.001185336
-0.040279981 0.014460257 -0.0069159595 -0.44110575 -0.7677229 -0.46478727 0.0014764863
-0.037506565 0.013327721 -0.0074996185 -0.40103158 -0.78893918 -0.4655627 0.0012382652
-0.034940418 0.012534288 -0.0081847496 -0.35388589 -0.78972626 -0.50109601 0.0016656257
-0.032793742 0.012060432 -0.0088306498 -0.32672387 -0.76346284 -0.55711401 0.0024815812
0.044301074 0.012340713 -0.0084326966 0.40501416 -0.76745355 -0.49696943 0.0012640822
0.046609495 0.013118762 -0.0075909519 0.4492276 -0.79069 -0.41593727 0.0010467533
0.049113031 0.014315925 -0.0071302759 0.47427052 -0.76944679 -0.42780742 0.0013526998
0.051116847 0.014959188 -0.0061706067 0.49467582 -0.76599681 -0.41054201 0.00096676865
-0.045634553 0.017692076 -0.0065427446 -0.51411188 -0.73177308 -0.44743407 0.0011669593
-0.043402053 0.016623527 -0.0072858231 -0.48463511 -0.74264771 -0.46217227 0.0016827192
-0.040950488 0.015572947 -0.0080774641 -0.44359601 -0.74961281 -0.49122632 0.0017293629
-0.038967576 0.015053106 -0.0088835899 -0.38403735 -0.70396495 -0.59745193 0.00096372125
0.050183028 0.015530911 -0.0080750585 0.48502004 -0.7574271 -0.43710387 0.0015512597
0.052450985 0.016648134 -0.0074189748 0.51331949 -0.74338865 -0.42880821 0.0014135636
0.054511439 0.017638898 -0.0066675055 0.53256857 -0.72465503 -0.43731657 0.0011812964
-0.048899654 0.020312173 -0.0068966225 -0.53805035 -0.71414226 -0.44777527 0.0012054883
-0.046591248 0.019087523 -0.0076392377 -0.51507235 -0.7230199 -0.46037245 0.0014429386
-0.044533942 0.018317217 -0.0086325621 -0.49224612 -0.68530226 -0.53670716 0.0017832372
0.053674188 0.0183142 -0.0086067645 0.50668371 -0.6710611 -0.54124731 0.0014565245
0.055685163 0.01919798 -0.0076786433 0.55106318 -0.69794869 -0.45738044 0.0015414316
0.057744801 0.020365614 -0.0069213635 0.57752258 -0.67006075 -0.46635428 0.0012218043
-0.05422337 0.023736173 -0.0062913182 -0.55449516 -0.70970094 -0.43458006 0.00086207595
-0.052271593 0.023072625 -0.0072355196 -0.54119939 -0.70427418 -0.45945734 0.001742783
-0.050065409 0.021802969 -0.0077940216 -0.53422731 -0.71027678 -0.45837545 0.0018181977
0.056838773 0.021118829 -0.0088812243 0.53978205 -0.61423594 -0.57562965 0.00066632353
0.058902066 0.022071676 -0.0078277877 0.59979981 -0.63705117 -0.48415503 0.0017894869
0.060775559 0.023226539 -0.0069648903 0.62529057 -0.60559183 -0.49220943 0.0012180366
-0.057256319 0.026620172 -0.0064721131 -0.58955711 -0.66255516 -0.461999 0.0011926942
-0.055204231 0.025566384 -0.0074779233 -0.56395733 -0.67602032 -0.47428763 0.0019154011
-0.053150732 0.024536716 -0.0083391797 -0.52512312 -0.67654008 -0.51627433 0.0018790942
0.059861124 0.024091838 -0.00894308 0.58562237 -0.56069726 -0.58537596 0.0013003281
0.061901633 0.025164073 -0.0077886493 0.65460706 -0.5644334 -0.50289619 0.0018682559
0.063601516 0.02628197 -0.0068119918 0.67954534 -0.55220354 -0.48300052 0.0020813325
-0.060337983 0.029569631 -0.0064293034 -0.64015955 -0.59587306 -0.48490307 0.00098549691
-0.058352999 0.028485645 -0.00753436 -0.60900337 -0.61462545 -0.50134867 0.0021904889
-0.056705751 0.027452776 -0.0082089761 -0.57747006 -0.61199576 -0.54036051 0.0014760317
0.062776625 0.027303755 -0.0087453676 0.64237434 -0.49457508 -0.58544916 0.0018507922
0.064599752 0.028438726 -0.007558825 0.71233088 -0.45712924 -0.53255761 0.0019857676
0.066249818 0.029618436 -0.0064233821 0.73258382 -0.45976871 -0.50192988 0.0017230572
-0.063179672 0.03271709 -0.006287171 -0.68262887 -0.53072584 -0.50234246 0.0015450874
-0.061153341 0.031314019 -0.0072631165 -0.65555143 -0.55144399 -0.51590878 0.0017729634
-0.059348788 0.030550061 -0.008638558 -0.59171188 -0.53226143 -0.60545421 0.0012891984
-0.012525911 0.032429114 -0.008582212 0.21308319 0.76505709 -0.60768676 0.0027438237
-0.010483038 0.032191399 -0.0080788312 0.19152834 0.84680778 -0.49621928 0.0019591406
-0.0076150433 0.031946257 -0.0075192587 0.16073596 0.82689011 -0.53890324 0.0023587439
-0.0043379767 0.031315878 -0.0076481542 0.11530159 0.82840192 -0.54813862 0.0015857216
-0.0012894127 0.030954778 -0.007657689 0.067598857 0.78894031 -0.61074024 0.0018560669
0.0014282437 0.030622678 -0.0078968806 0.038068727 0.75958288 -0.64929551 0.00058020733
0.0048551648 0.030311791 -0.0082427617 -0.027135072 0.73024315 -0.6826483 0.0011331015
0.065470658 0.030919926 -0.0084160557 0.68388265 -0.35156119 -0.63930368 0.0012321271
0.066882133 0.031726692 -0.0071384143 0.74132198 -0.38938946 -0.54664212 0.0021324235
-0.063965209 0.034777973 -0.0072367806 -0.68164456 -0.48021582 -0.55204487 0.0024193143
-0.062475149 0.033711746 -0.0080193542 -0.66604286 -0.50464904 -0.54928702 0.0029174597
-0.022131003 0.035516448 -0.0085300533 0.30786255 0.80916482 -0.50047272 0.0015608147
-0.019495534 0.035120819 -0.0075438875 0.30107182 0.84125888 -0.44904259 0.001960824
-0.016659427 0.034078412 -0.0077620558 0.25719437 0.83025956 -0.49448985 0.0016012643
-0.013664656 0.033557892 -0.0071392846 0.23486589 0.84624118 -0.4782404 0.0017818953
-0.01112471 0.033231333 -0.0065208278 0.20060255 0.85663414 -0.47532791 0.0016224948
0.065856904 0.033011694 -0.0088800713 0.71013957 -0.33446589 -0.61954373 0.0014720717
0.067758709 0.034395453 -0.0075809616 0.75773984 -0.29387981 -0.5826363 0.0022079649
0.069146439 0.035445593 -0.0063142381 0.79036725 -0.31122679 -0.52769083 0.0020999978
-0.066610858 0.038084298 -0.0066296845 -0.70002401 -0.41566962 -0.58067638 0.0029293164
-0.065034822 0.0369993 -0.0076938332 -0.6934461 -0.43457109 -0.57470036 0.0025014465
-0.028159056 0.038449034 -0.0078674359 0.36541393 0.79882199 -0.4778662 0.0014963767
-0.02563463 0.037463728 -0.0076242234 0.34745753 0.79905576 -0.49069667 0.0016230248
-0.022767792 0.036609475 -0.0071009141 0.32791674 0.83045727 -0.45034587 0.0019318131
-0.020843478 0.036069699 -0.0066837408 0.29405999 0.83646989 -0.46243578 0.0022291953
0.068241246 0.037234828 -0.008155616 0.75600159 -0.18431313 -0.62808466 0.0022787142
0.069480151 0.037555892 -0.0067149498 0.79481167 -0.21030109 -0.56925195 0.00216406
-0.067174546 0.040548891 -0.0074783126 -0.70406991 -0.31949198 -0.63420063 0.0033771647
-0.065652281 0.039861556 -0.0087794559 -0.63713932 -0.26707888 -0.7229954 0.0028759253
-0.034112658 0.04126567 -0.0078478027 0.38369638 0.79315162 -0.47295627 0.0019805059
-0.031422868 0.040099815 -0.00764358 0.37899908 0.79417974 -0.47501388 0.0017717923
-0.029399037 0.039583188 -0.0068164445 0.39016515 0.81097645 -0.43599132 0.0015141133
0.068490438 0.040202443 -0.0084910253 0.72600883 -0.091101907 -0.68162423 0.0021413194
0.069809727 0.040439241 -0.0070203133 0.78795421 -0.11553957 -0.60479653 0.0021458908
-0.069337927 0.043012232 -0.0062372629 -0.73908943 -0.25013432 -0.62544352 0.0023456779
-0.067803435 0.043470215 -0.0079775983 -0.6696133 -0.19619201 -0.71632856 0.0055906461
-0.042223357 0.044780083 -0.0088785002 0.34470367 0.69603026 -0.6298582 0.0010756289
-0.039952502 0.043971434 -0.0083708446 0.36626217 0.73741758 -0.56750977 0.0013029557
-0.037315093 0.042802699 -0.0081069088 0.36387491 0.73844498 -0.56770951 0.0012607496
-0.035377685 0.042455591 -0.0069287224 0.40736297 0.7774325 -0.47922239 0.0014744429
0.068545133 0.043363016 -0.0086138332 0.69134164 0.022917515 -0.72216439 0.0028883042
0.07000719 0.043319974 -0.0070402888 0.77308595 -0.025575316 -0.63378555 0.0029395728
-0.069820292 0.046509463 -0.0067213755 -0.69445425 -0.11859433 -0.70969617 0.0029610451
-0.067969836 0.046973471 -0.0083060451 -0.60673004 -0.034234326 -0.7941705 0.0042218016
-0.048483852 0.047893092 -0.0087407334 0.33917704 0.73240525 -0.59037411 0.0009932575
-0.046488971 0.047615781 -0.0079397894 0.34531176 0.71840554 -0.60386533 0.0017685037
-0.043645587 0.046528522 -0.0074029467 0.37065923 0.73302835 -0.57033432 0.0012828008
-0.040780768 0.045314118 -0.0068593328 0.42182729 0.77719867 -0.46693048 0.0013914303
0.068295568 0.046414476 -0.0084952815 0.58575553 0.11841288 -0.80179107 0.003583197
0.070007749 0.046587598 -0.0069243223 0.74867415 0.052180253 -0.6608814 0.0033526437
-0.06972418 0.049900886 -0.0070188739 -0.53080362 0.068425767 -0.84472805 0.005029026
-0.067507237 0.049805429 -0.0083407313 -0.36965212 0.21014859 -0.90509385 0.0045492775
-0.065628938 0.050926652 -0.0088951923 -0.17413479 0.28740838 -0.94184583 0.011721097
-0.054894257 0.050779674 -0.0085977679 0.20499323 0.66523439 -0.71794218 0.0027593034
-0.05238713 0.050158679 -0.0080985259 0.26507285 0.69554365 -0.66779894 0.0025002612
-0.049808871 0.0494592 -0.0076210313 0.31084725 0.71621257 -0.62483072 0.001230007
-0.047066014 0.048536669 -0.0070652259 0.36411968 0.73631513 -0.57031298 0.0011339308
0.056897797 0.049810354 -0.0079302732 -0.17979516 0.54269844 -0.82045847 0.0022241434
0.058760121 0.050013758 -0.008522599 -0.13280326 0.54454279 -0.82815248 0.0028144887
0.061310656 0.050656781 -0.0086859278 -0.10498606 0.52499729 -0.8446039 0.0038305686
0.06488578 0.050569575 -0.0088101672 0.16595984 0.38143781 -0.90937483 0.0057546846
0.067900687 0.049383461 -0.0080976738 0.52637273 0.18644147 -0.82956094 0.0040562432
0.069834664 0.049279138 -0.0067844167 0.69759834 0.11386865 -0.7073828 0.0039276974
-0.070158146 0.052716572 -0.0066165035 -0.45882764 0.093639329 -0.88357735 0.0066058077
-0.067726701 0.052603081 -0.0076096188 -0.28720537 0.26246214 -0.92120934 0.0067380317
-0.064550765 0.052481532 -0.0082161874 -0.078070275 0.47036928 -0.87900949 0.0080353981
-0.061459288 0.052756324 -0.0079954313 0.0069546513 0.58055776 -0.81418943 0.0064253849
-0.058458053 0.052181736 -0.0081093255 0.13673982 0.68418938 -0.71637076 0.0037030212
-0.055986393 0.051477361 -0.0081835091 0.17711194 0.6696704 -0.72123009 0.0031570967
-0.053099345 0.051496934 -0.0069219382 0.26880202 0.69823593 -0.66348481 0.0020605908
0.059757262 0.052155327 -0.0070704101 -0.13313881 0.53325284 -0.8354134 0.0029192704
0.062066562 0.052120216 -0.0078062047 -0.060454804 0.4834733 -0.87326902 0.0029179268
0.065038837 0.052118961 -0.0080297207 0.22004342 0.34762469 -0.9114483 0.0042398861
0.067954734 0.052497763 -0.0071982956 0.50729942 0.20326966 -0.83745372 0.0056419666
0.069526821 0.052243371 -0.0064671682 0.65740693 0.1379723 -0.74079674 0.0043577026
-0.07011918 0.055157211 -0.006239743 -0.31619179 0.22703002 -0.92112982 0.00840523
-0.067507036 0.055300582 -0.0066029555 -0.042538311 0.42077422 -0.90616751 0.010174179
-0.064645417 0.05489761 -0.0067256354 0.081649192 0.56880426 -0.8184101 0.0072675138
-0.061817139 0.05448506 -0.0063986573 0.12681478 0.65828502 -0.74201006 0.0085437372
0.06271302 0.054148853 -0.0065815384 -0.13097376 0.49614838 -0.85830218 0.0018587937
0.065273605 0.055166941 -0.0065411651 0.11625741 0.36473107 -0.92382652 0.0051724031
0.068248421 0.054823559 -0.0063958382 0.4520669 0.22564575 -0.86297137 0.0081598703
0.069211803 0.054495018 -0.0062125488 0.41717523 0.26033792 -0.87074047 0.016234273
-0.015521796 0.0028955399 -0.0033361421 -0.2628462 -0.92951864 -0.25866383 0.0018107585
-0.013369237 0.0026439747 -0.0040666736 -0.2024328 -0.92441291 -0.32323623 0.0021734552
-0.010473019 0.0022386226 -0.0045673489 -0.16442119 -0.93090373 -0.32616532 0.0018565358
-0.007467465 0.0017403812 -0.0045425012 -0.12632319 -0.93283129 -0.33744356 0.0022461682
-0.0044982317 0.0013846382 -0.0045159305 -0.086155877 -0.93420929 -0.34616488 0.0024159879
-0.001517654 0.0011443789 -0.0045019924 -0.05528735 -0.9342038 -0.35242933 0.0025206513
0.0015223566 0.0010108235 -0.0045180488 -0.025625577 -0.9348526 -0.35411021 0.0025286565
0.0045257863 0.00097186473 -0.0045108511 0.0043747625 -0.93597919 -0.35202792 0.0025547838
0.00751785 0.0010425834 -0.0045083137 0.036213279 -0.93769979 -0.34555408 0.0024637892
0.010510202 0.0012104398 -0.0045038173 0.067256674 -0.93926096 -0.33654931 0.0023138328
0.013513247 0.0014896999 -0.0045174803 0.095788069 -0.94172066 -0.32246995 0.0020845949
0.01652672 0.0018619024 -0.0045219427 0.12553556 -0.94458997 -0.30329952 0.0018457329
0.019505085 0.0023270375 -0.0044999719 0.1602664 -0.94451356 -0.28672069 0.0015902723
0.02225624 0.0026930275 -0.0039939112 0.19399855 -0.94254935 -0.27196568 0.0017520133
0.024258278 0.0029200697 -0.0032131709 0.21559018 -0.95824897 -0.18782885 0.0022095516
-0.02429799 0.0058442373 -0.0033848435 -0.36955157 -0.89005011 -0.26691291 0.0027053617
-0.022323646 0.0054278374 -0.004266337 -0.32342255 -0.88962531 -0.32243523 0.0022088357
-0.01950689 0.0045294249 -0.0045204978 -0.29216087 -0.89503092 -0.3369891 0.0020075897
-0.016431181 0.0036442662 -0.0046558375 -0.26272243 -0.90286994 -0.34029821 0.0018719546
-0.013840154 0.0032643029 -0.0054197279 -0.20855823 -0.90055412 -0.38145211 0.0020209784
