# .PCD v0.7 - Point Cloud Data file format
VERSION 0.7
FIELDS x y z normal_x normal_y normal_z curvature
SIZE 4 4 4 4 4 4 4
TYPE F F F F F F F
COUNT 1 1 1 1 1 1 1
WIDTH 569
HEIGHT 1
VIEWPOINT 0 0 0 1 0 0 0
POINTS 569
DATA ascii
-0.061783094 0.057816908 0.0012359737 0.48015353 0.87660962 0.031751167 0.0095706796
0.07333345 0.05851933 0.0013111284 0.98733169 -0.066394992 0.14411062 0.02212533
-0.066667266 0.060675308 0.0014560382 0.48941126 0.87135243 0.034949891 0.020788988
-0.065445431 0.060215533 0.00092546374 0.49956369 0.86616701 -0.013811219 0.017023196
0.0736937 0.06147616 0.001188798 0.9912917 -0.1170378 0.060356967 0.021674613
0.07413841 0.064505935 0.0011969112 0.97195035 -0.22376466 0.072400406 0.028710706
0.074565738 0.067045763 0.0016072764 0.94564879 -0.2770097 0.17033456 0.025841368
0.075225696 0.068027131 0.00064363389 0.96526939 -0.26085818 0.014425278 0.031983327
0.074729979 0.06967181 0.0025608828 0.90748519 -0.29208669 0.30192053 0.020964693
0.075832322 0.070638791 0.0011560527 0.94449812 -0.27291882 0.18286255 0.01763593
0.076796062 0.073297076 0.0013439876 0.98748666 -0.066024676 0.14321604 0.055241082
0.0686533 0.077263661 0.00062352035 0.27186704 0.95812631 -0.089901745 0.020873887
0.070640884 0.076686144 0.0015097313 0.26463306 0.96389502 -0.029593935 0.0023287106
0.073447675 0.075823091 0.0014210128 0.42188039 0.9037686 0.07224457 0.01522214
0.075741991 0.075113609 0.001391381 0.70723933 0.69697893 0.11846037 0.046600599
-0.01807406 0.0029921455 0.0038697976 -0.27095658 -0.94183588 0.198816 0.010849048
-0.01617118 0.0026396418 0.0040258113 -0.19963914 -0.953686 0.22500518 0.0065157698
-0.013617063 0.0023207548 0.0046095583 -0.15548974 -0.93564469 0.31684682 0.0029253617
-0.010307407 0.0018033844 0.0046428512 -0.12128825 -0.94161689 0.31408089 0.0031734868
-0.0075481087 0.0013632334 0.0041633863 -0.10158112 -0.96434897 0.2443611 0.0031859044
-0.0044355672 0.0011848835 0.0045942198 -0.070440367 -0.94625676 0.31565225 0.0045463447
-0.0016473765 0.0009387114 0.0042027212 -0.037818823 -0.96571964 0.25681767 0.0030284673
0.0010728023 0.0011063151 0.004803679 -0.0013915966 -0.97219348 0.23417495 0.002168613
0.0048008645 0.001007636 0.0042601069 0.029710848 -0.97035486 0.23985134 0.0025076561
0.0078856619 0.0011662634 0.0042449427 0.06658303 -0.9604128 0.27050689 0.0030164334
0.010934851 0.0013747726 0.0043772515 0.071103595 -0.93917167 0.33600736 0.0026514342
0.013578209 0.0016110745 0.0043246099 0.10415161 -0.93645728 0.33496299 0.0030198465
0.016652066 0.0019701198 0.0042746458 0.13119607 -0.92882109 0.34652421 0.0032131923
0.019623846 0.0023852615 0.0042106351 0.17004319 -0.94228226 0.28842592 0.0060496205
0.022254666 0.0027231281 0.0036382482 0.20551045 -0.93182933 0.29909796 0.0040715123
0.024086732 0.002958107 0.0031606439 0.18125124 -0.97028446 0.1602999 0.0041030352
-0.027706845 0.0058455435 0.0034555751 -0.28878227 -0.95474601 0.071168154 0.01245725
-0.025043076 0.0051695378 0.0038555367 -0.28902069 -0.93921751 0.18530372 0.010379545
-0.023045938 0.004774875 0.0045680669 -0.30467686 -0.9281826 0.21365657 0.00724599
-0.019094065 0.0036329019 0.0047648512 -0.26896623 -0.9157455 0.29844147 0.0053707915
-0.016373264 0.0032185602 0.0054115672 -0.21127532 -0.9391672 0.27079082 0.0057805274
-0.014664396 0.0030437829 0.0059183193 -0.16711333 -0.88915384 0.42600304 0.0010852986
0.020146472 0.0031792242 0.0058165481 0.14925273 -0.85699397 0.49323925 0.0019855085
0.022698 0.0033037441 0.0049835145 0.19570442 -0.91585743 0.35057807 0.0041992157
0.02553267 0.0037237252 0.0044425395 0.24580245 -0.92124337 0.30148268 0.0022533888
0.028502602 0.0045627458 0.0044711544 0.25256506 -0.9105081 0.32739258 0.0026289055
0.031472433 0.005363754 0.0042995359 0.28489435 -0.90902978 0.30413848 0.0028471032
0.033433292 0.0057809828 0.0035697983 0.32434711 -0.89955437 0.29257628 0.0028611314
-0.033884082 0.0082928725 0.0036495808 -0.35041541 -0.93467695 -0.059900787 0.010786231
-0.031531781 0.0075425031 0.0041223625 -0.34303716 -0.93164504 0.11984576 0.013133271
-0.029251829 0.0069403164 0.0048255324 -0.32148862 -0.92624474 0.19676322 0.0077532222
-0.026238931 0.0061911903 0.0057457048 -0.29187489 -0.88373524 0.3658157 0.0010597369
0.032589283 0.0062312526 0.0056509483 0.29070231 -0.88177258 0.37144226 0.0024285349
0.034666881 0.0065864474 0.0045976653 0.33348289 -0.89005417 0.31079373 0.0027333819
0.03769109 0.0077044386 0.0045301137 0.35026792 -0.89010185 0.29160112 0.0023387668
0.040064096 0.0085936319 0.0042183176 0.38068378 -0.88563889 0.26593906 0.0025225987
-0.042033393 0.011899993 0.0030581313 -0.41736239 -0.90816021 -0.03246123 0.032413762
-0.039642364 0.011024289 0.0040443083 -0.42906973 -0.90077859 -0.067060448 0.014207985
-0.037276927 0.0098281857 0.0037732853 -0.44274762 -0.89546388 -0.046032127 0.00495992
-0.035353936 0.0092570605 0.0050210538 -0.40496111 -0.90746725 0.11184677 0.016977359
0.041332584 0.0093734954 0.0047535864 0.41366315 -0.86535293 0.28292623 0.0025753665
0.043545023 0.010312285 0.0044692066 0.41685167 -0.86005956 0.2941635 0.0025617981
0.046038959 0.011475995 0.0042000632 0.44300899 -0.84764355 0.29196468 0.0022762455
-0.046214785 0.014902445 0.0046350169 0.65696758 0.7335794 -0.17393962 0.0094887828
-0.043575317 0.013216705 0.0044364836 -0.47909075 -0.8156575 0.32430699 0.0011618952
-0.041838668 0.012384617 0.0050962078 -0.37916693 -0.88305765 0.27648076 0.0050998647
0.047283754 0.012395974 0.0047727823 0.46737105 -0.83243811 0.29767644 0.0023082895
0.049541634 0.013575771 0.0044429498 0.49687991 -0.81334937 0.30261058 0.0022023306
0.051626682 0.014627671 0.0039446084 0.51060963 -0.81310332 0.27953696 0.0025234653
0.05288557 0.015794164 0.0046698721 0.53712702 -0.79456699 0.28312176 0.0024100733
0.055122763 0.017144136 0.0041549415 0.55602002 -0.78125441 0.28369588 0.0024397851
0.056408487 0.018445918 0.0050866054 0.56546146 -0.76831412 0.29991126 0.0025871894
0.058400355 0.019657902 0.0042235078 0.61837852 -0.73867756 0.26826003 0.0021499863
0.06018354 0.020776389 0.0034221371 0.63972008 -0.71364218 0.28543496 0.0020977133
0.059700515 0.021326942 0.0054226043 0.62578672 -0.67633605 0.38853639 0.0023173185
0.061381638 0.022401435 0.0043322234 0.67954493 -0.68645936 0.25882876 0.0021333362
0.063201338 0.023734242 0.0033527915 0.71001321 -0.65025097 0.27028656 0.003589177
-0.059547875 0.025272083 0.003118986 -0.61483288 -0.75475627 -0.22874311 0.0026046026
0.062708281 0.024344027 0.0054213456 0.68387234 -0.62349975 0.37890193 0.003030923
0.064314477 0.025606455 0.0043812357 0.74079132 -0.60438597 0.293165 0.0022144371
0.066027001 0.026903342 0.0030242461 0.76788539 -0.56991351 0.29249057 0.0021463905
0.065568395 0.027606107 0.00499873 0.76501262 -0.55952597 0.31888297 0.0024601889
0.066778727 0.028835481 0.0042575947 0.78956926 -0.51938289 0.32683611 0.0027511977
-0.0075765359 0.032796234 0.0059825443 0.16162394 0.88742822 0.43168148 0.0011241342
-0.0045054881 0.032639369 0.0052826218 0.1309128 0.94476581 0.30046546 0.0013985849
-0.0013746496 0.032826841 0.0038157525 0.08125709 0.9769628 0.19733465 0.0023478181
0.0012362029 0.032598697 0.0038986304 0.044164855 0.96131438 0.27189004 0.0025220299
0.0037680683 0.032386754 0.0040954975 0.025882592 0.95645112 0.29074275 0.0042031342
0.0073840735 0.032530461 0.0037335607 -0.038303293 0.9914301 0.12489717 0.00095705799
0.010545806 0.032770626 0.0036961052 -0.095413916 0.99119735 0.091782331 0.001192318
0.068130091 0.031358302 0.004607379 0.82705706 -0.45109355 0.33539712 0.0028687776
0.069190271 0.032479692 0.0035573207 0.84609544 -0.42511481 0.3215588 0.0030419275
-0.018416235 0.035707701 0.005763398 0.30162212 0.87094522 0.38791555 0.00046501341
-0.016265571 0.035473302 0.0048380829 0.27676499 0.89586973 0.34758967 0.0015102259
-0.013448314 0.034634955 0.0047688526 0.2526148 0.90044475 0.35409752 0.001172699
-0.010625419 0.033846747 0.0049481238 0.20524003 0.90576202 0.3707718 0.0015818814
-0.0078267483 0.033450451 0.0045451163 0.15435372 0.92292088 0.35269231 0.0014080036
-0.0044644158 0.033250581 0.0036437968 0.11368019 0.96385217 0.24096838 0.003732325
-0.0020804887 0.033069033 0.0030529206 0.066489346 0.99311006 0.096496694 0.0029580481
0.015705114 0.033447225 0.0038606976 -0.17247149 0.98473412 0.023503266 0.0020117816
0.06877321 0.033519052 0.0055784369 0.84362811 -0.36089402 0.39755127 0.0033720923
0.069796689 0.034577895 0.0042774542 0.87184376 -0.34387261 0.34876934 0.0035570229
-0.024878308 0.038504913 0.0049218899 0.36952037 0.86701661 0.33427078 0.0015129275
-0.02218313 0.037583344 0.0043992819 0.3542372 0.89343184 0.27621645 0.0016151245
-0.019780774 0.036694463 0.0043719509 0.30743068 0.91213244 0.27111045 0.0017863124
-0.017138049 0.036187433 0.0035484515 0.26368803 0.92761296 0.26458049 0.0015946331
0.070736535 0.03746441 0.0044065933 0.89529788 -0.26078764 0.36115313 0.0029197007
-0.030916583 0.041388843 0.0044611827 0.43558028 0.86986977 0.23150897 0.0018573666
-0.02848934 0.040321924 0.004137082 0.39736748 0.88913524 0.22701913 0.0022563608
-0.026198814 0.039420433 0.0040539391 0.36753753 0.90233529 0.22518262 0.0018702575
0.071386829 0.04039783 0.0045127789 0.90348846 -0.18044373 0.38877845 0.0025797207
0.072070174 0.041634984 0.0033169377 0.94274789 -0.16393314 0.2904346 0.0031549961
-0.039049271 0.044888772 0.0057304907 0.42139289 0.80682766 0.41407391 0.00081168336
-0.037010416 0.04448355 0.0043857009 0.44792134 0.85986245 0.2449552 0.0017831617
-0.034594946 0.04333701 0.0042265407 0.43346328 0.86748713 0.24408123 0.0012384439
-0.032018349 0.042236563 0.0036731265 0.42752966 0.89364988 0.13641186 0.0016134018
0.071557634 0.04347593 0.0050231693 0.90332305 -0.067027971 0.42369181 0.0029136965
0.072245292 0.043571409 0.0034779913 0.95000875 -0.076533981 0.30269763 0.0026148965
-0.043144193 0.047539018 0.0050127641 0.45846143 0.83296245 0.30981717 0.0018041332
-0.04049962 0.046442665 0.0041693286 0.46447361 0.84136176 0.27635944 0.0017895061
-0.038479552 0.045403026 0.0039771469 0.44722152 0.86110884 0.24183565 0.0019336038
0.071559384 0.046448205 0.0051542497 0.90016246 -0.0082132258 0.43547678 0.0037114406
0.072301641 0.046484161 0.0035942558 0.92461067 -0.022807887 0.38023016 0.0031749695
-0.049072769 0.050738785 0.0050153984 0.43253395 0.83273196 0.3456471 0.0037438134
-0.046512108 0.049627762 0.0044102287 0.44960797 0.83713323 0.31154558 0.0017793743
-0.044080131 0.048514318 0.0039294381 0.45030001 0.84445244 0.29005155 0.0021719197
0.071495965 0.049427606 0.0051987288 0.87847048 0.0097072013 0.47769797 0.0038330904
0.072301164 0.0494859 0.0036998163 0.91111934 -0.0065817102 0.41209012 0.003695403
-0.057311505 0.053733628 0.0058952081 0.24987793 0.78468138 0.5673061 0.0023707659
-0.055174213 0.053577635 0.0049276259 0.32980055 0.86190629 0.38516125 0.0042200605
-0.052431408 0.052745339 0.0043688724 0.39121342 0.85819453 0.33234647 0.002455832
-0.050074324 0.051688265 0.0040303259 0.443178 0.84542692 0.29807153 0.0023361475
0.07144051 0.052508432 0.0051018554 0.8358379 0.045372214 0.5470981 0.0047985474
0.072387829 0.052415006 0.0035584916 0.90299147 0.0037875464 0.42964178 0.004573538
-0.066111773 0.056919631 0.0059374813 0.2551195 0.65065342 0.71523708 0.0030481538
-0.06387189 0.056484383 0.0055009481 0.34534883 0.73282552 0.58626014 0.0043513142
-0.061458617 0.056364439 0.0042167716 0.43740091 0.8320033 0.34124917 0.0072177551
-0.058642421 0.055260461 0.0040448639 0.36362982 0.88252306 0.29820517 0.0042781769
-0.055998601 0.054423399 0.0036719847 0.34094208 0.87550753 0.34241068 0.0037219245
0.071337789 0.055692419 0.004792104 0.83062261 0.047396153 0.55481505 0.0078480039
0.072299302 0.055281401 0.0036184795 0.88145536 0.0079044802 0.47220117 0.006626267
-0.069612622 0.058474392 0.0054458152 0.25748062 0.71795422 0.64671898 0.007851623
-0.067110628 0.059121139 0.0042170342 0.36783025 0.78520262 0.49815437 0.010122752
-0.063962966 0.05812218 0.003663731 0.47505397 0.81207502 0.33890691 0.0059582046
-0.06253536 0.057420492 0.0035128505 0.44798228 0.82326776 0.34862885 0.0084681185
0.065622866 0.05723935 0.0059352308 0.19699872 0.33048409 0.92302322 0.0055562207
0.068196908 0.058563042 0.005678725 0.35904562 0.24425085 0.9007929 0.018371079
0.071270399 0.058166511 0.0044119777 0.77616954 0.042217042 0.62910932 0.0058639436
0.07235004 0.058325015 0.0033282326 0.90038222 0.01370389 0.43488395 0.024409676
-0.068050206 0.060336735 0.0032952616 0.36763895 0.86457539 0.34256521 0.020532483
0.06877809 0.061482005 0.0047360808 0.54358125 0.11894969 0.83088535 0.013344239
0.071051724 0.06078878 0.0041372897 0.76938415 0.0099540809 0.63870883 0.01082558
0.072297953 0.061210167 0.0033087127 0.87858546 -0.075205028 0.47162676 0.01980697
0.068717018 0.064225398 0.0040610153 0.33268288 0.07855653 0.93976116 0.023630235
0.070798919 0.064349659 0.0037468288 0.53890389 -0.010968523 0.84229583 0.01595217
0.072606534 0.065110341 0.0032553552 0.83377326 -0.17522633 0.52356267 0.027523758
0.068581529 0.06718269 0.0034275844 0.27760985 -0.035659742 0.96003187 0.020413756
0.071196422 0.067076996 0.0036209624 0.51419324 -0.1763871 0.83934081 0.018339684
0.073067129 0.067145064 0.0032301049 0.84839994 -0.26748732 0.45680198 0.020635588
0.071401678 0.070312202 0.0040059825 0.37521622 -0.29356483 0.87922269 0.021106444
0.073932543 0.070421778 0.0035166086 0.75693053 -0.30309016 0.57895815 0.0094583053
0.075099953 0.071516924 0.0030989591 0.8476668 -0.25312355 0.46625042 0.017548077
0.071841002 0.074223161 0.0050121816 0.68650168 -0.16576059 0.70798218 0.034174994
0.074180111 0.073289461 0.0043438082 0.82566762 -0.21318805 0.52232546 0.028947148
0.075638659 0.073635466 0.0034968678 0.93070447 -0.1022214 0.35119796 0.04507453
0.071327157 0.076436967 0.0035751886 0.32489955 0.94219661 0.081889249 0.010941012
0.07353057 0.075702816 0.0038807576 0.66306007 0.69088942 0.28813735 0.055106319
0.075606197 0.075095698 0.0031236738 0.43843591 0.89852041 -0.020856354 0.013432777
-0.012333034 0.0028217682 0.0063764858 -0.16769581 -0.87614781 0.45193279 0.0011968964
-0.010081798 0.0026433133 0.0066564772 -0.11535159 -0.89187324 0.43732846 0.0020540692
-0.0071291551 0.0025039529 0.0070707062 -0.082085826 -0.8909601 0.4466005 0.0021037848
-0.0041881041 0.0023637689 0.0072239405 -0.052403346 -0.89042228 0.45210841 0.0019801594
-0.0013932445 0.0022432131 0.007187034 -0.02113051 -0.87648642 0.48096269 0.0016858714
0.0015380136 0.0022621045 0.0072287302 0.0094728582 -0.87406063 0.48572445 0.0019062726
0.0045625106 0.0023120923 0.0071715042 0.04407702 -0.87268829 0.48628423 0.0016309073
0.0075371154 0.0023994411 0.006927968 0.058618605 -0.86986876 0.48978785 0.0013216641
0.010709148 0.0025132112 0.0067446842 0.079429872 -0.86522645 0.49504954 0.00081378571
0.013080598 0.0027427545 0.006569115 0.10148461 -0.85959715 0.50079298 0.00066435244
0.016018495 0.002873888 0.0062672449 0.11427935 -0.84748071 0.51837897 0.00058778853
-0.024499362 0.0059266072 0.0063811052 -0.29616657 -0.85648483 0.42275193 0.0010684767
-0.022814445 0.0056606419 0.0067999144 -0.28618714 -0.89148158 0.35122275 0.0019604389
-0.018785158 0.0047149104 0.0073850602 -0.21967234 -0.86847538 0.44440371 0.00097201316
-0.016293509 0.004250051 0.0075828996 -0.18553078 -0.87467408 0.44779858 0.0018423869
-0.013575491 0.0036588577 0.0075601763 -0.1585744 -0.87627792 0.45496294 0.0013773944
-0.010727034 0.0033979388 0.0079328148 -0.12137787 -0.8614524 0.49311987 0.0013295697
-0.0078639612 0.0033626978 0.0085053621 -0.092463203 -0.84665388 0.52404946 0.0017730206
-0.0044663479 0.0032474485 0.00873884 -0.042437196 -0.84518963 0.53277916 0.0018893065
-0.0015735918 0.0031763555 0.0087723527 -0.01294299 -0.83265936 0.55363411 0.0019754178
0.001612143 0.0030885849 0.0086650774 0.014395817 -0.8483687 0.52921003 0.0019573069
0.0046202354 0.0031664292 0.0086540524 0.0421164 -0.84856063 0.52741921 0.0019843918
0.0074301185 0.0033761775 0.0085541662 0.063074201 -0.82058191 0.56803781 0.0009989331
0.011011529 0.0034479597 0.0082077021 0.090796359 -0.84886837 0.52074796 0.00073361798
0.013907276 0.0036230565 0.007831607 0.11535209 -0.84595704 0.52062517 0.00042416653
0.016977396 0.0042538163 0.0081158141 0.12497124 -0.83789581 0.53133112 0.00039753949
0.019566868 0.0041227136 0.0073503442 0.14348798 -0.83319134 0.53404433 0.00077234203
0.02235901 0.0047724475 0.0075240503 0.17422473 -0.81435448 0.5535996 0.0023087426
0.025507974 0.004960076 0.0068916441 0.19618373 -0.83466148 0.51463789 0.002888574
0.02830283 0.0055256914 0.0067052599 0.22399342 -0.83441144 0.50357181 0.0030223497
0.030392181 0.0058362442 0.0062207044 0.27737722 -0.86064464 0.42702761 0.0026137887
-0.031223264 0.0086733149 0.0073308419 -0.30983669 -0.84218901 0.44126979 0.0012447658
-0.029038562 0.0079402281 0.0073085958 -0.3048223 -0.89400166 0.32839671 0.0035213418
-0.025630163 0.0069108247 0.0077150241 -0.28699419 -0.85186958 0.43812391 0.00080324517
-0.023156121 0.006358041 0.0080181481 -0.26204905 -0.84847653 0.45980212 0.0013647707
-0.020522526 0.0060163555 0.0087767206 -0.22415955 -0.80042541 0.55594218 0.00050728855
0.02332291 0.0060577691 0.0088540753 0.17012443 -0.73321074 0.65837657 0.00016917197
0.025951419 0.0063309446 0.0085155657 0.1867699 -0.75822383 0.62467086 0.0020383659
0.028749172 0.0065837507 0.0080102328 0.20292698 -0.78910917 0.5797649 0.0036440669
0.031639446 0.0069160499 0.0073285368 0.27208486 -0.82166046 0.50084329 0.0033864898
0.034434203 0.007846755 0.0073029068 0.2860361 -0.81129277 0.50988954 0.0031777902
0.037166234 0.0085148364 0.0068108444 0.31393987 -0.81931567 0.47975367 0.0024156885
0.039024651 0.0088300649 0.0061750668 0.33669674 -0.80207479 0.49326608 0.0030734395
-0.039357614 0.01184315 0.0065927315 -0.38553354 -0.82151341 0.4200947 0.0011977577
-0.037258275 0.011211167 0.0073572979 -0.37520263 -0.81931764 0.4335224 0.0014022741
-0.034296647 0.0097245499 0.0070835333 -0.34420356 -0.83766896 0.42406911 0.0012246858
-0.032000136 0.0095927343 0.0084908074 -0.31799066 -0.82335997 0.47006413 0.0014076543
0.035167731 0.0092077367 0.0088204853 0.25588363 -0.73775661 0.62469095 0.0014690221
0.037902135 0.0095918914 0.0080192322 0.31647509 -0.7863521 0.53055996 0.0037800672
0.040508796 0.010283672 0.0073543964 0.35666397 -0.81251454 0.46109751 0.0015943181
0.043259718 0.0113205 0.0069998088 0.39101523 -0.7991991 0.45649517 0.00190892
0.045262184 0.011780604 0.0061495155 0.43686402 -0.79523361 0.42042044 0.0038059636
-0.042587418 0.013550217 0.0066425758 -0.46924591 -0.82043964 0.32663003 0.0012669393
-0.040733598 0.012963099 0.0075338865 -0.41685465 -0.80460495 0.42289853 0.0015266892
-0.038612876 0.012550722 0.0086182617 -0.38394901 -0.77435988 0.50294143 0.00071751844
0.04409695 0.012412735 0.0080910651 0.38727987 -0.78406382 0.48503417 0.0024855426
0.046534996 0.013309729 0.0073996922 0.43121073 -0.78108478 0.45162347 0.0018572944
0.049053453 0.014372715 0.0068216496 0.46236676 -0.75824946 0.45964634 0.0016208732
-0.046400666 0.015983477 0.0067042517 0.6679706 0.70414227 -0.24082999 0.013684027
-0.044326168 0.015435028 0.008218538 -0.46117365 -0.76721907 0.44575089 0.0011916396
0.050029259 0.015672371 0.0079104612 0.45155099 -0.74281859 0.49428967 0.0026769741
0.052344441 0.016800448 0.007270264 0.48699421 -0.73075825 0.47836077 0.0024444961
0.054452058 0.017710911 0.0064675007 0.51466072 -0.72296667 0.46091598 0.0013594511
0.053462476 0.018349759 0.0083075222 0.4823418 -0.67715669 0.55570251 0.001569578
0.05563404 0.019380467 0.0075737247 0.52183622 -0.69831848 0.48993701 0.0024899605
0.057715848 0.02035716 0.0066814139 0.57339936 -0.66973478 0.47187769 0.0016349347
0.056657039 0.021206487 0.0088222129 0.51689869 -0.59929258 0.61128074 0.0022257916
0.058813207 0.022204082 0.0077388873 0.57024306 -0.63808525 0.51736844 0.0027085235
0.060783118 0.023206513 0.0067068958 0.6269725 -0.61603469 0.47687173 0.0014919855
0.05987953 0.024069777 0.0086417729 0.5908891 -0.574426 0.56646693 0.002498786
0.061913043 0.025244197 0.0075908862 0.64745778 -0.55008852 0.5274477 0.0033046349
0.063542932 0.026235811 0.0066655963 0.6717515 -0.54000479 0.50709444 0.0019715787
0.062698059 0.027257377 0.0086485185 0.62102795 -0.50145221 0.60238689 0.0032355215
0.064540833 0.028471913 0.0074731433 0.69538367 -0.45901826 0.55294114 0.0026730075
0.066239059 0.029642604 0.006351606 0.72375202 -0.45293978 0.52060407 0.0022006813
-0.012735882 0.032719385 0.0085593713 0.22224115 0.86420774 0.45139098 0.0010142567
-0.01030395 0.032507371 0.0078161769 0.2036348 0.86749023 0.4538652 0.00090775697
-0.0077636088 0.032207198 0.0073056747 0.14643988 0.88207042 0.44778013 0.0012565184
-0.0045231776 0.031465456 0.0077635497 0.1118342 0.84629053 0.52085066 0.0008804212
-0.0017608252 0.031148329 0.0076893959 0.091930404 0.83831424 0.5373807 0.0012913604
0.0009987232 0.030756533 0.0079080136 0.065334037 0.83568352 0.54531133 0.0012038053
0.0031446135 0.030852722 0.0076723304 0.042920828 0.93836093 0.34298196 0.0018223292
0.065511927 0.030910475 0.0082295341 0.69418651 -0.37099934 0.61681807 0.0027793136
0.066848256 0.031715259 0.0070658177 0.74684978 -0.40942609 0.52400923 0.0026714257
-0.02165805 0.035754085 0.0081093321 0.32210293 0.83787745 0.44069394 0.0010176459
-0.019449435 0.035219274 0.0075650881 0.2926217 0.8518405 0.43444255 0.00092398311
-0.016491178 0.034324117 0.0074517392 0.26107642 0.85438031 0.44930318 0.0010779251
-0.013647205 0.033590704 0.0072594807 0.23083353 0.86672449 0.44215897 0.00092796161
-0.011356257 0.033254657 0.0066756806 0.19374184 0.88299334 0.42753562 0.0015346751
0.065934099 0.033093903 0.0088551873 0.64855182 -0.3400003 0.68101424 0.002614432
0.067866728 0.034394436 0.0074048648 0.76379299 -0.32012552 0.56048191 0.0026230789
0.069197506 0.035573836 0.0062051741 0.78594297 -0.30788484 0.53619075 0.0029405167
-0.028083406 0.038519688 0.0078995284 0.36942959 0.81617033 0.44428337 0.00099451398
-0.025525341 0.037679508 0.0073232795 0.35841301 0.82114178 0.44414672 0.0010100454
-0.022825507 0.036631279 0.0072098952 0.32318145 0.84100878 0.43388703 0.00085367123
-0.020498844 0.03615718 0.0062623322 0.30365562 0.8566305 0.41710597 0.00063596811
0.06832587 0.037268505 0.0081248824 0.76118618 -0.21433072 0.61209309 0.0024777525
0.069574483 0.037633426 0.0066472813 0.82649714 -0.23702757 0.51060796 0.002367819
-0.03640078 0.041949078 0.0089020692 0.38068867 0.77278984 0.50781101 0.0014448753
-0.034073129 0.041464247 0.0077197375 0.40037987 0.80479062 0.43818733 0.0013023694
-0.031496324 0.040241893 0.0076215994 0.39195156 0.80192375 0.4508794 0.0011057195
-0.028976843 0.039428655 0.0067791464 0.37342557 0.82475132 0.42466301 0.00083201512
0.068661124 0.040087607 0.0084861955 0.72222847 -0.11969169 0.68121946 0.0036170126
0.069910221 0.040498637 0.0070642475 0.80448711 -0.13432375 0.57858258 0.0028601082
-0.042358242 0.044911388 0.0088096596 0.36319584 0.74202883 0.5634554 0.0014939334
-0.039953571 0.044372693 0.0078537595 0.40523362 0.78905249 0.46171623 0.001974175
-0.038149647 0.043923367 0.0069936356 0.42214057 0.82299787 0.3800945 0.0012062042
-0.035137255 0.042394504 0.0069664414 0.40090054 0.81153792 0.42507058 0.0011980373
0.068732992 0.043461956 0.0087478645 0.68854719 -0.019634876 0.72492564 0.0029152152
0.070185959 0.043377914 0.0071229404 0.79661965 -0.042687148 0.60297179 0.0027530193
-0.04804467 0.047600251 0.0089903437 0.31895337 0.71006054 0.62776023 0.0016720346
-0.046060935 0.047368065 0.0080623226 0.38593873 0.76011956 0.52275187 0.0021052551
-0.04353318 0.046651814 0.0072502107 0.40703887 0.79736531 0.44556475 0.0017105736
-0.041034337 0.045639541 0.0066515314 0.43287137 0.81554365 0.38407159 0.0016643227
0.068703115 0.046670448 0.0086704418 0.69665831 0.059393167 0.71494031 0.0032853766
0.070046529 0.046335548 0.0073083024 0.78222477 0.018785266 0.62271291 0.0029139663
-0.054346532 0.050651044 0.0086952597 0.22476023 0.68533182 0.69267827 0.0016349
-0.052192856 0.050367732 0.0080071259 0.3314071 0.76053023 0.5583576 0.0026396571
-0.049205959 0.049739864 0.0069578388 0.3920804 0.78363854 0.48185435 0.0021319657
-0.046494327 0.048545767 0.0067130956 0.40555975 0.79183227 0.45664316 0.0019281701
0.06828697 0.049323026 0.0084960833 0.65400112 0.096714199 0.75028586 0.0034752632
0.070149317 0.049630519 0.0068995864 0.7673139 0.060521301 0.63840938 0.0038421741
-0.064308956 0.053046145 0.0082857283 0.19142441 0.63987499 0.74425578 0.0022636091
-0.061527055 0.053222299 0.007875789 0.17479602 0.68074363 0.71136099 0.0042576804
-0.058089301 0.05310766 0.0071310876 0.25076035 0.78087854 0.57214338 0.0031155241
-0.055440191 0.052281331 0.0071800356 0.29252997 0.79680067 0.52871066 0.0023794523
-0.052217375 0.051481001 0.0065218816 0.39037046 0.80052972 0.45471215 0.0027748228
0.065192342 0.052245378 0.0085790707 0.2744033 0.30699626 0.91129369 0.0036511184
0.068502583 0.051878072 0.0077829533 0.65584385 0.12340283 0.74474198 0.0025889364
0.070124276 0.052402854 0.0065580932 0.75242662 0.073676519 0.65454262 0.0036603145
-0.067026123 0.05575747 0.0068135886 0.22401167 0.62727356 0.7458865 0.0021444904
-0.064340614 0.054954216 0.0069519016 0.25217545 0.6878202 0.68066943 0.0035686332
-0.062045857 0.054835219 0.006474901 0.25240824 0.73506969 0.62925565 0.0062676384
-0.059390843 0.054126836 0.0063408329 0.25595665 0.80174631 0.54008245 0.0048376103
0.065406062 0.054084402 0.0076732421 0.24180444 0.35230744 0.90410733 0.0062013818
0.068596832 0.055302557 0.0067200321 0.58160204 0.16932659 0.79565549 0.0060286187
0.069758594 0.054841541 0.0063241399 0.70630056 0.1001503 0.70079207 0.0026293541
-0.069167502 0.057012971 0.0062489463 0.22028613 0.68537402 0.69407237 0.0049142041
-0.068394035 0.05737222 0.0060024667 0.25553754 0.69364518 0.67346644 0.0057022637
0.068303689 0.05714798 0.0062046451 0.28011575 0.25676888 0.92498916 0.009751671
-0.01827338 0.005851137 0.0094696991 -0.21421425 -0.79134613 0.57261127 0.0013056489
-0.01589893 0.0056794002 0.0099510793 -0.15590513 -0.7932651 0.5885781 0.0012798457
-0.013453875 0.0052945153 0.010070791 -0.13898368 -0.78675508 0.60141498 0.00087938929
-0.010250165 0.0049380735 0.010243993 -0.10006393 -0.78885877 0.60637361 0.0017814304
-0.0073068007 0.0048086117 0.010475476 -0.068096586 -0.77253205 0.6313138 0.001825536
-0.0047580996 0.0044193813 0.01015432 -0.050179679 -0.80540115 0.59060222 0.001437729
-0.0015035096 0.0046727676 0.010602485 -0.014277781 -0.75509083 0.65546477 0.0018461583
0.0014278406 0.0046394351 0.010560404 0.018528134 -0.74127042 0.67095065 0.0015253602
0.0044204853 0.0046599484 0.010497725 0.03507201 -0.77591348 0.62986368 0.0014784886
0.0075753727 0.0046342891 0.010199793 0.063884623 -0.77823627 0.62471354 0.0016119796
0.011093174 0.0045638471 0.0097979065 0.091661721 -0.82334369 0.56009221 0.00099481794
0.013938234 0.0048163272 0.0095732147 0.11530747 -0.81203127 0.57210964 0.00066258619
0.016409781 0.0053777299 0.0097865062 0.13270374 -0.77565992 0.61704248 0.0007486582
0.019160263 0.0056633824 0.0094191404 0.1516483 -0.75700527 0.63556725 0.00065006677
0.0213292 0.0058634817 0.0091114948 0.15336575 -0.75798696 0.63398319 0.00073908782
-0.027032351 0.0084029958 0.0093968771 -0.2609868 -0.82270348 0.50501972 0.00079978252
-0.024977989 0.0082604848 0.010163756 -0.25589919 -0.78703624 0.56132841 0.0010721913
-0.02229923 0.0077756448 0.010570178 -0.20746543 -0.76846385 0.60532755 0.0013814073
-0.018982075 0.0071364962 0.010979605 -0.19212963 -0.76206946 0.61833358 0.0015638322
-0.017054198 0.0067587942 0.011081426 -0.16260704 -0.76168782 0.62720865 0.0014766138
-0.0133982 0.00641745 0.01155253 -0.12062198 -0.72447133 0.6786691 0.001651518
-0.010367326 0.0061453297 0.011727877 -0.080188848 -0.72116071 0.68811119 0.0016837682
-0.008314536 0.0060851611 0.011902098 -0.041421503 -0.70766455 0.70533335 0.0022610393
0.0076985997 0.0061072772 0.011787252 0.046075962 -0.68037909 0.7314105 0.0031322399
0.010670503 0.006224528 0.01166236 0.07385508 -0.70602733 0.70432299 0.0019871087
0.013695301 0.0065248832 0.011554643 0.1017137 -0.67432255 0.73139828 0.0021163973
0.016647778 0.006716725 0.011280402 0.13355833 -0.70516425 0.69635165 0.0016391749
0.01963125 0.0068953596 0.010759385 0.16533305 -0.71748912 0.67666411 0.0013526032
0.02241002 0.0073445747 0.010509225 0.17053148 -0.71405965 0.67899776 0.0008566294
0.02555351 0.0078651924 0.010184333 0.18982206 -0.71057987 0.67752773 0.00060154119
0.028396674 0.0081340382 0.0097434828 0.19376417 -0.70685714 0.68030024 0.00064178935
0.031362843 0.0086141294 0.0094857216 0.20848423 -0.69124234 0.69189477 0.00085645006
0.033248495 0.0088313939 0.0091055846 0.25071028 -0.71966857 0.64747322 0.0033495664
-0.033833236 0.011304828 0.010042696 -0.34222314 -0.77499408 0.5312885 0.00056247471
-0.031411476 0.010704488 0.010494711 -0.29135486 -0.77798468 0.55664366 0.0014367714
-0.028509671 0.0098001659 0.010680221 -0.26347792 -0.77858073 0.56955379 0.00085573446
-0.025606658 0.0094440244 0.011576876 -0.22416645 -0.72462034 0.65167081 0.0017300621
-0.023922969 0.0091595929 0.01182067 -0.22734499 -0.74309242 0.62938696 0.0016816756
0.02392146 0.0090735871 0.011901697 0.18283749 -0.678765 0.71123034 0.0008232008
0.025751652 0.0093132379 0.011607942 0.18225354 -0.69140661 0.69909984 0.00068197574
0.029113658 0.010241134 0.011479503 0.19663389 -0.68445784 0.70203459 0.00038500622
0.032204632 0.0098745814 0.010341943 0.20347805 -0.69708145 0.68751299 0.00079887878
0.034492906 0.010472257 0.010259706 0.22247265 -0.68308353 0.69563121 0.0013264284
0.037222948 0.010760623 0.0097107077 0.26893803 -0.70094097 0.6605711 0.0015149433
0.039824355 0.011530845 0.0093931733 0.30971006 -0.70489222 0.63812745 0.0015715164
-0.03982133 0.014054758 0.010009727 -0.38532814 -0.7562288 0.52881026 0.0017401542
-0.037469517 0.013145363 0.010273256 -0.35802677 -0.76457375 0.53595138 0.00058941048
-0.035125073 0.012499921 0.01092066 -0.33127195 -0.75742882 0.56263715 0.0013357874
0.034990866 0.012291483 0.011624419 0.20896806 -0.61264694 0.76223099 0.00039204009
0.037884314 0.012751133 0.011174989 0.25303164 -0.65818709 0.70905906 0.00080749067
0.040660929 0.013217284 0.010616861 0.29088897 -0.64755797 0.70430976 0.0010369173
0.043691982 0.013801542 0.0099130785 0.34712783 -0.67576408 0.65026546 0.0027600953
0.045886707 0.014556742 0.0094851041 0.3862091 -0.68612909 0.61649764 0.0017851131
-0.045849066 0.017170193 0.0092897229 -0.4621273 -0.73487115 0.49638975 0.003305401
-0.043758374 0.016604405 0.010280635 -0.44942379 -0.71540678 0.53498733 0.0014173931
-0.040587049 0.015555175 0.011488479 -0.4052597 -0.70958161 0.57641882 0.0009739605
0.0416384 0.015143287 0.01187513 0.24924375 -0.57115316 0.78208792 0.00058167725
0.043891583 0.015804317 0.011504318 0.31239092 -0.59161001 0.7432425 0.0019469671
0.046667229 0.016144414 0.010560529 0.35081035 -0.61608839 0.70524263 0.0018337399
0.049388066 0.017103978 0.0099869277 0.42373058 -0.6563831 0.62419027 0.0022651348
0.05139051 0.017629186 0.009227464 0.44762194 -0.65780926 0.60574055 0.0026537708
0.047590625 0.018230626 0.011824195 0.31600574 -0.53589648 0.7829147 0.0011396662
0.050032847 0.018848615 0.011079765 0.39291084 -0.56534249 0.72526473 0.001560799
0.052480109 0.019577092 0.010246735 0.4352892 -0.60245717 0.66900581 0.0026319337
0.054910485 0.020400824 0.0094512105 0.48985609 -0.62974888 0.60287428 0.0015572415
0.053285033 0.021708393 0.011467864 0.40075085 -0.49675956 0.76982379 0.0010788197
0.055592854 0.022434695 0.010532458 0.48219678 -0.51575309 0.70815611 0.0017980705
0.057965185 0.023155687 0.009502952 0.54121965 -0.56252033 0.62502176 0.0016607717
0.056379382 0.02460777 0.011500772 0.43723592 -0.45305896 0.77689272 0.0011253849
0.058773603 0.0254908 0.010547704 0.51560575 -0.47231823 0.71488899 0.0017648186
0.060703028 0.026210152 0.0096298791 0.57780576 -0.5001784 0.64495122 0.0017066994
-0.012098974 0.029830191 0.011986639 0.15236725 0.71527952 0.68202603 0.0024283887
-0.010256712 0.029637255 0.011722978 0.17536189 0.69538832 0.69690979 0.000749717
-0.007511701 0.029368483 0.011338003 0.14244732 0.72268522 0.67633933 0.0017737484
-0.0044474872 0.029241985 0.010896228 0.11828627 0.7581389 0.64127511 0.0013051672
-0.001509256 0.028850555 0.010870815 0.088205695 0.75393391 0.65100193 0.00063341495
0.001468179 0.028657898 0.010782678 0.042916294 0.72004682 0.69259715 0.00188865
0.0044333143 0.028243672 0.011121923 0.022645267 0.68560475 0.72762167 0.0017625049
0.059367266 0.027923534 0.011545801 0.48126814 -0.35873562 0.799806 0.0017801159
0.061667547 0.02847307 0.010243832 0.56438404 -0.40930468 0.7168963 0.001910823
0.063372806 0.02933244 0.0093496442 0.63153237 -0.42702857 0.64715803 0.0017695272
-0.019352758 0.032599825 0.011475232 0.25806019 0.7508086 0.60802257 0.0015305014
-0.016713575 0.032382704 0.010671406 0.2449844 0.80004084 0.54764706 0.0011763374
-0.013755902 0.031894311 0.01013715 0.22161004 0.83299279 0.50696361 0.0010858829
-0.010567682 0.030951617 0.010282344 0.1768834 0.77446753 0.60738158 0.0023105517
-0.0079701534 0.030622566 0.010002352 0.1587351 0.80888975 0.5661276 0.0014160458
-0.0043831794 0.030300427 0.009588642 0.10583597 0.78121632 0.61522341 0.0013301189
-0.00079670793 0.030101422 0.0092626959 0.084053688 0.76738608 0.63565212 0.00098274869
0.062074203 0.031231672 0.01123727 0.52184492 -0.30079451 0.79824847 0.0015650382
0.064219885 0.0316322 0.0098190457 0.62812215 -0.35551029 0.69215238 0.0019005599
-0.027762175 0.035708476 0.011716994 0.31820494 0.71108371 0.62698138 0.00089855393
-0.025164574 0.035258848 0.010926058 0.31493875 0.75307328 0.57766271 0.0022778697
-0.022388272 0.034752831 0.010144715 0.30265391 0.77756387 0.55117607 0.0019349147
-0.019698463 0.033765897 0.010167218 0.26836136 0.79393357 0.54557461 0.0014903739
-0.017079623 0.033444572 0.0093641756 0.24310832 0.81039447 0.5330658 0.0013250215
-0.014996316 0.03303533 0.0090212189 0.24999765 0.80314213 0.54079938 0.003163191
0.062652171 0.033820905 0.011754439 0.50612634 -0.21942472 0.83407968 0.0018306898
0.064828664 0.034396879 0.010396304 0.60943985 -0.26539558 0.74709326 0.0019375589
0.066406943 0.035184264 0.0093752425 0.67287552 -0.26971021 0.68883586 0.0025591897
-0.03376266 0.038520601 0.011638167 0.31736431 0.67929858 0.66168976 0.00082146825
-0.03124103 0.038111512 0.010740789 0.34611082 0.75402397 0.55826086 0.0012870458
-0.028538074 0.03724594 0.010263624 0.33783463 0.76861012 0.54323685 0.0016969447
-0.025863979 0.03653729 0.0096305776 0.32547018 0.77449816 0.54242206 0.0014661195
0.064778931 0.037474602 0.011166665 0.54505986 -0.13195722 0.82794744 0.0013584653
0.0669934 0.037519582 0.0095502231 0.67925936 -0.20197174 0.70555949 0.0025814502
-0.039762374 0.041655023 0.011349675 0.32607362 0.70353943 0.63143349 0.0015749233
-0.037304975 0.040853392 0.010898538 0.35299382 0.72734821 0.58852351 0.0013347714
-0.034634985 0.040191911 0.010126778 0.35353395 0.75318253 0.55473399 0.0015448498
-0.032210246 0.039362166 0.0097010452 0.36857587 0.76453036 0.52881485 0.0012884664
0.064805254 0.04037505 0.011458513 0.54018468 -0.073382288 0.83834088 0.0022028717
0.06715811 0.040490936 0.0098945992 0.62838298 -0.081692904 0.77360272 0.0023672096
-0.046037529 0.044518013 0.011437085 0.28852272 0.67345351 0.68059903 0.0012080427
-0.043435529 0.044035852 0.01062603 0.35219023 0.72306156 0.5942592 0.0013807407
-0.040672056 0.043019079 0.010177333 0.3511982 0.73401803 0.58127218 0.0011919711
-0.038275685 0.042415518 0.0094817085 0.37477821 0.73771662 0.56152964 0.0012770094
0.056728654 0.044478305 0.0119904 0.010192158 0.33984679 0.94042563 0.0010232874
0.062522531 0.044589132 0.011803581 0.17904833 0.23945674 0.95425481 0.0033422217
0.064814799 0.042654086 0.011407652 0.50959086 0.0025462201 0.86041307 0.0023134744
0.067399018 0.043445881 0.0098365182 0.61913419 -0.0084512699 0.78523976 0.0025802925
-0.058016695 0.047654629 0.011800043 0.065289073 0.54810721 0.83385605 0.0010670929
-0.055248916 0.047512479 0.011641894 0.11958598 0.58022147 0.80563158 0.0026704329
-0.052783255 0.047290493 0.011297658 0.23185222 0.64944464 0.72420037 0.0012280591
-0.048786163 0.047334541 0.0097431066 0.35786238 0.73825204 0.57176787 0.0012392064
-0.046683591 0.046115823 0.010059204 0.35796013 0.72443062 0.58912218 0.0015972789
-0.044393908 0.045400962 0.0095259557 0.37065414 0.71093518 0.597651 0.0017759214
0.056425236 0.045473009 0.01143703 0.010188107 0.33985862 0.9404214 0.0010209306
0.059386957 0.046086937 0.011507186 0.032057598 0.35481548 0.93438661 0.0017563476
0.061710879 0.046349671 0.011345303 0.085034363 0.31072158 0.94668967 0.0042488906
0.064994812 0.046455499 0.010709218 0.44716343 0.13382727 0.88438404 0.0034814395
0.067511909 0.046230167 0.009573916 0.62086636 0.061634909 0.78148973 0.0037172551
-0.061743192 0.050661214 0.0098322239 0.10592401 0.63796037 0.76274937 0.0010800653
-0.058188051 0.04964168 0.010493876 0.1019779 0.60341328 0.7908811 0.0026574242
-0.055384655 0.049645778 0.0099861808 0.21572191 0.67261034 0.70785552 0.0018040413
-0.052631188 0.048853543 0.0098258732 0.2678726 0.69176239 0.67060351 0.0016942108
-0.049939364 0.048464898 0.0091726715 0.35738593 0.74336791 0.56540209 0.0012900758
0.062300812 0.048982967 0.010223637 0.20241328 0.2908802 0.935103 0.0028637494
0.064622059 0.049355552 0.0098630004 0.25574204 0.28081322 0.92506212 0.0019384061
0.066723727 0.049102813 0.0093758777 0.55066776 0.16203149 0.81884724 0.0032779982
-0.061207194 0.051494937 0.0092475731 0.12329514 0.65328425 0.747006 0.0014168737
-0.057876635 0.05119428 0.0091639506 0.13531438 0.67624056 0.72414684 0.0018997379
0.064467669 0.051146653 0.0091566173 0.25509956 0.30364087 0.91800135 0.0026325181
-0.0027542752 0.0059329313 0.012035694 -0.023576358 -0.70985299 0.70395517 0.0016711537
-0.019882333 0.0085681006 0.012381195 -0.18315859 -0.70944083 0.68054873 0.001099769
-0.016593017 0.0081879357 0.012756956 -0.13495156 -0.70223826 0.69903469 0.0010838722
-0.013263508 0.0078288913 0.012931016 -0.10378018 -0.66832525 0.73659414 0.0015826157
-0.010176637 0.0077348077 0.01322865 -0.066286184 -0.64527035 0.76107317 0.001424638
-0.007499177 0.0076463255 0.013308109 -0.026621673 -0.63304079 0.77366054 0.002079285
-0.0046176966 0.0074252449 0.013254757 -0.024889812 -0.63701969 0.77044553 0.0022968377
-0.0014952862 0.0073530455 0.013237226 0.0021220508 -0.63200623 0.77496046 0.002454961
0.0015241941 0.0074380082 0.013251215 0.026367093 -0.61580282 0.78745896 0.0023098497
0.0044528604 0.007445388 0.013160318 0.046839774 -0.60937917 0.79149419 0.0024303822
0.0074906037 0.0074934238 0.013006332 0.049089599 -0.59026051 0.80571878 0.0026984781
0.010542069 0.00762949 0.012883875 0.071739107 -0.60667348 0.79170752 0.0018034443
0.013461507 0.00794381 0.012793273 0.096854605 -0.60197073 0.79262257 0.0017495025
0.016419033 0.0081931166 0.012602381 0.11374729 -0.61555785 0.77983975 0.0020626113
0.01930197 0.0085978778 0.012448472 0.13462453 -0.63081735 0.76416337 0.0027058211
0.021551473 0.0087831225 0.012203582 0.15885688 -0.66969877 0.72544342 0.0016591894
-0.031874988 0.011975342 0.012023848 -0.2735692 -0.73213792 0.62380606 0.0015332614
-0.02845842 0.01155108 0.012845558 -0.24024262 -0.68952078 0.68326026 0.0013040999
-0.025238208 0.01086635 0.013214803 -0.19861792 -0.67511082 0.71047616 0.0017166794
-0.022231027 0.010678208 0.013789283 -0.16833438 -0.64426219 0.74604946 0.0017652009
-0.019376559 0.010262868 0.014051351 -0.14978956 -0.63203388 0.76032639 0.0019697174
-0.016597679 0.0099294549 0.014244456 -0.11754953 -0.6038956 0.78834778 0.001744364
-0.013452069 0.0096726427 0.014436372 -0.084494583 -0.58112836 0.80941367 0.0010191575
-0.0099934926 0.0096218335 0.014685717 -0.051146232 -0.52400661 0.85017711 0.0024523637
-0.0074144923 0.0095094526 0.014689731 -0.021513257 -0.51422399 0.85738611 0.0021382945
-0.0042887493 0.0094325859 0.014694673 -0.0036402431 -0.50253773 0.86454755 0.0019545264
-0.0016367104 0.0095282244 0.014722516 0.013875977 -0.48982427 0.87171072 0.002010596
0.0012586957 0.0095449006 0.014661347 0.022819899 -0.46914187 0.882828 0.0020959692
0.0046558804 0.0096132793 0.014559221 0.044409767 -0.46635988 0.8834796 0.0020625589
0.0076786485 0.0099503631 0.014563312 0.061067995 -0.46262491 0.88444841 0.0017911564
0.010576067 0.0099837556 0.014366067 0.079332143 -0.47940582 0.87400025 0.0024441909
0.013521564 0.010356934 0.014266755 0.083016112 -0.46090081 0.88356024 0.0012153565
0.016483275 0.010485298 0.014036741 0.09957765 -0.47412804 0.87480682 0.00097188185
0.019578515 0.010415608 0.013619937 0.11899088 -0.49866664 0.85858768 0.0013257914
0.022575447 0.010373971 0.0131393 0.14759286 -0.56167376 0.81408781 0.0023377265
0.025457062 0.010753472 0.012853575 0.158154 -0.56835556 0.80743986 0.0026993081
0.028379433 0.01130678 0.012615676 0.19225121 -0.65087372 0.73444057 0.00086169457
0.03078456 0.011655242 0.012225677 0.19450672 -0.60313803 0.77355778 0.00047418938
-0.036393147 0.014054462 0.012147393 -0.33603767 -0.71934414 0.60796607 0.001119939
-0.034663521 0.01390765 0.01281811 -0.30892596 -0.67760241 0.66739774 0.0021279869
-0.031049591 0.013875768 0.014198566 -0.20643155 -0.57370782 0.79261935 0.0015556135
-0.0283073 0.0130149 0.014267748 -0.19178101 -0.60409385 0.77349252 0.0019042683
-0.025091946 0.012498523 0.014708689 -0.18411666 -0.60802323 0.77227515 0.0027342595
-0.023846485 0.012367084 0.014892198 -0.15636835 -0.592803 0.79002124 0.0027957084
0.014830728 0.01204876 0.014992616 0.075446077 -0.38465476 0.91997212 0.00054244464
0.017458782 0.012202642 0.014816971 0.08165887 -0.36851683 0.92602766 0.0020407268
0.019687625 0.012584928 0.014716625 0.099050224 -0.38339481 0.91825789 0.00152004
0.022587625 0.012833241 0.014481627 0.12274307 -0.41229451 0.90274435 0.001575971
0.025550961 0.013163825 0.01425979 0.13235949 -0.43160298 0.89230031 0.0014440709
0.028564332 0.01343584 0.013918607 0.14716157 -0.44482508 0.88344449 0.0016446788
0.031546485 0.013309109 0.013228727 0.17983037 -0.52118462 0.8342827 0.001495299
0.034323681 0.013748158 0.012840569 0.19489327 -0.54064524 0.81836379 0.00076685537
0.037233505 0.01430208 0.012441388 0.21239281 -0.55287224 0.80574292 0.00055504293
0.039511655 0.014682107 0.012125306 0.23477516 -0.57413787 0.78437638 0.00093276298
-0.037817515 0.016044065 0.013480271 -0.33761683 -0.64040864 0.68984902 0.0025802078
-0.034840532 0.015730172 0.014421936 -0.26775992 -0.59481466 0.75795794 0.0011954338
0.026118215 0.015056454 0.014943924 0.10276159 -0.3322089 0.93759125 0.00073380163
0.02888521 0.015796717 0.014912595 0.13653681 -0.39212096 0.90972459 0.00098414044
0.031576965 0.015959596 0.014644905 0.14862826 -0.40376681 0.90270817 0.0020049277
0.034661904 0.016352857 0.014297371 0.15914196 -0.42873281 0.88930422 0.0017447238
0.037501749 0.016393153 0.013697634 0.18471819 -0.45537263 0.87092769 0.0013017517
0.040450394 0.016542701 0.013029412 0.22278258 -0.50385928 0.83456194 0.00069427793
0.043462072 0.017461793 0.012709 0.28125891 -0.53323919 0.79784042 0.0011455406
0.045480173 0.017732127 0.012250257 0.29639876 -0.53158695 0.79345012 0.0022059025
-0.045110025 0.019177819 0.012404483 -0.43788981 -0.65010256 0.62098247 0.0045426511
-0.043136586 0.019325634 0.013656575 -0.38566047 -0.63564128 0.66874969 0.0034070441
0.035481874 0.018151669 0.014935261 0.12714237 -0.33208752 0.93464047 0.0018541783
0.037691321 0.018496104 0.014732443 0.16941062 -0.3802726 0.90922648 0.0021367695
0.040720135 0.019142518 0.014361079 0.20752391 -0.3980538 0.89358103 0.0010619997
0.043560807 0.01941953 0.013726059 0.23006944 -0.42656633 0.8747052 0.00081448496
0.046770457 0.019283691 0.012733723 0.305278 -0.49643821 0.81262189 0.0011891056
0.049449589 0.020324936 0.012316396 0.33657044 -0.50680274 0.79364437 0.0015836577
-0.00013028049 0.023883402 0.014761557 0.063282482 0.54836655 0.83384019 0.0013561117
0.0018352238 0.023817113 0.014657933 0.044567391 0.50682735 0.8608948 0.0022563776
0.00461818 0.023616061 0.014683181 0.017548297 0.43727443 0.89915687 0.002300177
0.0074574742 0.023468986 0.014703453 -0.0050081955 0.4231464 0.90604746 0.0026431032
0.010557862 0.023540203 0.014737176 -0.01484089 0.46078983 0.88738513 0.0017908125
0.013674618 0.023314774 0.01495574 -0.039481316 0.3515428 0.93533891 0.0038448339
0.041620772 0.021170901 0.01496076 0.15168543 -0.30773675 0.93930274 0.0016282414
0.044024903 0.021746397 0.014679179 0.21853748 -0.33834976 0.91529274 0.0014017345
0.046340853 0.02171584 0.01403854 0.28774989 -0.4366591 0.85236663 0.00076416618
0.049919143 0.022052297 0.013037202 0.32707325 -0.45888489 0.82610399 0.0011083537
0.052612785 0.023033714 0.012526509 0.36629707 -0.43863302 0.82062638 0.0018584497
0.054347977 0.023785656 0.01208439 0.41779053 -0.45906141 0.78403682 0.0017833788
-0.0124538 0.026787717 0.014629011 0.16146949 0.5462352 0.82192135 0.0012657009
-0.010183718 0.026256673 0.014546178 0.15031353 0.52567267 0.83730167 0.0015637097
-0.0077414475 0.025818758 0.014397876 0.13181695 0.52998012 0.83770245 0.0015595616
-0.0045623714 0.025649216 0.014055975 0.11077471 0.53524214 0.8374036 0.0011301142
-0.0015625581 0.025480654 0.013829281 0.079393752 0.56852847 0.81882352 0.0016743726
0.0014128862 0.025587665 0.013534238 0.054294527 0.57553273 0.81597441 0.0020800491
0.0044728857 0.025613245 0.013385807 0.027526971 0.57279581 0.81923574 0.0022506102
0.0071618967 0.02519702 0.013665212 -0.0095261009 0.5274635 0.84952432 0.0014788855
0.010281196 0.025925089 0.013258927 -0.036253478 0.51493496 0.85646236 0.00082408095
0.013449979 0.024819203 0.014167252 -0.072921313 0.4750796 0.87691611 0.001630445
0.016978202 0.025572129 0.014057686 -0.10561971 0.44074035 0.89139915 0.0012170025
0.018998846 0.025043271 0.014563328 -0.073595107 0.37017468 0.92604238 0.00068218302
0.022812814 0.025784191 0.014720464 -0.091566615 0.31519887 0.9445979 0.001775706
0.026041057 0.026138131 0.014956331 -0.094332054 0.2738336 0.95713985 0.0029673632
0.027033426 0.026898999 0.014777284 -0.07282526 0.24357828 0.9671433 0.0008726095
0.047387358 0.024458272 0.014792801 0.22998133 -0.28871816 0.92938173 0.0016998969
0.049636979 0.025326068 0.014460948 0.26098701 -0.29358992 0.91961443 0.00089913112
0.053085238 0.025026016 0.013222151 0.36509714 -0.3912954 0.84474373 0.0014918545
0.055330038 0.025655152 0.012529726 0.39642549 -0.39622816 0.82816058 0.001376121
0.057215605 0.026746863 0.012158268 0.44433877 -0.41306713 0.7949456 0.0017436055
-0.021434128 0.029842978 0.014725443 0.23096025 0.59426761 0.7703917 0.0010901166
-0.019195158 0.029259346 0.014495932 0.21339995 0.54982024 0.80756313 0.0018915393
-0.01643936 0.028819837 0.014075866 0.20784377 0.59236509 0.77839869 0.0018809845
-0.013561698 0.028520167 0.013557822 0.1853475 0.60271692 0.77613056 0.00094314374
-0.010519035 0.028197903 0.013140313 0.16570961 0.64852339 0.74293864 0.0017015603
-0.0075054551 0.027834676 0.012828154 0.14097455 0.66266471 0.73552811 0.0013146963
-0.0046420982 0.02764979 0.012535464 0.11013673 0.67239231 0.73195529 0.0013765807
-0.0017170405 0.027420962 0.012350416 0.081325814 0.68262523 0.72622925 0.0014921734
0.0016091821 0.02721158 0.012237163 0.042148598 0.63330644 0.77275252 0.0012615002
0.0045920857 0.027143281 0.012192904 0.0076330304 0.63247657 0.77454191 0.0019885146
0.012225556 0.027270377 0.012355491 -0.039161094 0.48894826 0.87143332 0.001723486
0.022016892 0.027377855 0.013772777 -0.10922663 0.34993416 0.9303847 0.0006334589
0.027750429 0.027710626 0.014518156 -0.0804855 0.23902647 0.96767163 0.00074171706
0.032246888 0.028253091 0.014918227 -0.081096128 0.25009081 0.96482021 0.00047994114
0.034481212 0.029218053 0.014811312 -0.081264839 0.24141896 0.96701235 0.00049929385
0.037120033 0.029623918 0.014987716 -0.078697577 0.2249414 0.97118902 0.0009870159
0.050599474 0.027512832 0.014815873 0.22091967 -0.17748348 0.95900685 0.0017977719
0.053209383 0.027777925 0.014087559 0.32763046 -0.293322 0.89812046 0.0016351579
0.055988591 0.027845571 0.013131604 0.3764908 -0.30865335 0.87349176 0.00095738139
0.058071345 0.028627755 0.012534805 0.44364554 -0.33743399 0.8302511 0.0014563559
-0.027947959 0.032564845 0.014648102 0.25099701 0.5999555 0.75964063 0.0014240907
