# .PCD v0.7 - Point Cloud Data file format
VERSION 0.7
FIELDS x y z normal_x normal_y normal_z curvature
SIZE 4 4 4 4 4 4 4
TYPE F F F F F F F
COUNT 1 1 1 1 1 1 1
WIDTH 556
HEIGHT 1
VIEWPOINT 0 0 0 1 0 0 0
POINTS 556
DATA ascii
0.047865078 0.064868487 -0.0094165858 0.94045621 0.050275479 0.33617643 0.0029461766
0.04830144 0.06478592 -0.010558516 0.95564926 0.071386658 0.28572446 0.0046577416
-0.00019059432 0.06669268 -0.0092106592 -0.59617537 0.58746147 -0.54723299 0.00020195721
0.0017671352 0.067549065 -0.010390189 -0.57587576 0.6097284 -0.54460853 0.00027487156
0.0037430166 0.068362646 -0.011548486 -0.56594533 0.61935622 -0.54415411 0.00016169793
0.047644261 0.067844085 -0.0099058524 0.91429639 0.22188412 0.33886492 0.0026934424
0.048271656 0.06734477 -0.011165089 0.94415492 0.20166402 0.26058233 0.0043539703
0.0026750113 0.069326937 -0.0093265548 -0.56260794 0.62879455 -0.53674001 0.00012003416
0.0047048908 0.070197895 -0.010312561 -0.5319497 0.6571883 -0.53397852 0.00023653032
0.0069428431 0.071331508 -0.01108872 -0.50411117 0.6851235 -0.52581143 0.00016559233
0.04694286 0.070618153 -0.010459941 0.88239074 0.36958721 0.29119024 0.0026092241
0.048058577 0.069356561 -0.01178072 0.93237847 0.30228516 0.19822723 0.0067383186
0.0079101464 0.072807431 -0.01004144 -0.48831704 0.70287061 -0.5172227 0.00018421229
0.01008181 0.073802151 -0.0106758 -0.45543706 0.74600726 -0.48584998 0.00051490683
0.012706207 0.074761212 -0.011660201 -0.44574445 0.73710513 -0.50792503 0.00014163519
0.044641938 0.074503772 -0.010190767 0.75135344 0.62907732 0.19932327 0.0043424075
0.045739088 0.073074989 -0.010626416 0.81867969 0.5146786 0.25469515 0.0037818784
0.011380924 0.075417906 -0.0095378421 -0.44496608 0.75364727 -0.48375723 0.00060674595
0.01371181 0.076316662 -0.010267831 -0.42055005 0.78406304 -0.45648959 0.0012828403
0.016099758 0.077372849 -0.010597157 -0.39149824 0.82253271 -0.41251552 0.0015471611
0.018349579 0.077840358 -0.011613838 -0.37019134 0.82938087 -0.41843244 0.0017672378
0.041386399 0.077591062 -0.01041286 0.58095038 0.80995506 0.08043278 0.0034612042
0.043184061 0.076147012 -0.010576744 0.66715503 0.73208028 0.13770503 0.0050433311
0.017226795 0.078316897 -0.009697631 -0.35397995 0.86578721 -0.35370979 0.0024776591
0.019540446 0.078961939 -0.010362892 -0.32453987 0.88814342 -0.32538465 0.0025588188
0.022477165 0.079967655 -0.010510425 -0.29513955 0.92509907 -0.23892319 0.0025072575
0.025032662 0.080709696 -0.01077769 -0.25210023 0.94463873 -0.21000767 0.0034376134
0.027610317 0.08093486 -0.011801714 -0.084043734 0.9731524 -0.21426874 0.0036757202
0.032459635 0.080918692 -0.011659992 0.094004832 0.98044389 -0.17289579 0.0024947675
0.034654263 0.080637306 -0.010567296 0.23327757 0.9630428 -0.13464794 0.0029638987
0.037454832 0.079712309 -0.010494647 0.37270302 0.92748004 -0.029551588 0.0028163602
0.039880406 0.078550287 -0.010499361 0.49862656 0.86619592 0.032805014 0.0038684595
0.026232138 0.08116886 -0.009967058 -0.18290696 0.97262698 -0.14332384 0.0046624946
0.028554343 0.081338368 -0.010440676 -0.037208315 0.99007285 -0.13554075 0.002767022
0.031408202 0.081252977 -0.010373037 0.070624039 0.98915243 -0.12880127 0.0023141375
0.033256937 0.081059486 -0.0098226955 0.1783804 0.97910857 -0.097606108 0.0047583021
0.043918971 -0.073633164 -0.0076584979 0.78915983 -0.31725568 0.5259046 0.0022184888
0.044766512 -0.070213318 -0.0062662042 0.77089298 -0.3036724 0.55991709 0.0014816382
0.045848936 -0.069636837 -0.0076735364 0.83884251 -0.28156555 0.46590135 0.002733418
0.046281479 -0.067281261 -0.0072647175 0.85113108 -0.21114825 0.48061669 0.0014807596
0.046967734 -0.064377092 -0.0075766761 0.89561915 -0.075606488 0.43834916 0.0023180004
0.047049999 -0.061200239 -0.0075807641 0.92061311 0.068722874 0.38438085 0.003741659
0.046527512 -0.058502998 -0.0074294917 0.91017091 0.25473043 0.32665163 0.0064239744
0.044672877 -0.054298025 -0.0071308143 0.8281548 0.52658051 0.19202247 0.0030170833
0.04557443 -0.055795211 -0.0076131681 0.87894487 0.41516814 0.23471536 0.003556072
0.043448739 -0.0524025 -0.0075483662 0.77577204 0.61259747 0.15133464 0.0022714015
0.038840901 -0.048072994 -0.0069568506 0.56995064 0.81843978 0.072888382 0.0035465227
0.040567588 -0.049375452 -0.0075056525 0.62996811 0.77227604 0.082035817 0.0033919811
0.042192098 -0.050880414 -0.0074994699 0.72745955 0.67357588 0.13075998 0.0035949226
-0.0044512753 -0.046792757 -0.0065426175 -0.17105842 0.78512156 -0.59525055 0.005173611
-0.0013620232 -0.046491608 -0.0073360465 -0.23961996 0.76041937 -0.6036098 0.00071664766
0.00139406 -0.045741066 -0.0075856633 -0.26050639 0.76777506 -0.58536994 0.00054111489
0.0039209649 -0.045405142 -0.0082289092 -0.22468191 0.80091459 -0.55502605 0.00010568882
0.0062397495 -0.04514569 -0.008769379 -0.19093619 0.81319243 -0.54978317 0.00010650447
0.032045629 -0.045247871 -0.0076932637 0.31605208 0.94833606 -0.027745852 0.0025856316
0.034515642 -0.046033017 -0.0075487024 0.34885582 0.93716699 0.0041981228 0.0028015524
0.037400406 -0.047210772 -0.0075022317 0.44608694 0.89363056 0.049304165 0.0036646863
0.0016140239 -0.044573683 -0.0060632508 -0.23413575 0.78717303 -0.5705604 0.0002047968
0.0044271615 -0.044328243 -0.0068698642 -0.21057272 0.80538136 -0.55409396 0.00020817615
0.0074254796 -0.043948308 -0.0073567168 -0.17582493 0.82646006 -0.53483593 0.00018031696
0.010321442 -0.043502409 -0.0074769589 -0.12452906 0.84079182 -0.52684122 6.7701745e-05
0.013509177 -0.043127984 -0.0074898857 -0.075656384 0.85687077 -0.50994956 0.00039010789
0.01651581 -0.042936005 -0.0075179185 -0.013963504 0.88382494 -0.46760938 0.0011250103
0.019375075 -0.042864371 -0.007379855 0.074617811 0.91585022 -0.39452586 0.0039897235
0.022524159 -0.043163594 -0.007450365 0.11640741 0.94056517 -0.31904003 0.0035689562
0.025526557 -0.043644965 -0.00753335 0.18414156 0.95152247 -0.24636757 0.003638383
0.028567018 -0.044295449 -0.00750052 0.21136834 0.96539378 -0.15276876 0.0030738178
0.030682066 -0.044810139 -0.0072055669 0.26956609 0.95965517 -0.079975724 0.0023796647
-0.049067762 0.047309231 -0.0087544052 0.42838469 -0.033301439 -0.90298259 0.010056455
-0.048454687 0.049521133 -0.0086909235 0.42839706 -0.033271883 -0.90297788 0.010056689
-0.046766818 0.050426994 -0.0085676527 0.047532685 0.0080367597 -0.99883735 0.029286468
-0.03037411 0.04961244 -0.0087705953 0.22901025 0.078413293 -0.97026062 0.00063134899
-0.028270658 0.049289748 -0.0082312534 0.20523341 0.11378322 -0.97207648 0.0026621271
-0.025757212 0.049070589 -0.0076292618 0.17250299 0.10228989 -0.9796834 0.0020936141
-0.022650721 0.050366834 -0.0072852802 0.1101148 0.11506373 -0.98723614 0.0016149672
-0.02056158 0.050997481 -0.0069924174 0.084932201 0.1004418 -0.99131131 0.0017061637
-0.052380595 0.053027917 -0.0070625735 -0.21040115 0.92303485 -0.32208395 0.040083468
-0.048895016 0.053193137 -0.0085774139 0.34254545 0.48587641 -0.80410624 0.040196411
-0.046563536 0.05271424 -0.0081364885 0.042090874 0.34908783 -0.93614429 0.040569253
-0.044079952 0.05351793 -0.0086058285 -0.14785835 0.7093448 -0.68917912 0.013162615
-0.041178595 0.053404987 -0.0087404801 -0.24740915 0.37339476 -0.89407223 0.0066505927
-0.03317938 0.053726502 -0.0089195454 0.20878641 0.23347804 -0.94968218 0.0047113812
-0.031237708 0.052822243 -0.0087132817 0.18245703 0.21955207 -0.95838737 0.0051214164
-0.028793335 0.052496444 -0.0083009917 0.1939373 0.16527522 -0.96699142 0.004229683
-0.02571678 0.052459359 -0.0077322703 0.14280911 0.15872864 -0.9769395 0.0053583682
-0.022673989 0.052837946 -0.0072450214 0.09350048 0.14435823 -0.98509812 0.0035056148
-0.019578699 0.052853469 -0.0068780319 0.018127324 0.16086251 -0.98681033 0.00163238
-0.016790176 0.052985862 -0.0067432709 -0.0075807963 0.22373484 -0.97462064 0.0042879316
-0.014315943 0.053186137 -0.006816559 -0.06998264 0.1768117 -0.98175359 0.0023926613
-0.010845934 0.053150125 -0.0072927298 -0.16777417 0.16258487 -0.9723261 0.0035538934
0.044137597 0.053521827 -0.0075864028 0.83963877 -0.42812771 0.33423567 0.0031573859
-0.051562171 0.055318266 -0.0076650451 0.069539249 0.8763184 -0.47668695 0.033796955
-0.049485978 0.055370089 -0.0073607289 0.082062192 0.89224631 -0.44402972 0.028301515
-0.046526164 0.055042665 -0.0068537402 0.063646644 0.88931137 -0.45285138 0.015098867
-0.043726817 0.055160463 -0.0071387198 -0.26466036 0.77346057 -0.57594579 0.0098191658
-0.040245708 0.056072112 -0.008015669 -0.22438642 0.73824823 -0.63611335 0.0093666492
-0.037414294 0.056296986 -0.0083346637 -0.030922005 0.77622795 -0.62969357 0.0075876154
-0.034486037 0.055980265 -0.0082476968 0.038898043 0.70900822 -0.7041266 0.0040594903
-0.031848278 0.056202009 -0.0077821272 0.066617332 0.67984015 -0.73032826 0.0034371614
-0.028034141 0.056249052 -0.0072701522 0.05243095 0.65031374 -0.75785422 0.0049034655
-0.025650494 0.056192294 -0.0068232352 0.053039491 0.55065173 -0.83304828 0.0046426672
-0.022529654 0.055666994 -0.0066081802 0.098815195 0.33185428 -0.93814087 0.0040884526
-0.019485477 0.055597346 -0.0064161541 0.034568857 0.27728781 -0.96016484 0.0038434055
-0.016629158 0.055766642 -0.0063648219 -0.076022424 0.25777748 -0.96320891 0.004405065
-0.013423982 0.05559646 -0.0066837724 -0.13649285 0.19997945 -0.97024632 0.0038015912
-0.010959765 0.055991445 -0.0071065603 -0.29088086 0.20673126 -0.93415767 0.0052070427
-0.0086281076 0.05599511 -0.0078906147 -0.35314378 0.21563996 -0.91037846 0.0095962761
0.044387132 0.054309059 -0.0065462384 0.83964407 -0.42810908 0.33424616 0.0031579575
0.045494884 0.055882536 -0.0075442004 0.88200057 -0.34984964 0.31572169 0.0034560461
-0.039992753 0.057353314 -0.0067167631 -0.21506065 0.79914248 -0.56135565 0.0079989564
-0.037535608 0.057482701 -0.0067399018 -0.050186209 0.82406819 -0.56426316 0.0053274133
-0.034535676 0.057537287 -0.0067823739 -0.0063705957 0.80751985 -0.58980602 0.0046320879
-0.031535238 0.057603922 -0.0066135996 0.014156378 0.78428495 -0.62023926 0.0046300087
-0.028697351 0.057459015 -0.006564368 0.037522886 0.72126961 -0.69163728 0.0029930172
-0.02564387 0.057498962 -0.006127323 0.028755188 0.6643188 -0.74689603 0.0036739022
-0.022809865 0.057429034 -0.00612013 0.0034056513 0.62790591 -0.77828187 0.0052198432
-0.019640923 0.057601444 -0.0062572979 -0.061509736 0.67791539 -0.73256218 0.002268001
-0.015688861 0.057170413 -0.0060283546 -0.070760146 0.36179417 -0.92956871 0.010710166
-0.013223948 0.05778721 -0.0061719315 -0.1785298 0.40264162 -0.89777887 0.0061504389
-0.010968602 0.059074849 -0.0065094801 -0.29595193 0.50222397 -0.81251675 0.0053349831
-0.007547339 0.058910262 -0.0078327209 -0.48886016 0.35411149 -0.79725832 0.0075335833
-0.0058863144 0.059090693 -0.0087940469 -0.52589285 0.3653703 -0.76807636 0.0072027477
0.046456177 0.058428325 -0.0073634335 0.90751547 -0.24398449 0.34188777 0.0039754193
-0.009393746 0.060989581 -0.006120224 -0.40026125 0.54212284 -0.73884618 0.0017952768
-0.0073090531 0.061645482 -0.006899111 -0.45032603 0.55003071 -0.70332968 0.0028734563
-0.0049370397 0.062384237 -0.0082590254 -0.59547526 0.48701212 -0.63892752 0.0021554853
0.047005605 0.062112492 -0.0072349887 0.88163418 0.047598887 0.46952698 0.0023829439
-0.0062233172 0.063410558 -0.0062955767 -0.53223425 0.57631177 -0.62015444 0.00099586579
-0.0042993035 0.064307928 -0.0072159874 -0.56536001 0.54559052 -0.61862677 0.00082776917
-0.0022128923 0.065371081 -0.0083552357 -0.6037972 0.55639535 -0.57083541 0.00036620474
0.046956245 0.064669788 -0.0074262735 0.86714911 0.1177348 0.48393282 0.0016331942
-0.0033598747 0.066101298 -0.0067888191 -0.57845294 0.57008117 -0.58343774 0.00026658017
-0.0012783143 0.067456618 -0.0072524627 -0.58049852 0.59644431 -0.55432451 0.00026540548
0.00063526921 0.068340994 -0.0083188936 -0.57210672 0.61396605 -0.54381943 0.0001767686
0.046475451 0.067521788 -0.0074379486 0.84956861 0.2076277 0.48489577 0.0016486179
-0.0002637695 0.06922397 -0.0063148951 -0.56970465 0.61636275 -0.54363 0.00018814915
0.0017026886 0.070129976 -0.0073067318 -0.55448651 0.63812941 -0.53416806 0.00011304742
0.0038740886 0.07136403 -0.0080376985 -0.52291185 0.67360049 -0.52232701 0.00019049905
0.044674877 0.071132667 -0.0064229933 0.7788415 0.3030982 0.54912424 0.0011364026
0.045805674 0.070395656 -0.0077770329 0.82455122 0.31596327 0.46934262 0.0019409568
0.0026543234 0.072157152 -0.0062105618 -0.53326499 0.67395347 -0.51128781 0.00057730888
0.0049318178 0.072930686 -0.0070242574 -0.50425935 0.69851935 -0.5077334 0.0005464892
0.0072676279 0.074038535 -0.0077405386 -0.4688375 0.73338705 -0.49227521 0.00068046636
0.0095132999 0.074620329 -0.0086616604 -0.47036147 0.72064805 -0.50933927 0.00014414628
0.043917436 0.073707379 -0.0073362961 0.7672599 0.50086528 0.40055746 0.0042909714
0.045235798 0.072450817 -0.0084086778 0.79471856 0.44442701 0.41340896 0.0025340701
0.0083321175 0.075383328 -0.0067613679 -0.42783895 0.79859889 -0.42331263 0.0025823398
0.01068109 0.076319687 -0.0073482203 -0.41260341 0.81417233 -0.40851188 0.002399185
0.013216659 0.07742539 -0.0075825118 -0.37847194 0.86384022 -0.33247402 0.0017138147
0.015224829 0.077905439 -0.0086361654 -0.37586862 0.86260778 -0.33857146 0.0022648217
0.040960733 0.077119656 -0.0072885174 0.59825331 0.74935365 0.28383458 0.0029555305
0.04267332 0.075727791 -0.0077995881 0.69071639 0.63710743 0.34205997 0.0037439617
0.01443744 0.078267276 -0.0065490878 -0.34415111 0.89700204 -0.27739367 0.003516204
0.016591966 0.078768276 -0.0074386182 -0.31338105 0.92123348 -0.2304804 0.0020541984
0.01951368 0.079680122 -0.0074448553 -0.26962706 0.95241129 -0.14217603 0.0031624876
0.022572594 0.080471687 -0.0075102337 -0.19599602 0.98034114 -0.022731695 0.0023923998
0.024606457 0.080917142 -0.0072312276 -0.19564651 0.98067051 0.0027866289 0.0027770672
0.032780699 0.080920547 -0.0062006898 0.17244627 0.97413343 0.14603558 0.0052638706
0.034746971 0.080559231 -0.0074238661 0.33743262 0.92870033 0.15380158 0.0028202983
0.037586663 0.079382829 -0.0074796509 0.43719247 0.87522995 0.20696653 0.0040452997
0.039630581 0.078325771 -0.0078303339 0.5372234 0.80811834 0.24152781 0.0044738506
0.026008656 0.081205994 -0.007524095 -0.14498472 0.98920727 0.021173898 0.0024737846
0.028458321 0.081492253 -0.0075229295 -0.04802737 0.99595863 0.075893059 0.0024886678
0.031418476 0.081346147 -0.0075317249 0.11709694 0.98871177 0.093473256 0.0028621529
0.033381116 0.081066154 -0.0083168987 0.2233102 0.97314006 0.055955857 0.0048229494
0.041582108 -0.073098637 -0.0037563369 0.7013284 -0.33802217 0.62759829 0.0044116909
0.042390976 -0.072291151 -0.0042916304 0.73288321 -0.32026446 0.60026073 0.0027898357
0.041852381 -0.071108654 -0.0031455399 0.68389177 -0.24638939 0.68672001 0.00053855887
0.043412354 -0.070462301 -0.0046399059 0.75114483 -0.25520757 0.60881084 0.00068769697
0.043925807 -0.06763573 -0.0041379724 0.75874877 -0.19985737 0.61996567 0.00060093869
0.045196269 -0.067198813 -0.0055962652 0.78642184 -0.19883449 0.5848124 0.001105902
0.044417467 -0.064617589 -0.0038562792 0.77400357 -0.13886447 0.61776626 0.0011903561
0.045650005 -0.064306825 -0.0053742174 0.81328529 -0.11374888 0.57063842 0.0019688141
0.044567257 -0.061527304 -0.0034986497 0.75702411 -0.042896826 0.65197736 0.0017467911
0.045533668 -0.061385706 -0.0048129195 0.84264547 -0.0015367465 0.53846663 0.0028757886
0.044505809 -0.058396753 -0.003516285 0.81950909 0.12182254 0.55996805 0.0039775162
0.045464732 -0.058522426 -0.0050248569 0.85777014 0.17278148 0.48412496 0.004408007
0.044067141 -0.055299539 -0.0044127754 0.82224649 0.32137769 0.46970963 0.004108239
0.045169737 -0.056467533 -0.005556419 0.82587332 0.3184104 0.46534729 0.0041521629
0.041576177 -0.051615693 -0.0039542173 0.73119062 0.59353495 0.33626869 0.0040562479
0.042772338 -0.052725531 -0.0047012446 0.75983828 0.5277546 0.3796325 0.0040952959
0.038163207 -0.048454441 -0.0041680993 0.53274077 0.79139614 0.29979888 0.0032786434
0.04024573 -0.049879197 -0.0046598292 0.63717592 0.69456553 0.33404437 0.0037712841
-0.010454196 -0.046861947 -0.0053787068 -0.17680055 0.77318525 -0.6090371 0.0072954912
-0.007572595 -0.046084695 -0.005133511 -0.17059831 0.80319291 -0.57076913 0.0050111334
-0.0042545311 -0.045624558 -0.0053771562 -0.17348062 0.79732013 -0.57808751 0.005826348
-0.0011981152 -0.045288038 -0.0058409185 -0.20520583 0.75591487 -0.62167782 0.0008214048
0.032096464 -0.04541852 -0.0043794173 0.39260247 0.90877265 0.14140598 0.0028727385
0.034486111 -0.046427343 -0.0045395694 0.3986145 0.89841622 0.1842684 0.0021585554
0.036872376 -0.047500171 -0.0047150175 0.46720383 0.843436 0.26521006 0.0045679808
-0.0069213607 -0.04433395 -0.0035172619 -0.17648417 0.7735402 -0.60867798 0.0082701975
-0.0045493129 -0.044467662 -0.0040313108 -0.19345687 0.76585734 -0.61321855 0.0097048143
-0.0015463583 -0.044045135 -0.0041645579 -0.17458411 0.76778078 -0.61646831 0.0030056788
0.0015250335 -0.043250956 -0.0041625192 -0.2142415 0.78199899 -0.58530188 0.0003966057
0.0044613588 -0.042944368 -0.004862735 -0.1939259 0.80936635 -0.55436355 0.00026186305
0.0073123286 -0.042496908 -0.0050939145 -0.1539571 0.82675147 -0.54109085 0.00016398006
0.010090852 -0.042244576 -0.0053953156 -0.11200846 0.85097027 -0.51313138 0.00034657973
0.01299879 -0.042093214 -0.0057345652 -0.050955817 0.86733568 -0.49510837 0.00066534744
0.017136935 -0.04207959 -0.0058784201 0.021968532 0.92123079 -0.38839579 0.0020824398
0.020233706 -0.042196434 -0.0054960861 0.10016017 0.94895202 -0.29909521 0.0027856138
0.022657929 -0.042421054 -0.0045381784 0.24756885 0.95958966 -0.13378122 0.0020626632
0.025575219 -0.043163393 -0.004529241 0.27761167 0.95737845 -0.079739183 0.003500415
0.02852886 -0.044076994 -0.0044990764 0.29567873 0.95517993 -0.014332437 0.0021261221
0.030582141 -0.044777956 -0.0047330763 0.34839362 0.93463868 0.07122077 0.0028568374
0.00460805 -0.041892931 -0.0033984699 -0.17379215 0.81052715 -0.55932295 0.00064384378
0.0074935663 -0.04150128 -0.003566388 -0.12375939 0.83895773 -0.52993727 0.00063940062
0.010413528 -0.041254189 -0.0038757401 -0.067264497 0.86888456 -0.49042353 0.0016376537
0.013427521 -0.041268568 -0.0042653698 0.0051036105 0.90413344 -0.42721975 0.0026972883
0.016467161 -0.041410241 -0.0043470436 0.082606941 0.93554407 -0.34341431 0.0032580865
0.019331796 -0.041667428 -0.0040601394 0.16362767 0.95408952 -0.25087681 0.0023957503
0.021341506 -0.041950665 -0.0036234129 0.19697109 0.95772761 -0.209667 0.0030046774
0.041506089 0.052208412 -0.0033774676 0.73756421 -0.43502983 0.51647663 0.0064875553
0.042422581 0.052442528 -0.0047793421 0.78010994 -0.43557933 0.44910932 0.0033060275
-0.051361907 0.056105394 -0.0049340371 -0.093345158 0.9487341 -0.30197743 0.011298527
-0.049569692 0.056216892 -0.0045105689 0.026676027 0.96273011 -0.26914507 0.0026909143
-0.046664704 0.056159858 -0.004655852 -0.079175986 0.92582369 -0.36956951 0.012410797
-0.044064268 0.056087468 -0.004914769 -0.31451455 0.81200415 -0.4916603 0.010345958
0.043940339 0.055421464 -0.0042706635 0.81632763 -0.39949319 0.41715032 0.0025838094
0.045024369 0.05609899 -0.0057537793 0.85310632 -0.37417901 0.36359277 0.0043896125
-0.042718414 0.058247071 -0.0037635118 -0.306072 0.84641743 -0.43577215 0.0065491968
-0.040594473 0.058247972 -0.004472516 -0.19422297 0.87130725 -0.45066738 0.0055509121
-0.037545484 0.058628291 -0.0043696132 -0.089817576 0.89438099 -0.43819574 0.0011371621
-0.034532193 0.058789685 -0.0045822444 -0.062218789 0.87432265 -0.48134047 0.0010207697
-0.031491969 0.058999378 -0.0045772628 -0.032069854 0.83324164 -0.55197817 0.0020156719
-0.028520795 0.059074033 -0.0046633515 -0.025130978 0.79393464 -0.60748357 0.0029091511
-0.025525928 0.059027541 -0.0047971588 -0.010441709 0.72427839 -0.68942857 0.0035984672
-0.022555361 0.059064221 -0.0048732823 -0.041060407 0.69371104 -0.71908206 0.0037247399
-0.019953283 0.058886889 -0.0050959014 -0.063855335 0.64540315 -0.76116842 0.0028954453
-0.016692854 0.059000723 -0.0053180819 -0.14695813 0.58016056 -0.80113482 0.0018643204
-0.013642834 0.059330001 -0.005662458 -0.23097381 0.54473287 -0.8061744 0.0036414727
-0.010842737 0.059906103 -0.0058720298 -0.3341471 0.4874903 -0.8066591 0.0023099058
0.044515997 0.059157833 -0.0035944348 0.77386755 -0.036121245 0.63231665 0.0022933069
0.04549076 0.058573034 -0.0051095937 0.85343206 -0.18866387 0.48585972 0.004080113
-0.027940784 0.060087375 -0.0031892513 -0.066380017 0.81064188 -0.58176756 0.00080534333
-0.025233338 0.060327124 -0.0031939561 -0.064495131 0.78308898 -0.61855632 0.0010270341
-0.02250082 0.060308989 -0.0035296241 -0.07547722 0.7268762 -0.68260849 0.0019474849
-0.019292636 0.060602088 -0.0036338577 -0.10406861 0.70822316 -0.69827622 0.0016657752
-0.016599076 0.060911641 -0.0037934482 -0.15213594 0.68788517 -0.70969617 0.0013106329
-0.013284043 0.061505795 -0.0041350489 -0.25199288 0.60768461 -0.75313944 0.0024916395
-0.010527732 0.061839558 -0.0049447403 -0.35232204 0.57670051 -0.7370792 0.0024218163
-0.0081398655 0.06246521 -0.0054029794 -0.4432869 0.57146811 -0.69059461 0.0010542949
0.044485871 0.061697233 -0.0035196901 0.75606638 0.047520339 0.65276748 0.0023866142
0.045645192 0.061694253 -0.004876113 0.80529058 0.058526509 0.58998454 0.0019619372
-0.013012817 0.0631001 -0.0030445103 -0.26359907 0.66508162 -0.69870019 0.00073114329
-0.010159316 0.063618585 -0.0035699713 -0.35475862 0.62919492 -0.69156349 0.00089771673
-0.0073351278 0.064493865 -0.004496533 -0.47255272 0.58573115 -0.65849292 0.0013003007
-0.0051854751 0.065370783 -0.0053849127 -0.52559376 0.57864642 -0.6236341 0.00076562166
0.044394623 0.064568885 -0.003680486 0.73987514 0.13340813 0.65938383 0.0010724467
0.045494393 0.064532816 -0.005057849 0.80387765 0.12424355 0.58167362 0.0012931282
-0.0065927492 0.066468447 -0.0032458259 -0.47849318 0.60308123 -0.63822979 0.00062839309
-0.0043072328 0.067330807 -0.0043229363 -0.53562427 0.59253943 -0.60166734 0.00050023972
-0.0022504306 0.068421006 -0.0051855193 -0.55687183 0.61045337 -0.563241 0.00030271269
0.044072744 0.067630045 -0.0041380567 0.74915564 0.2055639 0.62968987 0.0010161434
0.045265883 0.067328535 -0.0055221752 0.78061092 0.21108569 0.58829367 0.0010398963
-0.0034064334 0.06909734 -0.0036666968 -0.53963912 0.61386585 -0.57615834 0.00029523208
-0.0012289966 0.070201918 -0.0042077899 -0.54347992 0.63098019 -0.55361861 0.00021331711
0.00083311007 0.071243398 -0.005084285 -0.54122365 0.65195245 -0.53106976 0.00036958361
0.041668802 0.071571469 -0.0031452784 0.68809122 0.27875873 0.66994333 0.0015580535
0.043412257 0.070580281 -0.0044903359 0.74181002 0.27874559 0.60993338 0.0011473299
0.045096472 0.069353439 -0.0056449608 0.76666772 0.27848309 0.57850486 0.0024265442
0.0018791892 0.072902083 -0.0040943096 -0.50062454 0.70805627 -0.49802762 0.0015710087
0.0043633375 0.074313648 -0.0045644585 -0.4370808 0.79584998 -0.41902658 0.0014564022
0.0063260491 0.074799456 -0.0053663957 -0.42990756 0.80040532 -0.41776896 0.0029511268
0.041351739 0.073941492 -0.003846257 0.7055589 0.39160606 0.59061944 0.0034343211
0.042729203 0.073260896 -0.0051217577 0.72394538 0.4247188 0.5436148 0.0024535663
0.0052562351 0.075361431 -0.0036445151 -0.40957013 0.83172965 -0.37480399 0.0023055198
0.0076564713 0.076152228 -0.004446127 -0.38373813 0.8632583 -0.32791796 0.0024713303
0.010568123 0.077376552 -0.004470516 -0.36094403 0.90105349 -0.24046198 0.0026169063
0.012436389 0.07785207 -0.0052465415 -0.3327775 0.92192948 -0.19825542 0.0028892851
0.038298547 0.077423319 -0.0038940888 0.52086288 0.73308271 0.43736893 0.0036107611
0.040196978 0.076271802 -0.0046788673 0.63922739 0.60349262 0.47663942 0.0045687645
0.042294793 0.075164273 -0.0057703112 0.70086825 0.52102435 0.48715228 0.0032054419
0.011565009 0.078045838 -0.0032394822 -0.29203197 0.95060539 -0.1051988 0.003000896
0.013661184 0.078442343 -0.0043441565 -0.26822284 0.95364332 -0.13645889 0.0033192476
0.016569642 0.079197764 -0.0044697602 -0.23080194 0.97111285 -0.060583178 0.0036566977
0.019498212 0.079836927 -0.0045052473 -0.20684133 0.97788107 0.031070365 0.004145904
0.02247332 0.080330081 -0.0044890614 -0.1486118 0.97958452 0.1353835 0.0044196392
0.02536728 0.080653653 -0.0043721911 -0.10250603 0.97221541 0.21045101 0.002849228
0.028371373 0.080691278 -0.0039048828 0.035550989 0.93623525 0.34957066 0.0033891946
0.031631503 0.080526434 -0.0041929898 0.17407335 0.90854585 0.37979332 0.0030734532
0.034573365 0.079791851 -0.0044909962 0.33319217 0.8714633 0.35990933 0.0026384245
0.03718213 0.078686543 -0.0047697104 0.4729602 0.78147978 0.40693742 0.0041565867
0.039044216 0.078018002 -0.005733279 0.54867798 0.71607548 0.43149558 0.0043737069
0.026372286 0.081060953 -0.0056699528 -0.11740112 0.98075396 0.15600823 0.0031079734
0.028521478 0.081173666 -0.0054152631 -0.012604784 0.97066367 0.24011077 0.0035128586
0.030863693 0.081120439 -0.0055166371 0.13550285 0.96342278 0.23120479 0.0036331874
0.037567247 -0.073776588 -0.00048619692 0.58821702 -0.26747712 0.7631886 0.0016716494
0.039856613 -0.072894543 -0.0019424839 0.62704998 -0.27446353 0.72902542 0.00088296604
0.038522393 -0.071000986 -0.00016836464 0.5898785 -0.22302219 0.77608275 0.00092096487
0.040397167 -0.070352778 -0.001505104 0.63626832 -0.25393271 0.72847849 0.0010375982
0.042284556 -0.06907139 -0.002786116 0.70609158 -0.24292049 0.66514981 0.0010261568
0.040654033 -0.06759432 -0.00095555442 0.61551923 -0.18086222 0.76708865 0.00027843047
0.042442389 -0.067155503 -0.0024147225 0.66745114 -0.18622155 0.7209928 0.00060060486
0.041124091 -0.064619593 -0.00070329313 0.61575842 -0.1385271 0.77566224 0.00053650374
0.042881854 -0.064373188 -0.0021764345 0.67583495 -0.14524427 0.72260034 0.00059071416
0.041439731 -0.061321683 -0.0004308706 0.65586561 -0.086092606 0.74995232 0.00058291294
0.043107245 -0.061552703 -0.0019394445 0.71504813 -0.070550986 0.69550616 0.0011444921
0.041485418 -0.058364373 -0.00024036295 0.67571956 0.053204641 0.73523629 0.0024492214
0.043038782 -0.058508512 -0.001738668 0.72448653 0.065186083 0.68619978 0.0023163715
0.041240513 -0.055232767 -0.00072121696 0.65940481 0.23898587 0.71279103 0.0024476841
0.042712767 -0.055640422 -0.0021622826 0.73576844 0.29535338 0.60943514 0.0040245648
0.03848153 -0.051581837 -0.000337918 0.5913434 0.44829586 0.67033112 0.0039180466
0.040441815 -0.052506596 -0.0015621051 0.67529464 0.43439999 0.59604853 0.0026775715
0.042151995 -0.053626098 -0.0025984289 0.69230437 0.4216336 0.58561063 0.002943015
0.03520979 -0.048453573 -0.00072152168 0.49593526 0.75021261 0.4372977 0.003568125
0.03747458 -0.049538359 -0.0016023008 0.530343 0.67136931 0.51768684 0.0050859801
0.039594088 -0.050634995 -0.0023851369 0.60351288 0.59498107 0.53081983 0.0030654308
0.029739244 -0.045258284 -0.00049103418 0.47197771 0.84968054 0.23511702 0.0035593028
0.031567071 -0.045919888 -0.001453787 0.44189391 0.84933776 0.28871304 0.002314257
0.034274753 -0.047250897 -0.0018109301 0.45176774 0.80135351 0.39209509 0.0044881017
0.036353838 -0.047964983 -0.00278874 0.50168782 0.7547242 0.42272994 0.0034392178
-0.006479355 -0.044092752 -0.0016890698 -0.19530793 0.76832175 -0.60953802 0.0096062059
-0.0040787254 -0.042851206 -0.0016333825 -0.20292473 0.77652973 -0.59650916 0.01027873
-0.0012071994 -0.042496063 -0.0023616219 -0.16364023 0.76959914 -0.61720258 0.0044707097
0.00043190882 -0.042393677 -0.0025325781 -0.1512697 0.75789565 -0.63459575 0.001879409
0.02308497 -0.042283781 -0.0015435893 0.33785695 0.9408344 0.026141811 0.0026198695
0.025533842 -0.043155648 -0.0014955966 0.34962735 0.9339273 0.074435204 0.0027673393
0.028391249 -0.044332776 -0.0015639628 0.41524446 0.88664794 0.20353752 0.0017227377
0.030096712 -0.044851936 -0.0027074632 0.44749373 0.87386143 0.19004101 0.0055339849
-0.0038640769 -0.04199684 -0.0016761275 -0.20292298 0.77652961 -0.59650987 0.010281125
-0.0012000757 -0.040917706 -0.0009669782 -0.083857909 0.60662299 -0.79055452 0.033482596
0.0018194313 -0.040839776 -0.0012144691 -0.16427958 0.77555954 -0.60952407 0.0026435645
0.0047274269 -0.04046635 -0.0013703441 -0.096971378 0.81677598 -0.56874746 0.00093102275
0.007613454 -0.040078048 -0.0014433373 -0.074113436 0.86307913 -0.49960142 0.0018902405
0.010540957 -0.039915394 -0.001398915 0.013504434 0.91457731 -0.40418556 0.0046569211
0.013613719 -0.04013446 -0.0015276144 0.10316309 0.94666129 -0.30527014 0.0044457484
0.016568584 -0.040552154 -0.0014418327 0.18087736 0.95785993 -0.22313176 0.0042808908
0.019583324 -0.041235927 -0.001480498 0.21840502 0.96867257 -0.11820635 0.0032693115
0.021612406 -0.041795794 -0.0013446693 0.29111373 0.95585823 -0.039848391 0.0026189068
-0.0036631902 -0.0015631886 -0.00011306981 0.48288423 -0.0018084424 -0.87568235 0.0096687665
-0.0040578204 0.0014365007 -0.00025672428 -0.48056901 0.032891236 0.87633991 0.0094526364
0.037127312 0.050830714 -9.8300734e-05 0.59531224 -0.42589393 0.68133521 0.001634276
0.038531505 0.052298736 -5.7436333e-05 0.59677619 -0.42942458 0.6778295 0.0017121435
0.040428966 0.052864477 -0.0015084415 0.66273755 -0.44334108 0.60351282 0.0024619172
-0.051271092 0.056706924 -0.001708554 -0.066969693 0.96390003 -0.25770494 0.0035474754
-0.049486447 0.056792941 -0.0021427411 -0.10848615 0.95127875 -0.28861636 0.0082681431
-0.046925288 0.056743953 -0.0023420271 -0.20543125 0.87809581 -0.43214104 0.01186141
-0.044717517 0.056603163 -0.0025426352 -0.29629701 0.84164852 -0.45148191 0.014964477
0.041025247 0.055589363 -0.00062831491 0.64764917 -0.16523522 0.7438063 0.0026116564
0.042761974 0.05572759 -0.0022811161 0.73029447 -0.3299534 0.59816456 0.0037885162
-0.051268823 0.057162102 -0.00080838229 -0.082086533 0.96335781 -0.25534981 0.0044391272
-0.049517732 0.057159811 -0.00063389953 -0.20759168 0.92360085 -0.32228413 0.0093054669
-0.046092991 0.058284 -0.00056867645 -0.28495353 0.86851668 -0.40556154 0.006529402
-0.043404561 0.05899854 -0.0014395792 -0.27001569 0.88279486 -0.38440165 0.0047521577
-0.040659755 0.059395786 -0.0016713351 -0.15946047 0.91495186 -0.37072283 0.00029915248
-0.037652936 0.059676658 -0.0021119846 -0.11995082 0.89889842 -0.42141849 0.00035167616
-0.034365725 0.059834283 -0.002680822 -0.10153788 0.87829179 -0.46721902 0.00041188594
-0.032133501 0.05989325 -0.0028348337 -0.075878404 0.85077381 -0.52002537 0.00052668899
0.041454554 0.058546279 -0.00038664934 0.64845461 -0.039281126 0.76023918 0.0019922378
0.042812962 0.058915123 -0.0014456649 0.68813944 -0.013977543 0.72544384 0.0027969454
-0.039699439 0.060132712 -0.00035421844 -0.17431593 0.90722615 -0.38282466 0.00028597048
-0.037281174 0.060332209 -0.00082804618 -0.15399365 0.89458185 -0.41953465 0.00037147477
-0.034429178 0.060619932 -0.0011499237 -0.13683681 0.88055372 -0.45376295 0.00038354509
-0.031500682 0.060883749 -0.0014005596 -0.11573362 0.86172622 -0.49399772 0.00057031511
-0.028559437 0.061222985 -0.0014468106 -0.10734293 0.831824 -0.54456067 0.00053640374
-0.02559563 0.061525077 -0.0015365205 -0.11174708 0.79837269 -0.59170401 0.00056329375
-0.022592055 0.061804146 -0.0016820013 -0.11871798 0.76753569 -0.62991667 0.00046099155
-0.019871386 0.062079031 -0.0018914555 -0.14087544 0.73624724 -0.66188681 0.00058696984
-0.016822062 0.062466968 -0.00220241 -0.19187187 0.70689982 -0.68079209 0.00049798115
-0.014454003 0.062657923 -0.0026587371 -0.2345407 0.66315031 -0.71078998 0.0012632252
0.041527413 0.062178362 -0.0005437971 0.63510573 0.09555123 0.76649237 0.00071112608
0.043116804 0.061552066 -0.0018664026 0.70032728 0.088034295 0.70837253 0.0013883743
-0.021892024 0.063239761 -7.8835088e-05 -0.15020984 0.77103925 -0.61881781 0.00033980896
-0.019535003 0.063505054 -0.00037832232 -0.17325561 0.74085742 -0.64893204 0.00042663142
-0.016797485 0.06376598 -0.00087302731 -0.20523824 0.70838171 -0.67533159 0.00050370541
-0.013929621 0.064367406 -0.0012405465 -0.24836472 0.68182802 -0.68805927 0.00064960984
-0.010791813 0.065028824 -0.0019838933 -0.35665303 0.64150935 -0.67916447 0.00071967416
-0.0085183065 0.065551594 -0.0027499422 -0.41827771 0.61491007 -0.66852784 0.00068619801
0.041133489 0.064340942 -0.00058579026 0.63614559 0.13837054 0.7590602 0.00043485896
0.042951018 0.064554103 -0.0021689844 0.69145185 0.14733991 0.70723778 0.00075705739
-0.012475451 0.066072568 -0.00052182423 -0.31886029 0.66826659 -0.67212194 0.00060385629
-0.010124016 0.066740245 -0.00073140825 -0.36182526 0.65586275 -0.66251528 0.00048069004
-0.0075052194 0.067581818 -0.0015115463 -0.42395923 0.63049191 -0.65018344 0.00053984555
-0.0053569456 0.068385169 -0.0023033922 -0.49714437 0.6169855 -0.6100626 0.00043000089
0.040770467 0.067734323 -0.00099272595 0.62478 0.18210839 0.75926709 0.00037882003
0.042568341 0.067274719 -0.002447983 0.68660629 0.19182828 0.70126575 0.00096026174
-0.0066045094 0.069411591 -0.00030477828 -0.44216442 0.63975126 -0.62865645 0.00068874483
-0.0042959992 0.070298821 -0.0012322867 -0.49822846 0.64742768 -0.57671988 0.00071750378
-0.0022237771 0.071136147 -0.002198332 -0.52255911 0.63979548 -0.56355458 0.00041223998
0.038652219 0.070874415 -0.00031297409 0.59411108 0.22122736 0.77336317 0.00044342736
0.040542085 0.070643052 -0.0016019158 0.63346523 0.24262917 0.73474681 0.0007559894
0.042218089 0.069747627 -0.0026378538 0.6769284 0.25750422 0.68953574 0.0012216407
-0.0031127087 0.072227187 -0.00011052243 -0.46467853 0.70601952 -0.5344252 0.001377342
-0.0011346539 0.072881564 -0.0011247669 -0.495646 0.70546299 -0.50661331 0.0015295506
0.001383752 0.074228674 -0.00162167 -0.41257882 0.83362389 -0.36721936 0.001043087
0.0031698144 0.074805655 -0.0024944383 -0.4210802 0.83318108 -0.35846987 0.0024337431
0.038107656 0.073894896 -0.00078380603 0.56773573 0.36291379 0.73889756 0.0038900245
0.040009219 0.073445708 -0.0021699679 0.63634515 0.37846923 0.67217994 0.0031314027
0.0026153834 0.075281985 -0.00067690917 -0.4150123 0.83903682 -0.35182655 0.0038199108
0.0045058993 0.075901769 -0.0013518672 -0.37242305 0.8779676 -0.30078876 0.0019057525
0.0074815792 0.076995939 -0.0014687389 -0.30408186 0.93659997 -0.17411137 0.0031824734
0.0099254716 0.077740692 -0.0015735774 -0.28694233 0.95035744 -0.12035262 0.0030845581
0.03240874 0.077733159 -0.00021517543 0.29044247 0.658373 0.69439781 0.0027752921
0.034810219 0.07717561 -0.00087598205 0.38517773 0.63650882 0.66820252 0.0039879275
0.037231702 0.076335795 -0.0017692186 0.50036865 0.57133204 0.65054655 0.0042842533
0.039314587 0.075394459 -0.0026969099 0.58940554 0.53523427 0.60508293 0.0038913318
0.011375121 0.07814651 -0.0011565125 -0.21644971 0.97575247 -0.032504987 0.0030359712
0.013522509 0.078593604 -0.0015170163 -0.1953136 0.98074085 -2.1832693e-05 0.0031262769
0.016463758 0.079109192 -0.0014560294 -0.14055535 0.98237652 0.12320985 0.0036904952
0.019549625 0.079478808 -0.0015095817 -0.085676089 0.97135252 0.2216614 0.0042758435
0.022568544 0.07966134 -0.0014597998 -0.040926747 0.94954413 0.31095165 0.0043833773
0.025502587 0.079710901 -0.0014959107 0.0047506029 0.92635477 0.37662217 0.0037540775
0.028464122 0.079537272 -0.0014915034 0.10503764 0.86609167 0.48872513 0.0030145107
0.031465437 0.079123534 -0.0015849954 0.20475227 0.8126027 0.54566789 0.0039722123
0.034220409 0.078643285 -0.0021723243 0.3472608 0.75425512 0.55723351 0.0039326246
0.03631416 0.078165613 -0.0027767529 0.446475 0.69228828 0.56691879 0.0039799134
0.034326136 -0.072680615 0.0020576615 0.50466853 -0.23743412 0.83002096 0.00065474759
0.036563057 -0.072642349 0.00074458012 0.553177 -0.21930028 0.80368072 0.00089257705
0.034882512 -0.070533611 0.0023373298 0.49634084 -0.20354058 0.84392953 0.00035391873
0.037117999 -0.070248537 0.001009083 0.54541248 -0.21333258 0.81056434 0.00065259857
0.035392851 -0.067705505 0.0026243336 0.51145077 -0.16482191 0.84335756 8.2447084e-05
0.037570685 -0.067219786 0.0013673677 0.54496574 -0.17076516 0.8208847 0.00023610546
0.039447259 -0.066533737 0.00022698288 0.58141595 -0.17320429 0.79495645 0.00059772789
0.035902295 -0.065366052 0.0027769541 0.52465487 -0.13630025 0.84033304 0.00012735902
0.037584316 -0.064177424 0.001892903 0.53512472 -0.13353339 0.83415252 0.00010257905
0.039686576 -0.064329281 0.00047288893 0.59048188 -0.13599618 0.79551005 0.00045153961
0.037671443 -0.061550025 0.0022195231 0.53855765 -0.096771918 0.83701307 0.00013988682
0.039989956 -0.06145905 0.00067683979 0.59297043 -0.094950564 0.79960644 0.00047111631
0.037862897 -0.058616985 0.002373104 0.56848019 0.002182533 0.82269412 0.0016481277
0.039899074 -0.058475684 0.00098779844 0.59944302 0.031789497 0.79978597 0.0021912402
0.037761919 -0.055310532 0.0020890092 0.57146394 0.21048665 0.79317355 0.0025789491
0.039792396 -0.055481229 0.00061241409 0.61251628 0.22443068 0.75792795 0.0037980126
0.035364948 -0.05187162 0.0023743445 0.57339895 0.38225076 0.7246365 0.0022839983
0.037381411 -0.052538019 0.0011851612 0.58322728 0.44356236 0.68051338 0.0033502574
0.039144292 -0.053624727 0.00041036724 0.60337341 0.41456878 0.68122923 0.0020358714
0.032283202 -0.048606295 0.0023295949 0.52399176 0.6428591 0.55871725 0.00095613237
0.034403641 -0.049600348 0.0013898716 0.5413245 0.59753859 0.59153658 0.0048426478
0.036521498 -0.050549656 0.00047660721 0.55096799 0.5890494 0.5911473 0.0032878392
0.028856395 -0.045761745 0.0018534869 0.4792999 0.78955323 0.38324583 0.001606619
0.031203032 -0.046994466 0.0012744407 0.50254643 0.72142792 0.47643349 0.0029599904
0.033174764 -0.047733415 0.00035573743 0.4984791 0.71120584 0.49568623 0.0044178441
0.022923732 -0.042534493 0.0017396506 0.41038018 0.89475769 0.1760592 0.0021349003
0.025512265 -0.043713897 0.0014480168 0.42803019 0.86632031 0.25744775 0.0040302295
0.027758576 -0.044674817 0.00090135209 0.45845541 0.83076864 0.31566146 0.0032048386
-0.0015130264 -0.040186062 0.00091401627 -0.038132027 0.58698291 -0.80870086 0.031035189
0.0019951507 -0.039302681 0.00037075693 0.031424195 0.72526294 -0.68775445 0.04440904
0.0040543899 -0.03928357 0.00042371839 -0.034125671 0.81748098 -0.57494378 0.0041575078
0.0075605684 -0.039136168 0.00023023407 -0.0078269551 0.87638533 -0.481547 0.0030685826
0.010535117 -0.039163645 0.00043870742 0.076855913 0.94881296 -0.30634493 0.0030986988
0.013600492 -0.039405718 0.0013915807 0.17355952 0.96609688 -0.19113857 0.0030815504
0.016540764 -0.040137973 0.0015980231 0.28610146 0.95622164 -0.061531972 0.0038861707
0.01954004 -0.041123457 0.0015326299 0.32726189 0.94380087 0.046255667 0.0038302359
0.021526722 -0.041842818 0.0012099327 0.37585187 0.91923559 0.11722343 0.0026807727
-0.0014460962 -0.036775533 0.00067524897 0.53140861 0.16223218 -0.83143592 0.038609862
0.0019526718 -0.037882082 0.0018310068 0.37267703 0.59323418 -0.71357208 0.041955572
0.0046048858 -0.038182866 0.0019351523 0.15787569 0.78835821 -0.59461462 0.060745046
0.0077437391 -0.038455032 0.0018192852 0.078930736 0.92043543 -0.38284281 0.0050108419
0.010492323 -0.038706362 0.0019371437 0.15449952 0.95054543 -0.26943153 0.0030189992
0.012522105 -0.03893815 0.0025841389 0.22389895 0.96485764 -0.13754661 0.0025864099
-0.0016170185 -0.03459033 0.00067673519 0.54498249 0.020335136 -0.83820081 0.012859315
0.0029476015 -0.034854956 0.0026209 0.54895538 0.31443557 -0.77445352 0.045816235
-0.0015785183 -0.031492628 0.00065927609 0.60898149 0.021033049 -0.79290551 0.008496522
-0.0014378817 -0.028740196 0.00066486868 0.64267999 -0.049789332 -0.76451516 0.0081249326
-0.0011965076 -0.025344372 0.00068768184 0.60152996 -0.026199201 -0.79842055 0.011533347
0.0017259226 -0.024826683 0.0015352418 0.72081894 -0.0092818039 -0.69306135 0.022918509
-0.0014025298 -0.0222938 0.0006413582 0.61006963 0.045143846 -0.79106075 0.016784623
0.0016972009 -0.022460315 0.0020912492 0.70265073 0.010969512 -0.7114504 0.024719693
-0.001589829 -0.019719793 0.00059539214 0.56375057 0.038828682 -0.82503194 0.015474988
0.0018677783 -0.019479373 0.0023667286 0.67976797 -0.043420728 -0.73214084 0.017189916
-0.0018072545 -0.016744163 0.00054179755 0.56739694 -0.02601273 -0.82303345 0.014328944
0.0020491194 -0.016397258 0.0025188702 0.71079391 -0.045729298 -0.70191228 0.028015791
-0.0020840755 -0.013418779 0.00046459949 0.48944512 0.0096178334 -0.87198108 0.010865912
0.0026234295 -0.013146199 0.002232821 0.69440615 -0.045972165 -0.71811324 0.040315289
-0.0024122861 -0.010202253 0.00035906621 0.47659206 0.02392507 -0.87879896 0.015467599
0.0027372527 -0.010219544 0.0023507765 0.90477771 -0.019432547 -0.42544055 0.019738788
-0.0022206025 -0.007295745 0.00035360863 -0.44514629 -7.7119177e-05 0.89545786 0.0078371624
0.0028306183 -0.0073497295 0.0024570881 0.95728767 -0.034192767 -0.2871083 0.014651698
-0.0031719042 -0.0044613108 8.1914382e-05 -0.47387514 0.0041603739 0.88058221 0.008456381
-0.0012185378 -0.0049400525 0.00056162587 -0.46708548 0.039599299 0.88332504 0.018910049
0.0029225899 -0.0045091654 0.0025620984 0.75431299 0.013710027 -0.65637183 0.046029206
-0.0011542008 -0.0016171647 0.00053440302 0.49288136 0.096708104 -0.86470544 0.013450115
0.0029836667 -0.0026297646 0.0026317043 0.74924487 0.096614741 -0.65520823 0.032301303
-0.0014710659 0.0014885176 0.00043555425 0.55223531 -0.075708918 -0.83024353 0.012530746
-0.0016549161 0.0043033729 0.00039884899 -0.51314569 0.045016911 0.85712016 0.014966493
0.0018126082 0.0051362943 0.0015673746 0.68133986 -0.052650675 -0.73007125 0.026362082
-0.0017107676 0.0072584748 0.000430541 0.57463968 0.016067002 -0.81824881 0.021512682
0.0020000136 0.0071207923 0.0017061027 0.7545203 0.0021857331 -0.65627307 0.036165603
-0.0018340944 0.010521431 0.00043394242 0.54503798 0.022829119 -0.83810049 0.010854641
0.0019293651 0.010535057 0.0021550986 0.67064422 -0.017367214 -0.74157584 0.026141224
-0.0019571725 0.013748218 0.00043677277 0.57275522 0.027874246 -0.81925243 0.010536225
0.0019173592 0.013601926 0.0025050635 0.6478104 0.0026002913 -0.76179725 0.01497068
-0.0021322384 0.016455764 0.00040237745 0.55772614 -0.028836368 -0.82952398 0.013263658
0.0021555414 0.016568454 0.002599499 0.62201267 0.017251266 -0.78281718 0.027736623
-0.0020732228 0.018194316 0.00046805554 0.52754319 -0.017603425 -0.84934586 0.016746486
0.0027726053 0.019552309 0.0023693298 0.94731092 -0.065627337 -0.31352055 0.012920934
0.0028709713 0.022560352 0.0024843889 0.93860602 -0.045330282 -0.34200007 0.019037561
0.002926647 0.024264697 0.0025495349 0.94870895 -0.059609521 -0.31048048 0.017248975
0.034511805 0.050047211 0.0014715235 0.56863499 -0.38563564 0.72659439 0.0018927377
0.035198163 0.052062999 0.0024596951 0.57420808 -0.36970106 0.73048359 0.0024652525
0.037242051 0.052945234 0.0013687687 0.57340741 -0.38633731 0.72245938 0.0018206583
0.037730306 0.055730604 0.0019923486 0.57599962 -0.14896959 0.80376148 0.001796629
0.039456435 0.056268886 0.00085005001 0.60344064 -0.14533646 0.78405148 0.0018812912
-0.051265065 0.057791118 0.0020556508 -0.39665025 0.88671523 -0.23749641 0.010469538
-0.049728319 0.057798196 0.001426599 -0.30057141 0.90585142 -0.29847947 0.0046986318
-0.04649603 0.05926773 0.0015615221 -0.31429726 0.87997466 -0.35617676 0.0019487473
-0.043900147 0.059697136 0.00075641717 -0.23335275 0.90413201 -0.35789919 0.0014353233
-0.041640576 0.059948489 0.00024414001 -0.18147069 0.91320676 -0.36485851 0.00032830948
0.037865154 0.058553748 0.0022147801 0.55385131 0.0037132264 0.83260739 0.00108571
0.039713148 0.059070516 0.0011105564 0.58940625 0.011059261 0.80776113 0.0014842624
-0.045318443 0.060111657 0.0026593865 -0.27184999 0.90086859 -0.33842796 0.000751096
-0.043407917 0.060303804 0.0021322959 -0.22892627 0.9172281 -0.32601431 0.00020732323
-0.040470514 0.060737401 0.0015030213 -0.1956939 0.90525329 -0.37712115 0.00028089058
-0.037475716 0.061308522 0.0013808613 -0.18694054 0.8940255 -0.40715057 0.00055114419
-0.034511838 0.061995789 0.0015625489 -0.17424506 0.87912184 -0.44360292 0.00046315163
-0.031619202 0.062318902 0.0011356677 -0.15243596 0.85859108 -0.48947385 0.00049963815
-0.028691396 0.062590897 0.00073457818 -0.14270976 0.83284396 -0.53479421 0.00046266732
-0.02569369 0.06277176 0.00020238099 -0.14006945 0.80273622 -0.57965088 0.00049678172
-0.023292458 0.062849775 7.3276213e-05 -0.13718306 0.77766752 -0.61352599 0.00027079828
0.035921816 0.062377013 0.0028939252 0.52305442 0.097686194 0.84668267 9.5905605e-05
0.037762675 0.061188627 0.0022316279 0.54661721 0.094568565 0.83202553 0.0002353626
0.039883677 0.061311997 0.00064940471 0.58717 0.089859217 0.80446053 0.0004913673
-0.033453945 0.063116536 0.0029664347 -0.20321184 0.87668598 -0.43603525 0.0005184146
-0.031068429 0.063223273 0.0025219216 -0.1863115 0.85340661 -0.48681134 0.00032660589
-0.028441407 0.06357608 0.0021756352 -0.17713705 0.83216065 -0.52548176 0.00041298941
-0.025448484 0.063878901 0.0017013005 -0.16514254 0.80470455 -0.57024425 0.00030482694
-0.022547105 0.064389445 0.0015479365 -0.17731792 0.77691114 -0.60412532 0.00027785063
-0.019644173 0.064893961 0.0012947192 -0.20633194 0.74368614 -0.6358915 0.00038105852
-0.016873281 0.065255269 0.00076288468 -0.23190889 0.71752805 -0.65678895 0.00040583618
-0.014573205 0.065696597 0.00050060067 -0.25198072 0.70492327 -0.66301501 0.00044323318
0.03571602 0.06521219 0.0027996488 0.52170712 0.1307492 0.84304589 8.2552811e-05
0.037466083 0.064470299 0.0018061169 0.53390288 0.12877546 0.83568215 8.6337153e-05
0.039786797 0.064696632 0.00038891929 0.59505439 0.13990149 0.79141504 0.00049189845
-0.018737825 0.06642589 0.0027672958 -0.23977493 0.7497465 -0.61675608 0.00046066943
-0.016414911 0.066679068 0.0021557175 -0.25548613 0.72520101 -0.63938278 0.00042816249
-0.013616309 0.067275509 0.0015944869 -0.31129351 0.68979079 -0.65367037 0.00059126399
-0.010807158 0.067984104 0.00088455813 -0.36736247 0.65487629 -0.66044062 0.00036730594
-0.0084862132 0.068443172 0.00034456694 -0.42048505 0.63511449 -0.64793676 0.00041022411
0.035315674 0.067768425 0.0025802008 0.51086646 0.16257855 0.84414679 9.0752801e-05
0.037541956 0.067138173 0.0014580177 0.53966665 0.16109703 0.82632178 0.00027061539
0.039251432 0.066673867 0.00042656343 0.59159315 0.17068782 0.78796142 0.00037155635
-0.012431925 0.069042124 0.002516323 -0.31752789 0.70850909 -0.63023096 0.00083772832
-0.010199094 0.069638945 0.0022285851 -0.37252912 0.70063204 -0.60855305 0.0014784762
-0.0074587595 0.070586011 0.0015214912 -0.42940995 0.69968516 -0.57100594 0.0021161563
-0.0051321117 0.071476534 0.00073303923 -0.46340933 0.69154823 -0.5540874 0.0020515684
0.034967985 0.07049948 0.0023663007 0.49953952 0.21764717 0.83850455 0.00042582265
0.037349436 0.070265055 0.00092707906 0.55024332 0.21330056 0.80730122 0.00051218917
0.039171286 0.069248691 6.9428512e-05 0.59030575 0.21217938 0.77879333 0.00050425227
-0.0063037034 0.072251663 0.0027265756 -0.42276755 0.74585092 -0.51475632 0.0031590341
-0.0043143053 0.072977431 0.0020886234 -0.41233686 0.8146078 -0.40791237 0.002858513
-0.0015013115 0.074165061 0.0014442609 -0.40923646 0.85148644 -0.32786635 0.0017116102
0.00077327201 0.074840583 0.00036244825 -0.39322796 0.87358171 -0.28675228 0.0030575863
0.032146927 0.074216142 0.0025881201 0.38422909 0.4402186 0.81152672 0.0046287472
0.034513339 0.073602207 0.0016474929 0.44907758 0.37208697 0.81233037 0.0036505305
0.036825139 0.073134206 0.00046758496 0.51970357 0.3542656 0.77743435 0.0025616384
-0.00060399965 0.075080387 0.0027543902 -0.36834705 0.8856563 -0.2827248 0.0035025254
0.0017279866 0.075669177 0.0016453681 -0.31755748 0.9223873 -0.21990675 0.0037549951
0.0045822482 0.076606028 0.0015629187 -0.28202114 0.95054626 -0.13009989 0.003915275
0.007515158 0.077354759 0.00153249 -0.22530712 0.97377139 -0.031716518 0.0043908549
0.010115483 0.077837311 0.0017552279 -0.16636333 0.98495007 0.046868674 0.002343605
0.01227724 0.077971697 0.0027380814 -0.074575253 0.98496705 0.15581539 0.0029442515
0.020729661 0.077917695 0.002826334 0.07359799 0.86512768 0.49612251 0.0049498528
0.022889065 0.077767223 0.0026884761 0.12769292 0.83287215 0.53853375 0.0031732395
0.025688184 0.077474095 0.0023157399 0.17857723 0.8036359 0.56769669 0.0029902484
0.028629119 0.076990992 0.0018936666 0.22925852 0.71717411 0.65810472 0.0037401963
0.031406332 0.076493241 0.0013109338 0.28892213 0.62523109 0.72498965 0.0033076163
0.034072269 0.075863682 0.00060730084 0.41164976 0.54514247 0.73031777 0.0027225697
