# .PCD v0.7 - Point Cloud Data file format
VERSION 0.7
FIELDS x y z normal_x normal_y normal_z curvature
SIZE 4 4 4 4 4 4 4
TYPE F F F F F F F
COUNT 1 1 1 1 1 1 1
WIDTH 571
HEIGHT 1
VIEWPOINT 0 0 0 1 0 0 0
POINTS 571
DATA ascii
0.06959793 0.054985229 0.006336485 0.60924578 0.19585389 0.7684145 0.0074308421
-0.069995224 0.05726362 0.0060787587 0.0097764572 0.46566039 0.88490951 0.012487804
-0.068148524 0.057276983 0.0060152276 0.18002306 0.61497068 0.76772571 0.0049841353
0.065989427 0.057370149 0.0060079466 -0.15333234 0.38220501 0.91126758 0.021601535
0.067822032 0.057416618 0.0061245202 0.30346525 0.26791427 0.91440183 0.013544267
-0.018780196 0.0058212997 0.0094204918 -0.18888173 -0.78938007 0.58412558 0.00075504929
-0.016055949 0.0053987526 0.0096661998 -0.16455011 -0.79685163 0.58133531 0.0014173372
-0.013388145 0.0052394755 0.010124533 -0.13613345 -0.78560555 0.60356575 0.0010593412
-0.01029279 0.0050019757 0.010399307 -0.097677775 -0.76989055 0.63065654 0.0015062043
-0.0075047486 0.0047640665 0.010466065 -0.067870177 -0.76409036 0.64152902 0.0015300962
-0.0045613172 0.0046403687 0.010553679 -0.035469811 -0.75861079 0.65057778 0.0015863898
-0.0014788809 0.0045958045 0.010618154 -0.0038486691 -0.74210179 0.67027628 0.0016910523
0.0014729013 0.0046605612 0.010684095 0.021029543 -0.72422439 0.68924367 0.001982827
0.0045645097 0.0047042281 0.010631462 0.03911186 -0.72755557 0.68493301 0.0019711454
0.0075413464 0.004715018 0.010426425 0.061831314 -0.74844259 0.66031098 0.0020333037
0.010452762 0.0048913704 0.010315213 0.091341235 -0.74627548 0.65934032 0.0016002146
0.013457615 0.0050170915 0.010007653 0.11543348 -0.76848531 0.62936914 0.0014272014
0.016429381 0.0053658849 0.0098285954 0.14007661 -0.75456715 0.64109826 0.0011279734
0.019292476 0.0056568449 0.0094324648 0.15989478 -0.75829369 0.63200033 0.00052984233
0.021314546 0.0058482713 0.0090975603 0.15354796 -0.75466788 0.6378867 0.00083840446
-0.027902206 0.0087063145 0.0096469587 -0.27007034 -0.7910068 0.54897207 0.00088907266
-0.025265303 0.0082432963 0.010186812 -0.24904588 -0.78923893 0.56131822 0.0014140179
-0.022394625 0.0074984925 0.010339977 -0.20586821 -0.76294327 0.61280984 0.0012477401
-0.019901522 0.0073335301 0.010990409 -0.19512902 -0.75983071 0.62014669 0.0014107481
-0.016908642 0.0066398983 0.011024723 -0.16216679 -0.77139604 0.61534554 0.00091801584
-0.013385509 0.0063824868 0.01152342 -0.12207728 -0.71477824 0.68861395 0.0010384985
-0.010348004 0.006231958 0.011810201 -0.083662957 -0.72557831 0.68303484 0.0015627143
-0.0083594462 0.0060655558 0.011849137 -0.045954231 -0.70302355 0.70968026 0.0019674166
-0.0055452976 0.0060452092 0.011965902 -0.032048754 -0.68483531 0.72799277 0.001996875
0.0048140348 0.0060188095 0.011914527 0.043249074 -0.65932459 0.75061357 0.0029785905
0.0077508902 0.0060862745 0.011855789 0.052063972 -0.67285186 0.73794281 0.0031541809
0.010741034 0.0062362426 0.011707461 0.078614399 -0.70767605 0.70214987 0.0018597399
0.013630198 0.0064842748 0.01157189 0.10243576 -0.7130174 0.69362319 0.0017779662
0.016639087 0.0067146299 0.011289723 0.13216922 -0.71914452 0.68217474 0.0015619572
0.019558184 0.0070144525 0.010954527 0.1618956 -0.7103681 0.68495774 0.0014278541
0.022516392 0.00739964 0.010554904 0.17691873 -0.71225971 0.67925394 0.00077305536
0.02538445 0.0078873998 0.01025606 0.18535191 -0.69712132 0.69257969 0.0005397959
0.02835362 0.0081991982 0.0097823581 0.19730012 -0.69774139 0.68864334 0.00048156828
0.031289537 0.0086034592 0.0094454736 0.20665534 -0.68356878 0.70001954 0.00083004043
0.033418443 0.0088410536 0.0091204308 0.24326596 -0.7155984 0.65478289 0.0029127374
-0.036640298 0.011859773 0.0093413498 -0.35010502 -0.77399701 0.52759361 0.00070850225
-0.034376625 0.011374965 0.010043497 -0.32011113 -0.77129155 0.5501256 0.00099702424
-0.031525824 0.010689536 0.010608979 -0.28365609 -0.76758361 0.57476485 0.0012105346
-0.028724186 0.0099152643 0.010912495 -0.26213363 -0.76832193 0.58392417 0.0012650364
-0.025677426 0.0095341634 0.011682048 -0.20806587 -0.70792657 0.67494339 0.0010066699
-0.023443662 0.0090489453 0.011958783 -0.20619854 -0.7074343 0.67603177 0.00083028316
0.023885522 0.009107193 0.011933865 0.18133681 -0.67117918 0.7187736 0.0018207055
0.026004618 0.0093808612 0.011625404 0.18439025 -0.66684347 0.72202504 0.00091443484
0.02872818 0.0098816445 0.011256302 0.19692798 -0.661093 0.72399956 0.00050932361
0.031677771 0.010308605 0.010821267 0.2004429 -0.64117438 0.74075496 0.0005809546
0.034405533 0.010406994 0.010205372 0.21777482 -0.66419142 0.71513909 0.0013903441
0.037333261 0.011005807 0.0098772328 0.25574225 -0.68244755 0.6847344 0.0023516347
0.039968904 0.011591148 0.0094620595 0.30349776 -0.68319803 0.66417581 0.0020057897
-0.042315405 0.014628639 0.0092227291 -0.4404569 -0.73872566 0.51017851 0.00083926076
-0.040363532 0.014354461 0.010258636 -0.38700923 -0.72653389 0.56777835 0.00085757504
-0.037616439 0.013313534 0.010718605 -0.34966052 -0.73832524 0.57672644 0.00075558375
-0.034739744 0.012649528 0.011532118 -0.30421221 -0.71674263 0.62748301 0.00083127734
-0.032714214 0.012056191 0.011776473 -0.28011391 -0.72268653 0.63187057 0.0014797354
0.032744192 0.012140878 0.011917291 0.1992685 -0.58919853 0.78303081 0.0012379072
0.034820966 0.012411598 0.011677064 0.20961806 -0.60970306 0.76440984 0.00026560499
0.037717354 0.012871447 0.011296183 0.22495976 -0.58977938 0.77559876 0.0006597357
0.040629022 0.013368811 0.010759718 0.25607345 -0.60065442 0.75739068 0.00073270185
0.043392409 0.013823203 0.010083384 0.33919007 -0.65784258 0.67245311 0.0024372675
0.04586301 0.01450877 0.0095229624 0.37663022 -0.6629895 0.64698893 0.0027777897
-0.045948882 0.017274685 0.0097628692 -0.47149122 -0.70811951 0.52560705 0.0011505589
-0.043525655 0.016518079 0.010683914 -0.42422441 -0.68741375 0.58948791 0.0013527207
-0.041103303 0.015466562 0.011173294 -0.3818813 -0.68311244 0.62251431 0.00091403245
0.041613746 0.015136799 0.011819152 0.24734907 -0.56767035 0.78521901 0.0004876543
0.043747004 0.015732311 0.011490478 0.28225031 -0.56011426 0.77884966 0.0013840358
0.04661173 0.016328756 0.010767815 0.32726085 -0.57846028 0.74718398 0.0011838446
0.049261812 0.016968781 0.0099546304 0.40576661 -0.64116931 0.65134889 0.0026228095
0.051539063 0.01774564 0.0092642279 0.44788411 -0.64209151 0.62218839 0.0024237195
-0.048624862 0.020459518 0.011302312 -0.45601416 -0.61175156 0.64638311 0.00079263904
-0.046902712 0.019383375 0.011483082 -0.43696025 -0.63895947 0.63308495 0.0011231002
-0.044695821 0.018386014 0.011994834 -0.39307266 -0.62742221 0.67218697 0.00051333947
0.047559626 0.018243643 0.011825749 0.31793436 -0.54090732 0.77867639 0.00092549331
0.049808476 0.018986724 0.01132704 0.36028031 -0.52766544 0.76926416 0.0014450289
0.052437913 0.019572461 0.010324477 0.4222531 -0.58192027 0.69503313 0.0030242971
0.05476214 0.020419963 0.0095467856 0.4850159 -0.59178466 0.64385593 0.0020403871
-0.054883543 0.023893826 0.0096771643 -0.55198884 -0.6245392 0.55250269 0.00096806651
-0.052123372 0.022646643 0.010803846 -0.47837928 -0.58176726 0.65779954 0.00095168763
-0.049975697 0.021649161 0.011535332 -0.45557591 -0.58292449 0.67279232 0.00049468072
0.053138588 0.021690361 0.011520425 0.38677865 -0.4873136 0.782897 0.0013427398
0.05555879 0.022435717 0.01060046 0.44938254 -0.50146812 0.7393139 0.0013204517
0.057793394 0.023197614 0.0096530654 0.5303517 -0.54864782 0.64630699 0.0020586967
-0.057629496 0.026398506 0.0095551722 -0.61454117 -0.56200153 0.55361861 0.001302207
-0.055310115 0.025913462 0.011259736 -0.52804887 -0.52614063 0.6665886 0.0015448129
-0.053320009 0.024336502 0.011505133 -0.49260381 -0.53573775 0.68580341 0.0012036883
0.056309186 0.024641752 0.011607945 0.43056485 -0.43671286 0.78987074 0.0021160108
0.058584452 0.02543221 0.010632783 0.48937443 -0.44039142 0.75270712 0.0012987375
0.060693339 0.026158907 0.0095674628 0.57607609 -0.49504095 0.6504389 0.0019075033
-0.05808045 0.028713662 0.011052521 -0.56558341 -0.4356094 0.700257 0.0017059636
-0.056713421 0.02733192 0.011294755 -0.56678569 -0.53500479 0.62651724 0.00092826562
-0.012091861 0.029825799 0.011988841 0.15238643 0.71393394 0.68343014 0.002425388
-0.010249486 0.02962039 0.011703718 0.17412733 0.69450104 0.69810307 0.0014175789
-0.0073685879 0.029350407 0.011296955 0.14295813 0.72109401 0.67792797 0.0013827337
-0.0042706435 0.029135618 0.01095002 0.11844753 0.74445122 0.65708643 0.0011028559
-0.0014967157 0.028824134 0.010869554 0.089051299 0.75638461 0.6480372 0.0013013285
0.0015908866 0.028615249 0.010787889 0.050702695 0.72814161 0.68354887 0.0021558886
0.0047313734 0.028438948 0.010869946 0.01239727 0.71295035 0.70110494 0.0019735673
0.0074023716 0.028440524 0.010837468 -0.029518669 0.70341861 0.71016264 0.0023174302
0.010372432 0.028629407 0.010806511 -0.074059457 0.72597998 0.68371654 0.0032016041
0.013599185 0.028883938 0.010935813 -0.10877645 0.69969028 0.70611697 0.0019829434
0.016688103 0.029146325 0.011242092 -0.14538264 0.68348753 0.71533811 0.0019265971
0.019303029 0.029539702 0.011469697 -0.16724868 0.69305706 0.70121318 0.0022603704
0.021597182 0.029874703 0.011749513 -0.18354017 0.65047967 0.73701376 0.0017244364
0.05925864 0.027907282 0.011575091 0.46274632 -0.3519429 0.81363511 0.0014308337
0.061497245 0.028542895 0.010375142 0.55144507 -0.38627607 0.73939115 0.002157816
0.0633699 0.02942217 0.0093660513 0.63084161 -0.42064664 0.65199333 0.0019602
-0.060958881 0.031362254 0.010292799 -0.63814491 -0.43245548 0.63698769 0.0024346858
-0.059511758 0.031377427 0.01160467 -0.55198681 -0.34318206 0.75995827 0.0013695055
-0.021110019 0.032784421 0.011783646 0.2684615 0.70602137 0.6553337 0.0029743372
-0.019129245 0.032459531 0.01148505 0.2519764 0.71169728 0.65573984 0.0012200052
-0.016369386 0.032032803 0.010891734 0.23821975 0.74761826 0.61993402 0.0017060675
-0.01348043 0.031373672 0.010625545 0.21019602 0.75406426 0.62225783 0.0020110058
-0.01050188 0.030880362 0.010312989 0.17645442 0.76293993 0.62192172 0.0021596237
-0.0076911533 0.030543318 0.0099758003 0.1462148 0.7751826 0.61458379 0.0014639702
-0.0047567245 0.030348981 0.0095692547 0.11578229 0.77689165 0.61889732 0.0012038475
-0.00097513973 0.030083291 0.0092821857 0.087808639 0.77602208 0.62456328 0.0009652109
0.00051141775 0.030066427 0.0090563856 0.059673026 0.79393876 0.60506225 0.0024292653
0.011072613 0.030063884 0.0092012994 -0.07384257 0.77049494 0.63315469 0.001417739
0.013845738 0.030271128 0.0093902843 -0.11666559 0.76853508 0.62908107 0.0015783036
0.016564026 0.030475788 0.0097517874 -0.16230229 0.72437745 0.6700263 0.0015235898
0.019425867 0.03094182 0.010018592 -0.19382645 0.74323851 0.64033413 0.0024591684
0.022278709 0.031120151 0.0106823 -0.20386791 0.69899279 0.68545383 0.0017166485
0.026108533 0.032027513 0.010975888 -0.22281578 0.66587651 0.71201235 0.0026273595
0.028351741 0.03223867 0.011502907 -0.22290064 0.64722085 0.72898597 0.0021664305
0.030854098 0.032724567 0.011851935 -0.22965363 0.63060367 0.74134886 0.0010942053
0.061939236 0.031270042 0.011315007 0.50834948 -0.29637066 0.80854511 0.0009614334
0.064113669 0.031688266 0.0098958937 0.61992729 -0.34236985 0.7060262 0.0019716399
-0.063395254 0.03448822 0.0097538233 -0.64441699 -0.35688809 0.67628229 0.0032830501
-0.061535519 0.034307484 0.011394531 -0.56396294 -0.26920268 0.7806893 0.0014095911
-0.027739888 0.035692532 0.01164519 0.31086895 0.6906001 0.65301752 0.0012163816
-0.025236599 0.035166223 0.011023372 0.30449927 0.74414253 0.59458572 0.0013803137
-0.022545265 0.034436885 0.010559551 0.28756949 0.75665021 0.58718336 0.001314659
-0.01974057 0.033710711 0.010191791 0.26624662 0.76465261 0.58687234 0.0012414426
-0.017161423 0.033425588 0.0093677146 0.25156614 0.78802305 0.56190228 0.001297332
-0.014988426 0.033033244 0.0090219751 0.24660499 0.79777294 0.5502221 0.0026829201
0.025837213 0.033306208 0.0094227381 -0.23700762 0.74158937 0.62759268 0.0012888182
0.028932029 0.033963796 0.0098559279 -0.25889757 0.71742755 0.64673781 0.0015572901
0.031432714 0.034038026 0.010755155 -0.25274348 0.69706661 0.67098349 0.0023510347
0.034453392 0.034878161 0.011113838 -0.27677119 0.64840168 0.70920599 0.0016341157
0.036947966 0.035666618 0.011461735 -0.28316808 0.60128188 0.74717861 0.0023035596
0.062615022 0.033929251 0.011761254 0.50539196 -0.20541246 0.83808392 0.0022540158
0.064574793 0.034475926 0.010559614 0.58321375 -0.25109488 0.77253681 0.0017503287
0.066382892 0.03512124 0.0093214149 0.67376828 -0.26698074 0.68902659 0.0020118032
-0.063770577 0.037968554 0.010861238 -0.56331408 -0.15921566 0.8107574 0.0017660037
-0.062683508 0.037483271 0.011602897 -0.55717266 -0.17511258 0.81172293 0.0016856578
-0.033784837 0.038523242 0.011580234 0.3241396 0.6825043 0.65507358 0.0016709095
-0.031323418 0.037966117 0.010874446 0.33269978 0.73466563 0.59125072 0.0011210811
-0.028579844 0.037095495 0.010399599 0.32638252 0.73805213 0.59055352 0.0014797747
-0.025949351 0.036481697 0.0096714767 0.32305703 0.76567227 0.55621952 0.00099305983
0.035134636 0.036555484 0.009631224 -0.33085933 0.70630336 0.62583357 0.0015610042
0.037613511 0.037093922 0.010376205 -0.33960551 0.68039954 0.64940321 0.0025056014
0.040491909 0.03763254 0.011345337 -0.30437726 0.56370187 0.7678507 0.0024446892
0.042873785 0.038579118 0.011658652 -0.30853927 0.60117531 0.73715115 0.0026751021
0.062765025 0.036153935 0.011993121 0.50553453 -0.11844033 0.8546384 0.0028344402
0.064704686 0.037403878 0.011167746 0.53247041 -0.12934135 0.83650827 0.0013700617
0.066796795 0.037672602 0.0096770683 0.65649503 -0.17546332 0.73363948 0.0023841551
-0.066528291 0.041448969 0.0094331857 -0.58792293 -0.10337692 0.80228418 0.0050374568
-0.064910866 0.041343667 0.010723219 -0.53363365 -0.050868012 0.84418452 0.0014674829
-0.039925892 0.041554801 0.01148602 0.3159793 0.67597151 0.6657474 0.0013060573
-0.037307866 0.040926185 0.010742065 0.35009611 0.72144115 0.59745741 0.001478613
-0.034646116 0.039966088 0.010337066 0.34437463 0.73456287 0.58465672 0.001336798
-0.032002114 0.03933651 0.0094973277 0.3620863 0.75915909 0.54089838 0.0010429594
0.041064233 0.039727505 0.0096481349 -0.3957991 0.66585523 0.63243961 0.0016466896
0.0436024 0.040319361 0.010477921 -0.35142073 0.63655961 0.68650955 0.0022339723
0.046563059 0.040781088 0.011502409 -0.25979397 0.51504886 0.81684256 0.0012303569
0.049007732 0.041627999 0.011789441 -0.24675742 0.5396958 0.80488461 0.0024830287
0.06489864 0.040425535 0.011372093 0.48815528 -0.024719942 0.8724066 0.0033530376
0.067127258 0.040512685 0.0098588923 0.62378383 -0.074784033 0.77801102 0.0030167163
-0.067035317 0.044591717 0.0094010886 -0.49989349 0.075412005 0.8627975 0.0030486539
-0.064289413 0.043724626 0.011219461 -0.39843875 0.13835749 0.90669936 0.0036474345
-0.062871531 0.044509724 0.011916958 -0.36363664 0.12684125 0.92286491 0.0065035727
-0.048438005 0.044884577 0.011873124 0.2223534 0.61508107 0.75646168 0.0016730083
-0.046180971 0.04450918 0.011446269 0.28343377 0.66450799 0.69144374 0.0013584382
-0.043374069 0.043864496 0.010750484 0.32672471 0.69948906 0.63558316 0.0013475906
-0.040664144 0.043003358 0.010235301 0.34562546 0.71880794 0.60320663 0.0015701292
-0.038345795 0.042417441 0.0095401667 0.37146151 0.7337265 0.56891274 0.00093782105
0.044676043 0.042111725 0.0093522565 -0.37679452 0.66373527 0.64612794 0.001340859
0.046877582 0.042887025 0.0098320572 -0.3647531 0.65091634 0.66578013 0.0023355116
0.049784049 0.043005027 0.011040365 -0.25988433 0.54522908 0.79698521 0.0013575696
0.052762974 0.043900732 0.011453843 -0.17926297 0.46337438 0.86784154 0.0013804431
0.055442195 0.044464897 0.011795161 -0.13125239 0.43184415 0.89234716 0.0019045003
0.057566442 0.044808753 0.011927372 -0.056468315 0.44671547 0.8928923 0.0057610399
0.062419221 0.044557516 0.011885355 0.15755831 0.23748787 0.95852751 0.0049024904
0.064675145 0.043308482 0.011368399 0.43927112 0.075064123 0.89521295 0.0036955602
0.06725698 0.04344416 0.0098911999 0.58360124 0.01917934 0.81181383 0.0037654219
-0.066833779 0.046308547 0.0095760599 -0.48628306 0.073373705 0.87071526 0.0036400887
-0.064110167 0.046714067 0.010942367 -0.3050983 0.27184543 0.9126966 0.0032547778
-0.061373256 0.046994284 0.011731634 -0.16318768 0.36595267 0.91621417 0.0036985104
-0.058279734 0.047688447 0.011780576 0.050816663 0.52496868 0.84960318 0.0024066346
-0.055131782 0.047464523 0.011675104 0.12374623 0.57923758 0.80571127 0.0023479478
-0.052421968 0.047180489 0.011296265 0.20573626 0.61451048 0.76160973 0.0015251958
-0.049388133 0.046637855 0.01071367 0.26961631 0.65826505 0.70284712 0.0014527236
-0.046629846 0.04600922 0.01010936 0.31951463 0.70807642 0.62971282 0.001611894
-0.044278875 0.045390483 0.0095475996 0.36409369 0.71726888 0.59410536 0.0016082277
0.050489411 0.045461927 0.0092783179 -0.36699137 0.6689893 0.64635181 0.0023905537
0.053094074 0.046046827 0.0099843247 -0.28393489 0.58150059 0.76238966 0.0014681955
0.05575183 0.046356753 0.010685009 -0.20346703 0.52177435 0.82846409 0.0016187456
0.05879955 0.046115186 0.011441606 0.0015126633 0.37703496 0.92619783 0.0032607387
0.061638605 0.046350729 0.011395713 0.13489281 0.3216432 0.93720305 0.0049766782
0.064872704 0.046240274 0.010783964 0.37570119 0.19100466 0.90684384 0.0054334132
0.067281194 0.04633975 0.0096553313 0.53947675 0.10987239 0.8348012 0.0050961054
-0.066419363 0.049324535 0.0093770158 -0.2614738 0.3185204 0.91114008 0.0039208909
-0.064283863 0.049359404 0.010118244 -0.19146515 0.39267713 0.89952523 0.0037132446
-0.061247505 0.049970247 0.010340091 -0.0268928 0.52963686 0.84779811 0.0033734906
-0.058360204 0.049640529 0.010515294 0.098629899 0.59274197 0.79933047 0.0026922366
-0.05535017 0.049380045 0.010212114 0.17874868 0.63629764 0.7504493 0.0023149264
-0.05253499 0.048867274 0.009795133 0.26158029 0.68585241 0.67910403 0.0019812998
-0.05035517 0.048335262 0.0094656115 0.31780064 0.68247098 0.65820676 0.0017883043
0.056160945 0.048548419 0.0092049353 -0.24588974 0.58351433 0.77398276 0.0023267362
0.05886044 0.048940156 0.009771863 -0.15417194 0.52391547 0.83770138 0.0031697701
0.061933145 0.049118683 0.010135435 0.076884873 0.36921972 0.92615628 0.0041825492
0.064642631 0.049392536 0.009851194 0.21397869 0.3152715 0.92456317 0.0050714281
0.066796184 0.049057312 0.0093576023 0.44210902 0.23619883 0.86530328 0.0053851986
-0.064264312 0.051454376 0.0091675911 -0.1174259 0.48171505 0.86842489 0.0056443885
-0.061369319 0.051367909 0.0094105257 0.023591967 0.60179436 0.79830253 0.0036503617
-0.058400266 0.051336434 0.0091971327 0.13864094 0.66130626 0.73719245 0.0020589263
-0.056727231 0.05106695 0.0091063976 0.19634569 0.67516285 0.71105802 0.0031619037
0.062502809 0.051170129 0.0090321144 -0.081099451 0.49491858 0.86514652 0.0053636637
0.064578913 0.051200181 0.0091126943 0.17333195 0.36410892 0.91508508 0.0053161336
-0.0037105477 0.0059374706 0.012068681 -0.029671349 -0.71898806 0.69438887 0.00092882803
-0.001236592 0.0059240721 0.012034284 -0.0048318906 -0.67903215 0.73409259 0.0018291639
0.001684443 0.0059329718 0.01208558 0.026880709 -0.67166597 0.74036628 0.0026202763
-0.021604607 0.008875913 0.012279878 -0.18956991 -0.70873421 0.67952859 0.001145451
-0.019827023 0.0085929623 0.012446977 -0.17282672 -0.69478548 0.69814336 0.0012948714
-0.016440602 0.0082358038 0.012828439 -0.13331982 -0.66303533 0.73662072 0.00090326567
-0.013334337 0.0078314096 0.012953965 -0.09507291 -0.66278487 0.74274987 0.0012674477
-0.010320652 0.0078632608 0.013309652 -0.056978162 -0.62522393 0.77836275 0.0011598209
-0.0074986108 0.0077739805 0.013420952 -0.02929152 -0.61517978 0.78784251 0.0015354825
-0.0045579141 0.007555841 0.013348544 -0.017435733 -0.61231977 0.79041791 0.0017806671
-0.0015426758 0.0074384259 0.01328331 0.0077802232 -0.60675764 0.79484886 0.0017446149
0.0014796512 0.0075220293 0.013295302 0.026575856 -0.59592628 0.80259919 0.0019127347
0.0045258864 0.007492871 0.013159953 0.034147207 -0.5940572 0.80369776 0.0021271079
0.0074942922 0.0075784437 0.013051577 0.05530899 -0.57984 0.81285083 0.0022314165
0.010499773 0.0077054473 0.012922247 0.071826659 -0.59196824 0.8027544 0.0019311563
0.01348508 0.0080008944 0.012839871 0.093510717 -0.59750873 0.79639131 0.0018548772
0.016417198 0.0082065072 0.012623589 0.11299039 -0.6132856 0.7817378 0.0019733724
0.019297177 0.0085047483 0.012402301 0.13933441 -0.63316345 0.7613737 0.0022690699
0.021540368 0.0087701986 0.012187724 0.16416514 -0.65963262 0.73344022 0.0020799953
-0.03050128 0.01173721 0.012398478 -0.25852862 -0.68881774 0.67726886 0.00091524306
-0.02836133 0.011390048 0.01278655 -0.23865937 -0.69226974 0.68103176 0.0011454667
-0.02547973 0.010875146 0.013167708 -0.18949188 -0.66561407 0.72183847 0.0011877127
-0.022259116 0.010845048 0.013943123 -0.16130854 -0.62785721 0.76142949 0.0011910221
-0.019571692 0.010288489 0.014048825 -0.13945056 -0.61503017 0.77607447 0.0016335468
-0.016625129 0.0099928575 0.014298718 -0.11036025 -0.58263695 0.80520481 0.0016912682
-0.013515819 0.0097013749 0.014477078 -0.079043277 -0.58538109 0.80689603 0.0013895645
-0.010548895 0.0096552502 0.01466109 -0.049127344 -0.55469966 0.83059901 0.0016071
-0.0074506602 0.0095146894 0.014687134 -0.021258291 -0.5182479 0.85496622 0.0019276483
-0.00442887 0.0095608756 0.014740865 -0.0001095909 -0.49548632 0.86861575 0.0019434595
-0.0015430513 0.0095074335 0.01467938 0.015610004 -0.48113668 0.87650663 0.0020462382
0.0013710395 0.0096908119 0.014703001 0.026512586 -0.46596453 0.88440609 0.0020217048
0.004564309 0.0097353533 0.014596683 0.044308625 -0.46204254 0.88575017 0.0020069857
0.0076199481 0.0099675097 0.014543761 0.056060489 -0.46152559 0.88535374 0.0017574492
0.010568631 0.010086749 0.014406228 0.070525311 -0.45993635 0.8851468 0.0017279091
0.013555171 0.010424893 0.01432505 0.082341395 -0.46072218 0.88371652 0.0014012655
0.016467378 0.010469237 0.014052542 0.094474465 -0.47008073 0.87755275 0.0013588974
0.019494934 0.010439835 0.013663451 0.11635233 -0.48817652 0.86495417 0.0014135303
0.022505717 0.010478104 0.013221258 0.14580873 -0.55388981 0.81972307 0.0023066762
0.025422549 0.010760998 0.012872447 0.16483383 -0.57020622 0.80479479 0.0023770053
0.028489387 0.011246519 0.012537005 0.18417369 -0.60395265 0.77544904 0.0015429485
0.030951235 0.011711274 0.012232579 0.19821535 -0.6053226 0.77090549 0.00054089329
-0.036776971 0.014410821 0.012499527 -0.33300677 -0.6843667 0.64865148 0.00092171994
-0.034370515 0.013933268 0.013085738 -0.28262809 -0.67598659 0.68056118 0.0014941486
-0.031260543 0.013778314 0.014069418 -0.21960263 -0.58705312 0.77919394 0.0010558814
-0.028484289 0.012965707 0.014225856 -0.20527403 -0.62404096 0.75394666 0.0014519665
-0.025635546 0.012561236 0.014645427 -0.17816903 -0.62787133 0.75764996 0.001357776
-0.023699401 0.012297601 0.014875001 -0.16111147 -0.60401452 0.78051877 0.001874552
0.014798009 0.012026128 0.014990839 0.064583056 -0.42444044 0.90314966 0.0015716893
0.017001159 0.012312788 0.01489029 0.084095262 -0.35919723 0.92946512 0.0015619847
0.019679913 0.01261924 0.014750664 0.10177264 -0.37073806 0.92314434 0.0020616692
0.022617677 0.012972551 0.014564274 0.12043704 -0.40188491 0.90773541 0.001887599
0.02556077 0.013339102 0.014338037 0.13358827 -0.43035105 0.89272177 0.001637473
0.028535385 0.013463624 0.013925982 0.15300769 -0.45415241 0.87768692 0.0016999431
0.031591341 0.013306693 0.01319927 0.19081682 -0.52828807 0.82734555 0.0018793085
0.034371171 0.013779737 0.012829194 0.19640499 -0.54612631 0.81435311 0.00077760592
0.037220668 0.014350438 0.012453216 0.21214004 -0.55631202 0.8034386 0.00047303416
0.039540015 0.014765541 0.012144987 0.23821765 -0.56975025 0.78653485 0.00066709175
-0.042725548 0.017386533 0.012317129 -0.39886189 -0.6463722 0.65047079 0.0010126175
-0.0399893 0.016539102 0.01296564 -0.35396403 -0.65042681 0.67205238 0.0012878508
-0.037647791 0.016299231 0.013887077 -0.31094781 -0.6109339 0.72805989 0.0011892603
-0.034133069 0.015373704 0.014488308 -0.22484629 -0.5743081 0.78715593 0.00097179943
-0.032251261 0.015073257 0.014907946 -0.23467562 -0.60954577 0.75721937 0.0010967931
0.026342958 0.015110534 0.014962208 0.10219197 -0.30650964 0.94636595 0.001256533
0.028808448 0.015580716 0.014846494 0.12789178 -0.35224447 0.92712861 0.0017886113
0.03162859 0.015916858 0.0146097 0.14550041 -0.3857668 0.91105086 0.0025722398
0.034599639 0.016336523 0.01431189 0.16333066 -0.4347342 0.88562357 0.0020178056
0.037508965 0.016464513 0.013737832 0.19557561 -0.46273836 0.8646521 0.0012150233
0.040425286 0.016665222 0.013084034 0.22808744 -0.51103085 0.82874823 0.00056652934
0.043286424 0.017115686 0.012556943 0.25799531 -0.51618487 0.81669551 0.0011162024
0.045476545 0.017715462 0.012251753 0.29865637 -0.54357767 0.7844283 0.0014930904
-0.046020836 0.020121345 0.012832073 -0.41324568 -0.5955677 0.68885928 0.00066902139
-0.043386288 0.019453606 0.0137503 -0.3793529 -0.59914172 0.70506775 0.0019568678
-0.040766072 0.018651851 0.014455515 -0.32674137 -0.57901782 0.74697959 0.0011747723
-0.03899404 0.018014511 0.014707874 -0.31719434 -0.58991492 0.7425552 0.00071316818
0.035430089 0.018148806 0.014941061 0.12138955 -0.29983369 0.94623691 0.0025133917
0.03784468 0.018606383 0.014747724 0.17186743 -0.3574056 0.91799933 0.0033243303
0.040648192 0.019216556 0.014413441 0.20865558 -0.40086094 0.89206129 0.001306548
0.043512363 0.019480888 0.013771454 0.23263544 -0.41752344 0.87838197 0.00065895106
0.046550177 0.01951935 0.01289875 0.28313461 -0.47008389 0.83597606 0.0010311868
0.049266864 0.020279016 0.012396395 0.33141071 -0.48971835 0.80643845 0.0017802753
0.051183004 0.020990228 0.012042671 0.38130701 -0.51888508 0.76509035 0.0017785443
-0.05144047 0.023802787 0.012465226 -0.46370888 -0.55187064 0.69311821 0.0015690584
-0.049189482 0.023018455 0.01329003 -0.43567216 -0.55067521 0.71200174 0.00090492383
-0.046763647 0.022305705 0.014161802 -0.40493417 -0.52721953 0.74703932 0.001224407
-0.04458385 0.021490451 0.014755886 -0.38570347 -0.52719134 0.7571671 0.0014770371
-0.0032394736 0.023881534 0.014940132 0.087640457 0.50279182 0.85995322 0.0019658385
-0.00077042158 0.023829734 0.014777535 0.076964855 0.50735354 0.85829413 0.0014041712
0.0018293245 0.02364693 0.014716364 0.050088841 0.47289562 0.87969363 0.0017493417
0.004684912 0.023374405 0.014749818 0.020389689 0.43419024 0.90059036 0.0022557802
0.0073800418 0.023409424 0.014699634 -0.0062715719 0.43329334 0.90123111 0.0023861111
0.010519646 0.023454614 0.014719413 -0.02764976 0.44229263 0.8964445 0.0021622647
0.013464889 0.023429101 0.014854147 -0.048241369 0.39248964 0.91849041 0.0028828054
0.01603749 0.023774287 0.014863865 -0.073038518 0.34087795 0.93726599 0.0029610121
0.018468559 0.023951292 0.014972175 -0.082184248 0.32322061 0.94274825 0.001996547
0.041659147 0.021109764 0.014974166 0.15404722 -0.30287522 0.94049782 0.0018510395
0.043962814 0.02177562 0.014713967 0.21750592 -0.32813615 0.91924852 0.0020558459
0.046593297 0.022404537 0.014239341 0.25407758 -0.36269614 0.89660251 0.00080714107
0.049666274 0.022423955 0.01329971 0.30736899 -0.41341895 0.85709333 0.00071280176
0.052300297 0.022885583 0.012577886 0.35128865 -0.43726945 0.8278839 0.001831096
0.05427834 0.023690976 0.012127512 0.41135764 -0.46179372 0.78583169 0.0020417543
-0.054124683 0.026214007 0.012499642 -0.51799911 -0.52481705 0.67545837 0.00094336929
-0.052243382 0.025667405 0.01333956 -0.46640503 -0.49115518 0.73568529 0.0013505082
-0.049847048 0.025182122 0.014437851 -0.41732508 -0.46502012 0.78076631 0.0011459677
-0.012765167 0.026644859 0.014736737 0.17006707 0.53908938 0.82489991 0.0018811389
-0.010252852 0.026206847 0.01453949 0.1513975 0.52277875 0.83891666 0.0016041438
-0.0075021777 0.02584614 0.014304674 0.1322407 0.54087079 0.83064508 0.0016365768
-0.0044828872 0.025599508 0.014044994 0.10641556 0.54060435 0.83451945 0.0011468484
-0.0015694647 0.025432514 0.013829581 0.073818848 0.55687892 0.82730693 0.00132102
0.0013888301 0.025479337 0.013570864 0.053048313 0.55716783 0.82870376 0.0014503439
0.0043983995 0.025452023 0.013448159 0.025517598 0.56705511 0.82328451 0.0017382579
0.0073995045 0.025332682 0.013523319 -0.011038923 0.55920917 0.82895309 0.0016610168
0.010235246 0.025506278 0.013486668 -0.037541505 0.53943276 0.84119135 0.0016923472
0.013409849 0.025214661 0.013883387 -0.065785117 0.49602371 0.86581337 0.0013340225
0.016530862 0.025305871 0.014126819 -0.093557723 0.45568737 0.88520962 0.0029420769
0.019561943 0.025309861 0.01450883 -0.1101754 0.40709469 0.90671676 0.0029002831
0.022733308 0.025884785 0.014654264 -0.10778452 0.37319815 0.92146927 0.0021221414
0.025263688 0.026418116 0.014729574 -0.11341424 0.35140267 0.92932951 0.0028567591
0.027584048 0.026778288 0.01489458 -0.10077266 0.2914668 0.95125806 0.0023983167
0.04740262 0.024486795 0.014819883 0.2107902 -0.25696522 0.94315231 0.0028202501
0.049670942 0.025313368 0.014443846 0.27292141 -0.30253431 0.91322881 0.0010831264
0.052672815 0.025422655 0.013504134 0.32651967 -0.34842873 0.87862521 0.00062296854
0.055322524 0.025712628 0.012607735 0.38923204 -0.38029659 0.83897144 0.0018659533
0.057253461 0.026727332 0.012165394 0.45274907 -0.403743 0.79499048 0.0020984234
-0.057280086 0.029070117 0.01207198 -0.54570669 -0.46589732 0.69652271 0.00156509
-0.055281598 0.028660744 0.013234516 -0.48308259 -0.41461906 0.77118242 0.0019348194
-0.052935377 0.028140267 0.014414492 -0.44208571 -0.39080092 0.80736297 0.0015556492
-0.021516098 0.029699283 0.01480035 0.22115698 0.56419551 0.7954703 0.0015213963
-0.019285455 0.029243737 0.014493909 0.21296379 0.55578429 0.80358589 0.0016003482
-0.016479205 0.028778447 0.0140824 0.20761034 0.58908087 0.78094918 0.0016346307
-0.013579396 0.028467093 0.01356761 0.18799138 0.60914296 0.77045715 0.0012483303
-0.010589446 0.028144112 0.013153289 0.1595626 0.63822281 0.75313443 0.0020786272
-0.0075945151 0.02790191 0.012757191 0.13767065 0.65324634 0.74452412 0.0012688322
-0.0046016923 0.02761104 0.012532928 0.10949486 0.66351676 0.74010551 0.0015830403
-0.0016509711 0.027386148 0.012344176 0.081267752 0.67993486 0.72875524 0.0015300066
0.0015655236 0.027180823 0.012238906 0.046206973 0.64431399 0.7633639 0.0012990454
0.0045963908 0.027138863 0.01215222 0.021353124 0.62116259 0.7833907 0.0015136248
0.0076073799 0.027160633 0.012090174 -0.019725215 0.63844734 0.7694127 0.00154181
0.010542959 0.027180552 0.012238069 -0.048679739 0.60868269 0.79191899 0.0010635563
0.012997172 0.027396414 0.012295045 -0.072771184 0.59123051 0.80321282 0.0016003159
0.016328944 0.027460633 0.012681433 -0.10888051 0.5628134 0.81938154 0.0018830859
0.019818578 0.027970117 0.012903546 -0.13880011 0.55237395 0.82195956 0.0018389135
0.022538334 0.027859379 0.013502124 -0.13233098 0.45725161 0.87943697 0.0016615012
0.025604153 0.028300608 0.013784406 -0.14234164 0.47034097 0.87092954 0.0025212809
0.028378192 0.028135551 0.014376613 -0.12315127 0.36119011 0.92432427 0.001872859
0.031778291 0.028599385 0.014681197 -0.11522904 0.33809733 0.93403023 0.0017632238
0.034223389 0.029350806 0.014737093 -0.11465719 0.30090734 0.94673574 0.0021879568
0.036884822 0.029771999 0.014919811 -0.12408399 0.31518123 0.94088471 0.0022674683
0.050524339 0.027516855 0.014850372 0.21392958 -0.17388967 0.96124738 0.0031337719
0.052615773 0.028403202 0.014480105 0.28471792 -0.23242001 0.93000901 0.0014292879
0.055570759 0.028378023 0.013456331 0.35023242 -0.27922857 0.89407414 0.00086639577
0.05811185 0.028771313 0.012540897 0.42295098 -0.31427941 0.84990644 0.0019671379
-0.058165301 0.031891275 0.012895352 -0.50363004 -0.28953895 0.81395566 0.0022154038
-0.055596236 0.031796064 0.014456156 -0.40768939 -0.22154456 0.88583708 0.0019332288
-0.028023584 0.032558549 0.014637794 0.25117183 0.59923238 0.76015347 0.0012794259
-0.025276875 0.031925522 0.014210282 0.24935362 0.58213919 0.77390999 0.0015320583
-0.022491505 0.031474419 0.013645886 0.24296847 0.61236012 0.75231731 0.0011032722
-0.019663036 0.031118747 0.013045427 0.23756976 0.65786743 0.71468258 0.0018363332
-0.01669463 0.030607909 0.012584605 0.22286204 0.66774672 0.71024418 0.0012303026
-0.014348788 0.030257083 0.012199516 0.19925369 0.69840997 0.68740201 0.0012990239
0.025883038 0.030493954 0.012335521 -0.18456891 0.60930741 0.77115417 0.0021112943
0.028735373 0.030818861 0.01278524 -0.18961428 0.58013856 0.79214001 0.0026682653
0.031769466 0.031125451 0.013317721 -0.17937626 0.48441544 0.85625106 0.0019774274
0.03498609 0.030999284 0.014076126 -0.1306864 0.35821769 0.9244464 0.0014307699
0.037655625 0.031378035 0.014425053 -0.13396035 0.34382862 0.92942804 0.0012025423
0.040557653 0.031980578 0.014681725 -0.12114739 0.28742456 0.95011073 0.0017912983
0.042912636 0.032568693 0.014804428 -0.10888021 0.2422457 0.96408617 0.001614975
0.045616068 0.032794081 0.014998511 -0.068969987 0.22249053 0.97249222 0.0016623071
0.053326108 0.031118508 0.014791301 0.20814161 -0.10161357 0.97280616 0.0032124545
0.05552261 0.031516135 0.0142517 0.27868828 -0.15532386 0.94773805 0.0022866521
0.058569554 0.031436834 0.01313033 0.37542361 -0.22028524 0.90029526 0.0018230173
0.060600042 0.032014776 0.012352046 0.46818706 -0.26506984 0.84293473 0.0018435701
-0.060489893 0.035265759 0.012574913 -0.54149503 -0.2599017 0.79952127 0.0014736413
-0.058296967 0.034803901 0.013804175 -0.45711121 -0.15312791 0.87612849 0.002920958
-0.056211166 0.033954993 0.014740804 -0.37947088 -0.11673388 0.9178099 0.0025977604
-0.036264267 0.03575965 0.01488675 0.22602054 0.53511655 0.81398094 0.0011192706
-0.034188848 0.035414785 0.014568064 0.2579141 0.58019871 0.77256048 0.0013535987
-0.031336859 0.034724023 0.01408125 0.27265733 0.588368 0.76123661 0.0012596537
-0.028527323 0.034365244 0.013304244 0.28444991 0.6375134 0.71600622 0.0017462099
-0.025565488 0.033702318 0.012780191 0.27611554 0.66441941 0.69448334 0.001324981
-0.023241043 0.033280965 0.01223781 0.26290068 0.67952526 0.68492961 0.0012884379
0.03280545 0.033154666 0.012068703 -0.24513458 0.65833384 0.71169209 0.0029095281
0.035195373 0.033419259 0.012641748 -0.2155159 0.5288384 0.82090372 0.0018925882
0.037707202 0.034126475 0.012927425 -0.22133683 0.4973942 0.83881408 0.0024474822
0.04055541 0.034358323 0.013608461 -0.2001138 0.41375238 0.88812351 0.0023195909
0.043576524 0.033956874 0.014419215 -0.1239671 0.30818528 0.94321471 0.0014605529
0.046453014 0.034697477 0.014582559 -0.10192019 0.27839243 0.95504445 0.0013818216
0.04950875 0.034992367 0.014792366 -0.03430485 0.19914062 0.97937024 0.0019091908
0.05276043 0.034725122 0.014837904 0.071417771 0.09825182 0.99259561 0.0028763774
0.055585153 0.034320299 0.014494519 0.22227229 -0.027940642 0.97458416 0.0039937501
0.058704183 0.034451362 0.013638621 0.34226149 -0.10553615 0.93365902 0.0023837395
0.061289847 0.034621075 0.012604039 0.43139088 -0.15622401 0.88853586 0.0020792242
-0.061463725 0.03823828 0.012625842 -0.46585014 -0.096899413 0.87954199 0.0042138216
-0.057886429 0.037516952 0.014404524 -0.34445652 0.00067688129 0.93880206 0.0042740814
-0.056407861 0.037808571 0.014937067 -0.31635147 0.014828894 0.9485262 0.0041067144
-0.042906404 0.03875782 0.014857113 0.19157933 0.52064371 0.8320021 0.0015953891
-0.040325314 0.038275242 0.0144445 0.23862843 0.55829746 0.79458195 0.0014262612
-0.037355646 0.037575718 0.013979124 0.26678792 0.58447051 0.76630175 0.0010893042
-0.034552142 0.037234977 0.013201339 0.29081637 0.63938916 0.7117635 0.0015619495
-0.031638838 0.0365743 0.012591776 0.30413318 0.66935319 0.6778416 0.0011521957
-0.029762646 0.036142003 0.012120665 0.30725187 0.68024713 0.66547734 0.00063354569
0.041271847 0.036729697 0.012408833 -0.25090092 0.51422793 0.82013315 0.0020475597
0.043694925 0.037000071 0.013017543 -0.19243149 0.42394343 0.88500971 0.0021499279
0.046554051 0.037423797 0.013513239 -0.16539714 0.39387563 0.90416026 0.0018589547
0.049584135 0.037232734 0.014125246 -0.074201718 0.27864122 0.95752454 0.0016012298
0.052607872 0.037367661 0.014332015 -0.006070035 0.22931115 0.97333425 0.0027213048
0.055648606 0.037307218 0.014270107 0.12378186 0.12446213 0.98447311 0.0040618321
0.058609467 0.037346706 0.013786437 0.26855901 0.01940635 0.96306771 0.0039594849
0.061708476 0.037327785 0.012741894 0.38538253 -0.063906528 0.92054129 0.0026914699
0.06333565 0.03820182 0.012092747 0.48326039 -0.098337919 0.86993623 0.0021788387
-0.06099388 0.040458187 0.013059171 -0.37294731 0.069868498 0.92521822 0.0033494118
-0.057617154 0.041020975 0.014262741 -0.15836975 0.26469991 0.95123756 0.003017344
-0.054974452 0.040793467 0.014825435 -0.097922087 0.28150558 0.95455015 0.0030442146
-0.052277703 0.041473836 0.014744703 0.029413661 0.39953926 0.91624403 0.0031838543
-0.049329624 0.041243438 0.014628342 0.11978725 0.45656541 0.881589 0.0022206437
-0.046282075 0.04091043 0.014258668 0.17810497 0.52158362 0.83440346 0.0015077136
-0.043482345 0.040530279 0.013765057 0.22985573 0.56397164 0.79315978 0.0012384423
-0.040732339 0.040305633 0.012997941 0.29078236 0.62275809 0.72637314 0.0014201783
-0.038005501 0.039540708 0.012582676 0.30570221 0.65584952 0.69022286 0.001350092
0.047058433 0.039659165 0.01245524 -0.21259691 0.47006661 0.85664457 0.0020072511
0.04978798 0.040209554 0.012851293 -0.16397007 0.42136046 0.89194685 0.0019697049
0.052782878 0.040051542 0.013449885 -0.064426586 0.31513974 0.94685596 0.0019717312
0.055627666 0.040395819 0.013551508 0.027961347 0.25814393 0.96570176 0.0027733734
0.058740258 0.040371314 0.013412241 0.17220902 0.16220272 0.9716143 0.0039944374
0.061620943 0.040397473 0.012771429 0.2956678 0.076522574 0.95222104 0.0038379554
0.06331607 0.040392503 0.012154344 0.41995126 0.03116693 0.90701139 0.0035879542
-0.061277661 0.04355469 0.012671851 -0.3037194 0.18579428 0.93447042 0.0039527342
-0.058246545 0.04358371 0.013496786 -0.15917194 0.30165616 0.94003606 0.0047197076
-0.055184383 0.043615371 0.013808548 -0.00029185557 0.42063776 0.90722859 0.0032189081
-0.052286804 0.043618463 0.013677112 0.077758558 0.4640305 0.88239974 0.0018799477
-0.04941076 0.043518834 0.013248107 0.1811482 0.54021955 0.82179564 0.0020588166
-0.046673626 0.043121215 0.01281556 0.23420084 0.60557657 0.76054388 0.00188716
-0.044040069 0.042506631 0.012389986 0.28625739 0.64297634 0.71037883 0.0012734132
0.052957676 0.042440057 0.012366451 -0.17732771 0.46306133 0.86840606 0.0020158992
0.055990078 0.042865783 0.012671337 -0.021234993 0.33741933 0.9411149 0.0024121094
0.058548082 0.043304347 0.012624972 0.067692101 0.2803514 0.95750767 0.0038199415
0.061543439 0.043203749 0.012368159 0.21934801 0.19619375 0.95571673 0.0047903238
0.063305989 0.042531233 0.012032709 0.37949467 0.095391549 0.92026311 0.0036623639
-0.060798287 0.045697846 0.0123361 -0.16951048 0.37274683 0.91231894 0.0037535043
-0.058242097 0.046074215 0.012589226 -0.021875897 0.44429553 0.89561319 0.0040239007
-0.055450302 0.046075866 0.012576723 0.081793718 0.52766716 0.84550405 0.0025631841
-0.052631412 0.045611385 0.012516905 0.15459423 0.5588153 0.81475526 0.0027494889
-0.050389674 0.045328777 0.01220508 0.23159802 0.6140995 0.75448269 0.0016190414
0.060183186 0.045030382 0.012033408 0.031659983 0.37901717 0.9248479 0.0087055834
-0.021289289 0.011976123 0.015076688 -0.13167769 -0.59790283 0.79067886 0.00090642343
-0.018900989 0.011697383 0.015201188 -0.11238857 -0.56834835 0.81507611 0.0017422461
-0.016362358 0.011535702 0.015402053 -0.077481627 -0.52143914 0.84976345 0.0015716165
-0.013272919 0.011199656 0.015456435 -0.051617187 -0.49602965 0.86677003 0.0022108501
-0.010352941 0.011165822 0.015578796 -0.021963086 -0.47159865 0.8815397 0.0020101885
-0.0073957304 0.010962747 0.015517302 -0.003512467 -0.45492536 0.89052266 0.0018961657
-0.0044210004 0.01101617 0.015536236 0.011661893 -0.43658286 0.89958841 0.0022532064
-0.001499333 0.01100152 0.015464862 0.025059933 -0.42783728 0.90350825 0.002165169
0.0015218749 0.011064166 0.015386681 0.037591532 -0.41480544 0.90913326 0.0020153173
0.0044834772 0.011230228 0.015313265 0.046002056 -0.41107833 0.9104386 0.0020662455
0.0073630004 0.011418576 0.015237695 0.053180147 -0.41015738 0.91046292 0.0019708942
0.010469485 0.011640845 0.015131599 0.065522879 -0.38313824 0.92136413 0.0021137598
0.012917654 0.011823828 0.015043274 0.072503872 -0.39668399 0.91508746 0.00097301212
-0.030388845 0.014754444 0.015167841 -0.21226864 -0.60379064 0.76836121 0.0011983919
-0.027879633 0.014438718 0.015501437 -0.16740076 -0.54479873 0.82168812 0.0014194668
-0.025393631 0.013890951 0.015615573 -0.14388977 -0.52627897 0.83804905 0.0017240043
-0.022509055 0.013943966 0.016096199 -0.090979181 -0.47284302 0.87643725 0.0029311124
-0.019362191 0.01344212 0.016179278 -0.076835059 -0.43853557 0.89542329 0.0025590819
-0.016454931 0.013576475 0.016481142 -0.044138186 -0.39476141 0.91772282 0.002821028
-0.01346862 0.013554069 0.016576527 -0.019523501 -0.36776879 0.9297123 0.0027534505
-0.01050321 0.013542579 0.016593631 0.0065869158 -0.33499068 0.9421984 0.0027170994
-0.0074955365 0.013491352 0.016531838 0.02349589 -0.30796203 0.95110846 0.0026476351
-0.0045323959 0.013458753 0.016436035 0.032446619 -0.29265764 0.9556666 0.0024993252
-0.0015337005 0.013352694 0.016293641 0.037814148 -0.27835006 0.9597351 0.0024955471
0.0014442817 0.013366309 0.016163487 0.04079821 -0.26562658 0.96321231 0.0021479118
0.0044438923 0.013482372 0.016044959 0.045643535 -0.26533321 0.96307576 0.0017652891
0.0075372211 0.013419921 0.015868135 0.048111338 -0.26463094 0.96314883 0.0014999245
0.010541974 0.013496326 0.015728666 0.054523829 -0.27832758 0.95893741 0.0015769415
0.013463855 0.013516651 0.015553294 0.062561445 -0.28632855 0.95608687 0.0013235154
0.016415998 0.013719531 0.015411829 0.062675953 -0.29380381 0.95380872 0.001411311
0.019363694 0.014015965 0.015278982 0.075648531 -0.31545183 0.94592154 0.0018689933
0.022285743 0.014477569 0.015172059 0.088729888 -0.32732961 0.94073498 0.0014381526
0.024601499 0.014812069 0.015060112 0.10627573 -0.34100381 0.93403524 0.0011982252
-0.036967732 0.017653959 0.015278636 -0.28446075 -0.57070881 0.77030742 0.0019230323
-0.034851663 0.017181667 0.015601791 -0.20195892 -0.48143297 0.85289794 0.0018601473
-0.031459544 0.016691936 0.016138656 -0.18010069 -0.46803156 0.86516488 0.0018072657
-0.028554088 0.016464951 0.016574986 -0.13232355 -0.44638261 0.88500452 0.0021695925
-0.025465408 0.016565412 0.01703891 -0.073415361 -0.34820399 0.9345395 0.0025557037
-0.022428239 0.016543724 0.017276246 -0.047456227 -0.30882493 0.94993424 0.0034971891
-0.019462449 0.01657027 0.017409135 -0.0097400891 -0.27976975 0.96001774 0.0049739145
-0.016493503 0.016449654 0.01739824 -0.0041092196 -0.25812349 0.96610314 0.0046439404
-0.013552727 0.016423859 0.017333232 0.027480913 -0.17483009 0.98421508 0.0049030855
-0.010447408 0.016505143 0.017229892 0.046125267 -0.1531661 0.98712343 0.0043393439
-0.0074837008 0.016510438 0.017079124 0.051525231 -0.13093755 0.99005079 0.0049195997
-0.0042847013 0.016310018 0.016884925 0.052810535 -0.11926216 0.99145734 0.00492397
-0.0013625443 0.016531203 0.016738486 0.047730599 -0.056553937 0.99725795 0.0041535632
0.0017661136 0.016500538 0.016572967 0.038817585 -0.038235597 0.99851447 0.0039601037
0.0046491246 0.016466942 0.016445564 0.041300379 -0.045582503 0.99810642 0.0049426197
0.0074467012 0.016443247 0.016336739 0.035082277 -0.079050981 0.99625307 0.0041962317
0.010466065 0.01648128 0.016226051 0.034226473 -0.091774136 0.99519145 0.0035816154
0.013632587 0.016291363 0.016083196 0.04440828 -0.13511138 0.98983467 0.0026542582
0.016593957 0.016237164 0.015941329 0.044834334 -0.17438458 0.98365641 0.0021131698
0.019482302 0.016302763 0.015800934 0.050367244 -0.18867128 0.98074782 0.0016733704
0.022527184 0.016428877 0.015637422 0.0724262 -0.21891098 0.9730531 0.0011989237
0.025527339 0.016452994 0.015421053 0.083036356 -0.24473973 0.96602654 0.0011893098
0.028367952 0.016888957 0.015293444 0.085972764 -0.27220774 0.95839006 0.0019421488
0.031199481 0.017536897 0.015219194 0.093084998 -0.28439277 0.95417809 0.0013947014
0.033964403 0.017813046 0.015035641 0.12396976 -0.33551261 0.93384302 0.001868612
-0.042292312 0.020573949 0.015195063 -0.35388213 -0.54294384 0.7615639 0.0017375528
-0.039631579 0.020190142 0.015949273 -0.23759118 -0.42099273 0.87539452 0.0031206436
-0.03716366 0.019435236 0.016290551 -0.22618169 -0.44212499 0.86796737 0.0023927842
-0.034606196 0.019664582 0.01701694 -0.16778804 -0.37684813 0.9109515 0.0023436975
-0.031477679 0.019607784 0.017503941 -0.098770559 -0.29375514 0.95076406 0.0026034624
-0.028552631 0.019185783 0.017682785 -0.072711028 -0.26100463 0.96259528 0.0030507247
-0.02564285 0.018927706 0.017787397 -0.022710681 -0.19318493 0.98089945 0.0027269181
-0.022432627 0.019284502 0.017892096 0.00074950757 -0.13767171 0.99047756 0.0035691087
-0.019546548 0.019552441 0.017831489 0.045115788 -0.027693288 0.99859786 0.0033921872
-0.016660279 0.019528126 0.017668853 0.054855172 -0.023893459 0.99820846 0.0038087433
-0.013474713 0.01952948 0.017425336 0.078199953 0.083788209 0.99341041 0.004407384
-0.010369428 0.019507498 0.017167678 0.084726632 0.15477104 0.98431063 0.0041923658
-0.0075142756 0.019492226 0.016922344 0.084487624 0.21065105 0.97390342 0.0036386428
-0.004465153 0.01946391 0.016676767 0.08121556 0.22532327 0.97089314 0.0031908164
-0.0015035828 0.019634603 0.016428189 0.062225759 0.24182326 0.96832305 0.0032890891
0.0014665057 0.019545145 0.016279824 0.045754783 0.23797438 0.97019315 0.0028596458
0.0045694942 0.019530227 0.016152987 0.030690065 0.23145059 0.97236246 0.0025387332
0.0075651128 0.019599963 0.016063593 0.016661983 0.22565717 0.97406429 0.0029040317
0.010518502 0.019387556 0.016065404 0.0099799437 0.17850821 0.98388779 0.0033698729
0.013450613 0.019478437 0.016034944 0.0078368848 0.14627478 0.98921299 0.0033492986
0.016448611 0.019473286 0.016034549 -0.0021953133 0.1132666 0.99356222 0.0038653829
0.019372355 0.019426633 0.0160228 0.009522493 0.039862499 0.99915981 0.0040580514
0.022379104 0.019436656 0.015969805 0.019517994 -0.027540771 0.99943012 0.0035866462
0.025461456 0.019432558 0.015873652 0.031275626 -0.083131395 0.99604768 0.002539108
0.028451825 0.019448377 0.015745359 0.037205171 -0.11788701 0.99232984 0.001973869
0.031547375 0.019267613 0.015559154 0.066951022 -0.19433445 0.97864789 0.001872636
0.03443604 0.019409055 0.015386671 0.089463778 -0.23341873 0.968252 0.0019444529
0.037396349 0.019946024 0.015247844 0.11433592 -0.27306601 0.95517653 0.003629192
0.039779745 0.020580886 0.015125123 0.16094795 -0.31848237 0.93416524 0.0025262993
-0.045810971 0.0233275 0.015350523 -0.35710868 -0.48119205 0.80057961 0.0021968058
-0.043264773 0.022645501 0.01597419 -0.28349614 -0.3966502 0.87309712 0.0024627701
-0.040054984 0.022449842 0.016915875 -0.19137117 -0.2813262 0.94033641 0.0025736422
-0.037460674 0.022715602 0.017567556 -0.16120422 -0.25018132 0.95468456 0.0037927791
-0.034619879 0.022010952 0.017823851 -0.10026868 -0.19782782 0.97509503 0.0034251257
-0.032214653 0.021432362 0.017945582 -0.068266518 -0.14629591 0.98688257 0.0028889806
-0.029603988 0.021118455 0.017983291 -0.038460381 -0.10219263 0.99402088 0.0016401466
-0.024739215 0.023430694 0.017946906 0.085389525 0.11665782 0.98949462 0.0022666624
-0.022362405 0.022661796 0.017840842 0.1024881 0.13733347 0.98520845 0.0032361774
-0.019625749 0.022589805 0.017574063 0.11678699 0.24962787 0.96127343 0.0030587083
-0.016457818 0.022569947 0.017198713 0.11081956 0.28293777 0.95271462 0.003675662
-0.013486341 0.022449629 0.01684818 0.12200028 0.32106572 0.93916601 0.0029392615
-0.010466766 0.022603184 0.016407082 0.11439777 0.33859748 0.9339512 0.0023886105
-0.0075056585 0.02249762 0.016076928 0.10629701 0.35426107 0.92908567 0.0020613214
-0.0046080351 0.022450421 0.015760686 0.089419879 0.37269711 0.92363465 0.0019970895
-0.0015909397 0.022427363 0.015502087 0.055810068 0.38740087 0.92022055 0.001853822
0.0015039742 0.022107577 0.015436802 0.043710344 0.39074221 0.91946179 0.0020194957
0.004468427 0.021918729 0.01540141 0.023710093 0.38978213 0.92060184 0.0022418904
0.0074565103 0.021862738 0.015386962 0.0080750864 0.3803485 0.92480797 0.0022588482
