# .PCD v0.7 - Point Cloud Data file format
VERSION 0.7
FIELDS x y z normal_x normal_y normal_z curvature
SIZE 4 4 4 4 4 4 4
TYPE F F F F F F F
COUNT 1 1 1 1 1 1 1
WIDTH 548
HEIGHT 1
VIEWPOINT 0 0 0 1 0 0 0
POINTS 548
DATA ascii
-0.010556877 -0.040074285 -0.0006774356 0.084088437 0.13422501 -0.98737675 0.0027288839
-0.0075102248 -0.040123403 -0.00055924628 0.06369479 0.1473182 -0.98703611 0.0026961972
-0.0047712368 -0.039691091 -0.00027529657 0.060608272 0.16106887 -0.98508042 0.0015330572
-0.0018119576 -0.039578613 -0.00010586009 0.09961246 0.14574391 -0.98429471 0.0032287447
0.0097114136 -0.039630696 -0.00093945296 0.17660813 0.95381272 -0.24300382 0.0024929971
0.013747722 -0.039859097 -0.00092637155 0.1370327 0.95371836 -0.26766273 0.0025517859
0.016971935 -0.040563278 -0.0017763609 0.18850882 0.95130759 -0.24388167 0.0045149853
0.019669008 -0.041112911 -0.0017857878 0.22851247 0.96447951 -0.13251968 0.003849115
0.021142745 -0.041425269 -0.00088966242 0.26925522 0.96229446 -0.038614269 0.0036290586
-0.036955096 -0.037551194 -0.0021056868 -0.089093387 0.12968327 -0.98754478 0.0096432343
-0.034529548 -0.037758425 -0.0021548988 0.013193902 0.062837772 -0.99793661 0.0048150062
-0.031863622 -0.037400961 -0.0019798018 0.085445695 0.075598821 -0.99347055 0.0036715851
-0.028838228 -0.037651684 -0.001610049 0.078843869 0.11161224 -0.99061918 0.0049113091
-0.025590971 -0.037351191 -0.0013196206 0.072138429 0.12450907 -0.98959255 0.0052115521
-0.022254253 -0.037635811 -0.0010661554 0.079660684 0.13766298 -0.98727047 0.0059561036
-0.019092042 -0.037339322 -0.0007824311 0.092229776 0.13553964 -0.98646981 0.0054156324
-0.016095413 -0.037387781 -0.00053736451 0.088528611 0.11980595 -0.98884231 0.0038287938
-0.0133086 -0.037535682 -0.00033758197 0.095314302 0.089693546 -0.9913981 0.0020951007
-0.010699737 -0.037748337 -0.00015035365 0.084087715 0.13421968 -0.98737746 0.0027292704
-0.0076881386 -0.038698729 -9.1666334e-05 0.063694373 0.14731254 -0.987037 0.0026965367
-0.040289525 -0.0348658 -0.00061633537 -0.11793382 0.011962865 -0.99294937 0.013718963
-0.03631423 -0.034977447 -0.0022978354 -0.098735645 -0.046290491 -0.9940365 0.016639913
-0.034656223 -0.034249444 -0.0022472651 0.074564122 -0.082230799 -0.99382007 0.00080503535
-0.0318003 -0.034506269 -0.0020175145 0.082571439 -0.052187372 -0.9952178 0.00025142729
-0.028514983 -0.034512185 -0.0017195879 0.086498559 -0.013432481 -0.99616146 0.0019628252
-0.025223374 -0.034522962 -0.0014390493 0.084602557 -0.065673105 -0.99424821 8.1756392e-05
-0.022161711 -0.034743607 -0.0011674367 0.086998142 -0.069437407 -0.99378556 8.7233297e-05
-0.019535476 -0.034472242 -0.00096597272 0.084549434 -0.067387238 -0.99413794 9.8868506e-05
-0.016573982 -0.034590676 -0.00068680622 0.084646888 -0.060004141 -0.99460268 0.00012692249
-0.013773704 -0.034441791 -0.00044470228 0.094220802 -0.046117324 -0.99448258 0.00023660467
-0.010890769 -0.034431837 -0.0001744109 0.10298713 -0.040334292 -0.9938646 0.00022624679
-0.0086727822 -0.033530809 -1.4066123e-05 0.094977185 -0.038842436 -0.99472135 0.00020210266
-0.036545303 -0.030571669 -0.002875556 0.13788614 -0.14205661 -0.9802078 0.00039431595
-0.034574788 -0.031501751 -0.0025186716 0.11734453 -0.12335836 -0.9853999 0.000449296
-0.031369228 -0.031587303 -0.0021554925 0.10556414 -0.10189456 -0.9891783 0.00040266727
-0.028387241 -0.031481165 -0.0019409443 0.08163283 -0.084314063 -0.9930898 4.0663352e-05
-0.025809061 -0.031356942 -0.0017631131 0.077269346 -0.084805489 -0.99339694 8.8478764e-06
-0.022906594 -0.031469867 -0.0015369459 0.081822611 -0.084774241 -0.9930349 1.3694041e-05
-0.019565921 -0.031485572 -0.0012404125 0.092465758 -0.076559618 -0.99276817 5.098544e-05
-0.016614614 -0.031517651 -0.00095596636 0.098997019 -0.068992093 -0.99269313 7.2839837e-05
-0.013492089 -0.031517807 -0.00062839454 0.10412522 -0.065700881 -0.99239171 4.8147391e-05
-0.010695825 -0.031539951 -0.00032685488 0.1024735 -0.056417719 -0.99313456 3.4546916e-05
-0.0084587168 -0.031610049 -8.3673651e-05 0.10776924 -0.045179602 -0.9931488 3.4376477e-05
-0.033933297 -0.02897512 -0.0027838682 0.13920139 -0.15584907 -0.97792333 0.00049114693
-0.031622913 -0.028427949 -0.0025298037 0.13757952 -0.14785166 -0.97939354 0.0002340246
-0.028782304 -0.028297892 -0.0022523459 0.097948253 -0.11712504 -0.98827517 0.00032342394
-0.025494963 -0.028607273 -0.0019679645 0.082158394 -0.091803655 -0.99238199 5.3266103e-05
-0.022228459 -0.028527755 -0.0017167398 0.088382982 -0.087570578 -0.9922297 3.863122e-05
-0.019129874 -0.028435046 -0.0014333966 0.097981438 -0.077601701 -0.99215806 1.8173516e-05
-0.015970223 -0.028455043 -0.0011013643 0.11046124 -0.067480519 -0.99158698 2.6939055e-05
-0.013199965 -0.028488094 -0.00077888841 0.11704591 -0.057401929 -0.99146628 3.2313932e-05
-0.010223018 -0.028494615 -0.0004235972 0.11561259 -0.041825406 -0.99241334 3.8814691e-05
-0.0077088038 -0.028354965 -0.00012277844 0.12607016 -0.031833664 -0.99151045 3.4090299e-05
-0.031069955 -0.025956871 -0.002835169 0.14412579 -0.16260123 -0.97610897 0.00018869728
-0.02830114 -0.025587376 -0.002555788 0.10877137 -0.13387541 -0.98501074 0.00021757682
-0.025541827 -0.025481338 -0.0022999463 0.10149556 -0.11808473 -0.98780298 0.00027220673
-0.022563659 -0.025632735 -0.0019961356 0.1045665 -0.10159032 -0.98931557 0.00017554255
-0.019925216 -0.025224248 -0.0017570613 0.10479944 -0.078758746 -0.99136984 5.0262039e-05
-0.016826579 -0.025596365 -0.0013876469 0.11407009 -0.066668384 -0.99123329 4.8139285e-05
-0.013472196 -0.025494017 -0.00097996229 0.12709101 -0.055620953 -0.99033034 3.2123415e-05
-0.010219925 -0.025386542 -0.000560279 0.13125728 -0.040784642 -0.99050903 4.9568742e-05
-0.0072293896 -0.025474237 -0.00015107892 0.13591951 -0.030497625 -0.99025035 4.4481996e-05
-0.027835986 -0.023038853 -0.0028794121 0.138907 -0.15834698 -0.97756386 0.0002605934
-0.025405889 -0.022447107 -0.0026548016 0.11779575 -0.12909485 -0.98461092 0.00018300426
-0.022426941 -0.022499517 -0.0022898093 0.12631351 -0.11328523 -0.98550057 0.00021812048
-0.019476626 -0.022552032 -0.0019308235 0.12727508 -0.089311279 -0.98783833 0.00010945184
-0.016641207 -0.022465421 -0.0015805975 0.12772283 -0.070991844 -0.98926586 8.2318766e-05
-0.013738371 -0.022492452 -0.001182425 0.13516735 -0.056948915 -0.9891848 6.236622e-05
-0.010507753 -0.022563919 -0.00071877881 0.14335294 -0.042246256 -0.98876953 4.1466988e-05
-0.007170931 -0.022441918 -0.00023150939 0.14934124 -0.029202385 -0.98835438 3.887423e-05
-0.025010137 -0.020573618 -0.0028752955 0.14402996 -0.15212213 -0.97781092 0.00019604097
-0.022662682 -0.019461332 -0.0026885199 0.15742907 -0.13801095 -0.97783899 0.00019550377
-0.019342888 -0.019470345 -0.0021970528 0.15039802 -0.10461076 -0.98307526 0.00024920949
-0.01626447 -0.019413231 -0.0017568015 0.15120235 -0.078065395 -0.98541546 0.00011092336
-0.013491574 -0.019440619 -0.0013205361 0.15341978 -0.061381306 -0.98625284 7.2335366e-05
-0.010748348 -0.019467231 -0.00088948873 0.15607952 -0.044685688 -0.98673314 6.0645238e-05
-0.0076768985 -0.019540355 -0.00039375637 0.16168582 -0.028757833 -0.98642319 5.9822927e-05
-0.02150299 -0.016591266 -0.0028787956 0.17577843 -0.12353449 -0.97664797 0.00010702311
-0.019563301 -0.016416535 -0.0025591422 0.18016666 -0.11992286 -0.97629839 0.00016243776
-0.01649148 -0.016645504 -0.002004968 0.16797553 -0.085458942 -0.98207998 0.00011403758
-0.013478943 -0.016327608 -0.0015153227 0.17138942 -0.067843437 -0.98286468 7.7766861e-05
-0.010581485 -0.016416632 -0.0010035669 0.17317604 -0.0500613 -0.98361778 6.4066684e-05
-0.0073348712 -0.016480938 -0.00043461891 0.17299673 -0.036455616 -0.98424745 6.4687199e-05
-0.0049383105 -0.016148571 -1.634324e-05 0.17963667 -0.024917232 -0.98341739 4.6008077e-05
-0.018921107 -0.013609056 -0.0027609558 0.20041737 -0.11648296 -0.97276133 0.00022487841
-0.016533611 -0.01331776 -0.0023188561 0.19198181 -0.094346099 -0.97685307 0.0001651965
-0.013387519 -0.013717815 -0.0016858836 0.18790801 -0.073530927 -0.97943032 8.8698616e-05
-0.010490165 -0.013313304 -0.0011627745 0.18709096 -0.054768976 -0.98081464 7.0584778e-05
-0.0074560838 -0.013537459 -0.0005683045 0.18814149 -0.040946167 -0.98128802 5.9711543e-05
-0.0051380624 -0.013367998 -0.00013177915 0.19015734 -0.028252628 -0.98134702 3.701797e-05
-0.016482709 -0.010483595 -0.0025821647 0.2120731 -0.0960944 -0.97251779 0.00014472305
-0.013453529 -0.010505114 -0.001933284 0.20890248 -0.081164181 -0.97456253 0.00014322269
-0.010416156 -0.010533973 -0.0013056496 0.20348498 -0.059008304 -0.97729832 8.1446582e-05
-0.0075638713 -0.010470631 -0.0007136818 0.20383148 -0.043059826 -0.97805858 6.3729647e-05
-0.0052434965 -0.010513476 -0.00023410023 0.20451817 -0.031256717 -0.97836363 4.2313866e-05
-0.016241001 -0.0077978224 -0.0027958883 0.22581808 -0.093696795 -0.96965307 5.7273355e-05
-0.013643892 -0.0074563846 -0.0022248479 0.22163899 -0.079749756 -0.9718622 9.4152078e-05
-0.010380665 -0.0075882473 -0.0014817753 0.21929072 -0.063506939 -0.97359049 7.566929e-05
-0.0075284587 -0.0073982957 -0.00084778096 0.22051226 -0.048176054 -0.97419381 7.5819546e-05
-0.0050670593 -0.0074521997 -0.00029620383 0.21942401 -0.034042235 -0.97503555 4.989748e-05
-0.015328579 -0.004537758 -0.0029020263 0.24053702 -0.087480761 -0.96668971 3.5882025e-05
-0.013312433 -0.0046791988 -0.0023865437 0.23293468 -0.081808709 -0.96904528 5.563203e-05
-0.010703864 -0.0042330665 -0.0017814537 0.2361533 -0.063207015 -0.9696579 7.1836876e-05
-0.0076233018 -0.0045402148 -0.0010102451 0.23626357 -0.04745131 -0.97052974 7.2828698e-05
-0.0048436257 -0.0045210766 -0.00034538645 0.23464452 -0.035146385 -0.97144562 4.5595454e-05
-0.015020625 -0.0025796054 -0.0029995078 0.2494778 -0.058952093 -0.96658444 0.00016796845
-0.013221141 -0.0015506659 -0.0026046073 0.2499385 -0.056612115 -0.96660537 0.00013195735
-0.010495036 -0.0014464167 -0.0019076007 0.25065827 -0.046005346 -0.96698189 8.6667467e-05
-0.0074428855 -0.0015618681 -0.0011108174 0.24735148 -0.034074686 -0.96832645 5.9721337e-05
-0.0044252458 -0.0013598036 -0.0003401904 0.24920011 -0.024371948 -0.96814531 5.7481167e-05
-0.01314737 0.001566096 -0.0026950748 0.2581124 -0.002681534 -0.96611118 0.00016750656
-0.010419122 0.0014783102 -0.001979342 0.25568992 -0.0037312312 -0.96675164 0.00012088938
-0.0071931756 0.0014491945 -0.0011224097 0.25424835 -0.003805124 -0.9671315 5.660958e-05
-0.0040807058 0.0015149079 -0.00029076153 0.25363174 -0.0030982234 -0.96729589 3.5284454e-05
-0.013274806 0.0046281121 -0.0026481058 0.24938262 0.038062241 -0.96765667 6.5108019e-05
-0.01057212 0.0044677695 -0.0019492072 0.25177923 0.031327721 -0.96727747 3.0066167e-05
-0.0073796832 0.0045087547 -0.001116503 0.25233588 0.024922043 -0.96731871 1.5402196e-05
-0.0042275679 0.004549555 -0.00029343282 0.25149089 0.019272285 -0.96766776 2.8322649e-05
-0.015327114 0.0078779282 -0.0029709497 0.24414292 0.06618081 -0.96747833 6.0805858e-05
-0.013452995 0.0076598166 -0.0025330561 0.23909944 0.057138413 -0.96931249 5.8213576e-05
-0.010726902 0.0074139563 -0.0018764407 0.2423916 0.047822826 -0.96899909 3.9373812e-05
-0.0075903181 0.0075017535 -0.001067038 0.24584921 0.037955143 -0.96856469 3.2232663e-05
-0.0049429187 0.0075181918 -0.00038276971 0.23939592 0.028030206 -0.97051734 4.2768163e-05
-0.015727598 0.010284705 -0.0028715401 0.22971956 0.08602418 -0.96944761 5.7773446e-05
-0.01344328 0.010459688 -0.0023359056 0.22443579 0.076487727 -0.97148246 8.5230778e-05
-0.010370043 0.010729033 -0.0015950868 0.23006956 0.06144141 -0.97123265 6.5715954e-05
-0.0077636237 0.010348924 -0.00098597561 0.23263144 0.046972401 -0.97142994 8.2711413e-05
-0.0051599052 0.010541498 -0.00035560195 0.23002616 0.032998119 -0.97262484 6.6263106e-05
-0.016359108 0.013773512 -0.0026643563 0.20618933 0.10467189 -0.97289759 7.8371238e-05
-0.013539477 0.013288682 -0.0021074228 0.20927781 0.086998962 -0.9739784 0.0001111926
-0.010499833 0.013603619 -0.0014235957 0.21389066 0.068026781 -0.97448611 9.1837021e-05
-0.0076178722 0.013449833 -0.00078895979 0.21341842 0.048739463 -0.97574431 0.00011955742
-0.0053475285 0.013597342 -0.0002841969 0.21220054 0.032686494 -0.97667933 0.00010689816
-0.018634459 0.016813608 -0.0027872904 0.19709259 0.1272599 -0.97209024 8.0776706e-05
-0.016577028 0.016451044 -0.0024022767 0.19507493 0.11371679 -0.97417361 9.5511525e-05
-0.01348537 0.016561326 -0.0018047924 0.19334379 0.09795031 -0.97622949 8.58618e-05
-0.010493689 0.016473252 -0.001223165 0.19110678 0.079302035 -0.97836053 0.00016785963
-0.0073637408 0.016479587 -0.00058187917 0.18801524 0.056738973 -0.98052585 0.00021298132
-0.0049084853 0.016381487 -0.00013025229 0.18929391 0.035426121 -0.98128122 0.00010490993
-0.02198514 0.020053772 -0.0029722869 0.16783699 0.15066212 -0.97423387 8.0195212e-05
-0.019645005 0.019669933 -0.0025850015 0.17660545 0.13987051 -0.97429293 7.877202e-05
-0.016454155 0.019342227 -0.0020301091 0.18148445 0.12200437 -0.97579628 0.00010651939
-0.013533859 0.019552771 -0.0014658601 0.17328994 0.09988378 -0.97979271 9.5091978e-05
-0.010585736 0.019640941 -0.00093322474 0.17090841 0.080419876 -0.98199946 0.00017352859
-0.0073985285 0.019283393 -0.00043499935 0.16881415 0.060581081 -0.98378432 0.00015980717
-0.005177733 0.019313486 -6.036245e-05 0.1702498 0.043791045 -0.98442745 4.9861177e-05
-0.024551665 0.022986712 -0.0028841989 0.15244751 0.15714708 -0.97573793 7.2838113e-05
-0.022258196 0.022513848 -0.0026106739 0.15306106 0.14215182 -0.97793925 7.2263123e-05
-0.019551083 0.02238933 -0.0021963634 0.16260001 0.1284897 -0.9782902 0.00010418562
-0.016745295 0.022571409 -0.0016979638 0.16262016 0.11078065 -0.98045009 8.3971114e-05
-0.013416786 0.022403417 -0.0011707415 0.15776613 0.096484587 -0.98275155 0.00011944773
-0.010162571 0.022377912 -0.00067264668 0.15068838 0.072904348 -0.98588943 0.00010422858
-0.0074864076 0.022397423 -0.00027321381 0.15152721 0.051780898 -0.98709583 2.9961397e-05
-0.0053584753 0.021369899 -1.3718062e-05 0.15718655 0.044300381 -0.98657483 8.8679561e-05
-0.027983245 0.026318472 -0.002813257 0.12829922 0.17326285 -0.97648311 8.210192e-05
-0.025452005 0.02563086 -0.0025857505 0.12963673 0.15411773 -0.9795112 7.4153919e-05
-0.022447594 0.025594784 -0.0022078373 0.13535103 0.14169984 -0.98061275 0.00011219915
-0.019329291 0.025298841 -0.001791331 0.14222004 0.12456417 -0.98196602 0.00011738417
-0.016278293 0.025444338 -0.0013068968 0.14324754 0.10048299 -0.98457271 0.00015806145
-0.01351622 0.025443394 -0.00090371165 0.13755755 0.078480281 -0.98737973 0.00012759709
-0.010693974 0.025420344 -0.00053080922 0.13513997 0.062546566 -0.98885041 6.9194401e-05
-0.0078815175 0.025392368 -0.0001682658 0.13617656 0.047999404 -0.98952109 8.4183695e-05
-0.033490326 0.029474357 -0.0029295292 0.10541779 0.18875431 -0.97634977 0.00020068443
-0.031133033 0.028859003 -0.002745036 0.11675966 0.17172682 -0.97820097 9.0880952e-05
-0.028423579 0.028675865 -0.0024639834 0.11405516 0.15599704 -0.98115057 0.00010502601
-0.025629098 0.028521532 -0.0021666067 0.11628726 0.14425977 -0.9826833 0.00014204638
-0.022897121 0.02837747 -0.0018633064 0.11512922 0.12347902 -0.98564601 9.7612596e-05
-0.019822702 0.028603682 -0.0014594514 0.12038746 0.10447966 -0.98721367 0.00014123858
-0.016884997 0.028451929 -0.001115742 0.12098797 0.088496216 -0.98870128 0.00018255899
-0.01399416 0.028500915 -0.00078011991 0.11960718 0.063619405 -0.99078083 8.285189e-05
-0.010905293 0.028534193 -0.00040138327 0.11717822 0.048120916 -0.99194437 5.0036389e-05
-0.0082653435 0.027935671 -0.00010724379 0.12255341 0.035289317 -0.99183434 9.1358255e-05
-0.036750358 0.032376207 -0.0026896354 0.095679559 0.12496272 -0.98753721 0.00086777983
-0.034643497 0.03151045 -0.0027100125 0.091411732 0.15405509 -0.98382461 0.00030049792
-0.031745669 0.031330898 -0.0024159255 0.11437401 0.15129948 -0.98184884 0.00014896106
-0.028756063 0.031506583 -0.002085048 0.1038738 0.12662542 -0.98649693 8.5620428e-05
-0.025619959 0.031546369 -0.0017648273 0.10590762 0.1247545 -0.98651904 0.00016047721
-0.022330815 0.031575173 -0.0014344217 0.10379645 0.092414826 -0.99029583 0.00022077371
-0.019196931 0.031464558 -0.001108804 0.10825036 0.08720763 -0.99029118 0.00010343944
-0.016031813 0.031504571 -0.00077453855 0.10588162 0.069862954 -0.99192148 0.00010885441
-0.013035528 0.031540386 -0.00047310774 0.10184714 0.055119745 -0.99327183 8.406704e-05
-0.010022508 0.031434108 -0.00015679843 0.10189182 0.037153624 -0.99410146 3.2144544e-05
-0.03464555 0.034552354 -0.0023101559 0.075711377 0.11348744 -0.99065042 0.001026261
-0.031272009 0.034399189 -0.0019933747 0.10928881 0.091556847 -0.98978454 0.00046868334
-0.028328329 0.034701519 -0.0016872711 0.10106512 0.07705266 -0.99189144 0.0002024624
-0.025409102 0.034633711 -0.0014270572 0.094163887 0.075985931 -0.99265265 0.00013454584
-0.022968438 0.034358289 -0.0012276657 0.087376505 0.064092875 -0.99411136 0.00014994462
-0.019969679 0.034481816 -0.00093908567 0.087869115 0.054802898 -0.99462336 0.00011407012
-0.016608167 0.03445489 -0.0006568972 0.09213569 0.052753329 -0.99434805 0.00013009529
-0.013329703 0.034438852 -0.00036730259 0.094480127 0.029278094 -0.99509615 0.00011138479
-0.010510618 0.034271318 -9.9710887e-05 0.097064845 0.025667729 -0.99494702 8.743081e-05
-0.036654919 0.037645347 -0.0021324956 0.0089092925 -0.0066617061 -0.99993813 0.0058696596
-0.034227982 0.037678629 -0.0021699627 0.0030625919 -0.066491626 -0.99778235 0.0042923177
-0.031727556 0.037540469 -0.0019517784 0.089119345 -0.056259219 -0.99443084 0.0029482341
-0.028632963 0.037601747 -0.001544725 0.08730682 -0.085051104 -0.99254411 0.0040476224
-0.025186056 0.03769397 -0.0012784606 0.07767494 -0.10220028 -0.9917267 0.004735413
-0.021964205 0.037363093 -0.00099656323 0.10154101 -0.057208795 -0.99318498 0.0013670734
-0.019568225 0.037683845 -0.00081960938 0.091207065 -0.1183926 -0.98876917 0.0056623435
-0.0169199 0.037515156 -0.00058218546 0.069982305 -0.060516525 -0.99571091 0.0012179373
-0.013725797 0.03746986 -0.00032628569 0.081486352 -0.075578213 -0.99380475 0.0017211108
-0.010550544 0.037885327 -0.00010189244 0.0815451 -0.096648507 -0.99197251 0.0024375969
-0.043501388 0.041544218 -0.0012556724 -0.15099058 -0.77278006 -0.6164518 0.0036828185
-0.040633842 0.041413866 -0.0020261849 -0.23727213 -0.5044046 -0.83022767 0.025782101
-0.037370827 0.040812019 -0.0021705972 -0.064119183 -0.3673639 -0.92786443 0.03479325
-0.034255553 0.040862586 -0.0022888321 0.0074472013 -0.25791764 -0.96613818 0.02150494
-0.03128916 0.040521048 -0.0020985471 0.066273198 -0.29226524 -0.9540382 0.018194804
-0.028381517 0.040560946 -0.0019403534 0.074165262 -0.29744959 -0.9518525 0.010445031
-0.025713488 0.040756226 -0.0018223049 0.11526032 -0.35963723 -0.92594606 0.0089341179
-0.022531124 0.040595051 -0.0015304739 0.07045462 -0.30465105 -0.94985461 0.0054283524
-0.019516248 0.040508606 -0.0012467663 0.082619838 -0.30524895 -0.94868177 0.0049515259
-0.016526205 0.040516686 -0.0010102175 0.069748811 -0.31221324 -0.94744813 0.0042661414
-0.013366958 0.040472362 -0.00077493739 0.061027896 -0.33616307 -0.93982446 0.004912226
-0.010542791 0.040717959 -0.0007177206 0.043682437 -0.30805963 -0.95036376 0.0036966475
-0.0075784326 0.04047519 -0.00050846761 0.056825876 -0.34837294 -0.93563193 0.0061617536
-0.0043685413 0.040852293 -0.0005654167 0.034046587 -0.4245477 -0.90476519 0.0064274361
-0.0012520481 0.041134614 -0.00070306321 0.025941426 -0.57694763 -0.81636906 0.009132646
0.0016060816 0.041028589 -0.0006763257 -0.048009563 -0.63756335 -0.76890063 0.010062229
0.0046859081 0.041100733 -0.0013881961 -0.11086535 -0.79778445 -0.59266245 0.0038371398
0.0075958706 0.040665891 -0.0014267899 -0.059721958 -0.8684957 -0.49208578 0.0020387694
0.010417821 0.04051524 -0.001589031 -0.0011051928 -0.90643781 -0.4223378 0.0039689532
0.01338828 0.040575985 -0.0015587307 0.08699324 -0.93900847 -0.3327091 0.0039385254
0.016469711 0.040927436 -0.0014428461 0.17514561 -0.95698798 -0.23129658 0.0039927424
0.019392805 0.041542243 -0.0014419548 0.25179356 -0.95995694 -0.12281146 0.0042410307
-0.049577098 0.043942481 -0.0016975963 -0.19194423 -0.90053654 -0.39011714 0.0096797217
-0.042988647 0.042278651 -0.002346342 -0.15095499 -0.7727409 -0.61650968 0.0036919294
-0.040915374 0.042377707 -0.0025866134 -0.11365893 -0.83274943 -0.54185802 0.010064174
-0.037975773 0.042263243 -0.0027472917 -0.047472995 -0.79340565 -0.6068393 0.012146639
-0.034735367 0.042273436 -0.0028938774 0.0060788747 -0.71807379 -0.69594049 0.011690087
-0.031445298 0.042283535 -0.0027544599 0.059396226 -0.66545093 -0.7440747 0.011374879
-0.028522598 0.042570341 -0.002734039 0.078216299 -0.60624433 -0.79142272 0.0075441776
-0.025198141 0.042631548 -0.0025879063 0.079713978 -0.56312442 -0.82251841 0.0059290188
-0.022321766 0.042889141 -0.0025001292 0.084510893 -0.53111583 -0.84307402 0.0046906038
-0.019383313 0.043092538 -0.0023268815 0.081145108 -0.50152361 -0.86133009 0.003575447
-0.016332237 0.043292876 -0.0021735141 0.059652507 -0.49485987 -0.8669228 0.0029820115
-0.013549387 0.043574777 -0.0021736852 0.034648541 -0.50311673 -0.86352354 0.002744413
-0.01050295 0.043392733 -0.002039762 0.0057814908 -0.52692276 -0.84989351 0.0027911637
-0.0075673759 0.043254565 -0.0020033785 -0.027789604 -0.57167 -0.82001287 0.0029789296
-0.0048290952 0.043253958 -0.0021779153 -0.04639031 -0.62606525 -0.77838957 0.003702064
-0.0015366449 0.042924359 -0.0021860315 -0.08617495 -0.70221394 -0.70673156 0.0037352282
0.0011810632 0.042665452 -0.0023009791 -0.15015914 -0.75448233 -0.63891202 0.0023215986
0.0035705869 0.042272773 -0.0027131611 -0.16817194 -0.80280626 -0.57203168 0.00082296017
0.020774063 0.042039979 -0.0027649361 0.17108913 -0.96918368 -0.177233 0.0034290212
0.022443194 0.042384304 -0.0015413376 0.25552961 -0.96396255 -0.074032545 0.0022309555
0.025466178 0.043420773 -0.0014332553 0.33693242 -0.94016021 0.050747775 0.002551096
0.02821188 0.044490993 -0.0016034971 0.36928931 -0.91833663 0.14241911 0.0028975387
0.029645901 0.045253687 -0.0010907159 0.43963137 -0.85738915 0.26759681 0.0056872484
0.031533178 0.046081215 -0.0014806285 0.4288086 -0.85665172 0.28682914 0.0055300212
0.034123089 0.047350418 -0.0017601812 0.47120509 -0.80141759 0.36836901 0.004679943
0.035415217 0.048518162 -0.0010122247 0.49534237 -0.76042616 0.41998565 0.0028972593
0.037415951 0.049544375 -0.0015969716 0.52428287 -0.69926274 0.48596212 0.0050998288
0.039481957 0.050512299 -0.0024110971 0.58549821 -0.63016242 0.50998735 0.0029689746
0.038518406 0.051464334 -0.0003795129 0.56635511 -0.56335902 0.60155505 0.0024906746
0.040524371 0.052463174 -0.0015050137 0.66208029 -0.47065756 0.58320767 0.0029484816
0.042290568 0.053528029 -0.0025944943 0.67936093 -0.45934957 0.57224703 0.0032059692
0.04139851 0.054880727 -0.0007037688 0.65508753 -0.26714486 0.70674884 0.0028121043
0.042913988 0.055675671 -0.0019844086 0.73951328 -0.31564718 0.59454763 0.0041783997
0.041816045 0.058504969 -8.7073793e-05 0.67047632 -0.084256582 0.73713112 0.0028129562
0.043477055 0.058492549 -0.0017130323 0.75313652 -0.13610648 0.64363068 0.003899653
0.041721828 0.06069731 -4.9848371e-05 0.62795347 0.073472902 0.77477491 0.00093427417
0.043446802 0.061457496 -0.0016960583 0.69694978 0.051396463 0.71527576 0.001565468
0.041604467 0.06446889 -0.00054407027 0.64109772 0.13783382 0.75498056 0.00029323687
0.043279417 0.064436898 -0.0019788016 0.68424076 0.14016359 0.71565968 0.001333571
0.041137602 0.067520387 -0.00079083408 0.61471909 0.17436285 0.76923209 0.00032616674
0.042868629 0.067172937 -0.0022160683 0.68097627 0.19367117 0.70623136 0.0011387359
0.040541243 0.070755355 -0.001160362 0.6273706 0.23894341 0.74115598 0.00095917948
0.042339273 0.070081025 -0.0025356426 0.67993766 0.24879788 0.68977123 0.0010802035
0.038591456 0.073202461 -0.00035544648 0.57220864 0.3258357 0.75260109 0.0022298822
0.040489249 0.07324186 -0.0020111701 0.637218 0.37600544 0.67273563 0.0026993705
0.037682176 0.076409608 -0.0017029131 0.4812865 0.58739221 0.65064096 0.0059240656
0.039469108 0.075396076 -0.002279236 0.58892941 0.51679039 0.62136126 0.0043049036
0.031983741 -0.075390294 0.0019973377 0.3587274 -0.56759322 0.74104834 0.0020983836
0.03462553 -0.075662434 0.00052375556 0.426274 -0.55935466 0.71092397 0.0021030884
0.032239337 -0.074164346 0.0027015931 0.45573515 -0.39280647 0.79875433 0.0022738434
0.034365416 -0.073354706 0.0020027838 0.47404945 -0.39237866 0.78823608 0.0029654836
0.03677858 -0.073325373 0.00061463373 0.49861786 -0.40740857 0.76511335 0.0028448401
0.035196126 -0.070586778 0.0024658493 0.48721617 -0.24760094 0.83744502 0.0011453961
0.037593655 -0.070597246 0.00094576593 0.54205698 -0.23212615 0.80764574 0.00045625097
0.035733543 -0.068593249 0.0026061977 0.51475775 -0.18775819 0.83652341 0.00069974078
0.037601255 -0.067607462 0.0016114146 0.53692448 -0.16192813 0.8279441 0.00026836639
0.039595403 -0.067082748 0.00036808415 0.5789147 -0.17861366 0.79558468 0.00047792358
0.037543226 -0.064290442 0.0022353993 0.53591377 -0.13044569 0.83413452 0.00017801889
0.039828796 -0.064348847 0.00074103865 0.58340573 -0.13723078 0.80050331 0.00041417975
0.037923735 -0.061326087 0.0024215614 0.54792649 -0.096402973 0.83095312 0.00025556728
0.040210836 -0.061444741 0.00088211527 0.58237815 -0.09700349 0.80710965 0.00072151836
0.038745537 -0.058427274 0.0021571659 0.58208722 0.018974382 0.81290489 0.0021210911
0.040832646 -0.058554541 0.00068472914 0.62661839 0.027300581 0.77884787 0.0022826674
0.03799466 -0.055190422 0.0022890884 0.55954021 0.21793471 0.7996369 0.0023942213
0.040109258 -0.055778284 0.00088166038 0.61406583 0.23737989 0.75271106 0.0033555683
0.035462581 -0.051565628 0.0025767896 0.5996685 0.44445372 0.66547626 0.0058667264
0.037465863 -0.052404974 0.0014806272 0.58372229 0.42867029 0.68957233 0.0043975161
0.03948316 -0.05347012 0.00049929798 0.60521609 0.41235262 0.68093973 0.0017601985
0.03205302 -0.048323989 0.0028353767 0.53574014 0.64614469 0.54358041 0.0017464795
0.034398276 -0.049290597 0.0016133438 0.54023063 0.63419622 0.55312383 0.0025813559
0.036662877 -0.050201349 0.00052418769 0.53658581 0.61305827 0.57985795 0.0021744038
0.029087158 -0.045433301 0.0016854567 0.49165964 0.7865842 0.3735722 0.0023774565
0.031411573 -0.046800289 0.0013767167 0.52344418 0.70311666 0.48128295 0.0023347803
0.033509444 -0.047489576 0.00024624809 0.50431561 0.72639126 0.46692777 0.0012212727
0.023179768 -0.042312086 0.0014421716 0.40970156 0.89633447 0.16949672 0.0032137225
0.025373187 -0.043414239 0.0017088195 0.43502891 0.86539668 0.24867317 0.0044713896
0.02771564 -0.044407699 0.0010624112 0.45838803 0.82904035 0.32026964 0.0024004295
0.0008084802 -0.039255287 0.00024578965 0.20528021 0.19039583 -0.96000487 0.0088167498
0.013477247 -0.039091915 0.0020497409 0.19549346 0.9633925 -0.18345897 0.0052856174
0.016237842 -0.039891966 0.0011861109 0.27683112 0.95965755 -0.049212996 0.0036439623
0.019531179 -0.040901508 0.0016802282 0.31015342 0.95068651 -0.00013255478 0.0023239097
0.021801375 -0.041761231 0.001520474 0.3669931 0.92583615 0.090241656 0.0034177511
-0.0090122931 -0.03654661 9.6229596e-05 0.078871079 0.088927314 -0.9929105 0.004416734
-0.0077211573 -0.037295971 0.00013214997 0.042149805 0.12339626 -0.99146193 0.0026020911
-0.0048839324 -0.037469294 0.0003220044 0.066154107 0.13663821 -0.98840976 0.0026117929
-0.001644859 -0.037360642 0.00057849142 0.18708691 0.15796177 -0.96956003 0.006696797
0.0016456606 -0.037337098 0.0012306384 0.42379737 0.21629396 -0.8795526 0.026398094
0.0037059481 -0.037660256 0.0021259794 0.40412962 0.50610548 -0.76192945 0.051535055
0.0077733272 -0.038210284 0.0022490385 0.31773356 0.89994359 -0.2985746 0.023679674
0.010814388 -0.038682591 0.0016803633 0.17660926 0.95381349 -0.24299978 0.0024937659
-0.0090171248 -0.03599168 9.5589821e-05 0.082749829 0.017999133 -0.99640781 0.00088729634
-0.007881755 -0.034644242 0.0001184077 0.080258146 -0.0069486573 -0.99674994 0.0012022285
-0.0050326991 -0.034554355 0.00038296561 0.083052985 -0.010478322 -0.99649006 0.00027854828
-0.0015651709 -0.034586523 0.00071823271 0.16853815 0.069925398 -0.9832117 0.0035966574
0.0020919011 -0.034542914 0.0016395304 0.59688282 0.11761893 -0.79366022 0.067936927
0.0033768888 -0.0346382 0.0026623269 0.82292271 0.11581951 -0.55622298 0.039628014
-0.0070204432 -0.031475998 7.1113005e-05 0.10946689 -0.034755409 -0.99338263 3.3353746e-05
-0.0049666213 -0.031556074 0.00030200699 0.10974026 -0.034793843 -0.99335116 2.859425e-05
-0.0013458274 -0.031576019 0.00071425823 0.27445239 -0.015417944 -0.9614771 0.019996129
0.0020833982 -0.031552292 0.0016369087 0.55709976 -0.0020031475 -0.8304432 0.047302283
0.0033747281 -0.031382937 0.0026592331 0.92256176 -0.0016012072 -0.38584623 0.025124755
-0.0068702879 -0.029275037 1.9422137e-05 0.11814401 -0.030921146 -0.99251491 4.223354e-05
-0.0046880674 -0.028523516 0.00026243835 0.12622468 -0.020150149 -0.99179697 6.0628936e-05
-0.0014805452 -0.028567336 0.00067766546 0.28620851 -0.012120347 -0.95809066 0.019837555
0.0020744097 -0.028553965 0.0016344251 0.54666644 -0.0042794896 -0.83733958 0.047961213
0.0033724927 -0.028391372 0.0026564563 0.92351329 -0.0048119961 -0.38353631 0.025786495
-0.0046887053 -0.025505703 0.0002010374 0.13740665 -0.020540111 -0.99030167 5.716526e-05
-0.0013046869 -0.02553994 0.00068677525 0.29893306 -0.010683835 -0.95421427 0.019547181
0.0020690048 -0.025548875 0.0016308402 0.56563437 -0.0042638853 -0.8246451 0.047337119
0.0033710229 -0.025392339 0.00265343 0.9212712 -0.0049587749 -0.38888928 0.025618039
-0.0044644568 -0.022456691 0.00017753757 0.15178595 -0.01681296 -0.98827034 3.5265155e-05
-0.001435602 -0.022515766 0.00064884481 0.30701378 -0.0098840371 -0.95165372 0.019442512
0.0020666826 -0.022536548 0.0016263142 0.5556134 -0.0015745307 -0.83143926 0.048152305
0.0033688303 -0.022386055 0.0026506116 0.92280447 -0.0016347683 -0.38526514 0.026274588
-0.0044910368 -0.019422291 0.00012364761 0.16308573 -0.017453842 -0.98645753 4.2046773e-05
-0.0012611924 -0.019475861 0.00065850513 0.32013625 -0.012654447 -0.94728702 0.019730097
0.0020627864 -0.019516803 0.0016222484 0.57365847 0.0017551997 -0.81909275 0.0479321
0.0033663507 -0.019646475 0.0026482067 0.92370737 -0.0001477585 -0.38309872 0.026112186
-0.0039397851 -0.01674266 0.00017064907 0.17193261 -0.017600045 -0.9849515 5.0015369e-05
-0.001390173 -0.016435914 0.0006197741 0.22989987 -0.011605181 -0.97314507 0.00057349802
0.002105528 -0.016554868 0.0016413766 0.56514019 0.0059791547 -0.82497323 0.046704333
0.0033634591 -0.016625697 0.0026456015 0.92151433 0.006857038 -0.38828373 0.025533246
-0.0036371974 -0.013530406 0.00016754433 0.18978523 -0.01816126 -0.98165762 3.6587899e-05
-0.0012165302 -0.013475418 0.0006320799 0.2344683 -0.013006899 -0.97203672 0.00059901574
0.0020069135 -0.013527902 0.0015880178 0.58283758 0.0055731628 -0.81256956 0.04599515
0.0033611562 -0.013597776 0.0026427987 0.92319256 0.0047092503 -0.3843089 0.025144733
-0.0035286192 -0.01047365 0.00012620675 0.20342243 -0.020617913 -0.97887397 3.6211e-05
-0.0012494406 -0.010515867 0.00059865671 0.25074574 -0.011265899 -0.96798742 0.00043313883
0.0020989308 -0.010478755 0.0016329156 0.5851 0.0050720726 -0.81094527 0.045272239
0.0033584749 -0.010562077 0.0026400955 0.91903567 0.0051550828 -0.39414078 0.025319509
-0.0034040718 -0.0074135009 8.0147198e-05 0.21901585 -0.022453563 -0.97546291 4.5419642e-05
-0.0012640656 -0.0075518605 0.0005594783 0.26498181 -0.012087257 -0.96417767 0.00039811211
0.0019962229 -0.0074350564 0.001580579 0.58628809 0.0019237507 -0.81010032 0.046271447
0.0033561524 -0.0075191483 0.0026372874 0.92220169 0.0032843465 -0.38669524 0.025907289
-0.0032793588 -0.0043478105 3.401596e-05 0.2341141 -0.022570152 -0.97194707 3.9660899e-05
-0.0010837568 -0.0045753168 0.0005699941 0.27765006 -0.01126698 -0.96061623 0.00035451664
0.0020825169 -0.004508812 0.0016311205 0.60722858 -0.0021948435 -0.79452407 0.04552507
0.0033534511 -0.0044683805 0.0026345837 0.91916543 -0.0021611876 -0.39386556 0.026042333
-0.0032002295 -0.002393994 4.7346039e-06 0.24455893 -0.019480813 -0.96943873 6.0721704e-05
-0.0011482316 -0.0015082716 0.0005116635 0.28964135 -0.0083493395 -0.95709884 0.00025537386
0.0020370109 -0.0015185651 0.0015989221 0.60644346 0.0018173563 -0.79512465 0.044389036
0.0033511091 -0.0014103347 0.0026317541 0.91924125 0.0054302709 -0.39365724 0.025958065
-0.0010701563 0.0014851788 0.00051459274 0.29087365 -0.0011797112 -0.9567607 0.00026491156
0.0019581376 0.001485963 0.0015764883 0.61521441 0.00030844737 -0.78835976 0.044553585
0.0033425852 0.0013776622 0.0026311572 0.91754425 0.00016168956 -0.39763379 0.026338393
-0.0010485639 0.0044028582 0.00053682009 0.32464135 0.0069695571 -0.94581157 0.0022497228
0.0020616294 0.0045022299 0.0016331967 0.61578131 -0.0026144583 -0.78791273 0.043353669
0.0033387907 0.0044508078 0.0026287546 0.91545814 -0.00049227697 -0.40241286 0.025654204
-0.0033483629 0.0075241975 1.8804556e-05 0.2452216 0.022328477 -0.96920985 4.0462746e-05
-0.0012041877 0.0074302997 0.00053956715 0.27920508 0.0091974 -0.96018749 0.00030793838
0.0019856375 0.0075138295 0.0015850968 0.59755671 -0.00033345638 -0.8018266 0.044171188
0.0033366303 0.0075310552 0.0026258442 0.91471666 0.0059170034 -0.40405247 0.02573509
-0.0034519415 0.01038669 4.0878782e-05 0.22853158 0.020940505 -0.97331125 5.2525247e-05
-0.0013441503 0.010464068 0.00053734682 0.2675305 0.012721471 -0.96346539 0.00031046747
0.0019363101 0.010469397 0.0015673476 0.58203107 -0.0014184862 -0.81316531 0.045481376
0.0033345066 0.010338083 0.0026232495 0.91410613 -0.0010350808 -0.40547374 0.026346739
-0.003632942 0.013559219 8.4950239e-05 0.21075183 0.018069007 -0.97737259 5.2322244e-05
-0.0012827031 0.013504136 0.00058368669 0.25487092 0.010046774 -0.96692294 0.00040994075
0.0020420684 0.013505586 0.0016236756 0.58336884 -0.0014298217 -0.81220615 0.044532306
0.0033342487 0.013432818 0.0026197445 0.91335022 -0.00010376417 -0.40717489 0.02562234
-0.0037344806 0.016724035 0.00010552014 0.19260891 0.021256031 -0.98104537 6.6703171e-05
-0.0013858342 0.016546089 0.00057060929 0.24525383 0.010529784 -0.96940172 0.00043496411
0.0019637081 0.016540824 0.0015760153 0.57319844 0.00065142644 -0.8194164 0.044859938
0.003334567 0.016534891 0.00261605 0.91261709 0.0064800251 -0.40876406 0.025814444
-0.0039509158 0.019638382 0.0001608551 0.17216434 0.029393297 -0.98462963 7.5476892e-05
-0.0015099775 0.019520853 0.00060001656 0.2212213 0.023984319 -0.97492868 0.00075627031
0.0019148545 0.019518698 0.0015579866 0.55627739 0.00026185825 -0.83099663 0.046608973
0.0033335094 0.019362092 0.0026131114 0.91122717 0.00035067686 -0.41190386 0.026627785
-0.0047091469 0.022678681 0.00015619906 0.15032619 0.04835669 -0.9874531 2.7749396e-05
-0.0015993533 0.022400582 0.00061934604 0.20797978 0.015635218 -0.97800821 0.00076670747
0.0020045519 0.022504829 0.0016083034 0.54498023 -0.002030055 -0.83844638 0.046577834
0.0033287797 0.02248043 0.0026109393 0.91082644 -0.0021622281 -0.4127838 0.025893334
-0.0060061519 0.026437541 0.00016078872 0.13174157 0.035479959 -0.99064898 9.050341e-05
-0.0043307901 0.025371853 0.00033327384 0.13905597 0.034326963 -0.98968941 0.00010639025
-0.0010432164 0.025496362 0.00076365029 0.30090058 -0.0034049884 -0.95364946 0.021019248
0.0019726155 0.025492743 0.0015853203 0.58978826 -0.0021353271 -0.80755514 0.046156403
0.0033238106 0.025606448 0.0026088415 0.91382903 0.0020159492 -0.40609413 0.025880283
-0.0064187278 0.0287065 0.00012744007 0.11431216 0.026871363 -0.99308145 9.352027e-05
-0.0039042116 0.028569892 0.00041291295 0.11509322 0.0120965 -0.99328101 5.622055e-05
-0.0011143091 0.028512139 0.00075115258 0.29466188 0.0036468429 -0.95559466 0.021955952
0.001934658 0.028489772 0.0015640046 0.58519286 0.0024322937 -0.81089038 0.046772137
0.0033188376 0.028455356 0.0026070685 0.90810955 0.0059209131 -0.41869092 0.026489772
-0.0070499578 0.031621136 0.00015606105 0.098012097 0.027823202 -0.99479616 3.8837552e-05
-0.0040558623 0.031501934 0.00044943261 0.10274983 0.016066225 -0.99457747 4.451484e-05
-0.0011468882 0.031397101 0.00075389125 0.29296932 0.01430773 -0.95601481 0.022665381
0.0018873083 0.03149702 0.0015453439 0.57913607 0.0019351966 -0.81522858 0.046578582
0.0033160325 0.03131023 0.0026046217 0.90821993 0.0016975624 -0.41848975 0.026365934
-0.0096298717 0.035164423 1.1951663e-05 0.088509239 0.016965354 -0.99593085 8.1991115e-05
-0.0072529824 0.034592248 0.00020580483 0.087034605 0.013554211 -0.996113 8.9386056e-05
-0.0041702567 0.034432288 0.00047490685 0.091618679 -0.016835995 -0.99565184 0.00048171252
-0.001263994 0.034441438 0.0007549515 0.28273702 -0.012600922 -0.95911473 0.023980159
0.0019797976 0.03450945 0.0015951598 0.69744843 0.047085531 -0.71508646 0.060672116
0.0033131391 0.034458213 0.0026018699 0.84529942 -0.018604789 -0.53396875 0.033750415
-0.009726271 0.036659479 3.4594628e-05 0.075809084 -0.091950327 -0.99287361 0.0025815477
-0.0072683236 0.037520487 0.00020050435 0.054006074 -0.12466702 -0.99072772 0.0031715869
-0.0041887951 0.037474222 0.00044484332 0.086673297 -0.12513751 -0.98834628 0.0030022776
-0.0011959885 0.037571937 0.00067346776 0.12886578 -0.18054982 -0.9750874 0.0076196417
0.0018273018 0.037443209 0.0013647645 0.23713994 -0.3792181 -0.89440387 0.045808297
0.0040314556 0.038094033 0.0022522046 0.2728613 -0.64703447 -0.71196425 0.063365333
0.0075859968 0.038754113 0.0022466963 0.13161051 -0.89053333 -0.4354642 0.006755319
0.0097022168 0.038796157 0.0026469398 0.18245979 -0.95987183 -0.21296571 0.0048916321
-0.0049331449 0.039253615 9.7370743e-05 0.063861221 -0.28538933 -0.95628172 0.012512678
-0.0013556655 0.039497674 0.00021068149 0.067558207 -0.45561343 -0.88761044 0.0063707707
0.0016342022 0.039603908 0.00048327079 0.0818161 -0.60179257 -0.79445058 0.016836127
0.0044549233 0.039556779 0.00079413067 0.04724431 -0.78563154 -0.61688828 0.01824015
0.0075551071 0.039403133 0.00081339432 0.017642153 -0.88575065 -0.46382603 0.0066256234
0.010744419 0.039399371 0.0011964983 0.084065162 -0.95121074 -0.29686904 0.0059278421
0.013524845 0.039738175 0.0015373552 0.23625433 -0.96020967 -0.14893392 0.0020106889
0.01639414 0.040423997 0.0015537126 0.27871054 -0.95965391 -0.037212141 0.0072502671
0.019551923 0.041430254 0.0014948408 0.31154454 -0.95019764 0.008024591 0.002623291
-0.0510705 0.0431954 0.00044486014 -0.20971845 -0.89956266 -0.38315168 0.0087947855
0.022560365 0.042595766 0.0015631202 0.37947279 -0.91804165 0.11489117 0.0032302961
0.025445718 0.043904547 0.0014839981 0.40992662 -0.88435626 0.2233253 0.0038436796
0.027535811 0.044729806 0.0008000317 0.44970471 -0.84048599 0.30223998 0.0031403292
0.028824747 0.045818269 0.0017362403 0.47203067 -0.80691409 0.35507295 0.0016465139
0.031374156 0.047081325 0.0010832893 0.50431025 -0.74364346 0.43893689 0.003094526
0.032334518 0.048551824 0.0022248416 0.53057539 -0.65293717 0.54052079 0.0013422128
0.034360833 0.049481697 0.0013271952 0.52581376 -0.62603027 0.57585227 0.0045708562
0.036349252 0.050483502 0.0006000204 0.55037475 -0.58849049 0.59225553 0.0012692501
0.035220891 0.051645182 0.0025096671 0.54670912 -0.44684997 0.70812017 0.0038758882
0.037372224 0.052521557 0.001334797 0.58113849 -0.44691747 0.68010497 0.0050116717
0.039403573 0.053500254 0.00033248341 0.59241498 -0.45526069 0.66466707 0.0021654167
0.038071077 0.055189122 0.0021115018 0.58272237 -0.19669758 0.78850794 0.0031791402
0.040139999 0.055633958 0.00068481598 0.6189121 -0.27701181 0.73499137 0.0026400562
0.037559971 0.058069542 0.0029611443 0.56236351 -0.034645393 0.82616401 0.0016503029
0.039908979 0.05848242 0.0013600662 0.60085613 -0.066306919 0.79660237 0.0027441131
0.038511485 0.061474118 0.0021069003 0.56243938 0.079630703 0.82299513 0.00034560915
0.040508013 0.061866242 0.00069476117 0.58581287 0.089950107 0.80543917 0.00060083868
0.037513044 0.064681478 0.0022927686 0.53284866 0.13198739 0.83585387 0.00011284936
0.040000305 0.064258851 0.00071050692 0.58650714 0.13599539 0.79844511 0.00033548533
0.03588241 0.066578276 0.0029982643 0.5157274 0.15698428 0.84224766 0.00011813609
0.037808739 0.067707174 0.0015754831 0.54219341 0.16127315 0.82463163 0.0002345247
0.039661024 0.067426972 0.00037547364 0.58829618 0.16614106 0.79139417 0.00045553505
0.035050828 0.070427999 0.002732771 0.50914216 0.20063812 0.83696985 0.00020306333
0.037381526 0.070488498 0.0012530371 0.54029834 0.20416038 0.81633091 0.00040667749
0.039181169 0.069496989 0.00026508214 0.59709537 0.21607772 0.7725203 0.0004054239
0.034767702 0.073133081 0.0020948811 0.50533044 0.28965959 0.81285816 0.0030589176
0.037210841 0.073355369 0.00055500219 0.54869723 0.31619462 0.77392006 0.0022893921
0.025731703 -0.075743407 0.0041353018 0.36234769 -0.49357629 0.79062414 0.0023814365
0.027172307 -0.076088466 0.0033078892 0.35011485 -0.51635414 0.78153569 0.0018686149
0.025563147 -0.074074998 0.0057042949 0.3975887 -0.49271166 0.77405328 0.0021611317
0.028619448 -0.073317707 0.0048529808 0.36701256 -0.47462532 0.8000204 0.0039614672
0.031261526 -0.072916634 0.0038169001 0.44059932 -0.35447586 0.824754 0.00084516528
0.029566756 -0.070815928 0.0055335923 0.44761074 -0.28198808 0.84860313 0.0012265011
0.031496845 -0.070341349 0.0046130721 0.46489444 -0.27125385 0.84278965 0.0014377946
0.033598877 -0.070375904 0.0034418544 0.47527063 -0.25406352 0.84235954 0.001017348
0.031584073 -0.067352213 0.0052448972 0.48780137 -0.1778876 0.85463786 9.2052229e-05
0.034190658 -0.067386292 0.0037225671 0.50099909 -0.16429147 0.8497107 0.00010785671
0.032140173 -0.064765528 0.0053976174 0.4977639 -0.14234482 0.85555196 7.9021396e-05
0.034492306 -0.064694479 0.0040231161 0.50851709 -0.13469894 0.85045087 4.5917328e-05
0.032288805 -0.060788315 0.0058927177 0.50914633 -0.10602015 0.85412514 7.2748582e-05
0.034450486 -0.061890643 0.0044562155 0.51161683 -0.10971566 0.85218 6.1089042e-05
0.036253847 -0.060747124 0.0035045482 0.51946473 -0.098575786 0.84878683 7.426495e-05
0.032792289 -0.059319552 0.0057286411 0.5228563 -0.048563153 0.85103637 0.00027740476
0.034384374 -0.058414891 0.0048432378 0.52108556 -0.028965607 0.8530128 0.00043781963
0.037014648 -0.0583237 0.0032583976 0.53067648 -0.017092254 0.8474021 0.0010512606
0.032855473 -0.054582819 0.0057271784 0.5785498 0.14096498 0.80337352 0.0056795832
0.034503255 -0.055609714 0.004726775 0.53038156 0.089086965 0.8430652 0.0024495178
0.036629796 -0.055833615 0.0033968012 0.54343373 0.18700238 0.81835812 0.0036282798
0.032137115 -0.052089501 0.005449017 0.56512612 0.31292331 0.76335537 0.0031141483
0.034216687 -0.052720353 0.0041705212 0.57064146 0.31356215 0.75897759 0.0013091753
0.029490603 -0.048582703 0.0054616914 0.54774451 0.49500877 0.67449409 0.002781285
0.031474687 -0.049503844 0.00442801 0.54515445 0.5160886 0.66065061 0.0052163643
0.033698 -0.050763559 0.0035180617 0.54456121 0.43691134 0.71593398 0.0031525535
0.02632306 -0.045701023 0.005380251 0.52105772 0.69595832 0.49410617 0.0061147176
0.02845821 -0.046548441 0.0042052534 0.53743148 0.69370139 0.47952658 0.0024446198
0.030497644 -0.047687534 0.0036171058 0.54781759 0.64294028 0.53527915 0.001486394
0.022679999 -0.042956166 0.0047071408 0.48297194 0.80632424 0.3414371 0.0038640297
0.025259323 -0.044323079 0.0043085115 0.48510998 0.76980901 0.41480419 0.0035415634
0.014253909 -0.039098553 0.0042936122 0.31381667 0.94947773 0.0033291623 0.0051981858
0.016779624 -0.040045068 0.0044491133 0.36697936 0.92729557 0.073817179 0.0030320629
0.019399365 -0.041249499 0.0046995329 0.46154243 0.85131919 0.24946803 0.0027815395
0.021427531 -0.041851696 0.0033608531 0.41818622 0.87875831 0.2300089 0.0058812248
0.0048686438 -0.036545791 0.0042004231 0.55895519 0.70916086 -0.42972088 0.027449148
0.0072880643 -0.037143257 0.0049094125 0.39790145 0.78908587 -0.46799353 0.01821618
0.010847409 -0.038095385 0.0045843655 0.27121973 0.94979525 -0.15597706 0.0075283046
0.012017307 -0.038343739 0.0050074081 0.30420026 0.95213199 -0.030114764 0.0043822834
0.0026917632 -0.034537654 0.0037222095 0.88137037 0.17912319 -0.4371511 0.032239396
0.0037688264 -0.034330729 0.0050874697 0.85653049 0.12502347 -0.50072426 0.031487375
0.0026901877 -0.031547382 0.003720273 0.94342774 -0.0016137011 -0.33157444 0.023401633
0.0037940578 -0.031539854 0.0051197954 0.83666623 -0.0032762748 -0.54770321 0.012877142
0.0026886982 -0.028549569 0.0037183047 0.94226468 -0.0045559797 -0.33483815 0.023482725
0.0037446872 -0.028561683 0.0050573363 0.87423378 0.050405055 -0.48288161 0.019518957
0.0026869704 -0.025544589 0.0037163999 0.94320667 -0.0042973133 -0.33217871 0.023441901
0.0037936852 -0.025545726 0.0051193098 0.87414229 0.050578125 -0.48302919 0.019499565
0.0026852416 -0.022531992 0.0037144904 0.94259727 -0.00048306887 -0.33393139 0.02405739
0.0037442942 -0.022552542 0.0050566695 0.87429678 0.051423836 -0.48266006 0.019481633
0.0026836235 -0.019512219 0.0037125368 0.9430415 0.0012143259 -0.33267298 0.023933431
0.0037674285 -0.019598465 0.0050861957 0.87354386 0.054633081 -0.48366973 0.019295501
0.0026815068 -0.016484706 0.0037107253 0.94462061 0.004359317 -0.32813552 0.02283545
0.0037672182 -0.016575526 0.0050859121 0.86080635 0.015577945 -0.50869429 0.013948935
0.002679819 -0.013450009 0.0037087966 0.93955356 0.0044841473 -0.34237254 0.023344513
0.0037668454 -0.013545334 0.0050856685 0.83586305 0.0020711832 -0.54893404 0.012327204
0.0026781242 -0.010407585 0.0037068555 0.94428325 0.0047002248 -0.32910043 0.022623612
0.0037665556 -0.010507454 0.0050854124 0.8358041 0.0026462544 -0.54902136 0.012387488
0.0026763394 -0.0073578446 0.0037049323 0.92702079 0.012939657 -0.37478644 0.025828777
0.0037663647 -0.0074623199 0.0050851149 0.83599693 0.0010719706 -0.548733 0.012640525
0.0026745531 -0.0045786677 0.0037032224 0.94338572 0.00025232931 -0.33169761 0.02324211
0.0037897278 -0.0044722315 0.0051149069 0.85957438 -0.012829592 -0.51084948 0.014042431
0.0026729275 -0.0015142801 0.0037012405 0.94101244 0.00082270196 -0.33837089 0.023558561
0.003739825 -0.001426065 0.0050517013 0.87259376 -0.054321423 -0.48541659 0.018810559
0.0026714571 0.0015574524 0.0036992054 0.93709189 -0.00025570526 -0.34908265 0.024512211
0.0037654345 0.001439584 0.005084367 0.87211168 0.05595379 -0.48609707 0.019118955
0.0026700909 0.0043566711 0.0036973567 0.92490584 -0.014640448 -0.37991437 0.025369961
0.0037651462 0.0045145694 0.0050841016 0.83519381 0.00046520992 -0.54995555 0.012216455
0.0026683991 0.0074432786 0.0036953751 0.93783247 0.00069252809 -0.34708765 0.023485618
0.0037646748 0.0075970041 0.0050838953 0.87270075 -0.053577978 -0.48530689 0.018563244
0.0026664534 0.010537399 0.0036934658 0.93519008 0.00048756885 -0.35414585 0.024371028
0.0037643337 0.01040596 0.005083675 0.87212205 0.056408484 -0.4860259 0.018710766
0.002664858 0.013357004 0.0036916689 0.92342901 -0.014724993 -0.38348672 0.025336597
0.0037640415 0.013503258 0.0050834026 0.83509284 0.00044979295 -0.55010891 0.012175025
0.0026629397 0.01646612 0.0036897399 0.93694264 0.001139316 -0.3494814 0.023525624
0.0037636198 0.01660808 0.0050831712 0.87207347 -0.053226601 -0.48647174 0.018628214
0.0026613981 0.019582685 0.0036876847 0.93350905 0.00059623888 -0.35855347 0.024636231
0.0037634321 0.01943743 0.0050829053 0.87194675 0.057034153 -0.48626739 0.018791791
0.0026602242 0.022422751 0.0036857538 0.93915963 0.0010682752 -0.34347939 0.022935774
0.0037965791 0.02242356 0.0051249377 0.83518749 2.319371e-05 -0.54996526 0.012242719
0.0026756148 0.025422465 0.0037049754 0.93704343 0.00047394773 -0.34921256 0.023038786
0.0037297702 0.025534045 0.0050399732 0.834822 -0.002293465 -0.55051506 0.012070269
0.0026406175 0.028540354 0.0036604216 0.93570834 0.0014255499 -0.35277176 0.024196846
0.0037632338 0.028534567 0.0050819018 0.87158382 -0.05117543 -0.48756817 0.018699411
0.0026559953 0.031554639 0.0036796401 0.93113214 0.002175407 -0.36467549 0.024384817
0.0037630417 0.031391066 0.0050816387 0.87104273 0.058215354 -0.48774534 0.018314753
0.0026544859 0.0344221 0.0036777884 0.87097907 -0.050364539 -0.48873198 0.036976229
0.0037965497 0.034405317 0.0051238094 0.83105642 -0.090370536 -0.54879719 0.022482052
