# .PCD v0.7 - Point Cloud Data file format
VERSION 0.7
FIELDS x y z normal_x normal_y normal_z curvature
SIZE 4 4 4 4 4 4 4
TYPE F F F F F F F
COUNT 1 1 1 1 1 1 1
WIDTH 563
HEIGHT 1
VIEWPOINT 0 0 0 1 0 0 0
POINTS 563
DATA ascii
-0.0039809062 0.055444464 0.025644232 0.80610543 0.27414304 0.52444226 0.010913682
-0.0025986307 0.054588515 0.024279974 0.73426902 0.26190355 0.62630308 0.015141736
-0.0062923529 0.05938549 0.026207248 0.75388223 0.51002097 0.41417405 0.0074775531
-0.0049578492 0.058136322 0.025150033 0.67724967 0.47192368 0.56446511 0.012579393
-0.0092036445 0.062806815 0.026621535 0.63652289 0.68040109 0.36317071 0.0094754398
-0.0073360363 0.061201941 0.025473407 0.66108561 0.59812957 0.45299748 0.011954037
-0.012425614 0.065560453 0.025420031 0.51183444 0.81393456 0.27483803 0.0050266734
-0.010295889 0.063991308 0.025704062 0.5679372 0.72973055 0.38071072 0.010297572
-0.0089895632 0.063366294 0.024303263 0.58902758 0.7469545 0.30839181 0.0053288429
-0.012914786 0.066029765 0.024365008 0.51185161 0.81393903 0.27479279 0.0050450219
-0.027814571 -0.066399068 0.028806711 -0.0080679581 -0.26451987 0.96434647 0.066963837
-0.024897324 -0.066871762 0.028782435 0.1553476 -0.47594026 0.86564887 0.096462138
-0.022290302 -0.067167833 0.028498607 -0.022407195 -0.63362211 0.77331811 0.085918143
-0.019311937 -0.067040324 0.028443445 0.031693567 -0.77717507 0.62848592 0.048009109
-0.01664602 -0.066674985 0.028059209 0.22928447 -0.84324342 0.4861781 0.052474551
-0.01473989 -0.066037849 0.02841723 0.39714116 -0.69731021 0.59668863 0.061863612
-0.033372458 -0.063531794 0.028811142 0.015355469 0.0095731374 0.99983633 0.00021683879
-0.030881258 -0.064189352 0.02880892 0.043587148 0.034295328 0.99846083 0.00145352
-0.028191248 -0.064605504 0.028807061 -0.07840462 -0.19221559 0.97821575 0.035739701
-0.025205141 -0.064500026 0.028807441 0.0029863883 -0.18184134 0.98332334 0.049039666
-0.022194183 -0.064472221 0.028810678 -0.012274816 -0.17933708 0.98371106 0.041204102
-0.019453878 -0.064547956 0.028803822 0.03658646 -0.22215691 0.97432429 0.027076297
-0.016562458 -0.064522266 0.028802093 0.087053001 -0.29357019 0.95196551 0.059618752
-0.013598508 -0.064726062 0.028368585 0.40668198 -0.45941892 0.78964812 0.092409864
-0.011254325 -0.063730508 0.028170535 0.53833944 -0.62490004 0.56541193 0.044828281
-0.036409881 -0.060631093 0.028811894 0.0004368083 -2.9304398e-05 0.99999988 0
-0.034052353 -0.061506413 0.02881084 0.017252896 0.0017009591 0.99984968 0.0001777665
-0.031188207 -0.061508324 0.028809583 0.013847714 7.7407058e-05 0.9999041 0.00022774399
-0.028025717 -0.06221756 0.028589563 -0.18544313 -0.20541364 0.96094543 0.037900325
-0.025132889 -0.062358458 0.028206671 -0.096798643 -0.35126853 0.93125743 0.055739593
-0.022505527 -0.062450051 0.028675793 -0.0026538149 -0.47567987 0.87961447 0.050770532
-0.018984944 -0.061617263 0.028956648 0.23646438 -0.20203544 0.95040315 0.05850181
-0.01643212 -0.061590172 0.028802302 0.17137437 -0.073108688 0.98248965 0.024341349
-0.013878837 -0.061562076 0.028800992 0.046861283 -0.060639508 0.99705917 0.0013858338
-0.010442194 -0.061673194 0.028571833 0.4358255 -0.31233761 0.84409785 0.069407202
-0.0082413871 -0.060979392 0.027959183 0.60979044 -0.56031108 0.56054175 0.033958632
-0.03718568 -0.058365736 0.02881206 0.031841319 0.05582507 0.99793273 0.003082186
-0.03428622 -0.05845046 0.028811494 -0.0015627112 0.049132198 0.99879104 0.0033743107
-0.031304449 -0.05839536 0.028810438 0.021329546 -0.010073268 0.99972171 0.0001253634
-0.018159674 -0.058610078 0.029235506 0.43045548 -0.0056211692 0.90259439 0.030907869
-0.016578948 -0.058340907 0.028802415 0.16564313 -0.017987227 0.9860217 0.023463938
-0.013427038 -0.058484938 0.028801065 0.033351474 -0.012729575 0.99936259 0.0010371119
-0.010126454 -0.058462668 0.02879977 0.17821969 -0.12289707 0.97628582 0.034413841
-0.0071106171 -0.058592543 0.028310528 0.43380338 -0.39950001 0.80759794 0.066641547
-0.0058255903 -0.057282351 0.028009668 0.52311724 -0.24878132 0.8151418 0.064875819
-0.039412983 -0.055358179 0.028813934 0.07701686 0.045599766 0.99598646 0.0026055297
-0.037304994 -0.055528544 0.028812584 -0.15392867 -0.1036743 0.98262787 0.038666565
-0.034338284 -0.055463478 0.028811269 -0.052849218 -0.13993207 0.98874968 0.047303401
-0.031331591 -0.055582125 0.02881051 0.031924956 -0.2631748 0.96421975 0.064692385
-0.029375248 -0.054733969 0.028809732 -0.10674174 -0.12359852 0.98657471 0.051720064
-0.018620366 -0.055309903 0.029263737 0.41604143 0.20660563 0.88556403 0.023870591
-0.016722912 -0.055517614 0.028803302 0.22725099 -0.026252301 0.97348225 0.071463376
-0.01355776 -0.055587001 0.028801642 -0.061854456 -0.087385125 0.99425244 0.044977661
-0.010236687 -0.055607121 0.028800437 -0.038685113 -0.13470198 0.99013066 0.043352913
-0.0075353812 -0.055455219 0.028799271 0.33452109 -0.10679744 0.93631721 0.037490126
-0.0051518157 -0.055414263 0.028106829 0.72326708 -0.20000513 0.66097111 0.034958746
-0.039992157 -0.052336074 0.028814396 -0.18638645 -0.091016963 0.97825158 0.029272269
-0.037686531 -0.053251568 0.028663319 -0.23385338 -0.18458496 0.95458943 0.036509667
-0.034944933 -0.053624932 0.028012669 -0.099507429 -0.2929984 0.9509207 0.051412944
-0.03181028 -0.053578466 0.028869495 -0.016759338 -0.48539582 0.87413388 0.045535106
-0.028597336 -0.053153135 0.02910069 0.14393462 -0.3766782 0.91509372 0.03320428
-0.026146151 -0.051699374 0.029059282 0.11232033 0.04381378 0.99270564 0.040184602
-0.02205696 -0.052166041 0.029473117 0.016976602 0.22166358 0.97497541 0.021277336
-0.019897824 -0.052826528 0.02883671 0.28649455 0.13719355 0.94820821 0.031276058
-0.017066566 -0.053519178 0.02820413 0.10968004 -0.42010653 0.90082228 0.10436068
-0.013846859 -0.053723991 0.027602183 -0.075064205 -0.34192505 0.93672436 0.069651097
-0.010068971 -0.052706949 0.029174915 0.1327173 -0.23272617 0.96344411 0.086396381
-0.0074760076 -0.052502859 0.028800212 0.2655679 -0.05576019 0.96247828 0.020097407
-0.0046537663 -0.052584969 0.028228339 0.63112324 -0.10275352 0.76884669 0.033149362
-0.040160686 -0.049607068 0.028814703 -0.22183512 -0.068946302 0.97264355 0.019196367
-0.025189124 -0.049610365 0.029307405 0.25102964 0.10884834 0.96184003 0.020937597
-0.022788804 -0.049485642 0.028736746 -0.020880153 0.089717336 0.99574834 0.013636479
-0.019506326 -0.049598258 0.029654896 -0.25676009 0.012824093 0.96639007 0.010586057
-0.0095470669 -0.049607601 0.029150909 0.41255659 -0.0098742116 0.91087842 0.032890834
-0.0076286057 -0.049551729 0.02880857 0.25926605 -0.0091992095 0.96576214 0.01675321
-0.0044046948 -0.049449217 0.028234905 0.58247399 -0.011473678 0.81276834 0.03111385
-0.040103134 -0.046773691 0.028815737 -0.25654972 0.072036088 0.96384287 0.012263107
-0.038779356 -0.045545653 0.028815974 -0.22108543 0.12005083 0.96783733 0.016144359
-0.027640505 -0.045705296 0.029175753 0.12807217 0.15306884 0.97988135 0.072459012
-0.02566403 -0.046879232 0.028860897 0.10757441 0.010878127 0.99413753 0.045865539
-0.022085097 -0.046520952 0.029360252 -0.084145702 -0.18525173 0.97908187 0.015293728
-0.020512436 -0.045970511 0.029129494 -0.096213713 -0.14498585 0.98474461 0.03230055
-0.0098240077 -0.046471853 0.029176423 0.28760293 0.2085398 0.93477046 0.0412177
-0.0075856578 -0.046482947 0.028801393 0.2601012 0.049221657 0.96432596 0.020724922
-0.0045804288 -0.046583716 0.0282951 0.5899325 0.06361936 0.80494243 0.029930364
-0.04002367 -0.043637231 0.028726729 -0.099236086 0.06956619 0.99262923 0.0036985537
-0.037930638 -0.043253224 0.028815595 -0.20350525 0.11887224 0.97183073 0.017436953
-0.034828689 -0.043241255 0.028642923 -0.064685307 0.20952538 0.97566128 0.021926824
-0.031663734 -0.043320611 0.028720697 0.09273535 0.33777982 0.93664557 0.022546671
-0.029088495 -0.043786537 0.0287026 -0.025096459 0.24140488 0.97009993 0.042393982
-0.02673322 -0.044823416 0.02880948 -0.19143112 0.084578097 0.97785515 0.053520285
-0.018704612 -0.043585327 0.029181715 0.17073694 0.041208584 0.98445457 0.049648136
-0.016130738 -0.043151654 0.028804736 0.19632789 0.24589074 0.94920659 0.036510691
-0.0131407 -0.043352637 0.028643662 0.057811677 0.29470989 0.95383644 0.021473492
-0.010347364 -0.043254908 0.028802244 0.11722671 0.18444286 0.97582722 0.023434179
-0.0077516297 -0.043502636 0.028801076 0.23945335 0.1350653 0.96146733 0.015961902
-0.0050251111 -0.043570664 0.028178407 0.63599014 0.098470569 0.76538879 0.027821707
-0.039142828 -0.040051822 0.028722048 -0.10608992 0.043644797 0.99339819 0.0058786832
-0.037710182 -0.040641684 0.028815487 -0.038421258 0.021893241 0.99902183 0.0014643137
-0.034889512 -0.040451106 0.028814416 0.00031593032 -0.013922328 0.99990302 0.00018809894
-0.031790022 -0.04055338 0.028812923 0.0019791469 -0.015634265 0.99987584 0.00011702089
-0.029851954 -0.040403429 0.028812071 -0.22857356 -0.19943179 0.95288056 0.0092695365
-0.018235995 -0.040655348 0.029220063 0.38921395 -0.012795779 0.92105854 0.03076621
-0.016253611 -0.040479057 0.028805282 0.16144358 0.012347144 0.98680472 0.021710919
-0.013405649 -0.040487774 0.028804025 0.024035675 -0.012075874 0.9996382 0.0012164658
-0.010534543 -0.040495183 0.028802807 -0.043893177 -0.089579806 0.99501204 0.0060546678
-0.0072810315 -0.040224724 0.028506519 0.20262747 -0.11858961 0.97204864 0.061447576
-0.0051740068 -0.040531669 0.027871734 0.44366992 -0.29795629 0.84520942 0.083842568
-0.001310513 -0.03941543 0.028184667 0.12819961 -0.84411979 0.52060217 0.020412862
0.001486824 -0.039156552 0.028080977 0.26488349 -0.82381302 0.50116754 0.014627928
-0.042096268 -0.038284652 0.027521059 -0.15547591 -0.030907711 0.98735607 0.0051925704
-0.040316366 -0.037509173 0.028277537 -0.12419444 -0.025953325 0.99191844 0.0058625694
-0.037143383 -0.037468839 0.028806269 -0.12356167 -0.030018633 0.99188274 0.0055819689
-0.034607034 -0.037492808 0.028814618 0.004937327 -0.025476992 0.99966317 0.00027257937
-0.031888627 -0.037579894 0.02881334 0.0057110284 -0.01288609 0.9999007 0.00010953099
-0.018577497 -0.037491135 0.028797567 0.29227224 0.21820502 0.93110871 0.042907584
-0.016204303 -0.037513595 0.028805934 0.13225409 0.036288999 0.99055141 0.029358523
-0.013357108 -0.037445012 0.028804487 -0.04421946 -0.053445563 0.9975912 0.0027122591
-0.010593305 -0.037550259 0.028885029 -0.13538423 -0.14284477 0.98044199 0.0062938267
-0.007529398 -0.037678566 0.029237261 -0.036598608 -0.35141718 0.93550336 0.0095884753
-0.0045610168 -0.038166028 0.0295229 -0.028659176 -0.43876824 0.89814317 0.0078745689
-0.001552482 -0.038254399 0.029681725 0.030993007 -0.51533049 0.85643095 0.0081398161
0.0017311358 -0.037978183 0.029584616 0.11143366 -0.54004049 0.83422953 0.0074317884
0.0045023812 -0.03762931 0.028918574 0.33134887 -0.73586476 0.59051752 0.024948308
0.0069449567 -0.036746994 0.028339868 0.42439142 -0.70153755 0.57248324 0.024283027
-0.040078204 -0.033753689 0.028727874 -0.15366681 -0.040013999 0.9873122 0.0095675169
-0.036970224 -0.034414798 0.029037192 -0.066442981 -0.062995084 0.99579972 0.0015150895
-0.03408147 -0.034417763 0.028971817 0.037699748 -0.032226898 0.99876922 0.0011847026
-0.031172937 -0.034440435 0.028820073 0.038123406 -0.021612879 0.99903929 0.00075791508
-0.02812537 -0.034382563 0.028811857 -0.095339984 0.14822927 0.98434669 0.015979275
-0.025158642 -0.034234412 0.028811891 0.038187243 0.26448578 0.96363324 0.023120986
-0.022113055 -0.034467846 0.028740367 0.10447033 0.31292817 0.94401371 0.027411744
-0.019276738 -0.034502033 0.028807586 0.16102797 0.2165731 0.96289468 0.032500919
-0.016333552 -0.034540627 0.028806895 0.056925058 0.069286935 0.99597132 0.03190247
-0.013619851 -0.034662988 0.028925018 -0.16129342 -0.13760883 0.97726572 0.0056825094
-0.010753325 -0.03494034 0.029631935 -0.1767744 -0.27016333 0.94644737 0.0029932624
-0.0080439448 -0.035873793 0.02996169 -0.15204722 -0.26477754 0.95224714 0.0023118651
0.0051290193 -0.035784408 0.029965233 0.23398714 -0.42683449 0.87353438 0.0041513741
0.0079782438 -0.035068296 0.029221723 0.43986428 -0.60089397 0.66741723 0.030985709
0.009955083 -0.034005769 0.028394103 0.65497279 -0.53492695 0.53372639 0.017831391
-0.042459238 -0.031713858 0.028817054 -0.22014627 0.0074764192 0.97543824 0.0099086557
-0.040832154 -0.03141886 0.028863151 -0.12100022 0.030871999 0.9921723 0.007172097
-0.037573881 -0.031462122 0.029294837 -0.063403293 0.059357483 0.99622124 0.0066570602
-0.034376808 -0.031443417 0.029287782 0.050053522 0.0028657012 0.99874246 0.00097160978
-0.031409103 -0.031593982 0.028879117 0.038960066 -0.0042757755 0.99923164 0.00079392706
-0.028082732 -0.03152208 0.028812461 0.0036017059 0.00047294676 0.99999338 1.6529941e-05
-0.025104871 -0.031482253 0.028810985 0.003200216 -0.0083440961 0.99996006 6.8876732e-05
-0.022158802 -0.031442359 0.028808381 0.0039126347 -0.0066255932 0.99997038 8.4885098e-05
-0.019300362 -0.031497639 0.02880588 -0.047576334 -0.00098435255 0.99886715 0.0026330289
-0.016642487 -0.03165311 0.028783266 -0.10767314 -0.055111688 0.9926576 0.0070998883
-0.013728309 -0.031830937 0.029499428 -0.21548258 -0.13553812 0.96705568 0.0049236841
0.0089198733 -0.032990083 0.02985329 0.52844012 -0.46756932 0.70861137 0.015395181
0.010996665 -0.031697918 0.029057119 0.60703993 -0.37686315 0.69962609 0.022105178
0.01229248 -0.0306859 0.027951645 0.78605825 -0.33138928 0.52181756 0.023096891
-0.040241249 -0.028423419 0.027900558 -0.30063051 0.14736699 0.94228667 0.015402466
-0.036931235 -0.028768688 0.029011948 -0.11956596 0.056525718 0.99121588 0.0052027223
-0.034303397 -0.02852306 0.028901467 0.034281511 0.011528407 0.99934578 0.0011056467
-0.031258211 -0.028486259 0.028814677 0.022747826 -0.0083133727 0.99970669 0.0011147078
-0.028241906 -0.028461749 0.028813383 0.0075264289 -0.032422397 0.99944592 0.00026577673
-0.025258567 -0.028436862 0.028810577 0.012032335 -0.031930897 0.99941766 0.00021174886
-0.022391306 -0.028596688 0.028793564 0.010012576 -0.022239303 0.99970257 0.00021992224
-0.019525502 -0.029087733 0.028760931 0.0092421677 -0.0039892704 0.99994934 0.00014177748
-0.017111879 -0.029634107 0.028681956 -0.11022469 -0.043565225 0.99295145 0.0059654932
0.011432057 -0.028813368 0.029792896 0.48721901 -0.17031687 0.85651034 0.0087148063
0.012886028 -0.028417462 0.028514151 0.78838778 -0.2151396 0.57633299 0.028897956
-0.04284244 -0.025303643 0.027379047 -0.43004894 0.052915134 0.90125352 0.022269435
-0.040241774 -0.025365284 0.028184008 -0.31848654 -0.14892043 0.93615651 0.01551732
-0.037270952 -0.025236258 0.028975263 -0.13448308 -0.10289144 0.98555958 0.0037889914
-0.03446459 -0.025397107 0.029024716 -0.053530857 -0.078849383 0.99544823 0.0043716277
-0.031402633 -0.0253905 0.029027391 0.0052786451 -0.090854563 0.99585021 0.00017806453
-0.028459661 -0.02537748 0.029070353 0.0056173061 -0.098725751 0.99509883 0.0001717277
-0.02555267 -0.025376717 0.029029494 0.0074007907 -0.07824415 0.99690682 0.0003809848
-0.023217838 -0.026267389 0.028897082 0.0069722142 -0.059106506 0.9982273 0.00062543422
0.011661357 -0.026047625 0.029974476 0.42661482 -0.036451191 0.90369862 0.0090985354
0.013304937 -0.025473056 0.028639656 0.85395294 -0.05405701 0.51753479 0.019047879
-0.040177532 -0.022250937 0.028997777 -0.30376646 -0.13750516 0.94277155 0.012529772
-0.03763533 -0.022723567 0.029374126 -0.078978486 -0.094782196 0.99236023 0.0029324277
-0.034677263 -0.022437681 0.02939387 -0.019226456 -0.066754922 0.99758416 0.00084706972
-0.031621892 -0.022442626 0.029386057 -0.010073631 -0.06178027 0.99803889 0.00052526215
-0.028543081 -0.022463445 0.029414477 0.00063740171 -0.044508394 0.99900872 0.00077180448
-0.025901519 -0.022504937 0.029413365 0.034741111 -0.050521553 0.99811852 0.00049163098
0.011619607 -0.02200106 0.029959682 0.42920804 0.05439534 0.90156615 0.0091776941
0.013236563 -0.022577461 0.028633956 0.80774438 0.068738714 0.58551174 0.024123546
-0.039936814 -0.019455558 0.029051078 -0.10245143 -0.04741152 0.99360752 0.003436693
-0.037363101 -0.019581998 0.029396836 -0.053165138 0.0025543333 0.99858248 0.00085640594
-0.034768146 -0.019507173 0.029405493 -0.022958778 -0.0013190265 0.99973553 0.00052914303
-0.031696808 -0.019530058 0.029403783 0.00053942384 -0.0010369367 0.99999934 7.9681486e-06
-0.028599055 -0.019455705 0.029400906 0.00038054836 -0.020329343 0.99979329 0.00048419402
-0.026167106 -0.019469816 0.029389406 0.013016429 -0.018063504 0.9997521 0.00045889229
0.011393331 -0.01915862 0.02973775 0.49951163 0.19002964 0.84520817 0.0085653625
0.012809305 -0.019680839 0.028447695 0.84241593 0.25000271 0.47731972 0.020132968
-0.040227436 -0.016301235 0.028975656 -0.093618333 0.0094430055 0.99556339 0.00054370012
-0.037350263 -0.016645964 0.029387208 -0.058099456 0.010079602 0.99825996 0.00098510599
-0.034617268 -0.016466111 0.029409342 -0.029849656 0.0015130608 0.99955332 0.0007212843
-0.031545177 -0.016503721 0.029405273 0.00051959744 -0.0013432514 0.99999893 3.3944809e-06
-0.028561663 -0.01644207 0.029399114 0.0011296185 -0.00033595972 0.99999934 0
-0.025921542 -0.016321138 0.029406201 0.0013970933 -0.0002436178 0.99999899 0
0.0088004936 -0.015399547 0.029859111 0.44702446 0.31209606 0.83831096 0.011015251
0.010859652 -0.016390741 0.028964873 0.61003405 0.40196431 0.68284935 0.023333209
0.0121811 -0.017540473 0.027888356 0.78269476 0.35937089 0.50817466 0.023209115
-0.040483959 -0.013270942 0.028888226 -0.1333845 0.01835905 0.99089432 0.0014267404
-0.037155595 -0.013486751 0.029395649 -0.069560885 0.010829239 0.99751896 0.0012307269
-0.034461621 -0.013563111 0.029411947 -0.0024532676 -0.0017002492 0.99999553 1.7545557e-05
-0.031696294 -0.01346312 0.02940903 -0.00038544956 -0.0019717861 0.99999797 0
-0.028767118 -0.01347595 0.029413383 0.0019032593 -0.0016285426 0.9999969 1.3880526e-06
-0.025834184 -0.013468097 0.02940171 0.0014450164 -0.002238676 0.99999648 7.1315196e-07
-0.023251075 -0.012927624 0.029387152 0.044622622 -0.0043010428 0.99899465 0.0012887365
0.0054025431 -0.012335557 0.029788181 0.19116926 0.36310852 0.91192466 0.0054492648
0.0077460338 -0.013333039 0.029310865 0.48596141 0.53804511 0.68872994 0.028470369
0.0097558582 -0.014220974 0.028383881 0.65893376 0.56854415 0.4925077 0.017065691
-0.040747732 -0.010521389 0.028788745 -0.22594354 0.011592638 0.9740715 0.0016660936
-0.037192859 -0.010576418 0.029395966 -0.064590409 -0.0084694307 0.99787599 0.0012799633
-0.034211628 -0.010319657 0.029419305 -0.0020766021 0.0016991973 0.99999642 5.3705935e-06
-0.03172886 -0.010661136 0.029417625 -0.0016228594 0.0013892252 0.99999774 2.2651523e-06
-0.02882213 -0.010415755 0.029412393 0.00052710838 -0.000529602 0.99999976 8.3503537e-06
-0.025711549 -0.010453508 0.029411511 0.0025761456 -0.0010910596 0.99999607 1.4371782e-05
-0.022835534 -0.010590916 0.029413816 0.079175919 -0.010825603 0.99680179 0.0027097645
-0.019898519 -0.0098799979 0.028815549 0.22380519 -0.029870626 0.97417605 0.0026223066
-0.016039053 -0.0095511479 0.027595563 0.27065319 0.081886806 0.95918792 0.0049526924
-0.014182653 -0.0095549533 0.027123725 0.2036294 0.063503571 0.97698641 0.0061028572
-0.0094160894 -0.011554044 0.029325774 -0.17488964 0.45319125 0.87408882 0.0034416919
-0.0073126564 -0.011277418 0.029613793 -0.11503559 0.58117968 0.80560344 0.0055672568
-0.0047654589 -0.010478924 0.029634496 -0.072569564 0.3177667 0.94538784 0.001228087
-0.0015879216 -0.010171676 0.029659675 0.11253257 0.53387868 0.83803934 0.022826606
0.0016537172 -0.010345714 0.029220965 0.21577641 0.71509135 0.6648947 0.021588199
0.0047371234 -0.011109749 0.029072676 0.37876686 0.74913633 0.54344314 0.022328919
0.0068838843 -0.011706005 0.028462419 0.47592193 0.676256 0.56229556 0.026490271
-0.042281978 -0.0077060563 0.028208304 -0.23666294 -0.0016120777 0.97159046 0.0020457881
-0.039826594 -0.0077848323 0.02911601 -0.17460018 0.020159252 0.984433 0.0043990184
-0.037311912 -0.0075803683 0.029393518 -0.1116264 -0.010843874 0.99369109 0.0032155016
-0.034195427 -0.0074679065 0.029393679 -0.019063389 0.0014140322 0.99981725 0.0003324929
-0.031094396 -0.0075578657 0.029400153 -0.0006760481 0.0029096473 0.99999559 9.4605575e-06
-0.02827665 -0.0072506624 0.029416673 -0.00046884347 0.0023264072 0.99999726 8.5070303e-07
-0.025496693 -0.0074284808 0.029415516 8.7778913e-05 0.0025729258 0.99999666 5.8317514e-06
-0.022523586 -0.007504351 0.029396147 0.13034616 0.011654919 0.99140006 0.0024124365
-0.019481529 -0.0075296583 0.028582489 0.30336794 0.018458612 0.95269465 0.0039898511
-0.016283162 -0.0075290012 0.027650096 0.25444341 0.048159357 0.96588778 0.0070256367
-0.014128681 -0.0074209063 0.027110191 0.20364688 0.063505158 0.97698265 0.0061180666
-0.04293216 -0.0054003326 0.027846646 -0.23912059 -0.010720062 0.97093076 0.0018321191
-0.040016714 -0.0047421069 0.029071275 -0.17548001 -0.0054131639 0.98446804 0.0047864462
-0.037434302 -0.0045709135 0.029389227 -0.12910894 -0.0080456743 0.99159777 0.0055465223
-0.034289159 -0.0044808886 0.029403457 -0.020835564 -0.0025746452 0.99977958 0.00041002742
-0.031190876 -0.004583525 0.029403673 0.00059933995 -0.00098004844 0.99999934 7.6366696e-06
-0.028151901 -0.0044799019 0.029390268 -0.00038500389 0.00080794853 0.99999964 1.2337537e-05
-0.025105735 -0.0043907748 0.029401898 0.055640973 -0.00036753702 0.99845076 0.0031331165
-0.022109002 -0.0044898004 0.029397307 0.1414053 -0.00015326696 0.98995179 0.0026101656
-0.01934758 -0.0045152064 0.028524445 0.3531087 0.022330398 0.93531579 0.0059523811
-0.016424378 -0.0044277818 0.027664294 0.2598854 0.022417167 0.96537924 0.014352187
-0.014227789 -0.004432823 0.02713714 0.17244074 0.036354747 0.98434871 0.010317087
-0.040207699 -0.0016855936 0.02902635 -0.1677593 -0.019565122 0.98563385 0.0039326437
-0.037559744 -0.0015480148 0.029383264 -0.064673297 -0.0055815065 0.99789083 0.00060006144
-0.034380656 -0.0014826916 0.029414978 -0.024582848 -0.0014239647 0.99969679 0.00050255569
-0.031285439 -0.0015978657 0.029408716 0.0017237561 -0.00099800562 0.99999797 0
-0.028238598 -0.0015094775 0.029396089 0.00068919861 -0.00018622527 0.99999976 8.2299257e-06
-0.025191361 -0.0014334203 0.02940405 0.050712038 -0.00033114018 0.99871331 0.0029082743
-0.022185925 -0.0015486588 0.029400941 0.14530942 0.015075267 0.9892714 0.002910251
-0.019432129 -0.0015400297 0.028569978 0.35781795 -0.0092380363 0.93374568 0.0049664741
-0.016474292 -0.0015137579 0.0276749 0.27344331 0.019203687 0.96169639 0.014560679
-0.014270085 -0.0015289809 0.02714891 0.20621341 0.038186345 0.97776169 0.012427309
-0.040424671 0.0013935292 0.028965076 -0.077760763 0.0045285095 0.99696171 0.00039572816
-0.037689481 0.0014889059 0.02937486 -0.068858363 -0.0062838192 0.99760675 0.00057648984
-0.034507178 0.0015398574 0.029404001 -0.028611269 -0.00047792346 0.99959058 0.00068347505
-0.031381726 0.0014004178 0.029412908 0.00086834125 -0.00023774555 0.99999952 0
-0.028322376 0.0014717754 0.029404111 -0.00017240597 -0.0015035245 0.99999893 0
-0.02527521 0.0015351477 0.029407632 0.050878752 -0.0010067062 0.99870437 0.0027690176
-0.022272311 0.0015054023 0.029400242 0.13847668 0.017876241 0.99020433 0.0028202718
-0.01945227 0.0014512987 0.028581884 0.34946063 0.0022570142 0.9369483 0.0059713144
-0.016520338 0.0014101414 0.027688351 0.27355123 0.018002937 0.961689 0.014141187
-0.014312651 0.0013861415 0.027160652 0.21976425 0.025818145 0.97521132 0.012349505
-0.040064368 0.0047814297 0.029028801 -0.082968473 0.0016159905 0.99655086 0.00053877942
-0.037518162 0.004361914 0.02938666 -0.071305685 0.0071036904 0.99742913 0.00055054587
-0.034607284 0.0045654466 0.029410489 -0.025226688 0.00024408095 0.99968171 0.00053806859
-0.031507149 0.0044214153 0.029398279 -0.0016282317 -0.0012086175 0.99999791 0
-0.028405232 0.0044645914 0.029412989 -0.0010191723 -0.0004451448 0.99999934 0
-0.025358416 0.004515368 0.029411884 0.0490647 -0.0018803697 0.99879384 0.0025033818
-0.02235011 0.0045687719 0.029405663 0.13301855 -0.016894979 0.99096948 0.0024773048
-0.019507056 0.0044482392 0.028622398 0.34926823 -0.013092888 0.93693131 0.0047354111
-0.016548069 0.0044301613 0.027692065 0.2738609 0.014666184 0.96165746 0.013235004
-0.014355395 0.0043125781 0.027172435 0.19389462 0.0082804123 0.98098743 0.01199831
-0.040049344 0.0076676747 0.029026691 -0.078445621 0.0098947156 0.99686933 0.00051066012
-0.037229415 0.0074934172 0.029387306 -0.053699516 0.0028239789 0.99855316 0.00083953299
-0.034627896 0.0075531099 0.029415505 -0.025169631 0.00018622758 0.99968314 0.00059079588
-0.031599101 0.007442588 0.029405862 -0.0010133712 -0.00032574317 0.9999994 2.4268622e-05
-0.028491741 0.00747072 0.029419715 -0.0013934753 0.00044951454 0.99999893 3.2057453e-06
-0.02544204 0.0075076912 0.029416101 0.046770532 0.0015483095 0.99890447 0.0022311627
-0.02242077 0.0075436691 0.029414212 0.12693842 -0.013858253 0.99181384 0.0023281185
-0.019563057 0.0074619348 0.028662501 0.3124921 -0.0095752683 0.94987214 0.0033446318
-0.016555268 0.007523173 0.027699186 0.2535215 -0.065258965 0.96512598 0.00944982
-0.014310621 0.0073058391 0.0271612 0.22596604 -0.028467609 0.97371918 0.0061857109
-0.040235296 0.010469359 0.02897772 -0.098258518 0.012179556 0.99508637 0.00040289917
-0.037380803 0.010414029 0.029386129 -0.059557479 0.0044935686 0.99821484 0.0010587655
-0.034728926 0.010489677 0.029422874 -0.029377824 -0.001169981 0.99956775 0.00074647547
-0.031589486 0.010541415 0.029396685 -0.0007141041 -3.676167e-05 0.99999982 0
-0.028532322 0.010438016 0.029407242 -0.00049164263 6.9100723e-05 0.99999988 8.2158422e-06
-0.025559234 0.010524884 0.02939819 0.00094949652 0.0020168107 0.99999756 0
-0.02252353 0.010542897 0.029401403 0.12137723 0.017774928 0.99244726 0.0022141889
-0.01959482 0.010542746 0.02866791 0.27090028 0.0014554643 0.96260631 0.00016469882
-0.016547874 0.010491987 0.027712785 0.26154321 -0.054376569 0.96365875 0.0040253368
-0.014323646 0.010409535 0.027165044 0.25053582 -0.0016174227 0.96810597 2.1816533e-05
-0.0070931246 0.011198128 0.029246038 -0.25567177 -0.7226007 0.64224625 0.021969289
-0.0044405786 0.010673312 0.029227033 -0.04630629 -0.75250256 0.65695935 0.023674103
-0.0015314678 0.010139072 0.028895253 0.00847835 -0.82177967 0.56974232 0.02208909
0.0014997927 0.010456877 0.02894824 0.074519239 -0.75590211 0.65042973 0.022605231
0.0044452869 0.010994363 0.028507082 0.37093174 -0.74785537 0.55056518 0.023146339
0.0063802488 0.011774688 0.028215842 0.42768145 -0.7431547 0.51459652 0.024884893
-0.040472005 0.013302078 0.028896471 -0.13560851 0.010604669 0.99070573 0.0011970622
-0.037326064 0.013478122 0.029394493 -0.068735689 0.0068253353 0.99761152 0.0012266464
-0.034748785 0.013458152 0.029423695 -0.035561889 -0.0018516754 0.99936575 0.00099583983
-0.031680033 0.013586306 0.029405592 -2.6330983e-06 -0.0015666016 0.99999881 7.5043595e-06
-0.02853379 0.013350148 0.029411942 0.00114339 0.00017817513 0.99999934 7.7577288e-06
-0.025643243 0.013541768 0.02940263 0.0012882436 -4.4649933e-05 0.99999917 1.5825472e-05
-0.02260234 0.013544958 0.029404907 0.089098141 -0.0030016154 0.99601829 0.0026625441
-0.019628912 0.01358128 0.028697267 0.26828972 -0.00076906179 0.96333796 0.00018550256
-0.016577568 0.013536046 0.027723009 0.15618208 -0.14596598 0.97688335 0.028554987
-0.01443749 0.013355433 0.027196243 -0.091513775 -0.33551702 0.93757856 0.056471575
-0.010251566 0.01381162 0.0296773 -0.43133456 -0.52271748 0.73533458 0.0077918475
-0.0074976073 0.012377459 0.029786339 -0.14323066 -0.31754851 0.93736225 0.0021885077
0.0048827296 0.012652842 0.029805616 0.2346563 -0.44309714 0.86521745 0.0057616015
0.0077060987 0.013251285 0.028801605 0.47112146 -0.56353647 0.67858022 0.021391589
0.009608903 0.014403683 0.028129626 0.62391573 -0.55036956 0.5548175 0.025744256
-0.042049594 0.01782522 0.028333707 -0.23825979 0.0021747567 0.97119898 0.0020511872
-0.040628225 0.016327407 0.028833875 -0.22481105 0.027392004 0.97401732 0.0012011881
-0.037167285 0.016546847 0.02940149 -0.11399605 0.0048094089 0.99346948 0.0022144611
-0.034496795 0.016558386 0.029423714 -0.0019859113 2.0373798e-05 0.99999803 0
-0.031761277 0.016552527 0.029413175 -0.00084502046 -0.00013519466 0.99999964 0
-0.028703045 0.016293738 0.029418517 0.0023990208 -0.00096917525 0.9999966 4.5318016e-06
-0.025618996 0.016532196 0.029393764 0.043558635 -0.0010707093 0.99905032 0.0018340738
-0.022610929 0.016611859 0.029408371 0.11235255 -0.015714811 0.9935441 0.0019098886
-0.019670617 0.016570598 0.028720526 0.26067314 -0.007008242 0.96540171 0.00045314894
-0.016848031 0.016343765 0.027792912 -0.040614951 -0.10569412 0.9935689 0.034196321
-0.013159405 0.016248174 0.02931544 -0.39807755 -0.39055029 0.8300631 0.0071079521
-0.011018578 0.015289157 0.0299234 -0.35214558 -0.34893408 0.86846906 0.016509388
0.008386964 0.015573313 0.02988668 0.35273349 -0.31887302 0.87971532 0.0070302775
0.010716167 0.016502405 0.028788447 0.61571997 -0.43715048 0.65558249 0.019641031
0.012125032 0.017740989 0.027480176 0.76224345 -0.3890782 0.51730371 0.022828842
-0.042377062 0.019495625 0.028163787 -0.24217701 -0.00076333788 0.97023177 0.0020527965
-0.03984566 0.019565023 0.029116791 -0.18331264 0.0054345117 0.98303956 0.0052848058
-0.037276015 0.019441772 0.029401813 -0.10349607 -0.019483067 0.99443901 0.0023893623
-0.034191832 0.019610265 0.029404353 -0.0020705487 0.0015058729 0.99999672 5.4717702e-06
-0.031467523 0.019417342 0.02941904 0.00043838006 0.0010645147 0.99999934 3.7949849e-06
-0.028796837 0.019350331 0.029421331 0.00093642843 -0.00024972577 0.99999958 8.2375964e-06
-0.025702227 0.019572586 0.02939905 0.0013298027 -0.0013367032 0.99999827 0
-0.022688171 0.019637376 0.029413288 0.10046713 -0.017628761 0.99478424 0.0017650153
-0.019699953 0.01956626 0.028752452 0.099526033 -0.033465933 0.99447209 0.024611579
-0.017388176 0.019425243 0.028183956 -0.10779303 -0.09292201 0.98982126 0.032645319
-0.014473567 0.018960442 0.029612506 -0.31434375 -0.17862441 0.93235254 0.010107599
0.011223867 0.019241223 0.029728133 0.52385098 -0.23456198 0.81887776 0.012219512
0.012673927 0.019555638 0.028328717 0.83764589 -0.29363969 0.46057042 0.018534988
-0.042976413 0.021587823 0.027827632 -0.24374582 0.024750652 0.96952331 0.0022806565
-0.040039487 0.022722717 0.029071039 -0.18237811 0.0077524483 0.98319781 0.0045329966
-0.037392534 0.022351213 0.029397529 -0.054911863 0.040518545 0.99766874 0.00058693509
-0.034200728 0.022507021 0.029413316 -0.0099270176 0.044192921 0.99897367 0.00027638418
-0.031240333 0.02262673 0.029402392 -0.005155501 0.041912932 0.99910802 0.00028768365
-0.028707929 0.022376807 0.029422073 0.006551574 0.041658964 0.99911046 0.00028682451
-0.025836946 0.022530003 0.029408256 -0.0046615158 0.031918652 0.99947959 0.00040734746
-0.022756794 0.02256955 0.02941856 0.10452197 0.0069413832 0.99449837 0.0048718951
-0.019983109 0.022052843 0.028922858 0.18574508 0.016305994 0.98246264 0.0027671631
-0.017733876 0.021086054 0.028069209 -0.07728117 -0.15939064 0.98418611 0.03303425
0.011671247 0.021350263 0.029837459 0.51465589 -0.17488734 0.83937097 0.013038661
0.0132012 0.022579169 0.02857843 0.82743561 -0.056337763 0.5587275 0.023946732
-0.040187001 0.025511326 0.028811784 -0.13012372 0.013252608 0.99140918 0.0048752828
-0.037555203 0.025426678 0.02909754 -0.054447372 0.080949597 0.99522996 0.00041417763
-0.034282729 0.025399463 0.029172957 -0.004128933 0.076894224 0.99703062 0.00033865281
-0.031263277 0.025384838 0.029167684 -0.00010516694 0.095938198 0.99538726 2.009596e-05
-0.028443569 0.02561067 0.029147601 -0.013464272 0.099252626 0.99497122 0.00018991118
-0.025672151 0.025447115 0.029162256 -0.013407234 0.071853824 0.99732506 0.00069848
-0.02306862 0.024606496 0.029413067 0.027491555 0.061449684 0.99773145 0.0017415723
0.01325745 0.025439143 0.028684804 0.82623112 -0.0039132396 0.56331778 0.020911092
-0.040037781 0.028755844 0.028523043 -0.039842751 -0.0046419925 0.99919516 0.0025837685
-0.037421521 0.028577557 0.02883134 -0.055236869 -0.021724416 0.99823695 0.0024063042
-0.034273084 0.028498827 0.028850751 0.026533663 -0.0010059664 0.99964744 0.0020731958
-0.031097479 0.028541833 0.028825222 0.030817509 0.028471122 0.99911946 0.0014481487
-0.028497612 0.02851749 0.028824082 -0.0066714301 0.039310817 0.9992047 0.00066088582
-0.026488123 0.028384361 0.028823193 -0.012659135 0.065347314 0.99778229 0.00072746124
0.011579097 0.028864503 0.029797355 0.63891888 0.13502833 0.75733083 0.039078943
0.013038348 0.028338127 0.028526356 0.82576364 0.13389669 0.54789239 0.025945522
-0.040585909 0.031640738 0.028943548 -0.083142541 0.0089638457 0.99649739 0.0025535421
-0.037316028 0.031559538 0.029324438 -0.023220897 -0.048864517 0.99853545 0.0023533916
-0.034490198 0.031399399 0.029266769 0.035792746 -0.0040437812 0.99935102 0.0017594565
-0.031482205 0.03152262 0.028896183 0.041189436 -0.0087322807 0.9991132 0.00069002411
-0.02807208 0.031472404 0.028823987 -0.1557555 -0.037127357 0.98709762 0.0088693388
0.010983271 0.031770494 0.029330749 0.64944428 0.3816137 0.65771812 0.02943404
0.012348641 0.030910861 0.028216656 0.78875065 0.29613134 0.53868228 0.023998024
-0.04028802 0.033990659 0.028895421 -0.082462624 0.023014104 0.99632841 0.002733194
-0.037636198 0.034664862 0.029072877 -0.049213439 0.077682242 0.99576277 0.00070213067
-0.034514707 0.034527961 0.029067626 0.029607195 0.053066567 0.9981519 0.00060689641
-0.031380977 0.034296378 0.028849607 0.041076154 0.016590262 0.99901825 0.00070852216
-0.02831948 0.034325667 0.028823899 -0.23400788 -0.075460307 0.96930182 0.0071918964
0.0079801977 0.034904681 0.029726261 0.34542161 0.3531321 0.86947197 0.002791085
0.010050457 0.034210362 0.028500058 0.65495151 0.5474323 0.52091891 0.017220335
-0.039910369 0.037437219 0.028432701 -0.054101758 0.051551737 0.99720383 0.001049252
-0.037171919 0.037447173 0.028819541 -0.033730295 0.048916738 0.9982332 0.0014758523
-0.034553308 0.037430339 0.028827924 -0.017938809 0.025960948 0.999502 0.0015239238
-0.031390503 0.037523195 0.028826322 0.007781262 0.012482541 0.99989182 0.00028290591
-0.029263634 0.036467854 0.028825108 -0.20154881 -0.04429445 0.97847641 0.011698097
-0.0091524506 0.038850255 0.028815852 0.10436049 0.22923644 0.96776009 0.039354317
-0.0066399043 0.038177285 0.029554836 0.021504337 0.52178925 0.85280329 0.010432049
-0.0046617687 0.038151801 0.029794281 -0.036840186 0.51184386 0.85828823 0.0095628034
-0.0015894979 0.038619377 0.029737592 0.014511832 0.30861977 0.95107478 0.0014254124
0.0015644889 0.038301341 0.029731745 0.12305292 0.38401911 0.91508865 0.0055479081
0.0046731262 0.037463926 0.029624159 0.20408078 0.39558539 0.89546818 0.0056279409
0.0073080342 0.036767136 0.028637832 0.49865299 0.63867998 0.58603173 0.026476761
-0.039699242 0.039838057 0.028493296 -0.037096504 0.012882742 0.9992286 0.0018129987
-0.03760419 0.0406592 0.028828816 -0.057033814 0.0054271333 0.99835747 0.0027361568
-0.034656096 0.040392797 0.028828422 -0.012864538 -0.088179208 0.99602163 0.011027991
-0.03149002 0.040576044 0.028826822 0.031968217 -0.064399824 0.99741203 0.0077459184
-0.029421389 0.041503605 0.028825415 -0.10868033 -0.0069515775 0.99405247 0.027945163
-0.018447649 0.0414644 0.029158756 0.22796161 0.24862617 0.94139177 0.015020048
-0.016203351 0.041283421 0.028935403 0.17225377 0.23123263 0.95752811 0.015095275
-0.013034415 0.040910397 0.028818585 0.052017607 0.042142585 0.9977566 0.031082332
-0.010162531 0.040585872 0.028816964 0.050561585 -0.047410581 0.99759501 0.025376972
-0.0072124898 0.040603284 0.028702974 0.15073431 0.21466132 0.96498686 0.044756699
-0.0053199697 0.041048914 0.02799944 0.041572303 0.4229908 0.9051798 0.060356595
-0.0010684649 0.039423041 0.029433941 -0.031010361 0.43838629 0.89825159 0.0024222534
0.00038146117 0.039248694 0.029451769 0.12305296 0.38401917 0.91508865 0.0055479468
0.0037123279 0.039011143 0.028451644 0.37989843 0.63140559 0.6760208 0.022370417
-0.039438754 0.043864667 0.02882354 -0.20548192 -0.14903957 0.96724576 0.028981484
-0.037497375 0.043510716 0.028830253 -0.15687375 -0.14972685 0.97620302 0.027107425
-0.034593046 0.043483548 0.028941775 -0.11853831 -0.2119824 0.97005779 0.032427311
-0.031714309 0.043624893 0.028884867 0.16249776 -0.18926631 0.96838665 0.023004225
-0.028731994 0.043792196 0.028826047 0.15648104 -0.19458307 0.96832383 0.013164778
-0.025616016 0.044684097 0.02882505 -0.029402168 0.23194015 0.97228557 0.019614393
-0.022012027 0.044307273 0.028644217 0.026413521 0.35068256 0.93612182 0.017414175
-0.019095078 0.043642107 0.028889246 0.16539823 0.21819444 0.96178722 0.027247433
-0.016168751 0.043526985 0.028820405 0.11125628 0.16349897 0.98025006 0.0099251345
-0.013162278 0.043489326 0.028779712 -0.10339344 -0.22770841 0.96822453 0.03391451
-0.010102097 0.043794625 0.028983194 0.053134788 -0.25482491 0.96552628 0.018326862
-0.0072839684 0.043502111 0.028816169 0.30552924 -0.2147361 0.92765313 0.022536177
-0.005034118 0.043529276 0.028044865 0.68326008 -0.11148988 0.72161323 0.019338487
-0.039771911 0.046166364 0.028831726 -0.22755469 -0.23144734 0.94585991 0.026589656
-0.037280008 0.045339875 0.028268198 -0.21358395 -0.21566413 0.95282257 0.029446304
-0.030804018 0.045786906 0.029258111 0.23430631 -0.26218623 0.93614042 0.013503818
-0.02866669 0.046653427 0.028913988 0.2164607 -0.14320618 0.96573126 0.021556629
-0.025409188 0.046493772 0.028825007 0.087285861 -0.037228085 0.99548745 0.0092236307
-0.022318644 0.046435177 0.028823717 0.011671313 0.10737447 0.99415016 0.015934102
-0.019264298 0.046585511 0.028822476 0.056142207 0.10302364 0.99309325 0.015651338
-0.016526386 0.046046026 0.028821025 -0.14333227 -0.14452919 0.97906452 0.025469087
-0.014047938 0.045444679 0.028236941 -0.19614807 -0.26543844 0.94396424 0.028231546
-0.0072627664 0.046194728 0.029191136 0.3105835 -0.2770023 0.9092896 0.01128875
-0.0044566137 0.04663007 0.028157704 0.71428758 -0.11656912 0.69007599 0.013646624
-0.02854622 0.049412377 0.029041421 0.2537975 -0.072440796 0.96454096 0.026565686
-0.025493586 0.049446441 0.028825205 0.089501895 -0.0045645996 0.99597621 0.010148753
-0.022399129 0.049477641 0.028823975 0.00099434482 -0.010815468 0.99994105 0.00015541376
-0.019335773 0.049508445 0.028822683 -0.13734148 -0.00027851929 0.99052376 0.0083311619
-0.0061124288 0.048877917 0.029435355 0.62593091 -0.015154772 0.77973133 0.01535664
-0.0046108863 0.049555659 0.028459217 0.69712549 -0.012051723 0.71684784 0.019059394
-0.03052084 0.053464934 0.029048573 0.29112229 0.27191818 0.91722858 0.018198077
-0.028750446 0.052439015 0.029036466 0.22280397 0.22606404 0.94828975 0.026713299
-0.025580624 0.052516181 0.028825892 0.08558999 0.026175734 0.99598646 0.011762012
-0.022406206 0.052537266 0.028824473 -0.017535005 -0.084909447 0.9962343 0.011964755
-0.01940708 0.052442655 0.028823303 0.1122621 -0.14239092 0.98342365 0.014423671
-0.01740876 0.053849332 0.028822668 -0.036072873 0.003937514 0.99934137 0.028851721
-0.0067283306 0.052691545 0.029010709 0.47437885 0.15775037 0.86607128 0.0079273246
-0.0044907453 0.052430738 0.028225083 0.73739976 0.1094195 0.66653514 0.013262031
-0.039528284 0.056177825 0.028832963 -0.10207985 0.22150064 0.96980262 0.010446049
-0.037579644 0.056306265 0.028832179 -0.10763381 0.24552219 0.96339697 0.012493961
-0.03399799 0.056191519 0.028830374 0.069469675 0.29232001 0.953794 0.025352575
-0.03158851 0.055643007 0.028695963 0.13530579 0.26009825 0.95605505 0.0265665
-0.028803414 0.055490784 0.028828407 0.084809095 0.18752353 0.97859198 0.019965548
-0.02573189 0.055537503 0.028680319 -0.10826918 -0.15250999 0.98235351 0.021349154
-0.02248721 0.055445172 0.028972952 0.0045824288 -0.24319947 0.96996546 0.023233734
-0.019557739 0.055643741 0.028949782 0.17881455 -0.19375308 0.96461654 0.024437198
-0.016544741 0.055864144 0.02882291 0.18509881 -0.19952336 0.96225196 0.01625582
-0.013640122 0.056420825 0.028821293 -0.09489537 0.25640744 0.96189922 0.019042386
-0.010193209 0.055962615 0.028686754 0.038020089 0.34678 0.93717563 0.016313821
-0.0074142343 0.055679198 0.028818177 0.25467047 0.28261262 0.92480975 0.022139957
-0.0050494275 0.055403955 0.028173398 0.69731575 0.21163471 0.6848076 0.023071758
-0.037251089 0.058217049 0.028832817 -0.056626923 0.20039287 0.97807777 0.013876853
-0.034212105 0.058590136 0.028831659 0.0063503161 -0.011013051 0.99991918 8.2214472e-05
-0.031480204 0.058485329 0.02883032 0.05661111 0.10802236 0.99253529 0.017674718
-0.029094374 0.058136404 0.028829139 -0.12716313 -0.046580061 0.99078751 0.017381916
-0.026759999 0.057342272 0.028827533 -0.19281639 -0.26396391 0.94506341 0.012503073
-0.018814048 0.057787776 0.029251885 0.25922549 -0.24396603 0.93449605 0.013591109
-0.016794041 0.058619604 0.028912865 0.15833746 -0.16249256 0.97392267 0.023385007
-0.013482699 0.058527716 0.028821809 0.082927875 -0.029273897 0.99612552 0.0077028195
-0.010491778 0.058513544 0.028820312 0.045646608 0.1296986 0.99050224 0.015509971
-0.0072766077 0.058702938 0.028496481 0.43835557 0.35419565 0.82606888 0.072020248
-0.0057768836 0.057737868 0.027963396 0.56892878 0.29511485 0.7676115 0.071945496
-0.03670812 0.060725685 0.028833328 0.00044146646 -0.00022581662 0.99999994 4.5421243e-06
-0.034311291 0.06152226 0.028832287 0.00041503314 -0.00013482892 0.99999994 0
-0.031186352 0.061487194 0.028830718 0.00033762629 -2.5858371e-05 0.99999994 0
-0.029996241 0.060041767 0.028830489 -0.0051317117 -0.0084716529 0.99995089 9.3943541e-05
-0.016739478 0.061486337 0.029002538 0.29511175 0.10751537 0.94939423 0.030916082
-0.013544659 0.061572347 0.028822387 0.10716378 0.032890141 0.99369729 0.0110871
-0.010381049 0.061605975 0.028751889 0.23529878 0.28748941 0.92843109 0.05576938
-0.0081366263 0.060961768 0.028416177 0.56769502 0.49570593 0.65726554 0.042836789
-0.033579692 0.063691452 0.028831435 0.00040892669 -5.3617066e-05 0.99999988 0
-0.03112275 0.064424895 0.028830633 -0.16348308 0.040265918 0.98572409 0.0086324466
-0.029106466 0.065509506 0.028830741 -0.19465587 0.12763277 0.97253227 0.011307709
-0.018818663 0.064858332 0.02901414 0.29977754 0.25971854 0.9179759 0.021250704
-0.0167375 0.064491972 0.028848482 0.16296482 0.21259934 0.96345419 0.02703147
-0.013602834 0.064418219 0.02882258 0.26860869 0.32830796 0.90557343 0.061593503
-0.011114026 0.063799217 0.028449889 0.52711421 0.65203971 0.5449723 0.049270019
-0.030200293 0.066541716 0.028830573 -0.14225097 0.095726065 0.98519093 0.0099370843
-0.028299937 0.066767916 0.02883004 -0.14201665 0.23620169 0.96126992 0.0090781124
-0.025487479 0.067754224 0.02882879 -0.085562736 0.35022959 0.93274766 0.007544402
-0.022492619 0.067464195 0.028783368 0.034937903 0.38616586 0.92176753 0.0089669181
-0.01970562 0.067061275 0.028786348 0.11166063 0.42316329 0.89914662 0.0095380349
-0.016887018 0.066619262 0.02882513 0.16297834 0.21258263 0.96345562 0.027086874
-0.014643464 0.066055879 0.028823461 0.34288195 0.62446374 0.70176709 0.072195239
-0.025292171 -0.060952809 0.031178109 -0.061521597 -0.41892889 0.90593249 0.044795707
-0.022481883 -0.061338797 0.031060064 0.0070335185 -0.47172916 0.88171542 0.048944972
-0.01934284 -0.061116725 0.030919721 0.28182077 -0.26945692 0.9208529 0.053657968
-0.025246659 -0.05852117 0.031014223 -0.14602198 -0.1528683 0.97739905 0.061168052
-0.02244336 -0.058527499 0.030984061 0.025006499 -0.083973251 0.99615419 0.035926167
-0.018981775 -0.058613256 0.030847913 0.43047386 -0.0055905371 0.90258574 0.030920707
-0.025072072 -0.055663548 0.03072682 -0.0010313486 0.21520481 0.9765684 0.01716087
-0.022426041 -0.055476721 0.030625165 0.12126873 0.21218514 0.9696759 0.015511476
-0.019350626 -0.055692043 0.030626182 0.34729269 0.24570757 0.90499485 0.024143437
-0.033984173 -0.052238069 0.031173786 -0.099897213 -0.40569776 0.90853173 0.038819537
-0.031488948 -0.052525796 0.030891184 0.12970021 -0.36104709 0.92348409 0.026452517
-0.028275725 -0.052163236 0.030589169 0.11871607 -0.34863383 0.92971015 0.035527583
-0.025831506 -0.052132532 0.030140027 0.06498836 0.086722039 0.99411058 0.03903161
-0.022770775 -0.053511102 0.030113846 0.066555478 0.33714318 0.93909788 0.010901384
-0.020294296 -0.053455889 0.030135797 0.090786681 0.095862292 0.99124581 0.070053004
-0.016215693 -0.052216791 0.030698534 0.056897759 -0.42446473 0.90365499 0.062402327
-0.013505184 -0.052468155 0.030848753 -0.079062827 -0.4489893 0.89003247 0.051226221
-0.01055437 -0.052339081 0.030946072 0.33167264 -0.099802926 0.93810052 0.02676997
-0.033923246 -0.049514197 0.031176182 -0.097690225 -0.29318652 0.95105112 0.041743018
-0.031369265 -0.049506508 0.030952716 0.093968391 -0.13238311 0.98673439 0.024755727
-0.028410284 -0.049506906 0.030560745 0.21974058 -0.12769908 0.9671644 0.024349863
-0.026657086 -0.049430348 0.030083299 0.42287651 0.095657848 0.90112424 0.021172963
-0.016889159 -0.049405981 0.030497873 -0.29447252 -0.13471055 0.94611782 0.018832652
-0.013852227 -0.049484063 0.030926719 0.047360841 -0.008476356 0.99884188 0.02109703
-0.01020982 -0.049477898 0.030855244 0.39042652 -0.037272152 0.91987932 0.032806281
-0.033852093 -0.046609517 0.031185322 -0.11787854 0.28491193 0.95127803 0.013606272
-0.031365681 -0.046610832 0.030984504 0.12323911 0.32957268 0.93605232 0.017460093
-0.028473441 -0.046650197 0.030636644 0.24531713 0.27865219 0.92853248 0.019186188
-0.026677078 -0.047211181 0.030118627 0.069346845 -0.0032783172 0.99758714 0.063489407
-0.022903526 -0.045186501 0.030062199 -0.022073813 -0.32155144 0.94663483 0.029717598
-0.020922767 -0.045309331 0.030084914 0.0017354554 -0.11048084 0.9938767 0.03264438
-0.016556866 -0.046801567 0.030661056 -0.11999268 0.11532943 0.98605317 0.029445721
-0.013878642 -0.046678063 0.030956142 0.019844731 0.32925341 0.94403303 0.019926405
-0.010609506 -0.046540529 0.030993005 0.21404308 0.23304877 0.9486168 0.03526932
-0.024946459 -0.043364387 0.030647168 -0.089976184 -0.24007985 0.96657431 0.022952221
-0.022621518 -0.043501563 0.030519716 0.12260167 -0.20924047 0.97014809 0.01386987
-0.019624358 -0.043392021 0.03056745 0.29476419 -0.26108205 0.91921175 0.019861836
-0.025277352 -0.040377382 0.030985078 -0.26775593 -0.17783408 0.94693285 0.009556788
-0.02266629 -0.040505923 0.030938335 0.11482319 -0.10030428 0.98830903 0.013117832
-0.019144304 -0.040393971 0.030781435 0.37932575 -0.001192722 0.92526245 0.028940484
-0.025381679 -0.037960138 0.031188713 -0.18605828 0.17434664 0.96694654 0.028328072
-0.022462757 -0.037700273 0.031172413 0.091848649 0.36095232 0.92805022 0.024435967
-0.01911247 -0.037788287 0.030935815 0.34477943 0.099944189 0.93334788 0.028891573
-0.0069315801 -0.036086269 0.030088652 -0.14598031 -0.32452723 0.93454361 0.0010215518
-0.0042569693 -0.036704466 0.030180864 -0.079276837 -0.32546422 0.94222522 0.00091469672
-0.0013471388 -0.036656789 0.030318825 -0.0060987212 -0.40882176 0.9125939 0.0074790348
0.0013427758 -0.036615968 0.030208239 0.10246293 -0.44135305 0.89146447 0.0088888612
0.0031523635 -0.036257364 0.030142331 0.21501349 -0.49603829 0.84125811 0.0082361875
-0.0098072616 -0.033813391 0.030227982 -0.21050675 -0.23647586 0.94856 0.0016184907
-0.0074184709 -0.034355879 0.030598147 -0.14352977 -0.2558611 0.95599908 0.0021813726
-0.0045187338 -0.034480616 0.030751284 -0.076437712 -0.22425923 0.97152716 0.0016485867
-0.001608676 -0.034619045 0.030830014 -0.012169594 -0.22888632 0.97337705 0.0013923105
0.001436427 -0.03467093 0.030830046 0.06842126 -0.24605118 0.96683884 0.0011899685
0.00444397 -0.034446649 0.030556621 0.22679752 -0.33634672 0.91402066 0.0079693589
0.0067309723 -0.033767845 0.030252192 0.28578612 -0.33446771 0.89802986 0.010439084
-0.012634954 -0.030935619 0.030107509 -0.23354414 -0.12203887 0.96465719 0.0031222946
-0.010572966 -0.031927347 0.030541718 -0.21616568 -0.22030914 0.95117623 0.0017038593
-0.0076031433 -0.031798221 0.030796079 -0.13878885 -0.17401771 0.974913 0.0015499744
-0.0042649438 -0.031764511 0.031159557 -0.060925044 -0.23553541 0.96995419 0.0040043779
-0.0013464042 -0.031523019 0.03159222 -0.033442698 -0.28594163 0.95766324 0.0042339102
0.0013995618 -0.0314373 0.031317078 0.12450021 -0.28853494 0.9493404 0.0074415109
0.0042773755 -0.031372927 0.031033408 0.16404469 -0.20221774 0.96550369 0.0020971922
0.0074881525 -0.031498421 0.030658765 0.29152775 -0.25009623 0.92328948 0.0077759987
