# .PCD v0.7 - Point Cloud Data file format
VERSION 0.7
FIELDS x y z normal_x normal_y normal_z curvature
SIZE 4 4 4 4 4 4 4
TYPE F F F F F F F
COUNT 1 1 1 1 1 1 1
WIDTH 566
HEIGHT 1
VIEWPOINT 0 0 0 1 0 0 0
POINTS 566
DATA ascii
0.013301603 -0.016467836 0.019476134 0.86537528 0.46117616 0.19606698 0.0016604731
0.010986174 -0.013134775 0.019641271 0.78862751 0.56838107 0.23454091 0.0016806264
0.012283521 -0.014610612 0.019096032 0.81408614 0.54888415 0.18971018 0.00045790942
0.0085064238 -0.010322426 0.020423979 0.77447498 0.40715033 0.48416641 0.029926183
0.0096485848 -0.010824359 0.019152798 0.87410188 0.33896896 0.3479166 0.033602554
0.00850851 -0.0076377429 0.020333035 0.89432359 0.11831854 0.43149278 0.061446059
0.0097448714 -0.0075471452 0.01877396 0.92431605 0.089211315 0.37105414 0.062000319
0.0085662873 -0.0046197167 0.020283841 0.83804703 -0.051399808 0.54317147 0.072917521
0.0095896972 -0.004529614 0.019056436 0.98038357 -0.062814742 0.1868217 0.10855886
0.0084903408 -0.0016295959 0.020353561 0.85928494 -0.0067832931 0.51145226 0.065273471
0.0096560996 -0.0014350007 0.018965304 0.93286443 -0.022633318 0.35951594 0.048636191
0.0085907271 0.0014750685 0.020269528 0.78279513 0.094023116 0.61513525 0.047419887
0.0096452674 0.0016186406 0.0189595 0.89646369 0.10110641 0.4314281 0.040496189
0.008427171 0.0046191872 0.020393314 0.79768336 0.0004132443 0.60307628 0.054576103
0.0096852398 0.0042677913 0.018826323 0.90573198 -0.010759974 0.42371419 0.048632096
0.0083284844 0.0075680981 0.020445688 0.72303057 8.1768296e-05 0.69081599 0.032578595
0.0097023305 0.0076477798 0.018849483 0.88371187 -0.089937136 0.4593088 0.03995249
0.0082076089 0.0098477621 0.020573292 0.77399081 -0.016728498 0.63297582 0.032399874
0.0096602598 0.010168347 0.01884412 0.86323994 -0.43241256 0.26045391 0.025716787
0.012121999 0.014818335 0.019609276 0.86369741 -0.47048762 0.18074328 0.00036900889
0.013311532 0.016923232 0.019798655 0.88538903 -0.42456472 0.18929096 0.00099604344
0.014408012 0.019376675 0.019555587 0.93013817 -0.30500114 0.20449294 0.0015868995
0.015059365 0.020714881 0.018417543 0.94762546 -0.27417532 0.16381097 0.0024116246
0.01488787 0.02204624 0.020378014 0.96900398 -0.10827882 0.22205164 0.002011958
0.015255318 0.022892669 0.019153664 0.97807592 -0.09618672 0.18470421 0.0019815457
0.014927148 0.026450425 0.020783344 0.97472739 0.044519249 0.21891668 0.0018482654
0.015283815 0.025491856 0.019351987 0.98377645 0.041440878 0.17454661 0.0017989795
0.014693973 0.028840275 0.019762717 0.9456504 0.25155434 0.20607211 0.0016972343
0.015142538 0.027740765 0.01884635 0.95999604 0.20074862 0.19521168 0.0017823935
0.013810233 0.031566996 0.019447971 0.90420651 0.38041753 0.19414736 0.0014541245
0.011451622 0.03535698 0.019670174 0.74114567 0.64008582 0.20246796 0.00086405885
0.012557894 0.033918675 0.019421823 0.82013041 0.54097319 0.18637101 0.0018255826
0.0083900746 0.03840391 0.019852638 0.66999245 0.60532928 0.42975155 0.022141587
0.0099385977 0.037059378 0.019435221 0.75967449 0.58915311 0.27530566 0.0094725695
0.0053394628 0.04114417 0.020545114 0.55695784 0.30427173 0.77279788 0.01475955
0.0073112957 0.040237159 0.019462181 0.65882182 0.42654702 0.6196866 0.026771488
0.0050020823 0.043389171 0.02045686 0.49974439 0.053203143 0.86453748 0.015043864
0.0075005107 0.043527313 0.019005168 0.52623242 -0.067768365 0.84763598 0.0037533636
0.0091777537 0.044005208 0.018130977 0.58427072 -0.13527188 0.80020571 0.0056540691
0.0053345421 0.046590801 0.020686381 0.45150402 -0.10276707 0.8863312 0.00063112832
0.0075259805 0.046598867 0.019566452 0.4533706 -0.14354803 0.87968689 0.00027765075
0.0096760485 0.046708386 0.018443171 0.46797848 -0.16908768 0.8674131 0.00046745513
0.0056161522 0.049660575 0.020855272 0.41789657 -0.021860786 0.90823156 0.0011191545
0.0074034766 0.04951467 0.020019993 0.43181494 -0.042514339 0.90095973 0.0013099355
0.01019824 0.049662035 0.018664071 0.44083884 -0.072758779 0.89463252 0.0012427716
0.0053448118 0.052834511 0.020763202 0.39056885 0.080828644 0.91701841 0.00029260272
0.0074551962 0.052477986 0.019911248 0.40609625 0.067011617 0.91136998 0.00038175506
0.010314407 0.052421726 0.018605789 0.43307176 0.040892571 0.90043139 0.00060562341
-0.050800279 0.056750022 0.020942239 -0.47585112 0.58425939 0.65742433 0.0061600027
0.0049089584 0.055629045 0.020586533 0.35493553 0.12687901 0.92624104 0.00032423492
0.0075352723 0.055530105 0.019523472 0.38694537 0.1046996 0.9161393 0.00025321019
0.010073146 0.055420872 0.0184488 0.42523995 0.090554811 0.90053922 0.0001575214
-0.05105098 0.058379199 0.019277584 -0.56843472 0.65694368 0.49528477 0.005540757
-0.04953086 0.05907676 0.020102898 -0.50451624 0.6557681 0.56163281 0.0046137716
0.0024631729 0.059001017 0.02089441 0.3019968 0.17504933 0.93709964 0.00055849628
0.004483812 0.058539432 0.020319531 0.31557041 0.14686826 0.93746728 0.00065537484
0.0075731575 0.05861409 0.019201614 0.36969972 0.11758881 0.92168063 0.00040914354
0.0097030075 0.058169272 0.018324526 0.42347163 0.11029299 0.89917028 0.00022944965
-0.048495341 0.060562596 0.019121515 -0.45525968 0.75455344 0.47263914 0.0039771544
-0.046334125 0.061276864 0.01952037 -0.4000684 0.79378355 0.45809713 0.0048792819
-0.043877058 0.06230817 0.019864667 -0.41383451 0.81289035 0.40981734 0.0018517571
-0.00084616838 0.06256476 0.020797044 0.18861057 0.32935554 0.9251762 0.0022558747
0.0016368966 0.06142012 0.020576796 0.23107433 0.243377 0.94200444 0.0014315594
0.0044994666 0.0615176 0.019829936 0.2745567 0.17654818 0.94522452 0.0008618164
0.007461037 0.061460868 0.018864388 0.35584947 0.14418447 0.92335373 0.0006975804
0.0092536574 0.061213773 0.018149968 0.41768453 0.14365803 0.89716333 0.00022409228
-0.042673718 0.063303448 0.019085357 -0.39705443 0.83966732 0.37054914 0.0025672654
-0.040591892 0.064062022 0.019521488 -0.39226291 0.86090368 0.32399771 0.0021757281
-0.037800133 0.06530837 0.019467751 -0.37947536 0.88640624 0.26510817 0.0013341696
-0.035923731 0.065734163 0.020737799 -0.4042919 0.88989341 0.21127646 0.0024403958
-0.009688722 0.065919966 0.020771947 0.26364705 0.79743993 0.54275209 0.009563419
-0.007410415 0.065405697 0.020582113 0.19952835 0.64923412 0.73395056 0.0084720952
-0.0044496972 0.06488692 0.020378688 0.13658078 0.49405599 0.85863519 0.005746529
-0.0015654642 0.064455144 0.020227643 0.15118505 0.38326433 0.91118139 0.0041261064
0.0015273977 0.064449705 0.019830745 0.14473616 0.29568052 0.94425869 0.0021974854
0.0045914901 0.064458594 0.019255104 0.2337141 0.23488307 0.94350821 0.001911295
0.0071671316 0.064311959 0.018496346 0.34549749 0.20535845 0.91567427 0.0014806433
-0.036526836 0.066075034 0.018463098 -0.35102341 0.9205299 0.17148562 0.0036201698
-0.034454525 0.066571303 0.01936339 -0.28323466 0.94509214 0.16303061 0.001019273
-0.031433158 0.06740167 0.019557586 -0.25924274 0.95957267 0.10960573 0.0010021797
-0.028446164 0.068080589 0.019402456 -0.19399135 0.97774023 0.079946436 0.00031454352
-0.025505459 0.068572223 0.019547468 -0.13643305 0.9867655 0.087634355 0.00028618603
-0.022607785 0.068883963 0.019791665 -0.015782464 0.99267828 0.11975302 0.0016595172
-0.019447377 0.068729699 0.019586923 0.093485087 0.98676312 0.13251063 0.00058499136
-0.016526984 0.068278603 0.019532816 0.18391664 0.95219624 0.24392007 0.0037864735
-0.01346136 0.06767723 0.019493951 0.17886439 0.91095686 0.37170571 0.0075060758
-0.010551457 0.067098148 0.019478887 0.097393252 0.80661827 0.58299357 0.0063803135
-0.0076176133 0.066982158 0.019140057 0.0482403 0.68078595 0.73089224 0.0063363137
-0.0045298659 0.067269959 0.018868679 0.020761093 0.5769217 0.81653553 0.0051766862
-0.0014843545 0.067386106 0.018870352 0.031526648 0.48162749 0.87580878 0.002511831
0.0015662261 0.067525953 0.018727424 0.080838613 0.41852131 0.90460211 0.0020764342
0.0044169012 0.067207009 0.018508406 0.21967722 0.3320165 0.91733694 0.0031676807
0.0066244327 0.06649819 0.018208135 0.34324744 0.26079354 0.90231258 0.0021233705
-0.022138463 0.069041066 0.0184734 -0.022880483 0.99363959 0.11025796 0.0017107571
-0.020517217 0.069006555 0.018114829 0.062414825 0.98727387 0.14626934 0.0015299249
-0.0037192644 -0.060412474 0.022168318 0.36076841 -0.31583598 0.87754995 0.011267946
-0.0016401096 -0.060848732 0.021468602 0.29468554 -0.23140083 0.92715371 0.0012592867
-0.0042211884 -0.058593482 0.023254737 0.64944631 -0.29115936 0.70245695 0.028535057
-0.00089415972 -0.057867989 0.022120791 0.29693764 -0.22664633 0.92760956 0.0013722685
0.0015039918 -0.058156282 0.02124981 0.3133305 -0.20829661 0.9265185 0.0011166129
-0.0017387316 -0.055444051 0.02312443 0.4731209 -0.24485891 0.84628648 0.0095919082
0.0014019957 -0.055610944 0.021842599 0.34821081 -0.17534739 0.92087054 0.00041733179
0.0035355319 -0.05485373 0.021183554 0.34463096 -0.15411058 0.92600185 0.00031097737
-0.00085023185 -0.052655011 0.023270413 0.51404971 -0.18720777 0.83708197 0.0066108531
0.0015517219 -0.052482784 0.022320967 0.39034742 -0.11950986 0.91287804 0.0012009394
0.0038659051 -0.052403819 0.02138494 0.36756516 -0.10303269 0.92427278 0.0002664921
0.0013828871 -0.049485706 0.022621546 0.39522031 -0.015531219 0.918455 0.00082884909
0.0040182131 -0.049459144 0.021547073 0.39321327 -0.01415186 0.91933835 0.00087123015
0.0023659072 -0.047360744 0.022200791 0.40974185 0.028836394 0.91174555 0.0020699885
0.0038190342 -0.046861906 0.021488108 0.41526502 0.082721367 0.90593165 0.00053332181
0.0041769352 -0.044748005 0.021061232 0.43422237 0.089150213 0.8963834 0.00095440744
0.01160707 -0.034163848 0.021341318 0.889835 -0.41181549 0.19647336 0.00084883056
0.013101248 -0.031196121 0.022442248 0.89366215 -0.40521923 0.19278345 0.00098385161
0.014071867 -0.028450707 0.022521269 0.94251758 -0.25301754 0.21827194 0.0012204617
0.014568013 -0.02533818 0.022552952 0.97511816 -0.048687335 0.21627325 0.0015576797
0.01448527 -0.022485498 0.022598067 0.97169083 0.10680228 0.21073732 0.0020187944
0.013831832 -0.019342054 0.022489786 0.92409849 0.31897363 0.21047032 0.0022095912
0.011813092 -0.015364438 0.023022568 0.78508627 0.58367962 0.20726235 0.00097401062
0.012722894 -0.01663775 0.022381101 0.86739045 0.45747682 0.19582851 0.0021138694
0.0088866167 -0.01214383 0.02364718 0.70360899 0.66882688 0.2400105 0.0030935914
0.010468532 -0.013470709 0.022529105 0.7358982 0.64592344 0.20306814 0.0026052343
0.0049420698 -0.0094530135 0.022887601 0.41902813 0.77038372 0.48054594 0.026663758
0.0075060758 -0.010788477 0.022484343 0.68211144 0.5901382 0.43181112 0.052032463
0.0091768773 -0.011815256 0.021509638 0.80575037 0.4794389 0.34771347 0.022456994
-0.0013295549 -0.0074724806 0.023592426 0.30583045 0.41567773 0.85655111 0.069471657
0.0016072737 -0.0078257797 0.023061872 0.32540506 0.59673959 0.73349404 0.050365385
0.0044612954 -0.0077773356 0.022086386 0.41620585 0.35056433 0.83897394 0.0435385
0.0071568373 -0.0076210867 0.021176795 0.52433562 0.14491799 0.83908933 0.02230425
-0.0031492556 -0.0057853186 0.023999998 0.43010411 0.18920492 0.88272989 0.05531719
-0.0013489617 -0.004819517 0.023517765 0.29651311 0.062693581 0.95296878 0.029554358
0.0014611651 -0.0044230106 0.022764416 0.31660253 -0.026267037 0.94819456 0.00387647
0.0047515165 -0.0047657439 0.021882333 0.31777775 0.018808581 0.94797868 0.0013704789
0.0069481819 -0.0042957319 0.021246815 0.44211608 0.0080991248 0.89692134 0.0062699872
0.0015519715 -0.0014779984 0.022850258 0.35481384 -0.05323714 0.93342006 0.0035976234
0.0043909168 -0.0015550968 0.021978913 0.30595303 -0.0069322777 0.9520213 0.0010346731
0.0067782067 -0.0014517972 0.021294124 0.44220906 0.0050759404 0.89689767 0.0069890111
0.0015262361 0.0012390591 0.022892283 0.36837503 -0.021581829 0.92942673 0.0025636503
0.0044389926 0.001578963 0.021965494 0.31602743 0.00016292652 0.94875008 0.0012168975
0.0068752444 0.0013747227 0.021256417 0.44040406 0.00082005066 0.89779925 0.0070999824
0.0028554439 0.0039802608 0.022390604 0.33900538 -0.010848682 0.94072187 0.0018433763
0.0045594643 0.0045510526 0.021933844 0.32476661 0.0028887251 0.94578975 0.0013300403
0.0066930628 0.004355229 0.021324616 0.46497339 -0.014514345 0.88520575 0.0084494688
0.0053252466 0.0067811175 0.021727977 0.43752381 -0.030971479 0.8986733 0.0083849169
0.0065953406 0.0073015466 0.021372186 0.54702508 -0.021594316 0.83683759 0.010333147
0.011583283 0.015481918 0.023478225 0.86976022 -0.43721047 0.22883229 0.0012790341
0.012782276 0.016990684 0.022284247 0.87846667 -0.43174753 0.20467144 0.00045194931
0.01385375 0.01966656 0.022501258 0.9293797 -0.29997557 0.21510012 0.00098616071
0.014511244 0.022550406 0.022482412 0.97011507 -0.11898278 0.21147059 0.0020696095
0.014644116 0.025478065 0.022433419 0.97870171 0.02498694 0.20376109 0.0013989209
0.014148516 0.028565576 0.022602601 0.94471014 0.24566826 0.21718636 0.0013104314
0.013141071 0.031542409 0.02239942 0.89098901 0.40820679 0.19876061 0.0018702265
0.011086527 0.034814909 0.022585128 0.77945763 0.59144133 0.20650163 0.0014774253
0.012216491 0.033375405 0.022248732 0.81147724 0.54785317 0.20337559 0.0016118032
0.0076840715 0.038028311 0.022624208 0.58277214 0.76456016 0.27536243 0.0070522628
0.009551581 0.036525015 0.022504466 0.70211262 0.67812115 0.21723191 0.0012870181
-0.0012409849 0.041128669 0.023625901 0.37237984 0.62500715 0.68607527 0.061079409
0.0017690352 0.040834557 0.022946065 0.35398728 0.64996332 0.67248839 0.039948553
0.0044713258 0.040035617 0.022414917 0.55774623 0.65443218 0.51052684 0.042999364
0.006303553 0.039186429 0.021775017 0.56435066 0.75615644 0.33126402 0.0077094855
-0.0011265728 0.043407954 0.02351152 0.46398374 0.11793004 0.87795877 0.01519102
0.0015729899 0.043413319 0.022366367 0.38583872 0.10126867 0.91699135 0.011222869
0.0035258718 0.043383401 0.021320796 0.51090199 0.095194124 0.854352 0.013144479
-0.00072432583 0.046471331 0.023427047 0.50447649 -0.037307251 0.8626191 0.0065248189
0.0017319904 0.046443418 0.022394197 0.40646726 -0.036865294 0.91292131 0.00028086151
0.0038682627 0.046757136 0.021413364 0.43389007 -0.06382516 0.89870232 0.00057316147
-0.049349584 0.050406843 0.023711819 -0.43324021 0.26470065 0.86153144 0.0038923179
-0.00067781954 0.049404163 0.023441514 0.52946734 0.01577189 0.84818369 0.0090557951
0.0015125137 0.049612723 0.02256839 0.41415852 0.012668954 0.91011655 0.0016146243
0.0040740701 0.049592718 0.02150931 0.38991445 0.0018485783 0.9208492 0.00084870623
-0.049113881 0.052749503 0.023672991 -0.43318981 0.26470277 0.86155623 0.0039127404
-0.0011000771 0.052549351 0.023457196 0.51117641 0.10901418 0.85253417 0.0088625876
0.0016042147 0.052691959 0.022313764 0.36610657 0.099920042 0.92519289 0.00040580443
0.003980069 0.052274074 0.021391587 0.37109154 0.093175478 0.92390984 0.00026771604
-0.051150445 0.055948969 0.021421267 -0.53304905 0.47146964 0.70254898 0.012497404
-0.048610691 0.055802446 0.023124397 -0.41430917 0.39128476 0.82173246 0.0071347882
-0.046802122 0.056281954 0.023536826 -0.40382236 0.35713851 0.84224677 0.0040470934
-0.0031432314 0.056226309 0.023801878 0.61661273 0.25865132 0.74356449 0.0062153749
-0.0014988557 0.055664402 0.023055561 0.44534329 0.22537176 0.86653149 0.0095180804
0.0014765665 0.055504918 0.021912172 0.34865415 0.1741614 0.92092776 0.00052977883
0.0035153157 0.055015229 0.021213453 0.35205251 0.14905699 0.92403519 0.00031325844
-0.048642002 0.057805911 0.0219739 -0.4141565 0.54230165 0.73101532 0.0069632996
-0.046645034 0.058729317 0.022216046 -0.38110012 0.55315036 0.74080187 0.0077327779
-0.044146504 0.059159011 0.023259375 -0.46785095 0.50601351 0.72461432 0.0044671684
-0.0040470283 0.058721792 0.023294959 0.53603476 0.39512926 0.74601579 0.016233681
-0.0015677401 0.058468603 0.022286892 0.31828353 0.28223372 0.9050082 0.0021115327
0.0012365481 0.058342882 0.021389857 0.30498886 0.21982372 0.92663872 0.0011137173
-0.045469631 0.060432203 0.021335417 -0.37981948 0.70783257 0.59557569 0.001571857
-0.043358125 0.06107109 0.022040948 -0.43558949 0.68986082 0.5782333 0.0046735927
-0.04099812 0.062160246 0.022642547 -0.50140256 0.69784945 0.51147002 0.0060937894
-0.0070068338 0.061977778 0.023208406 0.54883444 0.61099327 0.57049805 0.014511984
-0.004643267 0.06142151 0.022242492 0.39589259 0.4649947 0.79186422 0.018100705
-0.0016937499 0.061203536 0.021441501 0.25922781 0.33446288 0.90605485 0.0022675293
0.00055667758 0.060511261 0.021059439 0.2591897 0.23404159 0.93704069 0.00076539343
-0.039725419 0.063360825 0.022000112 -0.473582 0.77944875 0.41009724 0.0036833661
-0.037440103 0.064467035 0.022351157 -0.44268638 0.82332909 0.3551873 0.0017331821
-0.035040747 0.065540329 0.022920689 -0.4063046 0.88381642 0.23191594 0.0021778254
-0.012508931 0.065826952 0.023242721 0.38326362 0.8733952 0.30048275 0.0059919776
-0.010379414 0.064884819 0.022599174 0.38084266 0.83516765 0.3968046 0.0098410035
-0.0077796266 0.063957296 0.021937257 0.33319467 0.65316272 0.67997044 0.010412381
-0.0051015737 0.063487902 0.02129958 0.23361081 0.4994266 0.83426553 0.0042249565
-0.033901133 0.066233709 0.022106241 -0.36118531 0.91254503 0.19185065 0.0018469968
-0.031533517 0.066978462 0.022585968 -0.32906035 0.93042541 0.16133127 0.0012750679
-0.028410643 0.067849569 0.022370424 -0.22139521 0.9708882 0.09143386 0.00045050922
-0.025474986 0.068360709 0.02250571 -0.13733341 0.98715973 0.081579812 0.00024434019
-0.02240514 0.068650186 0.022540865 -0.006041402 0.99523765 0.09729059 0.0015323987
-0.019428153 0.068369173 0.022555526 0.15136908 0.98109025 0.12062098 0.0013286042
-0.016442467 0.067631625 0.02252198 0.28794527 0.94152349 0.17498861 0.0042531095
-0.013724617 0.066687718 0.022281161 0.31718886 0.90454388 0.28494141 0.0085847015
-0.011566223 0.066228673 0.021260872 0.28404799 0.79098296 0.54190665 0.010750074
-0.0044919159 -0.055582236 0.025581332 0.73562068 -0.32526571 0.59419215 0.011062237
-0.0036142019 -0.052514549 0.025687803 0.71662891 -0.17699355 0.67462301 0.018197143
-0.002546719 -0.052826114 0.024274588 0.68805194 -0.20219895 0.69692189 0.019571517
-0.0037574829 -0.049608484 0.026470421 0.63793778 -0.12124192 0.76048392 0.021553809
0.011917043 -0.032283403 0.025323087 0.86145717 -0.44653466 0.24186431 0.0032465954
0.012399917 -0.031072617 0.025755942 0.87631619 -0.36524162 0.31411517 0.0069212629
0.013462546 -0.028414989 0.025395086 0.94345951 -0.25672334 0.20970745 0.0021105721
0.013923222 -0.025363628 0.025633339 0.95500702 -0.071111821 0.28793189 0.0073191128
0.013862411 -0.022401014 0.02553059 0.95046651 0.11963813 0.28687996 0.0072642239
0.013200524 -0.019421343 0.025493609 0.93188912 0.29640725 0.20910661 0.0024327086
0.011502626 -0.015923539 0.025753165 0.82982153 0.51282173 0.22002305 0.001922033
0.012366798 -0.017153094 0.025092535 0.85819596 0.4658618 0.21557464 0.0021360491
-0.013303461 -0.013072061 0.026722923 0.026605936 0.37469172 0.92676765 0.057780109
-0.011889796 -0.012437792 0.026344579 -0.041876521 0.51514465 0.85607964 0.082553096
0.0085419659 -0.012428817 0.025704376 0.64520532 0.72795039 0.23194468 0.00082175876
0.010026358 -0.013882711 0.025477763 0.72884029 0.64224476 0.23730461 0.0034722073
-0.013096009 -0.010417438 0.026667291 0.020831263 0.069064751 0.99739456 0.052578952
-0.010521034 -0.010620014 0.02624489 -0.21218789 0.4771226 0.85283661 0.071567908
-0.0074347723 -0.0097029945 0.02596559 -0.10997393 0.73355424 0.67067415 0.041128591
-0.0054875836 -0.0091650123 0.026215712 -0.042328693 0.68068063 0.73135638 0.054489419
0.0022160986 -0.0092031481 0.02605086 0.22367823 0.92275929 0.3138206 0.0047414857
0.0045360238 -0.0098927347 0.025498047 0.40146098 0.86340278 0.30555627 0.011120128
0.0070585124 -0.01126225 0.02544128 0.54906708 0.79990917 0.24222006 0.0028347352
-0.013395966 -0.0075491634 0.026747359 0.2595672 0.0073899231 0.96569681 0.00020134945
-0.010278936 -0.0075932257 0.025911447 0.18685026 0.19375038 0.96309274 0.027614208
-0.0074997954 -0.0073902654 0.025166264 0.14618474 0.30160081 0.94216079 0.050252568
-0.0042570471 -0.0081447475 0.024973037 0.015722284 0.58576173 0.81033075 0.057808291
-0.0013396784 -0.0085996138 0.025511259 0.19855915 0.85497057 0.47916546 0.024529302
0.0012069915 -0.0087663457 0.025076438 0.22626823 0.90152943 0.36884582 0.008466877
-0.013250695 -0.0046586022 0.026547618 0.25926629 0.0050909696 0.96579242 0.0002531443
-0.010657734 -0.0045191632 0.025991568 0.24022757 -0.0082775382 0.97068131 0.00048201164
-0.0077293688 -0.0043907277 0.025227543 0.19601218 -0.035114888 0.97997254 0.0045257411
-0.0047728186 -0.0049510091 0.024580479 0.23451386 -0.062622324 0.97009367 0.0080283517
-0.0025666852 -0.0035013955 0.02453568 0.32925627 -0.13183329 0.93499207 0.0036124471
-0.013316508 -0.0015495946 0.026638595 0.23756018 -0.0095735975 0.97132564 0.00056614989
-0.010413328 -0.0017114116 0.025946792 0.23727739 -0.022528557 0.97118068 0.00044191623
-0.0077329837 -0.0020448708 0.025472751 0.185462 -0.10307986 0.97723001 0.0017375522
-0.0042843693 -0.0014860152 0.025221772 0.20077749 -0.13425262 0.97039402 0.0026727999
-0.0014068459 -0.001386157 0.024423923 0.35894704 -0.12918572 0.9243744 0.0044959858
-0.013856731 0.00085894123 0.026869575 0.23756018 -0.0095735975 0.97132564 0.00056614989
-0.00042662318 0.00057054067 0.024133466 0.39496946 -0.063951373 0.9164657 0.0025532837
0.011264628 0.01574407 0.025381716 0.80606717 -0.48818657 0.33455878 0.0091498541
0.012166746 0.017380178 0.025793537 0.88156849 -0.37379706 0.28829277 0.0048276214
0.0131868 0.019620871 0.025432847 0.90512085 -0.32839721 0.2700215 0.0049989079
0.013907639 0.022661231 0.025411246 0.95023078 -0.12784526 0.28410748 0.0063709477
0.014005072 0.025626995 0.025428379 0.97074467 0.051221959 0.23458715 0.0012326427
0.013511495 0.028579317 0.02555206 0.94470322 0.24987777 0.21236038 0.0023850256
0.011810826 0.032585643 0.02593541 0.85165441 0.46671328 0.23846073 0.0024436666
0.012620056 0.031218264 0.025334451 0.87894547 0.41771793 0.23014458 0.0028225528
0.010481304 0.034558997 0.02550952 0.7543025 0.60534066 0.25414643 0.0033964021
0.0053686607 0.038629703 0.02587406 0.42517921 0.87082696 0.24674489 0.0025058398
0.0075645074 0.037344992 0.025507694 0.5670557 0.78478122 0.25013253 0.0032498704
0.0092076194 0.036206335 0.02470896 0.66577971 0.70739406 0.23734187 0.0033006549
-0.0062692948 0.039483711 0.026733853 0.65348673 0.20969015 0.72731358 0.073469378
-0.0043063615 0.040446505 0.025724106 0.43001062 0.45200253 0.78152704 0.12043923
-0.0014679567 0.040432267 0.025442092 0.34546304 0.78290308 0.51741475 0.074337721
0.0014815894 0.040056255 0.025477555 0.22355622 0.93960643 0.259157 0.0028603929
0.0040426846 0.039347809 0.025312068 0.39146119 0.88425279 0.25466657 0.0022280398
-0.0040558744 0.043254633 0.025662445 0.73476547 0.0073452494 0.67828149 0.030879918
-0.0026347062 0.043813989 0.024329554 0.66561884 0.035239141 0.74545944 0.024636472
-0.0036701676 0.046541642 0.02603572 0.79267591 -0.10420588 0.60067123 0.0090618832
-0.0023107475 0.046413574 0.024370486 0.73503375 -0.07577242 0.6737833 0.010633985
-0.0035938965 0.049678013 0.026265111 0.83099139 0.012965197 0.55613416 0.0059672892
-0.0023935051 0.049585227 0.024605816 0.76157153 0.027794844 0.64748454 0.010769214
-0.046151333 0.053976778 0.024306031 -0.38159305 0.29066393 0.87744015 0.0052448111
-0.0037103435 0.052708704 0.025944717 0.81959236 0.13916636 0.5557887 0.0095161851
-0.0025842949 0.052435674 0.024487732 0.68070918 0.16287512 0.71421742 0.0043060947
-0.046058845 0.055385787 0.024069598 -0.3989951 0.33918312 0.85191411 0.0038048215
-0.044246018 0.056981649 0.024380725 -0.41892359 0.45194182 0.78756058 0.0091517381
-0.0041832295 0.055565722 0.025425637 0.79772103 0.28578779 0.53100514 0.015404668
-0.0027067643 0.054582804 0.024045445 0.61661273 0.25865132 0.74356449 0.0062153749
-0.042416029 0.058631994 0.024797166 -0.46789786 0.50604004 0.72456551 0.0044350247
-0.0064740907 0.059351459 0.025999768 0.75847548 0.53387994 0.37374744 0.0074377568
-0.0052989735 0.058127012 0.025160931 0.75307697 0.44853851 0.48134017 0.0085166069
-0.040695965 0.060811084 0.024566792 -0.54784012 0.63652837 0.5428654 0.0067029139
-0.038244754 0.062319409 0.025557855 -0.53767687 0.66491508 0.51845098 0.008900906
-0.0092207249 0.062683515 0.025992723 0.66742498 0.66118872 0.34259784 0.0085654249
-0.0078052422 0.061413378 0.025338087 0.69861525 0.60129237 0.38779396 0.0053022681
-0.036688246 0.063830003 0.025138456 -0.52247262 0.76174223 0.38310733 0.0086329961
-0.034357473 0.065209165 0.025416577 -0.41766915 0.86331153 0.28327665 0.0042710206
-0.032808762 0.065784827 0.026631186 -0.44580054 0.85494173 0.26521036 0.0064569139
-0.012802874 0.065521643 0.02565955 0.47935909 0.85588044 0.19412261 0.0024905561
-0.010657026 0.064061008 0.025419945 0.58930308 0.76428169 0.26190728 0.0061346032
-0.031398274 0.066641375 0.025410866 -0.35833263 0.91294277 0.19527748 0.0079188813
-0.028429572 0.067614965 0.02543686 -0.2512694 0.9332639 0.25667539 0.033660162
-0.025414797 0.068174444 0.025528587 -0.10170417 0.96261454 0.25105664 0.018886458
-0.022491684 0.0683982 0.025496749 -0.0031110565 0.97261685 0.23239377 0.0075180088
-0.019470574 0.068094082 0.0255522 0.15661953 0.94095689 0.30011752 0.030757399
-0.016474286 0.067276902 0.025563125 0.36023742 0.88739669 0.28767356 0.031345721
-0.014259771 0.066374972 0.02527882 0.46772054 0.86987001 0.15672792 0.0037292601
-0.017171711 -0.066473804 0.028717708 0.00019198199 0.00017163876 1 0
-0.01702947 -0.06467811 0.028717771 0.00019198199 0.00017163876 1 0
-0.013992559 -0.064061373 0.028717484 0.00019198126 0.00017163933 1 0
-0.011711578 -0.06330733 0.028716842 0.00015473222 0.000237384 0.99999994 1.6922329e-05
-0.016106645 -0.062446125 0.028716812 0.00019928729 0.00016608884 1 0
-0.013948021 -0.061435796 0.028716331 0.00011013978 0.00030872427 1 1.6725953e-05
-0.01069453 -0.06136762 0.028715324 0.0048801634 0.00021849954 0.99998808 2.8725521e-05
-0.0085721035 -0.060365472 0.028715279 0.0433755 0.0080361562 0.99902648 0.0014441978
-0.012832466 -0.058332916 0.028715866 0.004416476 -0.00085033075 0.99998981 2.6385027e-05
-0.010790218 -0.058508866 0.028715115 0.009888784 -0.008984684 0.99991077 6.8104637e-05
-0.0074110008 -0.058072817 0.028644662 0.28582823 -0.064504631 0.9561075 0.034533985
-0.010294622 -0.055562813 0.028714459 0.065040819 -0.011541281 0.99781591 0.0016203088
-0.0076832585 -0.055628695 0.02871418 0.32288107 -0.056642048 0.94474316 0.033237595
-0.0052407193 -0.055020727 0.028086316 0.50932592 0.0047033685 0.86056077 0.04871168
-0.040939253 -0.051485568 0.028719075 -0.32309315 0.059054017 0.9445228 0.012118334
-0.0098241996 -0.052188814 0.028823569 0.14863233 -0.018503606 0.98871946 0.001422983
-0.0073364661 -0.052467432 0.028712863 0.30230865 -0.051432114 0.95182157 0.028500238
-0.0045968876 -0.052328814 0.02797984 0.66961038 -0.14010662 0.72937787 0.027316727
-0.039775021 -0.049555868 0.028720092 -0.37182707 0.055278074 0.92665476 0.014426284
-0.038134985 -0.049138419 0.028122872 -0.37182444 0.055278309 0.92665577 0.014423157
-0.0096788574 -0.049251758 0.028930072 0.16006547 -0.020974865 0.98688358 0.0010497612
-0.006979377 -0.049317639 0.028717661 0.25177249 -0.023605524 0.96749854 0.015942561
-0.0043644658 -0.049417615 0.02801013 0.4800331 -0.17088813 0.8604449 0.039138097
-0.040379751 -0.046818245 0.028717989 -0.31265661 0.10990684 0.94348633 0.02518362
-0.037867598 -0.046390977 0.028716991 -0.33026138 0.094276763 0.93916953 0.028856276
-0.03097515 -0.045060351 0.029751733 0.00075719028 0.42370108 0.90580177 0.025388841
-0.029849654 -0.045169353 0.029922534 -0.16126809 0.43411192 0.8863067 0.034288529
-0.0096659735 -0.046398498 0.028920272 0.14295581 -0.021816326 0.98948854 0.0011288393
-0.0071034199 -0.046597447 0.0287112 0.26684305 -0.063083544 0.96167314 0.015496211
-0.0044864886 -0.046554647 0.028140133 0.23928291 -0.068634741 0.968521 0.015153702
-0.039966788 -0.043365192 0.028716752 -0.035012878 -0.0030626713 0.99938214 0.0022163915
-0.037847072 -0.043573577 0.028716395 -0.17781432 0.19451398 0.96464837 0.025682887
-0.034257989 -0.043954711 0.02897628 -0.19494125 0.29929796 0.93403351 0.032909535
-0.032415457 -0.044236433 0.029001057 0.00075810688 0.42372417 0.90579087 0.025374118
-0.0072286562 -0.044100899 0.028710153 0.26684353 -0.063083544 0.96167302 0.015496221
-0.0050370628 -0.044033691 0.028539434 0.23928291 -0.068634741 0.968521 0.015153702
-0.037328206 -0.040422216 0.02871564 -0.10787001 0.062115241 0.99222267 0.011274863
-0.034307994 -0.040487148 0.028714251 -0.026133297 0.11285175 0.99326807 0.014369602
-0.031161079 -0.040622097 0.028542472 -0.043119356 0.14762855 0.9881025 0.011278776
-0.028997013 -0.039896317 0.028713129 -0.26484808 0.18088119 0.94717348 0.016764145
-0.01833972 -0.039340582 0.028853953 0.14875427 0.21365301 0.96551776 0.034362566
-0.039926901 -0.03757938 0.028426345 -0.011965532 -0.012956161 0.99984443 0.0006769218
-0.036822848 -0.037314311 0.028712198 -0.00097056734 -0.05045319 0.99872595 0.0013523757
-0.03399514 -0.037681755 0.028714338 0.017059894 -0.031679239 0.99935246 0.0002737286
-0.03082853 -0.037451811 0.028713536 -0.027534666 -0.025440976 0.99929702 0.0014470086
-0.028768761 -0.037669484 0.028713053 -0.23714349 0.11497263 0.96464723 0.02738535
-0.025326103 -0.036524333 0.02921294 -0.2325349 0.30186459 0.92455679 0.033925306
-0.022359055 -0.036340795 0.029353112 0.039993096 0.33055642 0.94293851 0.031248447
-0.019249473 -0.037083957 0.029258871 0.072005011 0.12128565 0.99000257 0.030757114
0.0047367467 -0.037349474 0.029362287 0.13899016 -0.24392051 0.95978355 0.0011223868
0.0067000166 -0.036409941 0.029301604 0.16268913 -0.22233179 0.96130157 0.0025496276
-0.041847952 -0.033711128 0.028712625 -0.059462383 -0.022699216 0.99797243 0.0026005858
-0.037612636 -0.034748174 0.028964162 -0.022071436 -0.075889915 0.99687183 0.00094566582
-0.034038771 -0.03471991 0.028880417 0.033006478 -0.049959805 0.99820566 0.00059783034
-0.031999078 -0.0344797 0.028713394 0.022859117 -0.030128336 0.99928463 0.00071488466
-0.028708393 -0.034671564 0.028712941 -0.10594638 0.08034765 0.99112034 0.019975634
-0.025791656 -0.034480799 0.028713923 -0.037658546 0.25779775 0.96546477 0.026509404
-0.022543896 -0.034192462 0.028716991 -0.033635285 0.24867192 0.96800357 0.020899113
-0.018815886 -0.034466196 0.028710689 0.13800488 0.14759277 0.97937274 0.02830613
0.0084174853 -0.033468302 0.029732097 0.21212386 -0.21718802 0.9528026 0.0016507595
0.0095291371 -0.03381554 0.029308468 0.68885708 -0.35811052 0.63026404 0.023935579
-0.040724616 -0.031853806 0.028837884 -0.057877786 -0.010210259 0.99827141 0.0026458348
-0.037455093 -0.031561665 0.02919887 -0.027075872 0.026178187 0.99929053 0.0025589131
-0.034327749 -0.031311132 0.029150294 0.041214164 0.0041303001 0.99914181 0.0010937046
-0.03198332 -0.031394698 0.02877897 0.05358725 -0.00031699205 0.99856311 0.00069256523
-0.02887251 -0.031473655 0.02871161 0.029097822 -0.001376048 0.99957567 0.00073629594
-0.025949346 -0.031564023 0.028711252 -0.0024595268 0.030997913 0.99951637 0.001157706
-0.022881011 -0.031370632 0.028708303 -0.0037592365 0.050039411 0.9987402 0.0016360454
-0.01986691 -0.031819161 0.028708216 -0.003173802 0.11574218 0.99327421 0.0097750444
-0.017970037 -0.031158425 0.028704641 -0.018177135 0.094351202 0.99537301 0.0084343618
0.010609518 -0.031360392 0.029457353 0.64041311 -0.34541857 0.68597162 0.025359185
0.012267892 -0.030555597 0.027379813 0.85020632 -0.33146328 0.40900037 0.019906066
-0.040121276 -0.029385187 0.028403088 -0.049822912 -0.020135617 0.99855506 0.0022732525
-0.03736233 -0.028904025 0.028850943 -0.0039520259 -0.0094685871 0.99994731 0.0038795578
-0.034579329 -0.028923525 0.028863873 -0.010172111 -0.039561547 0.99916536 0.0043489067
-0.031341389 -0.028375721 0.028711218 0.039454773 -0.05006526 0.99796629 0.0013160696
-0.028714318 -0.028521907 0.028710579 0.013400293 -0.047175374 0.9987967 0.00043501871
-0.025635069 -0.028336234 0.028709115 0.01963046 -0.064650856 0.99771488 0.00094810664
-0.022792431 -0.028494753 0.028692016 0.026529634 -0.029719722 0.99920613 0.0019380053
-0.019937204 -0.028502878 0.028635966 0.017805098 0.015145091 0.99972677 0.00026920519
0.011313201 -0.028331123 0.029735327 0.64829719 -0.20346053 0.73369926 0.038500633
0.012732883 -0.028642837 0.028278619 0.83521497 -0.22499225 0.50179118 0.018354524
-0.037125826 -0.024521198 0.029298548 -0.021148168 -0.050887432 0.9984805 0.00064204977
-0.033361267 -0.024213256 0.029310066 0.027904296 -0.058478083 0.99789864 0.00069853355
-0.031995289 -0.025712948 0.029010203 0.020176599 -0.093004324 0.99546123 0.00024163426
-0.028049188 -0.025107438 0.029109376 -0.012151718 -0.083154656 0.99646252 0.00052746042
-0.024597043 -0.024007708 0.029308276 0.04849413 -0.08169537 0.9954769 0.0015420723
-0.022596398 -0.025587501 0.02881917 0.072954267 -0.069013864 0.99494457 0.0027000981
-0.020055525 -0.025508985 0.028507859 0.11638623 0.0028227966 0.99320006 0.0023765939
0.011538711 -0.025634771 0.029855177 0.455697 -0.04158695 0.88916302 0.0075038304
0.013136965 -0.025592053 0.028565425 0.84242821 -0.049695998 0.53651178 0.022273391
-0.03949615 -0.022469325 0.02912648 -0.036501784 -0.029522292 0.99889743 0.00046991234
-0.036874954 -0.022389164 0.029294709 -0.017001262 -0.0017811923 0.99985391 0.00015035356
-0.034080777 -0.022745829 0.029307818 0.007987625 -0.01575925 0.9998439 0.00046593006
-0.031294044 -0.022383852 0.029297782 0.0060572391 -0.03274186 0.9994455 0.00039565988
-0.027900944 -0.02239415 0.029308733 -0.012707195 -0.033268768 0.99936569 0.00023046152
-0.025315737 -0.022549272 0.029308259 0.051700789 -0.047978673 0.99750948 0.0028992717
-0.022284703 -0.022378994 0.029307678 0.14365289 -0.041589275 0.9887538 0.0025090533
-0.019736569 -0.022311518 0.02852363 0.032693464 -0.042423915 0.9985646 0.01331862
0.011463954 -0.022256423 0.029850721 0.45359167 0.068687879 0.88855863 0.0092400024
0.013099393 -0.022514347 0.02846306 0.83604169 0.10362738 0.53879094 0.021149596
-0.039041221 -0.020099834 0.029195782 -0.024719931 -0.0028876148 0.99969029 9.7328644e-05
-0.037774194 -0.019338224 0.029277055 -0.024722213 -0.0028942332 0.99969018 0.00010199631
-0.034744199 -0.019590231 0.029296134 -0.0093909623 -0.00071783626 0.99995565 4.7611396e-05
-0.031395666 -0.019766742 0.029307224 0.00076894817 -0.021178331 0.99977547 0.00042286256
-0.028554212 -0.019950846 0.029288474 -0.0011237526 -0.016730286 0.99985945 0.00015840406
-0.025211563 -0.019618327 0.029295001 0.078599855 -0.017404301 0.99675429 0.0040269475
-0.021985861 -0.019249419 0.029306488 0.13107236 -0.0080927014 0.99133974 0.0028563093
-0.0195939 -0.019606909 0.028479131 0.058519658 0.12177134 0.99083155 0.021563342
-0.016461752 -0.019349745 0.028421739 -0.16443673 0.17526664 0.97069162 0.025301153
-0.014559176 -0.020431694 0.029842727 -0.30097252 0.17223075 0.93795103 0.010694255
0.011142123 -0.019419529 0.029675553 0.54523146 0.21768154 0.80952913 0.0084269373
0.012630989 -0.019454794 0.028120976 0.8320176 0.25680724 0.4917284 0.020402143
-0.037720449 -0.01683818 0.029272608 -0.044765469 0.0045365957 0.99898726 0.00023515074
-0.034766115 -0.017372105 0.029308729 -0.0093845017 -0.0014973049 0.99995488 4.5564524e-05
-0.022526599 -0.017077647 0.029288584 0.19082581 0.015870696 0.98149562 0.0035831905
-0.01968856 -0.016535433 0.028503634 0.085014731 0.064652681 0.99427992 0.018379867
-0.016594166 -0.016764468 0.027578846 -0.1644934 0.20550171 0.9647336 0.022752251
-0.013651426 -0.016205167 0.029078554 -0.40907162 0.34491464 0.84480423 0.016650721
-0.011133534 -0.015107808 0.029937437 -0.31373018 0.32905352 0.89067233 0.005312894
0.0085192425 -0.015886264 0.029882342 0.37028235 0.30850092 0.87619531 0.0049964627
0.01087044 -0.016436169 0.028576091 0.72497743 0.39535984 0.56400204 0.02193795
0.012093965 -0.017713264 0.027430046 0.77371329 0.353021 0.52606457 0.022876872
-0.040268324 -0.01374027 0.028952064 -0.044621479 -0.00089943741 0.99900359 0.00018307654
-0.038129471 -0.014084768 0.029264607 -0.044723563 -0.00092151319 0.998999 0.00017760732
-0.019048324 -0.013867572 0.028178282 0.077568412 0.14654014 0.98615873 0.018488113
-0.016316881 -0.013513432 0.027506446 0.04015851 0.20932198 0.97702181 0.021200193
-0.01328491 -0.013678773 0.027952522 -0.26797149 0.42908552 0.8625989 0.049147535
-0.010698164 -0.01298721 0.029012037 -0.40475482 0.61100227 0.68033063 0.015820503
-0.0079480307 -0.012476022 0.029840494 -0.21305995 0.38512233 0.89793438 0.004500269
0.0026898563 -0.012073284 0.029991608 0.19354787 0.45006475 0.87176889 0.0072853966
0.0051145996 -0.012660866 0.029782977 0.2544851 0.44078538 0.86078203 0.0050695818
0.0078122797 -0.013158478 0.028783023 0.47426796 0.60920018 0.63556665 0.030084517
0.0095937187 -0.014297556 0.028226094 0.65563893 0.5488739 0.51853162 0.017597357
-0.039459992 -0.010574154 0.029128879 -0.099854462 0.00099376228 0.99500149 0.00052714179
-0.015892841 -0.010311986 0.02740285 0.20187376 0.061598103 0.9774726 0.010954265
-0.014387012 -0.010293496 0.027012726 0.22343819 0.068188578 0.97233003 0.013376345
-0.0097099459 -0.011473529 0.02836852 -0.26120204 0.67742747 0.68765211 0.037537772
-0.0073602083 -0.010533421 0.028653907 -0.25447375 0.72885817 0.63561702 0.016800297
-0.0045053675 -0.0099186925 0.028738011 -0.19728373 0.71329546 0.67252409 0.019846549
-0.0014224679 -0.0096885674 0.028849762 0.0059477272 0.73055845 0.68282431 0.022126852
0.0014346663 -0.009894642 0.028594891 0.16152801 0.76587605 0.62236845 0.022715198
0.004377475 -0.01071475 0.028472207 0.34054205 0.75219434 0.56412303 0.022067796
0.0065866304 -0.01160454 0.028055236 0.4348416 0.71677351 0.54511333 0.024696609
-0.039020892 -0.0083087888 0.029194217 -0.11377876 0.012663707 0.99342537 0.00046336037
-0.038770586 -0.0067155873 0.029214453 -0.11377767 0.01266274 0.99342555 0.00046336037
-0.015110073 -0.007379333 0.027206317 0.25954935 0.00738911 0.96570152 0.00020592395
-0.0034675181 -0.008969673 0.027030526 -0.1576162 0.87094593 0.4654142 0.013880384
-0.0019891262 -0.0089487163 0.027308067 0.017922979 0.8858251 0.463673 0.015692461
-0.041440994 -0.0048758108 0.02857752 -0.10381428 0.0075374264 0.99456811 0.00079274119
-0.037714459 -0.0039476487 0.029268751 -0.086748399 0.0080277566 0.99619788 0.0010968028
-0.01501747 -0.0055056298 0.027181838 0.26747406 0.0043127593 0.96355546 0.00018822133
-0.014950281 -0.0041117854 0.027162857 0.27118313 0.00039400387 0.96252769 0.00023752759
-0.040025219 -0.0015091026 0.029005066 -0.076424561 -0.0083648432 0.99704033 0.0012622256
-0.037041027 -0.0013383725 0.029292468 -0.076460339 -0.008356506 0.99703759 0.0012651323
-0.034972377 -0.0010763661 0.029304754 -0.029475456 0.0046703974 0.99955463 0.00031343958
-0.014836838 -0.0018008255 0.027132319 0.2642867 -0.0029134387 0.96443975 0.0002391173
-0.039306477 0.0014372501 0.029151207 -0.037889909 -0.00074287446 0.99928164 0.00030842633
-0.03699328 0.0011372421 0.029301509 -0.037856769 -0.0007468891 0.9992829 0.00032051353
-0.034419175 0.0016397288 0.029297166 -0.014548388 0.007243298 0.99986792 0.00010938958
-0.031685144 0.002669438 0.029303268 -0.0014979648 0.0014548072 0.99999779 7.0459132e-06
-0.014747676 3.477887e-05 0.027107639 0.2642867 -0.0029134387 0.96443975 0.0002391173
-0.039000534 0.0030471329 0.029193034 -0.060873758 0.0083223972 0.99811077 0.00065136608
-0.037671447 0.0045363689 0.029272899 -0.052538935 0.015195724 0.99850321 0.0005662773
-0.034524698 0.004212907 0.029293615 -0.0078735147 0.00016465264 0.99996907 3.9041828e-05
-0.031703442 0.0049237926 0.029281555 -0.0014855915 -0.00070966728 0.99999857 0
-0.040740862 0.007528353 0.028799178 -0.070773043 0.0011687704 0.99749172 0.00042502326
-0.037528414 0.0075028487 0.029271802 -0.052522559 0.00067095296 0.9986195 0.00060805562
-0.034642164 0.0073921941 0.029301964 -0.0031833509 -0.0014204625 0.99999392 8.1275039e-06
-0.03179973 0.0076670428 0.029301533 0.00060820795 -0.00062692107 0.99999964 8.1023654e-06
-0.029053487 0.0074402452 0.029294213 0.0017048169 -0.00073934393 0.99999827 9.8183273e-06
-0.039653938 0.010805701 0.029083336 -0.052905917 -0.014068346 0.99850035 0.00051935948
-0.037096966 0.01045182 0.029293485 -0.039621569 -0.014509047 0.99910939 0.00071520678
-0.034156706 0.010509712 0.029301142 -0.0032927606 0.0012752124 0.99999374 5.9707945e-06
-0.031461317 0.010524504 0.02930066 0.00061514589 -0.0010657188 0.99999928 0
-0.028786991 0.010535913 0.029299589 0.0013043315 -5.4589316e-05 0.99999917 0
-0.025714435 0.010779179 0.02928417 0.042872287 -0.029803371 0.99863595 0.0017672658
-0.02104204 0.011720742 0.02929895 0.071667083 -0.020001126 0.99722797 0.0030853532
-0.019900927 0.011092615 0.028522154 0.10172983 -0.00011055634 0.99481207 0.0027784337
-0.039180841 0.012960389 0.029164519 -0.068100512 -0.00086225168 0.99767816 0.00077670353
-0.037447803 0.013733636 0.029261272 -0.057179287 0.003625219 0.99835736 0.00070977688
-0.034180425 0.013576975 0.029298931 -0.0097744502 0.00029922382 0.9999522 6.8005407e-05
-0.031132393 0.013345256 0.029297538 0.00032274146 0.0010820642 0.99999934 8.117363e-06
-0.02834023 0.013597791 0.029299004 0.0010628275 0.00019588736 0.99999934 3.7403636e-06
-0.025699804 0.013600211 0.029298494 0.00039307986 -0.00035709952 0.99999988 8.2469724e-06
-0.022843953 0.013354579 0.029283846 0.07166709 -0.020000931 0.99722803 0.0030806332
-0.02012161 0.013613137 0.028719064 0.10172097 -0.00010451953 0.99481297 0.0027604853
0.0070869923 0.013851818 0.02960063 0.38168883 -0.44497383 0.81013083 0.041755833
-0.040883575 0.017727843 0.028756816 -0.069882132 0.0012575258 0.99755448 0.00067386165
-0.037720028 0.016868128 0.029269015 -0.064264774 0.00020430415 0.99793285 0.00071885448
-0.034805413 0.016503403 0.029299568 -0.0090041952 -0.0058409772 0.99994248 4.473405e-05
-0.031485882 0.016298901 0.029290728 0.0009214328 0.00058856903 0.99999934 7.8286048e-06
-0.02831153 0.016569432 0.029291419 -0.00018506774 0.0008741545 0.99999964 0
-0.025276119 0.016614988 0.029297421 0.02649192 -0.00082583626 0.99964869 0.00086693105
-0.022669034 0.016608492 0.029297372 0.087814994 0.017585345 0.99598151 0.0021840874
-0.020306122 0.016564777 0.028869223 0.12026531 0.0067066248 0.99271911 0.002789614
0.0082338788 0.015645126 0.029805586 0.49286789 -0.4191412 0.76249707 0.037694741
0.010509126 0.016832547 0.029004591 0.63444644 -0.41047928 0.65496904 0.027609741
-0.040088143 0.019791789 0.028981412 -0.081682935 0.019315133 0.99647117 0.0012663755
-0.037298333 0.019716537 0.029288843 -0.048429947 -0.012282798 0.99875104 0.00095440832
-0.034525599 0.019506933 0.029298879 -0.021202631 -7.0519978e-05 0.99977517 0.00040339376
-0.031671233 0.019504536 0.029298069 0.00019776572 -0.00060716999 0.9999997 2.4913601e-05
-0.028569639 0.019222321 0.02929038 0.00042016359 0.00011474585 0.99999994 4.156092e-06
-0.025474655 0.019585604 0.029290542 0.035114158 -0.0013075208 0.99938244 0.0017094804
-0.022265872 0.019579461 0.029296523 0.097327955 0.017214568 0.99510348 0.0018021055
-0.020160936 0.019438546 0.028693229 0.12832427 0.0094511742 0.99168724 0.0017900961
0.011008334 0.019387979 0.029661357 0.58188903 -0.32466245 0.74565369 0.02350175
0.012543513 0.019799629 0.028269172 0.80537367 -0.23347247 0.54485208 0.022686567
-0.039360084 0.022551788 0.029135279 -0.1549758 0.069913223 0.98544139 0.0030022794
-0.036914591 0.022497436 0.029295998 -0.056461528 0.061892554 0.99648452 0.00099789689
-0.034249466 0.022476021 0.029297749 -0.0051984484 0.051542092 0.99865729 0.00037735311
-0.031410638 0.022464747 0.029297536 0.0069954167 0.048153784 0.99881548 0.00037811577
-0.028592387 0.022452995 0.029297249 0.0061935321 0.04817801 0.99881965 0.00034411473
-0.025527768 0.022165269 0.029290438 0.030514043 0.054128204 0.99806768 0.001384886
-0.022316543 0.02267959 0.029295729 0.098729514 0.051380455 0.99378699 0.0018468421
-0.020179581 0.022623204 0.028698914 0.11534857 0.02258873 0.99306822 0.0014227761
0.011576067 0.022602558 0.0297824 0.46530324 -0.073873244 0.88206333 0.0070053455
0.013082102 0.022590294 0.028480776 0.85337085 -0.11991213 0.50732571 0.019248109
-0.042100113 0.025781987 0.027747773 -0.12562443 0.013889819 0.99198061 0.0056797611
-0.040124971 0.025600787 0.028620467 -0.082740806 0.046393991 0.99549061 0.0063346098
-0.037438635 0.025421411 0.028980238 -0.11385334 0.10790093 0.98762077 0.0036092636
-0.034420341 0.025493646 0.029011255 -0.026749095 0.10635393 0.99396849 0.00042984658
-0.031399861 0.025592683 0.028984251 -0.001047104 0.10223532 0.99475968 9.3422741e-06
-0.0285613 0.02550563 0.029005999 0.0036026298 0.10097352 0.99488252 2.8284876e-05
-0.025606854 0.025466166 0.029018253 0.0051040463 0.1032737 0.99463981 0.00010007324
-0.022384448 0.025383471 0.028886022 0.066626787 0.056381933 0.99618369 0.0019215364
-0.019594694 0.02541285 0.028443819 0.079433121 0.016419996 0.99670494 0.0015966949
0.011715534 0.025609137 0.029788053 0.43320999 0.031182071 0.90075344 0.0085382508
0.013201588 0.025577188 0.028488765 0.8483541 0.047362909 0.52730644 0.021898964
-0.037900466 0.027658291 0.028666414 -0.1085839 -0.017508466 0.99393314 0.006166324
-0.034558326 0.028251221 0.028696561 0.014525492 0.013657629 0.99980128 0.0032995434
-0.031703088 0.028471457 0.028695963 0.028558828 0.03479483 0.9989863 0.0018863884
-0.028704682 0.028190114 0.028695516 0.0086549781 0.073465563 0.99726015 0.00060314895
-0.025246248 0.028115371 0.028692175 0.0024623103 0.09039592 0.9959029 0.0003668564
-0.022731632 0.028449923 0.028674453 0.03596703 0.048483677 0.99817616 0.0020342162
-0.019602768 0.028524749 0.028600352 -0.080906771 0.023967529 0.9964335 0.0069628339
-0.017143 0.029405866 0.028495247 -0.18849139 0.014261032 0.98197132 0.0081195552
-0.014321746 0.029609621 0.029764391 -0.2604135 0.13777773 0.95561606 0.0031378767
0.011248136 0.0284955 0.029762404 0.51645261 0.16993365 0.83928496 0.0058883987
0.012841374 0.028520981 0.028378014 0.83375442 0.21027867 0.51052564 0.02232495
-0.040945094 0.031608202 0.028806889 -0.13594046 -0.014755299 0.99060708 0.0028426591
-0.037317295 0.031555526 0.029193632 -0.014991932 -0.0042103664 0.99987876 0.0023696094
-0.034691818 0.03150228 0.029195223 0.032817204 -0.010622558 0.99940491 0.0022258477
-0.032301337 0.03162279 0.028793812 0.050990477 0.012020123 0.99862683 0.001304334
-0.021846291 0.030477982 0.028682217 0.13932122 -0.15229164 0.97846651 0.010447137
-0.019476889 0.03136706 0.028678559 0.14134945 -0.20425177 0.96865976 0.014161656
-0.016526466 0.03186335 0.028755413 -0.13381787 0.024571685 0.99070132 0.007594768
-0.013325918 0.032018416 0.029649684 -0.27136502 0.1506048 0.95062041 0.0041456087
0.0087397778 0.032521922 0.029944412 0.36878431 0.26930651 0.88964719 0.0041621556
0.011023774 0.0317345 0.028894961 0.59868646 0.35677066 0.7171396 0.018361436
0.012329807 0.030642549 0.027768526 0.76539898 0.30698115 0.56562084 0.024309682
-0.040356357 0.034153957 0.02870895 -0.036971785 0.026036076 0.99897707 0.0017224092
-0.037475683 0.03440173 0.028957004 -0.016697733 0.054358821 0.99838185 0.0010967023
-0.034356382 0.034538381 0.028873522 0.030638661 0.049633548 0.99829739 0.00082162081
-0.03220794 0.03426316 0.028755238 0.06058548 0.01739914 0.99801135 0.00076025736
-0.019576633 0.033502147 0.028587857 0.16853809 -0.20402692 0.96434844 0.018166292
-0.016721401 0.034492452 0.028691452 -0.011113468 -0.1186864 0.99286962 0.031599414
-0.013682799 0.034666128 0.028828165 -0.10620525 0.081798129 0.99097401 0.0097414879
-0.010857725 0.03489808 0.029670216 -0.20666619 0.25936162 0.94340903 0.002568834
0.0053145541 0.035645843 0.02996072 0.24935155 0.43212837 0.86665386 0.0029841792
0.0080092819 0.035060335 0.029259846 0.45836219 0.53623134 0.70877367 0.027044231
0.0099558262 0.034197427 0.02825157 0.66652709 0.52408385 0.53016758 0.022370737
-0.037638374 0.037302297 0.028673002 0.0010053561 0.045854241 0.99894762 0.00078372133
-0.034635916 0.037406676 0.028694246 0.0069211014 0.023274731 0.99970514 0.0003165963
-0.031567838 0.037881885 0.028693423 0.0086782901 0.014224117 0.99986106 0.00015938554
-0.018001691 0.03620911 0.028983625 0.19525748 -0.15243754 0.96883297 0.038529292
-0.017040925 0.037711963 0.028995138 0.29169887 -0.010481326 0.95645273 0.030424539
