# .PCD v0.7 - Point Cloud Data file format
VERSION 0.7
FIELDS x y z normal_x normal_y normal_z curvature
SIZE 4 4 4 4 4 4 4
TYPE F F F F F F F
COUNT 1 1 1 1 1 1 1
WIDTH 545
HEIGHT 1
VIEWPOINT 0 0 0 1 0 0 0
POINTS 545
DATA ascii
-0.031421337 -0.042013876 -0.0029304947 0.060727954 0.6966967 -0.71479076 0.0081932349
-0.02846141 -0.042179331 -0.0028244499 0.07556513 0.65406114 -0.75265789 0.006584038
-0.025176045 -0.042502165 -0.0028239337 0.080328949 0.60183209 -0.79457247 0.0047384761
-0.022298904 -0.042547069 -0.0026035169 0.091902561 0.56692016 -0.81863022 0.0037765217
-0.019387122 -0.04282729 -0.002465755 0.084406897 0.54067737 -0.83698481 0.0029580228
-0.016560361 -0.043023091 -0.0023366108 0.063945703 0.53104365 -0.84492821 0.0024693094
-0.01357282 -0.043114245 -0.002194707 0.03177226 0.53457743 -0.84452206 0.0022316724
-0.010533397 -0.043062061 -0.0021405963 -0.0078119277 0.55696338 -0.83050036 0.0022006652
-0.0076201656 -0.043105576 -0.0022893639 -0.034689736 0.59634125 -0.80198121 0.002739483
-0.004688187 -0.042820666 -0.0022693684 -0.054984771 0.65301073 -0.75535005 0.0030255835
-0.0015652077 -0.042618413 -0.0023919377 -0.086450897 0.6751824 -0.73256737 0.0040330854
0.00079474365 -0.042258378 -0.0023698297 -0.15781164 0.74269319 -0.65077043 0.0021992805
0.023417355 -0.042186372 -0.0015714379 0.3270261 0.94496685 0.0095676742 0.002901233
0.025491914 -0.042903874 -0.0015354814 0.34057778 0.93849283 0.056903869 0.0033374166
0.028558109 -0.044125333 -0.0015762572 0.35647893 0.91845387 0.17136252 0.003605294
0.030509576 -0.044806033 -0.0024622753 0.40998924 0.8832379 0.22759506 0.0038293039
-0.043377619 -0.041131936 -0.0015334589 -0.24921601 0.77686036 -0.57825536 0.005676921
-0.040511109 -0.040674988 -0.0019063313 -0.30044392 0.56524056 -0.76826859 0.025668697
-0.037520669 -0.040596202 -0.0022825168 -0.033748064 0.39731377 -0.91706204 0.03320514
-0.03463307 -0.040438443 -0.0023192277 0.0788389 0.38224441 -0.92069203 0.023227775
-0.031590749 -0.040614482 -0.0022830793 0.1123162 0.37240273 -0.92124987 0.018029146
-0.028516816 -0.040456999 -0.0020789835 0.067889571 0.33920354 -0.93826014 0.01142275
-0.025432041 -0.040624212 -0.0019374599 0.070394225 0.34857681 -0.93463308 0.0080849426
-0.022428669 -0.040485483 -0.0016506022 0.077995509 0.34493989 -0.93537861 0.0057020108
-0.019574037 -0.040586185 -0.0014391589 0.078978278 0.34031549 -0.93698871 0.0046328157
-0.016454929 -0.040519305 -0.0011596724 0.069797985 0.34549448 -0.93582147 0.00459337
-0.013536993 -0.040537015 -0.0009582293 0.059914518 0.36441803 -0.92930609 0.0044072322
-0.01055283 -0.040478237 -0.0008101085 0.040667266 0.35177857 -0.93519938 0.0040116752
-0.0075005414 -0.040518124 -0.00073961867 0.046836417 0.42740417 -0.90284663 0.0047826851
-0.0045412634 -0.040638447 -0.00073634437 0.01469031 0.49600443 -0.86819571 0.0046602492
-0.0015232125 -0.04078491 -0.00082870532 -0.0072742887 0.54916561 -0.83568192 0.0055052773
0.0015218933 -0.040897232 -0.0010765974 -0.087194964 0.6687969 -0.73831415 0.0080509549
0.0046921978 -0.040594626 -0.0014374519 -0.13051881 0.79617125 -0.59082675 0.0024399357
0.0076962453 -0.040195029 -0.0015552723 -0.084224083 0.85663122 -0.50900811 0.0015092232
0.010536802 -0.039954077 -0.0015255264 -0.0026184083 0.90561867 -0.42408484 0.0039692279
0.013493029 -0.040058393 -0.0015620423 0.080384128 0.94068158 -0.32963115 0.0045578652
0.016578753 -0.040433232 -0.0014862024 0.15924032 0.95296633 -0.25787148 0.0048840689
0.019577073 -0.041066807 -0.0015061864 0.20845327 0.96723717 -0.14491194 0.0036664307
0.021928795 -0.041702963 -0.0015302602 0.28021473 0.95807445 -0.059776265 0.0028252013
-0.037316103 -0.03751374 -0.0020161904 -0.053597026 0.10235392 -0.99330312 0.0078108157
-0.034614485 -0.037469696 -0.0020975845 0.019830773 0.067566544 -0.9975177 0.0045680273
-0.03148789 -0.037507519 -0.0019205767 0.06925936 0.086334303 -0.99385595 0.0037749938
-0.028432975 -0.037418429 -0.0015458551 0.083359763 0.1051312 -0.99095845 0.0041513522
-0.025414098 -0.037623268 -0.0012981893 0.074732147 0.12844566 -0.98889673 0.0060342206
-0.022695398 -0.037478507 -0.0010656267 0.082628153 0.13312076 -0.9876495 0.0060304194
-0.0194728 -0.037535761 -0.00080582919 0.082293414 0.13989852 -0.98674011 0.0062095537
-0.016414713 -0.03754431 -0.00055285363 0.095916346 0.085599087 -0.99170202 0.0019924243
-0.013469635 -0.037450179 -0.00030901158 0.090289459 0.09556292 -0.99132019 0.0026725866
-0.010687642 -0.037975322 -0.00014890141 0.070948459 0.1428365 -0.98720008 0.0037620319
-0.0078086019 -0.038777947 -7.9646008e-05 0.065905862 0.21533415 -0.97431391 0.0037300203
-0.0055136709 -0.038989883 -6.1206829e-06 0.044042692 0.34048501 -0.93921793 0.0020554243
-0.036952361 -0.034456547 -0.0022847084 0.087565318 -0.079093523 -0.99301386 0.0014370729
-0.034415729 -0.03454775 -0.0021803265 0.052637603 -0.083084159 -0.9951514 0.00074530189
-0.031574808 -0.034391157 -0.0019767757 0.077150889 -0.053545736 -0.99558049 0.00031244842
-0.028561473 -0.034548171 -0.0016937032 0.083091386 -0.053717148 -0.99509305 0.00014027329
-0.02540933 -0.034415804 -0.0014355973 0.08332295 -0.064892881 -0.99440747 8.0764643e-05
-0.022390269 -0.034471933 -0.0011884985 0.087703981 -0.066655256 -0.99391407 9.5115684e-05
-0.019562034 -0.034620125 -0.00092626881 0.083008155 -0.064845547 -0.99443686 0.00010508941
-0.016462769 -0.034396864 -0.00066572672 0.094143808 -0.057529837 -0.99389505 0.00011774697
-0.013639521 -0.034477659 -0.00039730128 0.098176703 -0.051682923 -0.99382609 8.6889027e-05
-0.010771212 -0.034369599 -0.00013680174 0.10015619 -0.037177887 -0.99427688 0.00025685059
-0.037160743 -0.031243598 -0.0026395808 0.0084687416 -0.13854304 -0.99032015 0.0020002588
-0.034506246 -0.031636607 -0.0024688391 0.072273083 -0.13351436 -0.98840809 0.00085463276
-0.031401683 -0.031391051 -0.0021475253 0.10078334 -0.102857 -0.98957729 0.00027008285
-0.02858449 -0.031536222 -0.001908905 0.082903706 -0.077456973 -0.99354285 9.3937226e-05
-0.025593836 -0.031558052 -0.0017055764 0.076044887 -0.084647432 -0.99350494 1.0239265e-05
-0.022428721 -0.031475931 -0.0014714896 0.085223496 -0.08532311 -0.99270177 1.1963133e-05
-0.019410502 -0.031615037 -0.0011896716 0.094101317 -0.082463816 -0.99214137 1.5215926e-05
-0.016477333 -0.031589314 -0.00090958655 0.099144243 -0.068180755 -0.99273455 9.5465446e-05
-0.013557118 -0.031341273 -0.00061979477 0.10495678 -0.066587307 -0.99224496 4.009698e-05
-0.010408334 -0.031520624 -0.00026873103 0.10991981 -0.050492868 -0.99265712 2.7789894e-05
-0.0082750218 -0.031316854 -4.7172642e-05 0.10821813 -0.046761893 -0.99302673 3.6606234e-05
-0.037481718 -0.029605225 -0.0028671883 0.0019758625 -0.14475133 -0.98946613 0.0022731558
-0.034163173 -0.028805036 -0.0028205602 0.096793525 -0.17145325 -0.98042583 0.00097372872
-0.031541746 -0.028597271 -0.0024815612 0.11712789 -0.13157256 -0.9843626 0.00027732883
-0.028435331 -0.028520124 -0.0021776673 0.096445225 -0.111898 -0.98902833 0.00020811388
-0.0254537 -0.028437851 -0.0019552256 0.084393747 -0.095052101 -0.99188852 6.9286783e-05
-0.022671256 -0.028527867 -0.0017302445 0.084882788 -0.083544299 -0.99288231 4.2382679e-05
-0.019510385 -0.028515663 -0.0014380725 0.094195269 -0.075653985 -0.99267507 3.3738022e-05
-0.016417282 -0.028520908 -0.0011210217 0.10836078 -0.070239753 -0.9916271 3.2055079e-05
-0.013453852 -0.028526686 -0.00078011927 0.11663742 -0.057793487 -0.99149162 3.3218155e-05
-0.010497927 -0.028555289 -0.00042832768 0.12000683 -0.046741903 -0.9916721 3.9585804e-05
-0.0081159603 -0.028321771 -0.00014762384 0.12227198 -0.039254095 -0.99172014 2.3096352e-05
-0.038321525 -0.02698941 -0.0029625534 0.046548255 -0.1874468 -0.98117119 0.003713293
-0.033047952 -0.026771754 -0.0029742394 0.14280607 -0.18959294 -0.97142208 0.00066739612
-0.030945169 -0.025803976 -0.002819069 0.14202023 -0.15763837 -0.97723097 0.000290911
-0.028492421 -0.025377888 -0.0025795072 0.12221116 -0.13750839 -0.98293227 0.00039650491
-0.02547011 -0.025657188 -0.0022457754 0.10449061 -0.11943179 -0.98732859 0.00026761551
-0.022439258 -0.025399698 -0.001979385 0.10551874 -0.10236052 -0.98913509 0.00017967331
-0.019507986 -0.025506707 -0.0016635938 0.10503608 -0.078833833 -0.99133879 6.2464314e-05
-0.016617069 -0.025430957 -0.0013501362 0.11496813 -0.066795498 -0.99112087 5.2623334e-05
-0.013390057 -0.025611825 -0.00093535666 0.12661768 -0.055791579 -0.99038136 3.4081375e-05
-0.010519871 -0.025405126 -0.00057204545 0.13096026 -0.043397941 -0.99043733 4.3949301e-05
-0.0076453099 -0.025444513 -0.00018227576 0.13763598 -0.032741964 -0.9899416 4.2929423e-05
-0.027962327 -0.023084367 -0.0028626602 0.1369487 -0.15664521 -0.97811419 0.00026293
-0.025463002 -0.022420429 -0.0026452632 0.13657428 -0.14769471 -0.97955793 0.00023148798
-0.022484098 -0.022596898 -0.002263814 0.12100832 -0.11243593 -0.98626322 0.0001841194
-0.019506788 -0.022317626 -0.0019284789 0.12861049 -0.090261698 -0.98757887 0.00011828078
-0.0162814 -0.022497887 -0.0015051018 0.13340017 -0.071131371 -0.98850626 7.2823423e-05
-0.013476764 -0.02250576 -0.0011187141 0.14006408 -0.057411723 -0.98847663 5.5839762e-05
-0.010648616 -0.022499114 -0.00071518362 0.14281969 -0.042435542 -0.98883861 4.8107599e-05
-0.0074576051 -0.022447417 -0.00024852288 0.15016887 -0.028742971 -0.98824245 4.143922e-05
-0.024855483 -0.02034184 -0.0028615803 0.14282151 -0.15328595 -0.97780645 0.00019774854
-0.022443755 -0.019433521 -0.0026331225 0.14669791 -0.11858719 -0.98204732 0.00013236182
-0.019404354 -0.019523486 -0.0021746592 0.14629449 -0.09977825 -0.98419625 0.00017832372
-0.016612183 -0.01941154 -0.0017830606 0.14784731 -0.077913783 -0.9859364 0.00012177155
-0.013675667 -0.019527178 -0.0013184572 0.15227437 -0.058912259 -0.98658085 7.0212031e-05
-0.010457753 -0.01950326 -0.00081424182 0.15877856 -0.043780103 -0.98634303 6.0311613e-05
-0.0073404624 -0.019412167 -0.00031802186 0.15845881 -0.030768014 -0.98688608 5.0144146e-05
-0.0053835697 -0.018784251 -1.2525141e-05 0.16611359 -0.020606523 -0.98589128 3.394582e-05
-0.021902764 -0.016988887 -0.0028734398 0.16932218 -0.13306063 -0.97653723 0.00021145442
-0.019635875 -0.016413596 -0.0025505265 0.17132285 -0.12418941 -0.97735643 0.0001203328
-0.016584599 -0.016568422 -0.0020016397 0.17435746 -0.091426514 -0.98042881 0.00019366061
-0.0134093 -0.016502718 -0.0014650869 0.1695125 -0.064197809 -0.98343486 8.169721e-05
-0.01030131 -0.016520258 -0.00092506519 0.17149962 -0.050784897 -0.98387432 6.831286e-05
-0.0071617723 -0.016461313 -0.0003782576 0.1737899 -0.026465202 -0.98442709 3.1198488e-05
-0.0053252317 -0.016684575 -4.6487145e-05 0.17623386 -0.026345383 -0.98399568 2.911559e-05
-0.019170804 -0.013831379 -0.0027598534 0.19136019 -0.1120425 -0.97510397 0.00014089364
-0.016365472 -0.013509342 -0.0022466963 0.18904057 -0.091239482 -0.97772127 0.00012636783
-0.01335926 -0.013526285 -0.0016681957 0.18713883 -0.073721603 -0.9795633 9.4527924e-05
-0.010557159 -0.013452373 -0.0011420806 0.1870551 -0.055500381 -0.9807803 7.5864838e-05
-0.0077784867 -0.013491571 -0.00060451962 0.18882319 -0.040431317 -0.98117852 6.3859588e-05
-0.0055832774 -0.013472043 -0.00018929622 0.19024685 -0.028499098 -0.98132259 3.517406e-05
-0.018592263 -0.011288849 -0.0029382154 0.21596891 -0.11214077 -0.96993917 0.00013004251
-0.016640857 -0.010476258 -0.0025931119 0.21306391 -0.10692992 -0.97116923 7.1634197e-05
-0.013630757 -0.010499732 -0.0019476833 0.20422995 -0.075541608 -0.97600383 8.0255981e-05
-0.010621462 -0.010513023 -0.0013255962 0.20348416 -0.059166539 -0.9772889 6.8619331e-05
-0.0076833377 -0.01052987 -0.00071185455 0.20441981 -0.044183664 -0.9778856 6.2323365e-05
-0.0051070657 -0.010500898 -0.0001813031 0.20383264 -0.031859353 -0.97848725 4.3722142e-05
-0.015965469 -0.0076401453 -0.0027238228 0.22656801 -0.096057832 -0.96924698 6.6099245e-05
-0.013322356 -0.0075005498 -0.0021233801 0.22244574 -0.080436066 -0.97162127 9.4715455e-05
-0.010419467 -0.0075503439 -0.0014680501 0.21976091 -0.063786745 -0.97346622 8.426873e-05
-0.0075185942 -0.0075252168 -0.00081501837 0.21954875 -0.047345884 -0.97445202 7.4585972e-05
-0.0049938536 -0.007525498 -0.00025206798 0.2184189 -0.034756906 -0.97523594 4.532696e-05
-0.015592249 -0.0048847222 -0.0029132646 0.24076694 -0.08971303 -0.96642792 5.2294003e-05
-0.013608352 -0.0045886999 -0.0024437113 0.23850389 -0.078915633 -0.96792984 7.5182201e-05
-0.010415035 -0.0044350596 -0.0016732705 0.23630439 -0.06348709 -0.96960282 6.8400113e-05
-0.0073498623 -0.0045327051 -0.00092119596 0.23553678 -0.047871254 -0.97068566 7.5098294e-05
-0.0047841184 -0.0044810036 -0.00030787245 0.23798075 -0.033968043 -0.97067565 6.2968582e-05
-0.013436466 -0.0015405221 -0.0026398457 0.25265974 -0.05764135 -0.96583664 0.00015743135
-0.01067402 -0.0015098531 -0.0019272696 0.2511766 -0.046796676 -0.96680945 0.00011075589
-0.0075356592 -0.0015373144 -0.0011125044 0.24648538 -0.032831676 -0.96859026 6.3090898e-05
-0.0044318074 -0.0015179331 -0.00031412294 0.24812917 -0.023222661 -0.96844864 5.277984e-05
-0.013164685 0.0015873903 -0.0026761477 0.25822613 0.0014492737 -0.96608347 0.00019577933
-0.010537119 0.0015206734 -0.0019855124 0.25655612 -0.0015525869 -0.96652806 0.00015012735
-0.0074400455 0.0014596931 -0.0011640543 0.25622007 -0.0031723904 -0.96661323 6.6030036e-05
-0.0043408186 0.0015408719 -0.00033592523 0.25314337 0.0051677958 -0.96741498 7.8997458e-05
-0.013380514 0.0044673136 -0.0026586165 0.24628694 0.038562074 -0.96842951 5.6451361e-05
-0.01055005 0.0045497837 -0.0019186782 0.25099993 0.031166766 -0.96748525 2.2528571e-05
-0.0074477079 0.0044549415 -0.0011133677 0.25198075 0.025085609 -0.96740705 1.6609752e-05
-0.0043315226 0.0045565865 -0.00029744435 0.25206149 0.019638261 -0.96751189 2.5513504e-05
-0.015352217 0.0080699502 -0.0029422841 0.24040537 0.067910396 -0.96829408 6.3935215e-05
-0.013473315 0.0074677397 -0.0025294956 0.23954141 0.059723016 -0.96904749 7.1752947e-05
-0.010665403 0.0076167015 -0.0018278707 0.24174319 0.047736719 -0.96916527 4.2243846e-05
-0.0075059729 0.0074210237 -0.0010258368 0.24520937 0.037033066 -0.96876258 3.3625423e-05
-0.0048480863 0.007506886 -0.00033616921 0.24024768 0.028051617 -0.97030628 4.0706753e-05
-0.01582817 0.010774998 -0.0028299598 0.22985671 0.084519558 -0.96954745 5.4732096e-05
-0.013778901 0.01051273 -0.0023909078 0.22973086 0.081099801 -0.96986938 6.4387561e-05
-0.010525026 0.010543822 -0.0016208569 0.22961473 0.06084422 -0.97137791 6.9801266e-05
-0.0073700058 0.010445723 -0.0008654691 0.23249598 0.045021199 -0.97155476 8.3168299e-05
-0.0048666517 0.010533039 -0.00026589146 0.23017322 0.032451373 -0.97260845 6.2109757e-05
-0.018127099 0.014428193 -0.0029520472 0.21820736 0.11393944 -0.96922827 5.780088e-05
-0.016264629 0.013616105 -0.002641547 0.21566929 0.10755739 -0.97052467 5.377506e-05
-0.013333761 0.013460952 -0.0020280394 0.2103615 0.086584941 -0.97378182 0.00011957169
-0.010326773 0.013529515 -0.0013720171 0.21522331 0.067854248 -0.97420472 8.882329e-05
-0.007458277 0.013471097 -0.00073324179 0.21550611 0.049091794 -0.97526771 0.00011451943
-0.0049165604 0.013537163 -0.00017275088 0.21120134 0.032550968 -0.9769004 0.00010310525
-0.018960955 0.016744228 -0.0028468587 0.20151146 0.12251987 -0.97179317 4.4168159e-05
-0.01644644 0.016547544 -0.00234807 0.19126494 0.11812416 -0.97440463 5.1072446e-05
-0.013423271 0.016511455 -0.0017787096 0.19572805 0.099594958 -0.97558773 0.00011161053
-0.010471424 0.016537309 -0.0011945768 0.19180399 0.07822682 -0.97831059 0.00016671722
-0.0075525888 0.016484531 -0.00059709331 0.18965171 0.055331666 -0.98029107 0.00021367369
-0.0052408548 0.016417069 -0.00017203978 0.18783884 0.034984414 -0.98157668 0.00012572703
-0.021666752 0.020267712 -0.0028621173 0.16737388 0.15143724 -0.97419333 8.4398642e-05
-0.019435963 0.01950098 -0.0025500103 0.17687881 0.13383947 -0.97509021 9.8251083e-05
-0.016496694 0.019515585 -0.0019994676 0.18162215 0.1216431 -0.97581571 0.00011175945
-0.013575517 0.019532356 -0.0014585251 0.17284776 0.10067692 -0.97978967 9.4036703e-05
-0.010684888 0.019471046 -0.00095148658 0.16987234 0.079551503 -0.98224998 0.00018422738
-0.0077871135 0.019420478 -0.00047195499 0.16920985 0.06058979 -0.98371595 0.00014195642
-0.0055035814 0.019466193 -9.4142757e-05 0.16962177 0.043615226 -0.98454362 5.174696e-05
-0.024672538 0.02329863 -0.0028316379 0.14742513 0.16316178 -0.9755224 9.182025e-05
-0.022573499 0.022502569 -0.0026418527 0.1526068 0.15756665 -0.97564536 7.1702474e-05
-0.01965089 0.022520479 -0.0021772147 0.16269331 0.12784384 -0.97835928 9.9115583e-05
-0.016541453 0.022477953 -0.0016548552 0.16833144 0.11291141 -0.97924232 0.00011029038
-0.013392898 0.022511369 -0.0011396653 0.15596402 0.086338602 -0.98398215 0.00014210197
-0.010284339 0.022486845 -0.00066814094 0.14370196 0.066344187 -0.98739469 5.3071562e-05
-0.0073631373 0.022576638 -0.00022880733 0.14413416 0.053948689 -0.98808646 2.8039991e-05
-0.0059756208 0.021627579 -7.4743293e-05 0.15110575 0.048206676 -0.98734146 3.2832973e-05
-0.038858484 0.02640716 -0.0029027418 -0.06627728 0.18703659 -0.98011458 0.0048583266
-0.028071288 0.026175303 -0.0028330623 0.13041568 0.17224137 -0.97638351 0.00010387134
-0.025628492 0.025347456 -0.0026393104 0.13847482 0.1638563 -0.97671682 0.00010760273
-0.022415074 0.025504241 -0.002194985 0.13420171 0.14122987 -0.98083842 0.0001049593
-0.01938295 0.02564311 -0.0017440927 0.14184436 0.11418667 -0.98328108 0.0001425122
-0.016606508 0.025434902 -0.0013434177 0.14231604 0.097432323 -0.98501426 0.00015973907
-0.013583694 0.025479859 -0.00089661073 0.13785154 0.076557532 -0.98748964 0.00011003989
-0.010408041 0.025462298 -0.000477942 0.13562314 0.060723979 -0.98889786 6.9649177e-05
-0.0078359665 0.025370253 -0.00014794371 0.13964675 0.04585043 -0.98913932 6.2332874e-05
-0.037597124 0.029581938 -0.0029944663 -0.046140127 0.13425322 -0.98987228 0.0046509253
-0.033610031 0.02940755 -0.0029441756 0.074051067 0.19315593 -0.97836971 0.0010878531
-0.031360362 0.028912636 -0.0027498847 0.11570992 0.16915379 -0.97877389 0.00010466106
-0.02853388 0.02838316 -0.0025048151 0.12371013 0.16401751 -0.97866952 8.7472043e-05
-0.025428984 0.028524514 -0.002127632 0.11777215 0.14314036 -0.98267013 0.00012910535
-0.02246929 0.028408596 -0.0017963232 0.12181716 0.13030164 -0.98396248 0.00014121259
-0.019501537 0.028501548 -0.0014148823 0.12026394 0.1057163 -0.98709702 0.00012471882
-0.01628482 0.028553162 -0.001029527 0.12076142 0.083804823 -0.98913771 0.00013414964
-0.013527079 0.028383076 -0.00071765669 0.12006676 0.06519492 -0.99062276 9.9113029e-05
-0.010702983 0.028520035 -0.00036391811 0.11934628 0.050789442 -0.99155277 3.8425991e-05
-0.0083113723 0.028268814 -8.3885243e-05 0.11745878 0.039109234 -0.99230742 4.6853678e-05
-0.037653752 0.031405929 -0.002612686 -0.039593607 0.11865345 -0.99214596 0.0032762501
-0.034548339 0.031533398 -0.0026785925 0.049269274 0.15374638 -0.9868812 0.0016962067
-0.0314578 0.031481896 -0.0023545385 0.10429514 0.14146428 -0.98443401 0.00015135003
-0.028441081 0.031617723 -0.0020268005 0.10818508 0.13310176 -0.98518014 0.00017777017
-0.025492799 0.031364482 -0.0017632818 0.10347189 0.11575039 -0.98787421 6.3350191e-05
-0.022527497 0.031607591 -0.0014352005 0.10078018 0.10198174 -0.98966819 7.7487195e-05
-0.01966471 0.031367686 -0.0011613092 0.10433137 0.092892773 -0.99019486 0.00012146804
-0.016614903 0.031455729 -0.00082450226 0.10097221 0.070877612 -0.99236125 7.312926e-05
-0.013508063 0.031520344 -0.00051122281 0.10554918 0.056490149 -0.99280828 6.6188135e-05
-0.01062012 0.03141037 -0.0002161958 0.10906968 0.044182643 -0.99305171 4.7752746e-05
-0.00874124 0.030929253 -2.2978093e-05 0.10406195 0.035959739 -0.99392051 2.4304485e-05
-0.036844585 0.034461021 -0.0024012302 0.056169145 0.11752824 -0.99147981 0.0013219746
-0.034384139 0.034496788 -0.0022802544 0.057741683 0.098201416 -0.99348998 0.0011212953
-0.031453449 0.034639716 -0.0019748802 0.088200696 0.082860477 -0.99265033 0.0004233291
-0.0284978 0.034372266 -0.0017269455 0.092996657 0.079515465 -0.9924863 0.00019650185
-0.025566807 0.034554712 -0.0014362069 0.086692899 0.075721867 -0.99335313 0.00012519999
-0.022557277 0.034447424 -0.0011712128 0.088510595 0.066784933 -0.99383378 0.00012830416
-0.019489789 0.034618363 -0.0008782912 0.092936531 0.016547669 -0.99553448 0.0017019884
-0.016508009 0.034432851 -0.00063832907 0.090112172 0.052779082 -0.99453211 0.00012530564
-0.013289404 0.03449339 -0.00034979905 0.089737944 0.030569175 -0.99549615 5.8486854e-05
-0.010600871 0.034265954 -9.9279554e-05 0.10024766 0.026721025 -0.99460369 5.3059612e-05
-0.037137311 0.037539292 -0.0020788182 0.0027191318 -0.036217779 -0.9993403 0.006023407
-0.034554798 0.037547473 -0.0021465868 0.041740675 -0.027376141 -0.99875331 0.0039300979
-0.031408805 0.037456106 -0.0019015737 0.075496048 -0.049403671 -0.99592143 0.0031987797
-0.028538933 0.037416469 -0.0015305768 0.082627445 -0.079406045 -0.99341202 0.0038128744
-0.025420932 0.037441283 -0.0012843976 0.081590302 -0.1013635 -0.99149805 0.0053056027
-0.022301091 0.037604433 -0.0010286614 0.089273602 -0.11849461 -0.98893338 0.0056109023
-0.019361973 0.037462536 -0.00077502022 0.087677628 -0.12254855 -0.98858207 0.0058378251
-0.01647925 0.037599962 -0.00054132927 0.091277786 -0.061310064 -0.99393636 0.0011887762
-0.013478857 0.037489161 -0.00029686248 0.085458189 -0.070033535 -0.99387741 0.0016101712
-0.0107273 0.037548371 -8.7570275e-05 0.10785313 -0.071582474 -0.99158639 0.0018063772
-0.0086692981 0.038744733 -2.7211672e-05 0.090111248 -0.11035527 -0.98979884 0.0027923337
-0.042840134 0.041351251 -0.0012935814 -0.15206727 -0.62176812 -0.76829678 0.033974849
-0.03980834 0.040881872 -0.0019584156 -0.18421431 -0.46199381 -0.8675406 0.03710397
-0.037416529 0.040602949 -0.0021458787 -0.077688679 -0.39217836 -0.91660267 0.03906659
-0.034538906 0.040350113 -0.0021527696 0.0027971047 -0.24417393 -0.9697274 0.016378067
-0.03154555 0.040360395 -0.0020981415 0.061275534 -0.29177725 -0.95452154 0.017236583
-0.028439533 0.04040483 -0.0018923619 0.070663758 -0.28014708 -0.9573527 0.0090684611
-0.025507528 0.04048745 -0.0017298129 0.072053216 -0.29999429 -0.95121592 0.0066463789
-0.022483779 0.040537767 -0.0015081812 0.079528674 -0.3076511 -0.94816977 0.0055002049
-0.019439742 0.040499806 -0.0012351006 0.079251885 -0.30821896 -0.94800854 0.0042869737
-0.016492743 0.040417343 -0.00097606285 0.057671994 -0.31208509 -0.94830203 0.0042752214
-0.013529948 0.040462665 -0.00077690656 0.062822126 -0.32419914 -0.94390059 0.0039175292
-0.010508821 0.040403672 -0.00061447266 0.067973606 -0.31081188 -0.94803774 0.0048324773
-0.007538666 0.040582716 -0.000533577 0.033009633 -0.39349076 -0.91873568 0.0043351101
-0.0046029296 0.040846996 -0.00057068688 0.011896716 -0.44383872 -0.89602768 0.0053503388
-0.0015897084 0.040899441 -0.00056008023 0.049715575 -0.53583199 -0.84285963 0.0081736464
0.0010718384 0.040801451 -0.00044046229 0.070948556 -0.51358658 -0.85509944 0.011179964
0.0040794355 0.041037299 -0.0011568798 -0.055726044 -0.74554932 -0.6641165 0.018747862
0.0071462388 0.04068755 -0.0013863025 -0.008286844 -0.87702036 -0.48038173 0.0039504599
0.010650301 0.040280066 -0.0012037285 0.027983619 -0.92446268 -0.38024428 0.0023860224
0.013125135 0.040475782 -0.0014712468 0.0068607279 -0.93100834 -0.36493328 0.0015136618
0.016669935 0.041235059 -0.0025927552 0.11763094 -0.94718552 -0.29833314 0.0064381217
0.019544255 0.041640211 -0.0019001318 0.22262399 -0.95726508 -0.18461372 0.0032462706
-0.042482942 0.0420947 -0.0022050398 -0.14412084 -0.80836946 -0.57076091 0.010402772
-0.040859517 0.042388622 -0.0025954808 -0.053773131 -0.83801395 -0.54299265 0.015456463
-0.038091607 0.042252667 -0.0027420069 -0.077657312 -0.67018425 -0.73812079 0.010163713
-0.034915119 0.042179622 -0.0028382076 0.0047888607 -0.44129187 -0.89735085 0.027648607
-0.031157002 0.042172525 -0.0026728222 0.057062872 -0.41277331 -0.90904456 0.018962424
-0.028145302 0.042411037 -0.0026329113 0.088286407 -0.59379059 -0.79976147 0.0089284517
-0.025282452 0.042709764 -0.0026451384 0.076063342 -0.5454244 -0.83470154 0.0059520425
-0.022496436 0.042948507 -0.0025576234 0.086063795 -0.52869767 -0.84443575 0.0052260631
-0.019424723 0.04312706 -0.0023545211 0.074739031 -0.50511736 -0.85980844 0.003916095
-0.016521646 0.043372817 -0.0022473899 0.06265375 -0.49204183 -0.86831409 0.0032514106
-0.013534746 0.043259349 -0.0019865597 0.036349941 -0.49952754 -0.86553502 0.0025970552
-0.010412982 0.04329516 -0.001981928 -0.00093186245 -0.52881187 -0.84873849 0.002738049
-0.0075229695 0.042958412 -0.0018123809 -0.02569199 -0.52389687 -0.85139412 0.0029080759
-0.0048471703 0.043089833 -0.0020476484 -0.030160125 -0.5765059 -0.81653625 0.0026284156
-0.0017559908 0.042781137 -0.00203193 0.01459977 -0.58518046 -0.81077164 0.002280921
0.00065227738 0.042141542 -0.0015671398 0.003145824 -0.63946152 -0.76881665 0.0028552662
0.023241889 0.042628825 -0.00059164345 0.23506144 -0.96401 -0.12422065 0.0017398598
0.027055614 0.043947618 -0.001719974 0.21979719 -0.96378452 -0.15102546 0.0014106256
0.04207468 0.053109288 -0.0026756758 0.77549255 -0.45981899 0.43264049 0.0079368968
-0.049279816 0.056813162 -0.0025139239 -0.096744262 0.92679656 -0.36288941 0.0089074885
-0.046791334 0.056831725 -0.0024351201 -0.24144246 0.87756521 -0.41422787 0.012847993
0.043003157 0.055426586 -0.0022333572 0.78706425 -0.38703388 0.48034856 0.0037196793
-0.049591925 0.057200104 -0.00092674629 -0.25415492 0.88753343 -0.38430414 0.010222015
-0.046944331 0.057023533 -0.0016451695 -0.25421351 0.8875137 -0.38431102 0.010244665
-0.043397218 0.058952294 -0.0016282599 -0.28993994 0.86431444 -0.41096881 0.0047361106
-0.040566206 0.059448153 -0.0016398946 -0.15274563 0.91265023 -0.37912828 0.00049658888
-0.037893526 0.059624057 -0.002172641 -0.11761989 0.90021819 -0.41925269 0.00029962382
-0.034567095 0.059805132 -0.0027286126 -0.097392298 0.87988257 -0.46510369 0.00046701991
0.043672536 0.058217771 -0.0020648548 0.74042642 -0.13178085 0.65909213 0.0072589736
-0.039303072 0.060146537 -0.00053099007 -0.1471274 0.90579057 -0.39736265 0.00022698731
-0.037200417 0.060262278 -0.0010450153 -0.15101831 0.89685416 -0.41574764 0.00023863128
-0.034592319 0.060514539 -0.0013448304 -0.12572631 0.87628412 -0.46510112 0.00054960657
-0.031569649 0.060887426 -0.0013778945 -0.11014523 0.86053741 -0.49733618 0.00059783889
-0.028618926 0.061248239 -0.0013845441 -0.11783797 0.8314212 -0.54300368 0.00032986444
-0.025644843 0.061516795 -0.001507718 -0.093691513 0.80724984 -0.58272606 0.0004780915
-0.022638733 0.061647583 -0.0018178183 -0.10789801 0.76289082 -0.63746023 0.00082651421
-0.019654654 0.061986584 -0.0019515483 -0.12513584 0.72228438 -0.68018109 0.0013857611
-0.016857071 0.062335569 -0.0022212232 -0.17716248 0.70866245 -0.68294293 0.00063407258
-0.014024808 0.062695771 -0.0026286636 -0.23510659 0.65580434 -0.71738791 0.0016616995
-0.019140873 0.063463658 -0.00042842506 -0.16797143 0.74246025 -0.64848936 0.00043449813
-0.016216606 0.063801773 -0.00087904872 -0.20573358 0.7033453 -0.6804257 0.00049209525
-0.013382912 0.064397953 -0.0012642435 -0.26151535 0.67102242 -0.69378567 0.00090792263
-0.011039364 0.065280005 -0.0014453941 -0.28436539 0.66063094 -0.69476837 0.00036459893
0.04377529 0.064136483 -0.0024404987 0.71171629 0.10148405 0.6950978 0.0013995733
-0.010777952 0.066310763 -0.00063381612 -0.31773332 0.6684494 -0.67247379 0.00017943235
0.041822568 0.068163827 -0.0014985889 0.71105325 0.22068724 0.66760808 0.00065113866
0.042927179 0.067665063 -0.0024272855 0.72205263 0.20799051 0.65983319 0.00041473738
0.041259155 0.070540212 -0.0017039549 0.68832463 0.27517158 0.67118537 0.00084577914
0.042421743 0.070287667 -0.0026848842 0.71346396 0.27192235 0.64577657 0.00053354882
0.038651247 0.072522417 -0.00017019111 0.64524215 0.36632186 0.67042577 0.0045475625
0.040798876 0.073202223 -0.0023172083 0.67990959 0.37698987 0.62896866 0.0026963754
0.037834775 0.07715378 -0.0025285706 0.45708522 0.60181159 0.65490144 0.0083816657
0.03939968 0.075198755 -0.0021228762 0.60779405 0.51922178 0.60082865 0.0052272603
0.038977511 -0.054430537 0.0014151825 0.59104443 0.41405648 0.69225985 0.00080494082
0.040723376 -0.055489898 0.00030899257 0.66083997 0.23738535 0.71199632 0.0043468219
0.035504512 -0.052050307 0.0028972756 0.55546051 0.48143002 0.67800355 0.00077927508
0.037542827 -0.052417107 0.0014709078 0.5766986 0.48370412 0.65836853 0.0025258879
0.039163742 -0.052946702 0.00053384522 0.60111284 0.45455605 0.65729916 0.0013125843
0.032426827 -0.048405923 0.0026068802 0.55855584 0.57450193 0.59829998 0.002463528
0.034507662 -0.049179602 0.001411424 0.54866594 0.62450707 0.55583858 0.0032581885
0.03683085 -0.05062411 0.00078255759 0.56688052 0.52146322 0.637748 0.002044227
0.029143343 -0.045590587 0.0019601835 0.47670719 0.77572155 0.41352907 0.0039064344
0.031520952 -0.04682469 0.0013320295 0.50254524 0.72842199 0.46567121 0.0025151584
0.033362228 -0.047477551 0.00042202725 0.49742016 0.71283859 0.49440309 0.0049463972
-0.051349193 -0.042264864 0.0014550728 -0.2712988 0.84751725 -0.45619234 0.011051508
-0.04934971 -0.04239532 0.0010381548 -0.27129832 0.84751791 -0.45619148 0.011052304
0.023082821 -0.042323157 0.001791917 0.41184911 0.89798826 0.15491104 0.0028709604
0.025385711 -0.043397777 0.0016298824 0.43789944 0.86824602 0.23322311 0.003930232
0.027920753 -0.044482797 0.0010286181 0.4642958 0.82899475 0.31176457 0.0044111283
-0.049906254 -0.041334473 0.0025999132 -0.27135113 0.84750634 -0.45618144 0.011039708
-0.046214659 -0.040264819 0.0015776774 -0.32173458 0.804941 -0.49855474 0.0046901465
-0.044219684 -0.040108491 0.00075713621 -0.32582739 0.74332815 -0.58420861 0.0042966311
-0.0037166784 -0.039049972 7.2707393e-05 0.044040781 0.34042472 -0.93923986 0.0020606965
-0.0014101987 -0.039237998 0.00011292676 0.044210106 0.44900927 -0.89243263 0.0039794026
0.0015363256 -0.039438844 0.00024553944 0.053820003 0.62515891 -0.77863961 0.012378275
0.0044578281 -0.039335426 0.00037446144 -0.0052526025 0.77702314 -0.62945026 0.011514383
0.0072895829 -0.03917858 0.00019867078 -0.012939099 0.86100358 -0.50843424 0.0034836594
0.010620939 -0.039110199 0.00043135619 0.057815079 0.94079262 -0.33401603 0.0032218117
0.013786227 -0.039328642 0.0011985891 0.15106221 0.96551549 -0.21203804 0.0033047555
0.016443243 -0.03991453 0.0015496565 0.27504137 0.95817149 -0.079118676 0.0048561986
0.019458475 -0.040860601 0.0015403038 0.31053108 0.95056248 0.0012078704 0.0023331752
0.021787364 -0.041693576 0.0011977912 0.36689562 0.92628777 0.08589875 0.0027853535
-0.0097853094 -0.03691278 3.7849306e-05 0.052625742 0.1245081 -0.99082202 0.0043590171
-0.0073783509 -0.037256002 0.00018648717 0.063181572 0.11869757 -0.99091822 0.0037183634
-0.0044422541 -0.037528433 0.00038231732 0.051694769 0.16105007 -0.98559147 0.0041173664
-0.0014698348 -0.037538737 0.00058974244 0.094490997 0.19500037 -0.97624093 0.0088094296
0.0016207269 -0.037556075 0.0011632916 0.17486385 0.4601258 -0.87046361 0.041983213
0.0042752293 -0.037955958 0.0019833993 0.2091839 0.71021378 -0.6721893 0.054965276
0.0076178284 -0.038427614 0.0017535171 0.095018044 0.89647293 -0.43279067 0.0068102316
0.010462063 -0.038633373 0.0018084904 0.13449354 0.94594371 -0.29513031 0.0037498588
0.013001886 -0.038933445 0.0023640895 0.2421093 0.95585173 -0.16652498 0.0035535158
-0.0093973465 -0.035328783 4.6850571e-05 0.078082271 -0.010608661 -0.99689049 0.00086518953
-0.007627903 -0.034509961 0.00016427178 0.090704411 -0.010943739 -0.99581772 0.00097881444
-0.0047354642 -0.034502093 0.00043852834 0.095379412 0.019684482 -0.99524635 0.00074640126
-0.0013295426 -0.034532193 0.00076936086 0.15935464 0.060468528 -0.98536783 0.0027245814
0.0018407229 -0.034515694 0.0015461056 0.7043066 -0.032800891 -0.70913774 0.061833099
0.0032604993 -0.034439497 0.0025808536 0.90667915 0.20673354 -0.36768767 0.052197151
-0.00704213 -0.031586587 0.00010055145 0.10780226 -0.037799474 -0.99345356 6.5086715e-05
-0.004559218 -0.031505473 0.00037443463 0.11082549 -0.023005616 -0.99357361 7.4784206e-05
-0.0012936338 -0.031506665 0.00074848323 0.2210812 -0.012111866 -0.97518021 0.0041601514
0.0018402874 -0.031517789 0.0015464383 0.58183932 0.0083325179 -0.81326103 0.04771661
0.0032587294 -0.031444434 0.0025781523 0.90585196 0.0028221961 -0.42358491 0.025732327
-0.0066371504 -0.028635198 5.0983388e-05 0.12343284 -0.02946661 -0.9919154 2.9349463e-05
-0.0044057379 -0.028532848 0.00032694562 0.12605019 -0.018267848 -0.99185574 5.8065012e-05
-0.0012653476 -0.028496787 0.00073330721 0.23220669 -0.0093119657 -0.97262192 0.0038684634
0.0018393529 -0.028531553 0.0015471507 0.58631134 0.008762206 -0.81003845 0.047558691
0.003256978 -0.028460806 0.002575459 0.90600926 0.0029051558 -0.42324784 0.025921507
-0.0064115562 -0.026552716 1.1802716e-05 0.13206708 -0.027557058 -0.9908576 4.0658542e-05
-0.0043926807 -0.025573056 0.00027281654 0.14050956 -0.017769434 -0.98991984 4.864376e-05
-0.0012449856 -0.025502402 0.0007240597 0.24103825 -0.0088678487 -0.97047508 0.0036248765
0.0018399762 -0.025555966 0.0015466731 0.58970743 0.0083606672 -0.80757374 0.047337588
0.0032555598 -0.025488401 0.0025725123 0.90558547 0.0037745854 -0.42414707 0.026027227
-0.0043186224 -0.022554656 0.00022911846 0.15142435 -0.018415544 -0.98829728 4.3559048e-05
-0.0012194727 -0.022517376 0.0007109099 0.24912591 -0.0097927451 -0.96842164 0.0034437026
0.0018229354 -0.022530157 0.0015327529 0.66695827 -0.039533172 -0.74404567 0.056721844
0.0032548599 -0.022526991 0.0025690377 0.90760928 -0.00023505336 -0.41981581 0.025240073
-0.0041261083 -0.019637275 0.00021338121 0.16080563 -0.0152873 -0.98686767 3.4883964e-05
-0.0011933467 -0.019543733 0.00069727248 0.21154062 -0.0076602907 -0.97733921 0.00051616027
0.0018442996 -0.019519443 0.0015434341 0.62210774 0.009932261 -0.78286868 0.048871171
0.0032532974 -0.019577235 0.0025662566 0.90514964 -0.00013476932 -0.42509314 0.024048129
-0.0038020823 -0.016519373 0.0002165297 0.17538476 -0.016170081 -0.98436713 4.0073392e-05
-0.0011520816 -0.016508644 0.00068898802 0.22110935 -0.0085538672 -0.97521156 0.00047283183
0.0018497315 -0.016517384 0.001539329 0.63825512 0.0055391155 -0.76980507 0.049399164
0.0032512099 -0.016638897 0.0025638682 0.90869421 0.0045287409 -0.41743782 0.023018174
-0.0039174962 -0.013632905 0.00013895793 0.18813227 -0.018878901 -0.98196226 3.7287387e-05
-0.0013837704 -0.013445007 0.00062548375 0.23233066 -0.0081537087 -0.97260267 0.00039684027
0.001872621 -0.013471039 0.0015486425 0.61725467 0.0017175792 -0.78676152 0.049375292
0.0032491251 -0.013711674 0.0025614924 0.9107846 0.0021424445 -0.41287631 0.022307262
-0.0036475721 -0.010374673 0.00012368968 0.20255502 -0.021618739 -0.97903228 3.368668e-05
-0.0015285691 -0.010535999 0.0005661599 0.24427527 -0.013325285 -0.96961439 0.00029140292
0.0018929592 -0.010437865 0.0015597363 0.60791135 -0.0038100337 -0.7939958 0.047659945
0.0032469665 -0.010504641 0.0025588109 0.90345436 0.0081251934 -0.42860729 0.022767436
-0.0035618935 -0.0074157203 7.0335795e-05 0.21822506 -0.023248734 -0.97562152 3.9127037e-05
-0.0015491962 -0.0075938501 0.0005214641 0.25414202 -0.013308643 -0.96707535 0.00022246374
0.001657019 -0.0073817563 0.0014626363 0.61175627 -0.0046959543 -0.79103243 0.046226837
0.003244685 -0.0073105479 0.0025562465 0.88965279 0.010331802 -0.45652062 0.024645526
-0.0034807066 -0.0047614523 1.9263696e-05 0.22919224 -0.025993714 -0.97303402 5.8876692e-05
-0.0017467001 -0.0044732131 0.00043526827 0.26342088 -0.018920351 -0.96449548 0.00024461874
0.0015211516 -0.0044847811 0.0014091326 0.60276043 -0.002544624 -0.79791808 0.045171503
0.0032426238 -0.0044184653 0.0025538974 0.8766048 0.0017463438 -0.48120782 0.025826354
-0.0016683282 -0.0014816022 0.00040029036 0.27520791 -0.013198245 -0.96129417 0.00016771768
0.0015458916 -0.0015011375 0.001413437 0.61329645 0.0041813911 -0.78984171 0.044385124
0.003240915 -0.0015371011 0.0025513107 0.87379742 0.0019285594 -0.48628622 0.026380626
-0.0016242033 0.0014843974 0.00039090589 0.31735602 -0.001214542 -0.94830567 0.0019846801
0.0015850827 0.0015136618 0.0014385417 0.61750603 0.004988478 -0.78655034 0.044063281
0.0032319562 0.0013306822 0.0025542914 0.87629128 0.0039342842 -0.48176572 0.026091939
-0.0016042424 0.0044949385 0.00041593096 0.27795321 0.012888027 -0.96050817 0.00016947291
0.0015873475 0.0045160004 0.0014497318 0.61684078 0.0029158611 -0.78708267 0.04253329
0.0032280888 0.0044750245 0.0025529934 0.87407148 0.004775926 -0.48577395 0.025274018
-0.0034268475 0.0076616867 2.3504168e-05 0.23965959 0.022178121 -0.9706037 3.565093e-05
-0.0017453732 0.0074856784 0.00043105945 0.26050821 0.020850046 -0.96524644 0.00012540922
0.0014951314 0.0074635609 0.0014095863 0.60202593 0.0028181321 -0.79847151 0.043532241
0.0032271098 0.0076079415 0.0025495158 0.87110323 0.0030786288 -0.49109021 0.025697414
-0.0034667843 0.010503743 6.3445972e-05 0.22896782 0.020804748 -0.97321165 4.098735e-05
-0.0017405058 0.0104684 0.00046758633 0.246618 0.02081845 -0.96888912 0.00017064865
0.0015110156 0.010447926 0.0014109198 0.59829152 0.00069709477 -0.80127823 0.044862341
0.0032268181 0.010444933 0.0025458913 0.87252331 -0.0043694968 -0.48855296 0.026182381
-0.0035352111 0.013326056 0.00012461902 0.20973752 0.018418469 -0.9775843 5.2713054e-05
-0.0016910397 0.013508453 0.00051633135 0.2419315 0.014826771 -0.97018003 0.00019112718
0.0016185426 0.013508582 0.0014658798 0.59783071 -0.00061067118 -0.80162215 0.04539172
0.0032266381 0.013553273 0.0025418119 0.87234455 -0.00097289059 -0.48889059 0.026405828
-0.0038080153 0.016674258 0.000112326 0.19048452 0.021538578 -0.9814539 6.2620624e-05
-0.0018088252 0.016550478 0.00050126138 0.22464208 0.018202467 -0.97427136 0.00019207249
0.0014928681 0.016516188 0.0014136629 0.58710468 -0.0036314854 -0.8095029 0.046378743
0.003226639 0.016649341 0.0025376116 0.87230015 -3.9265228e-06 -0.48897082 0.026894681
-0.0041206297 0.019584246 0.00014941013 0.16904368 0.029806951 -0.98515773 6.8279151e-05
-0.0018319613 0.019489817 0.00055850222 0.21534353 0.017810704 -0.97637594 0.00043911688
0.0015087574 0.019465104 0.0014149147 0.5788058 -0.0075223735 -0.8154307 0.046909798
0.003225327 0.019452371 0.002534824 0.87435776 -0.010327766 -0.48517194 0.026274575
-0.0060833478 0.023566043 1.4549568e-05 0.14794257 0.045957264 -0.98792756 1.9835685e-05
-0.004303867 0.022613456 0.00022866251 0.15521412 0.041356064 -0.98701477 7.4668678e-05
-0.00158266 0.022469547 0.00063748576 0.19763242 0.017623741 -0.98011774 0.00048942596
0.0016690944 0.022457393 0.0014849614 0.59519261 -0.0020245379 -0.80358052 0.04566054
0.0032215237 0.022522785 0.0025335825 0.87771827 -0.0023558917 -0.4791711 0.025170324
-0.0063909665 0.025745794 8.2891042e-05 0.13009538 0.035270881 -0.99087387 8.4595486e-05
-0.0042022648 0.025486413 0.00037336364 0.13045779 0.02265857 -0.9911949 7.9236597e-05
-0.0013665797 0.02534236 0.00073868548 0.23559763 0.012929223 -0.97176474 0.0036041848
0.0015660612 0.02558711 0.0014379877 0.60713744 0.0010478696 -0.79459608 0.047210328
0.0032179956 0.025581235 0.0025321462 0.88216472 0.0052188938 -0.47091213 0.025359459
-0.0068409084 0.028698077 9.0750051e-05 0.11629214 0.026555434 -0.99286002 8.2610401e-05
-0.0043380084 0.028488867 0.0003757393 0.11573402 0.013482139 -0.99318874 6.5171487e-05
-0.0015826636 0.028450482 0.00070876081 0.22557086 0.0037057742 -0.97421974 0.0039091078
0.0016127869 0.028558362 0.0014600771 0.58847886 0.0020725965 -0.80850983 0.049029227
0.0032146939 0.028350722 0.0025309362 0.87530041 0.0076899617 -0.48351848 0.026853774
-0.0072706765 0.031645216 0.00014673542 0.098994441 0.026687598 -0.99473006 3.6975547e-05
-0.00424818 0.031534899 0.00044354031 0.10173729 0.016369086 -0.99467659 4.9302045e-05
-0.0014926132 0.031493675 0.00072996586 0.21880689 0.0048726089 -0.97575605 0.0041433908
0.0014973216 0.03155411 0.001414223 0.59612882 0.0028211293 -0.80288386 0.047942065
0.0032110997 0.031385262 0.0025295757 0.87422705 0.0078104101 -0.48545447 0.02644139
-0.0096833808 0.035227656 1.8197621e-05 0.087547489 0.0084462482 -0.99612451 0.00030950739
-0.0076724049 0.034524299 0.00017850583 0.093487963 0.020656034 -0.99540615 6.4744017e-05
-0.0044094464 0.034508299 0.00046511809 0.08705014 -0.021021118 -0.99598211 0.00072601048
-0.0016008931 0.034444101 0.00073351862 0.15713248 -0.041509017 -0.98670477 0.0021949294
0.0015296079 0.034491751 0.0014144188 0.5638141 -0.066010572 -0.82325953 0.056323424
0.0032076086 0.034407996 0.0025281424 0.87208456 -0.055845466 -0.4861581 0.037045028
-0.0097015137 0.036893297 4.2600583e-05 0.07925003 -0.065361507 -0.99470967 0.0019212348
-0.0075549395 0.037380736 0.00019003301 0.077040009 -0.10056174 -0.99194366 0.0024960204
-0.0043984568 0.037363864 0.00044884958 0.078412518 -0.11547311 -0.99021083 0.0034021554
-0.0015436383 0.037469313 0.00066022051 0.12850744 -0.16752702 -0.97745615 0.0061691622
0.0016018732 0.037363611 0.0013328344 0.28469601 -0.33770499 -0.89716411 0.045921557
0.0036578884 0.037749957 0.002300367 0.3685858 -0.49191236 -0.7887755 0.080613591
0.0091142599 0.038700618 0.0026602244 0.19059268 -0.91357154 -0.35925132 0.0076432596
-0.0064795436 0.039104175 4.6666304e-05 0.072432198 -0.30160666 -0.9506771 0.0046742819
-0.0040774788 0.03936249 0.00011671515 0.059166953 -0.36724141 -0.92824191 0.0054242029
-0.0013443955 0.039395306 0.00025716014 0.060637821 -0.42264503 -0.90426445 0.0066996338
0.0017229432 0.039574359 0.00048440063 0.10505062 -0.55437177 -0.82561266 0.015506444
0.0041810102 0.039317854 0.0011036508 0.049501792 -0.75570583 -0.65303773 0.018315446
0.0073704007 0.039114054 0.0013317661 0.05090275 -0.86420375 -0.50056064 0.0092167556
0.011260618 0.039118465 0.002318956 0.12015404 -0.94468087 -0.30519012 0.0084939618
0.01248345 0.039281014 0.0026957525 0.18727855 -0.95818383 -0.21635751 0.0023875313
0.018833881 0.041139834 0.00097455556 0.23010638 -0.95704913 -0.17637467 0.0026397314
-0.050320506 0.057656538 0.00094473141 -0.22022487 0.89564312 -0.38642523 0.0076864348
-0.0465656 0.05935419 0.0015936411 -0.28098285 0.87297016 -0.39871258 0.0039887992
-0.044187367 0.059629947 0.00069466 -0.281093 0.88569504 -0.36950096 0.0038836428
-0.043352202 0.060354367 0.0022096334 -0.21537602 0.91476333 -0.34179121 0.00044459404
-0.040266961 0.060852032 0.0016388353 -0.20109604 0.90701312 -0.36998326 0.00034832931
-0.037406202 0.061265551 0.0012219278 -0.17184143 0.90410352 -0.39123821 0.00040588639
-0.034606956 0.061911166 0.001445922 -0.16528815 0.8816219 -0.44206646 0.00034403201
-0.03147902 0.062444329 0.00134229 -0.15320106 0.86461484 -0.47850865 0.00057880016
-0.028674833 0.062613606 0.00081339868 -0.1389275 0.83641446 -0.53019798 0.00040252
-0.025730735 0.062824242 0.00033027059 -0.13421384 0.80983388 -0.57110041 0.00049383013
-0.031082515 0.063115142 0.0023879767 -0.17636667 0.84935641 -0.49748215 0.00055165292
-0.028334051 0.06363342 0.002283355 -0.17677025 0.8326996 -0.52475113 0.00032061167
-0.02563479 0.063755289 0.0016257078 -0.17778292 0.81212372 -0.55574107 0.00027674795
-0.022425154 0.064224176 0.0013819758 -0.17602722 0.77757353 -0.60365039 0.00049707881
-0.01945636 0.064854831 0.0012874211 -0.20909357 0.74534845 -0.63303679 0.00042639161
-0.016870549 0.065164879 0.0007728588 -0.23641704 0.70958424 -0.66377497 0.00039986116
-0.014097043 0.065827794 0.00044490962 -0.28713331 0.6921097 -0.66222245 0.00041589024
-0.019042816 0.066144727 0.0026838784 -0.21872084 0.74599946 -0.62900394 0.00039842149
-0.015974013 0.066804655 0.0022606452 -0.25536728 0.72096205 -0.64420587 0.00050574745
-0.013335098 0.067233436 0.0015703816 -0.30727565 0.69367766 -0.65145451 0.00081811316
-0.01081271 0.067865275 0.0009527111 -0.35222745 0.67126596 -0.6521793 0.00067300542
-0.0099530546 0.06963405 0.0022728569 -0.38319203 0.71367198 -0.5863753 0.0030393347
-0.0071873898 0.070780076 0.0017247334 -0.38320252 0.71367192 -0.58636874 0.0030334925
0.032441881 -0.051726609 0.0051107826 0.56500202 0.46479827 0.68171489 0.00081090978
0.034669019 -0.052949019 0.0039672083 0.56706691 0.46745801 0.67817265 0.00053520873
0.029595828 -0.048352424 0.0051961145 0.54613125 0.56372082 0.61964458 0.0066228802
0.031475503 -0.049179137 0.0042017824 0.5567624 0.55570394 0.61742109 0.002766778
0.033491522 -0.050643425 0.0036253501 0.55082536 0.53276521 0.64245826 0.0025860239
0.026107972 -0.04548268 0.0053353496 0.52891165 0.73050642 0.43198708 0.0025840672
0.028206941 -0.046380349 0.0042936471 0.55124491 0.67101806 0.49584657 0.0040364554
0.030312968 -0.047293525 0.0032937122 0.50585777 0.71050531 0.48917291 0.0021582565
0.020584902 -0.042193066 0.0059260279 0.46837837 0.83095825 0.30021688 0.0073188334
0.022565098 -0.042827629 0.0045746197 0.4694666 0.83258218 0.29395258 0.002286932
0.025084263 -0.044166628 0.0042197043 0.49163657 0.78069204 0.38576347 0.0032850199
-0.051324669 -0.041255567 0.0042972811 -0.27135116 0.84750634 -0.45618138 0.011039709
-0.04937461 -0.040588781 0.0038584713 -0.32632318 0.86007166 -0.39216053 0.0044111577
-0.047437876 -0.039897114 0.0033046131 -0.32793814 0.80902147 -0.4877919 0.0059739705
0.014445961 -0.039173659 0.0043503921 0.33942753 0.94039333 0.021195643 0.0032695867
0.016576651 -0.039988983 0.0046704621 0.35901704 0.92879301 0.091925345 0.0028703059
0.01959029 -0.041254032 0.0044243583 0.42581591 0.88027442 0.20927916 0.0015915149
0.021427777 -0.041875288 0.0034746572 0.44541681 0.86303204 0.23828441 0.0031901358
0.0026680164 -0.03610377 0.0037469252 0.7908994 0.32737482 -0.5170145 0.040314082
0.0046476978 -0.036572147 0.0042582662 0.53168267 0.7469632 -0.3991985 0.059415847
0.0074209566 -0.037330661 0.0045205248 0.27053794 0.888533 -0.37056485 0.021709193
0.010514242 -0.038059592 0.0043686614 0.21541332 0.96283573 -0.16292483 0.004631944
0.012970522 -0.038697023 0.0046075992 0.30104831 0.95126617 -0.0668035 0.0038895791
0.0026668627 -0.034297843 0.0037445524 0.86836565 0.063501678 -0.49184215 0.040752117
0.0037107777 -0.034286894 0.0050694351 0.87589842 0.070974462 -0.47724691 0.034987722
0.0026640843 -0.031296816 0.0037412546 0.93646646 0.0029932112 -0.3507444 0.022780623
0.003706339 -0.03128593 0.0050633587 0.86325395 -0.02594514 -0.50410259 0.018693177
0.0026615257 -0.028307151 0.0037378352 0.93664628 0.0031439541 -0.3502624 0.02295314
0.0037019793 -0.028296394 0.0050572497 0.86349219 -0.025866261 -0.50369847 0.018831251
0.0026589565 -0.025328884 0.0037344161 0.9369635 0.0032515302 -0.34941226 0.023117211
0.0036973255 -0.025318399 0.0050514038 0.87287617 -0.051293612 -0.48523828 0.018524112
0.0026563932 -0.022361943 0.0037310119 0.93503648 -0.0058879619 -0.3545028 0.022332635
0.0036929364 -0.022351621 0.0050453991 0.87753856 -0.05683383 -0.47612593 0.017801568
0.0028262972 -0.019404575 0.0039462904 0.93511558 -0.0053061014 -0.35430321 0.021220867
0.0038609696 -0.019394418 0.0052580549 0.84042418 -0.00017147136 -0.54192913 0.012007995
0.0028236094 -0.016460057 0.0039423737 0.93454885 0.0050667543 -0.35579872 0.020126229
0.003856235 -0.016450157 0.0052517159 0.8433969 0.0029404368 -0.53728306 0.011944693
0.0028208224 -0.01352672 0.0039385399 0.93592882 0.0034007935 -0.35217276 0.01956482
0.0038515576 -0.013517015 0.0052453713 0.84347343 0.0030581325 -0.53716218 0.012008729
0.0028180806 -0.010604444 0.003934707 0.93707788 -0.0007111344 -0.34911951 0.019036464
0.0038469038 -0.01059494 0.0052390411 0.84359032 -0.001564075 -0.53698504 0.012085054
0.0028152461 -0.0076932209 0.0039309622 0.9251793 -0.0028399841 -0.37951976 0.020826865
0.0038422614 -0.0076838816 0.0052327476 0.84365392 -0.0041671647 -0.53687119 0.011395078
0.0028123762 -0.0045036231 0.0039266837 0.91790301 -0.0018987731 -0.3968004 0.021794599
0.0038370918 -0.0044945893 0.0052259085 0.84383965 -0.0010706192 -0.53659433 0.010801041
0.0028094701 -0.0013268121 0.0039224559 0.91931903 0.0036830113 -0.39349565 0.022556737
0.0038318939 -0.0013180809 0.005219134 0.88299572 -0.048036173 -0.46691659 0.016745953
0.0028067578 0.001549626 0.0039186962 0.92132187 0.0046727662 -0.38877276 0.022746366
0.0038273097 0.0015581661 0.0052129072 0.84360898 0.0037549261 -0.53694487 0.012175218
