# .PCD v0.7 - Point Cloud Data file format
VERSION 0.7
FIELDS x y z normal_x normal_y normal_z curvature
SIZE 4 4 4 4 4 4 4
TYPE F F F F F F F
COUNT 1 1 1 1 1 1 1
WIDTH 568
HEIGHT 1
VIEWPOINT 0 0 0 1 0 0 0
POINTS 568
DATA ascii
0.052744821 0.016020626 0.0045743068 0.51981282 -0.775217 0.35893345 0.0018565846
0.054998014 0.017422533 0.0041754064 0.55429101 -0.76440513 0.32931173 0.0023013295
-0.054532733 0.020601945 0.0042211632 -0.61137247 -0.77874303 0.14065203 0.018945046
-0.052570805 0.019322593 0.0046449536 -0.58813399 -0.77038807 0.24617228 0.0090059144
-0.050645728 0.018262872 0.0054653245 -0.55271721 -0.7814126 0.28965163 0.0076238364
0.056014128 0.018434733 0.0048207846 0.55703449 -0.73599046 0.38474739 0.0029593657
0.058179379 0.019997129 0.004450256 0.60110432 -0.71126854 0.36437708 0.0023259807
-0.057685912 0.023350969 0.0044568391 -0.66664386 -0.72703016 0.16435678 0.014907288
-0.055906892 0.021943757 0.0047605685 -0.63548899 -0.74732488 0.19405973 0.010746673
-0.053977344 0.021053221 0.0059468853 -0.58519453 -0.74321741 0.32430744 0.002438243
0.059516028 0.021352852 0.0048652752 0.6222558 -0.68519813 0.37855136 0.0032073213
0.060870931 0.022555729 0.0046501434 0.65591782 -0.65975773 0.36673093 0.0030998408
-0.060649935 0.026240936 0.0044481852 -0.73740494 -0.66031426 0.14219362 0.014667556
-0.059125748 0.024837345 0.0048462055 -0.69842362 -0.69699067 0.16250683 0.011448874
0.062386997 0.024416974 0.0052775037 0.70531887 -0.62609357 0.33246389 0.0021394994
0.063550115 0.025282495 0.0043760641 0.69972157 -0.59422457 0.39659414 0.0047426047
-0.06341549 0.029485719 0.004380947 -0.78405398 -0.58194113 0.21587911 0.012647539
-0.062107582 0.028083527 0.0047768056 -0.75173241 -0.64165199 0.15225357 0.0091833817
0.065015063 0.027942495 0.0055765286 0.69077772 -0.49410412 0.52790838 0.0022945858
0.066532068 0.029059291 0.0041436474 0.78169525 -0.51135063 0.35703364 0.0027695303
-0.066031262 0.032915488 0.0036399956 -0.81276882 -0.54960775 0.19323088 0.010112155
-0.06474071 0.031490896 0.0046623503 -0.78787816 -0.57018733 0.23266821 0.011067311
-0.0072192852 0.032734282 0.0054830397 0.16254385 0.90908635 0.38359031 0.00076878892
-0.0044008046 0.032582968 0.0048827077 0.12779315 0.91380483 0.38552523 0.00079317641
-0.0015429974 0.032331504 0.004644529 0.099418446 0.92258334 0.37276793 0.0011919785
0.0015263704 0.032087941 0.0046929969 0.058320343 0.93301439 0.35508135 0.0019092532
0.004514338 0.031995431 0.0047065876 0.021549929 0.93908954 0.34299636 0.0020796438
0.007529771 0.032053225 0.0046434039 -0.03911382 0.9364872 0.34851366 0.0020692584
0.010095461 0.031994425 0.0051975516 -0.078912899 0.89495659 0.43911889 0.0021236714
0.013403742 0.032545991 0.0047936104 -0.13520019 0.89461511 0.42589286 0.0015438029
0.016098635 0.03275216 0.0054228818 -0.18013456 0.88184631 0.4357737 0.0020888073
0.067643099 0.031366993 0.0046799877 0.78991944 -0.40189499 0.46314994 0.0014139358
-0.066864692 0.034723852 0.0044963877 -0.83367205 -0.484047 0.26587501 0.0078914883
-0.065771185 0.033452321 0.0054409006 -0.81872874 -0.51557529 0.25271592 0.0087162554
-0.018845702 0.035662446 0.0055943266 0.29476175 0.87445098 0.38529328 0.0012185416
-0.016406016 0.035279971 0.0048631611 0.26490775 0.88610464 0.38031891 0.00089809246
-0.01348107 0.034452621 0.0047334917 0.25059751 0.89273179 0.37447411 0.0011896159
-0.010511262 0.0336795 0.0048041772 0.19541904 0.90238661 0.38407004 0.0009904278
-0.0077203829 0.033447519 0.004047852 0.15834911 0.91738874 0.36513478 0.00091668055
-0.0052930741 0.033233326 0.0035811602 0.13443306 0.92078114 0.36618289 0.0011954504
0.014042462 0.033183329 0.0033811801 -0.14651738 0.93013299 0.33672738 0.0027663875
0.017020386 0.033350069 0.0044332147 -0.18937078 0.89745337 0.39839184 0.001864917
0.019501029 0.033802524 0.0048704762 -0.22404192 0.88634247 0.40521881 0.0018474206
0.022502014 0.034748133 0.0046245744 -0.25502917 0.88678652 0.3854475 0.0011593997
0.025274955 0.035574254 0.0045533534 -0.2757833 0.88791597 0.36816943 0.0016248928
0.027489839 0.035852864 0.0055198367 -0.29909688 0.88755351 0.3504138 0.0022199207
0.068274125 0.033681888 0.0056709303 0.78975034 -0.33188173 0.51589614 0.0013975691
0.069354415 0.034868382 0.0045421487 0.81641763 -0.33627874 0.46944541 0.0015576367
-0.069243886 0.038549874 0.0037297616 -0.83867276 -0.41715851 0.35015249 0.0059884503
-0.068221055 0.037322812 0.0047175479 -0.84004253 -0.41794011 0.34591126 0.0064412076
-0.027543165 0.038888976 0.0059728078 0.37153083 0.85756058 0.35574543 0.00071989902
-0.025352029 0.038383484 0.0050964043 0.35848656 0.85661364 0.37108016 0.00067139225
-0.022445312 0.037310895 0.0047938828 0.33118424 0.86357158 0.38021204 0.00072488887
-0.019620517 0.036343068 0.0046355883 0.29693738 0.87861925 0.37397388 0.0011605326
-0.017730117 0.036100358 0.0039373646 0.26647526 0.90589178 0.32916722 0.0021611913
0.026535712 0.036159597 0.0040302551 -0.27917904 0.90340537 0.32545015 0.0014664601
0.028671324 0.03668521 0.0045456961 -0.29728004 0.88723767 0.352752 0.0018916423
0.031699941 0.037797578 0.0045154369 -0.35693702 0.8715235 0.33621824 0.00251419
0.034055561 0.038707037 0.0048881811 -0.4126586 0.84712183 0.33480972 0.0020575926
0.070064634 0.03780292 0.0051116133 0.7758472 -0.20978077 0.59502363 0.0018174949
-0.069861449 0.040621463 0.0044497768 -0.84778678 -0.33119836 0.41420427 0.0041517159
-0.068810098 0.039545778 0.0056560636 -0.81597573 -0.34002355 0.46751213 0.0064085424
-0.033272907 0.041826457 0.0055265948 0.39845967 0.83104551 0.38806355 0.00072902296
-0.031373631 0.041025694 0.0051678033 0.40951294 0.83098739 0.37650898 0.0006015618
-0.028412899 0.039778341 0.0048314775 0.37955603 0.84363532 0.37975875 0.00092176767
-0.026469557 0.03933217 0.0038891777 0.36310798 0.8556903 0.36870944 0.00067429384
0.035302635 0.039656766 0.0039469632 -0.41932321 0.85472798 0.30595446 0.0020217546
0.037560698 0.040645059 0.0045152116 -0.45717928 0.82977575 0.32009277 0.0029212816
0.039647039 0.041693714 0.0050158985 -0.49524456 0.80511546 0.32637709 0.002988863
-0.072107047 0.044847917 0.0031820554 -0.87630069 -0.31075829 0.36813897 0.010166831
-0.070851378 0.043524962 0.0045707733 -0.84792054 -0.26516595 0.45903996 0.0045727226
-0.039121721 0.044669639 0.0057638343 0.41378057 0.79967862 0.43508604 0.00073130778
-0.037165981 0.044151068 0.0047018961 0.42021054 0.80879778 0.41142344 0.0008003753
-0.034836579 0.04285543 0.0049678693 0.40808687 0.82611763 0.38858035 0.00087997923
-0.032827899 0.042094618 0.0044559054 0.41286495 0.84048128 0.3509042 0.00079493586
0.041078445 0.042879272 0.0042775911 -0.4987298 0.79760432 0.33925804 0.0025051276
0.043477926 0.044198092 0.0048042927 -0.49761736 0.78838229 0.36170477 0.003071469
0.045183975 0.044874929 0.0057320874 -0.47458938 0.7685312 0.42909747 0.0040152306
-0.072361521 0.046877038 0.0036578637 -0.83759743 -0.26014018 0.48037243 0.0039307089
-0.071340725 0.046352983 0.0050646584 -0.82185835 -0.20325445 0.53219974 0.0067172856
-0.04323623 0.047366939 0.0047748098 0.42187598 0.80335045 0.42029598 0.00055112992
-0.040611729 0.046064641 0.0044927299 0.4111788 0.7979328 0.44072133 0.00060078152
-0.038201194 0.045048594 0.003838897 0.43470073 0.82489234 0.3613694 0.0012210795
0.044579171 0.045366243 0.0036719148 -0.50893283 0.79875368 0.320905 0.0020065929
0.046450678 0.046267949 0.0044291848 -0.50085086 0.77518719 0.38501063 0.002937621
0.048815586 0.047406387 0.0052388483 -0.49091494 0.77343726 0.40099558 0.003538582
-0.072836049 0.049631249 0.0041510221 -0.77890366 -0.23490527 0.58148825 0.0074848863
-0.071574681 0.049348082 0.0055826306 -0.67801774 -0.13382968 0.7227596 0.0061090332
-0.051087182 0.050991219 0.0058419108 0.34049562 0.79173541 0.50716645 0.0038316026
-0.049264181 0.050442129 0.0051465719 0.38163486 0.78038526 0.49533179 0.0010950156
-0.046558239 0.049244642 0.0046127299 0.4202815 0.79666847 0.4343763 0.00072510267
-0.044347927 0.048416808 0.0037727957 0.426682 0.80478537 0.41262934 0.00041602337
0.049854573 0.048560083 0.0042393259 -0.47907132 0.77473778 0.41264024 0.0031277819
0.052378487 0.049982429 0.0046305517 -0.47697377 0.76677686 0.4295921 0.0032021878
0.054484539 0.050781999 0.0054517891 -0.46627977 0.7500602 0.46903405 0.0036784392
0.071143501 0.049174562 0.0050101527 0.64106339 0.11566515 0.75872225 0.0031842419
-0.075140633 0.05373574 0.0031266329 -0.86194354 -0.17056568 0.47745207 0.021175086
-0.073457785 0.052553337 0.0044483449 -0.69183308 -0.1537088 0.70550728 0.0070737451
-0.071767293 0.052348178 0.0058275736 -0.59748214 -0.040302575 0.80086881 0.0073795877
-0.058254216 0.053800844 0.0057538422 0.24355343 0.78607076 0.56813246 0.0026112762
-0.055785015 0.05327687 0.0052706385 0.27829802 0.8033852 0.52642417 0.001118732
-0.052662361 0.052230876 0.0049429098 0.34173194 0.79931265 0.49428594 0.0012785037
-0.050168112 0.051433209 0.0039738966 0.40632659 0.81202763 0.41893899 0.0010510026
0.05363217 0.051247176 0.0037144131 -0.47149348 0.77864164 0.41401824 0.0020742004
0.055601023 0.052008174 0.0045452667 -0.44705483 0.76058853 0.47079408 0.0038737531
0.058185406 0.053244468 0.0050333464 -0.42689919 0.73171329 0.53136873 0.0064923568
0.060295638 0.053782057 0.005807241 -0.35427311 0.64241642 0.67955256 0.0036009178
0.070349999 0.053300589 0.0056602061 0.43808335 0.23497415 0.86768085 0.0054232795
-0.075235985 0.055493508 0.0033116473 -0.80544817 0.047699731 0.59074354 0.028752742
-0.073646314 0.05543375 0.0046859034 -0.60232085 0.10370822 0.79148859 0.011879529
-0.071316101 0.055870071 0.0058072489 -0.32678533 0.20813787 0.92189473 0.01204091
-0.067411624 0.056740914 0.0058198166 -0.036339782 0.46419892 0.88498521 0.0067151254
-0.064659685 0.056238316 0.0055319434 0.17045221 0.61590308 0.76916158 0.0057165632
-0.061571073 0.0554571 0.0049713627 0.27239802 0.72701895 0.63027197 0.0044821212
-0.058531798 0.0545296 0.0047227764 0.25096938 0.79239064 0.55599588 0.0019793971
-0.056516275 0.054215413 0.0040076505 0.30478799 0.82592362 0.47429362 0.0010256207
0.059147228 0.054604929 0.0039860881 -0.47348499 0.72203428 0.50445867 0.0049252422
0.061504759 0.055658735 0.0046276245 -0.45445791 0.66910475 0.58801955 0.0070770704
0.063959144 0.056389343 0.0055035232 -0.32291284 0.56047273 0.76262546 0.0075674541
0.068058603 0.056825239 0.0058569177 -0.071934327 0.38930762 0.91829461 0.011563323
0.069833256 0.055995047 0.005454313 0.17536005 0.3151384 0.93270397 0.0089329407
-0.075092487 0.057270549 0.0030572361 -0.75271153 0.12867448 0.64565343 0.045375608
-0.073291443 0.057680268 0.0043323245 -0.577631 0.3250418 0.74879253 0.018833796
-0.070674472 0.058249414 0.0049782488 -0.26228222 0.5255872 0.80929983 0.022643024
-0.068047605 0.058088873 0.0049304198 -0.02940008 0.54887944 0.83538425 0.01113381
-0.065043047 0.057668157 0.0043463623 0.2458884 0.64877349 0.72016102 0.0049401815
-0.062751628 0.057171047 0.0034035167 0.34983742 0.70972651 0.61147535 0.0039102104
0.062547036 0.057541229 0.0034672972 -0.58380795 0.60157382 0.54523128 0.0093731256
0.064538702 0.058461629 0.0043499558 -0.48239681 0.49339983 0.72377473 0.014474461
0.067257173 0.058609962 0.0052477163 -0.16036747 0.39991885 0.90241188 0.010956834
0.069762997 0.058890164 0.0047558192 0.00094922446 0.34239054 0.93955719 0.0066295741
-0.069458909 0.060132865 0.0031680076 -0.18919656 0.89901811 0.39493179 0.030478097
-0.06870015 0.060101639 0.0032864923 0.0062139519 0.8693856 0.49409521 0.037047639
0.06533666 0.06100484 0.0034967954 -0.54147613 0.34668726 0.76590574 0.011438471
0.067267738 0.061593313 0.0041388781 -0.29569429 0.31040016 0.90344709 0.021900175
0.070044473 0.061753385 0.0039312672 -0.045444511 0.26027587 0.96446419 0.010159321
0.065749079 0.063176066 0.0030999514 -0.62068933 0.37134561 0.69054121 0.044429634
0.067504413 0.064376935 0.003429712 -0.26717046 0.22852537 0.93616027 0.020059776
0.070543684 0.064586811 0.0033445656 -0.073382571 0.15282759 0.98552465 0.0096205929
0.072446071 0.065826759 0.003061461 0.19436857 0.049982134 0.97965437 0.010766926
0.068089783 0.066717826 0.0031221642 -0.33725616 0.19056332 0.921924 0.022985311
0.070496246 0.067449018 0.003219889 -0.10273816 0.02355073 0.99442959 0.010640669
0.072402909 0.067928709 0.0032139022 -0.035788063 -0.022861414 0.99909788 0.0089010922
0.070630394 0.070557319 0.0034500551 -0.27649426 -0.090324521 0.95676142 0.014561662
0.072760358 0.070676453 0.0035933726 -0.15387982 -0.13568267 0.97872943 0.011739178
0.068865716 0.074505135 0.0030874799 -0.55678481 -0.065193087 0.82809442 0.021971209
0.070414498 0.07355392 0.003905128 -0.39221638 -0.14095579 0.90900922 0.013660003
0.07300926 0.073585249 0.0043281033 -0.24562499 -0.14793858 0.95800966 0.016519994
0.075422175 0.07372117 0.0032863924 0.24321325 -0.22848763 0.94267744 0.02160956
0.068814166 0.075815499 0.0031919901 -0.71801531 0.014793565 0.6958701 0.051335324
0.070152149 0.075636126 0.004071868 -0.49437061 -0.063773982 0.86690861 0.024576785
0.072489507 0.075319476 0.0047640619 -0.25837743 -0.12376094 0.95808369 0.023540029
-0.012413849 0.0028445981 0.00618893 -0.15874936 -0.88086444 0.44595569 0.00089636323
-0.010345492 0.0027272457 0.0065205633 -0.12249688 -0.8702783 0.47708499 0.0011572061
-0.0074794972 0.0025555468 0.0068374886 -0.082396932 -0.86951226 0.48698989 0.0014107351
-0.0044948906 0.0024069822 0.006977269 -0.044905316 -0.87093067 0.48934996 0.0015275917
-0.0015066465 0.0023984215 0.007139144 -0.015502472 -0.86526513 0.50107479 0.0017678064
0.0015069809 0.0023688735 0.0070787845 0.0088423742 -0.86492604 0.50182152 0.0017460696
0.0044529424 0.0024043773 0.0069726668 0.045531008 -0.86420959 0.50106758 0.0016056675
0.0073475032 0.002538783 0.0068293377 0.062909141 -0.85906136 0.50799221 0.0014009548
0.010346633 0.0026448299 0.0066403812 0.084405921 -0.85794306 0.50676352 0.0008196556
0.013122596 0.0028016546 0.0062397458 0.11154108 -0.85896301 0.49974099 0.0015712138
0.015847476 0.0029349914 0.0060879793 0.12348308 -0.84486341 0.52053601 0.0010480924
-0.024314474 0.005885697 0.006273469 -0.27940756 -0.87122732 0.40360183 0.0031589062
-0.022256782 0.0055220225 0.0068092667 -0.25795567 -0.85659325 0.44688573 0.00098179874
-0.019492297 0.0050997329 0.0075103096 -0.21825048 -0.84478629 0.48857227 0.00088673847
-0.01655508 0.0044485186 0.0076069888 -0.18480897 -0.85119683 0.49123272 0.0011388187
-0.013530045 0.0038729135 0.0076518659 -0.15940873 -0.85229599 0.49817708 0.00091464521
-0.010640365 0.003679164 0.0081092808 -0.11517246 -0.83870476 0.53226835 0.001384308
-0.0077058356 0.00345363 0.0082974052 -0.077876233 -0.833736 0.54664403 0.0014194701
-0.0046477718 0.003356402 0.0084941015 -0.040142946 -0.79642785 0.60339969 0.00075581018
-0.0014211941 0.0033435831 0.0085987439 -0.011629796 -0.79133314 0.6112746 0.00065174943
0.0014311033 0.0033004859 0.008608277 0.0095258076 -0.79682308 0.6041376 0.0010354872
0.0045499648 0.0033615052 0.0085703842 0.044884115 -0.79514122 0.60476094 0.0010999312
0.0075173685 0.0034367512 0.0082612243 0.064324044 -0.8234666 0.56370676 0.0013228731
0.010499642 0.0035649878 0.0080873128 0.088502586 -0.82963353 0.55124909 0.00089134381
0.013639471 0.0038310359 0.00780294 0.11785392 -0.82560533 0.55180275 0.00062082231
0.016510926 0.0040191831 0.0074643493 0.12241627 -0.82413852 0.55300087 0.00038431823
0.019409422 0.0045726108 0.0075630858 0.1521742 -0.79834467 0.58265656 0.00097089371
0.022444446 0.004889708 0.0072503164 0.17080517 -0.80122972 0.57346022 0.0021413446
0.025226384 0.0053471322 0.0071060956 0.18637767 -0.79717743 0.57425731 0.0018266339
0.028147021 0.0057096696 0.0065823519 0.21819851 -0.79863703 0.56086397 0.0020587039
0.030093692 0.0059409929 0.0061447895 0.28234348 -0.80351216 0.52407098 0.0054181376
-0.033314381 0.0089335172 0.0063045993 -0.35136679 -0.86440837 0.35963815 0.0036630705
-0.031194046 0.0085604591 0.00696343 -0.31012374 -0.84537697 0.43492648 0.001002313
-0.02845026 0.0078679183 0.0074911416 -0.28177676 -0.83596724 0.47091478 0.00086640188
-0.025542101 0.0069655147 0.0075987242 -0.26607513 -0.84373003 0.46617991 0.0010702062
-0.022736574 0.0064907917 0.0082142102 -0.24264254 -0.83249205 0.49807796 0.0011591926
-0.020407282 0.0061425059 0.0087403124 -0.22438492 -0.80862701 0.54385084 0.00059288496
0.020957049 0.0060371244 0.0088689048 0.14310859 -0.74607569 0.65030074 0.0007480979
0.022963315 0.0062792548 0.0087757204 0.16494405 -0.74167484 0.65016288 0.00039417911
0.025788544 0.0065155989 0.008337032 0.18304339 -0.73588181 0.65189958 0.00078561233
0.028497357 0.0069194487 0.0080061061 0.19661261 -0.76760954 0.61001563 0.0029860197
0.031313851 0.0075493646 0.0078490991 0.22911887 -0.76112407 0.60679048 0.0029568395
0.034315415 0.0081152702 0.0072817979 0.27527776 -0.7798304 0.56221586 0.0026288282
0.037096832 0.0087303687 0.0066943192 0.31880885 -0.80226398 0.50471127 0.0025958279
-0.039447885 0.011819043 0.0064027635 -0.40880528 -0.82752091 0.38482124 0.0021241046
-0.037270602 0.011246159 0.0072985869 -0.36993584 -0.8116619 0.45205358 0.0010249446
-0.034575559 0.010167809 0.0075493939 -0.34984529 -0.82399333 0.44569406 0.00088747166
-0.03182606 0.0095199654 0.0082347272 -0.30303657 -0.82378417 0.47911209 0.00092265365
-0.029662276 0.0090789208 0.0087389406 -0.28556845 -0.80078691 0.52648938 0.00077391794
0.034984346 0.0093397498 0.0085817808 0.24292487 -0.72848058 0.64054942 0.0022904563
0.037706267 0.0098754801 0.0079875244 0.308321 -0.77177495 0.55614889 0.0023823851
0.040488698 0.010834023 0.0076257689 0.32851937 -0.76333243 0.55623615 0.002411827
0.043019138 0.011385172 0.0067095268 0.38432702 -0.77258152 0.50538158 0.0016014503
-0.045061942 0.014868134 0.0062525542 -0.49868834 -0.78530711 0.36688235 0.0033953742
-0.043170463 0.014227189 0.0072254403 -0.4598929 -0.7697739 0.44265869 0.0011263214
-0.040624075 0.013050153 0.0076793884 -0.41425541 -0.79653913 0.44036114 0.0008838817
-0.038200229 0.012381241 0.0084690088 -0.36987123 -0.78831363 0.49168774 0.00057533494
0.041743275 0.012160478 0.0086739371 0.32442102 -0.70338959 0.63245082 0.0021152659
0.043603767 0.012692582 0.0082379412 0.36036056 -0.72943693 0.58143097 0.0023504228
0.046555571 0.013973471 0.0077366163 0.38787344 -0.72344851 0.57111847 0.0019028027
0.048987888 0.014613122 0.0066420543 0.42638415 -0.72325134 0.54323483 0.0021307073
-0.048629235 0.017490456 0.0068545211 -0.52063024 -0.73959875 0.42654172 0.0014274712
-0.046488028 0.016487105 0.0075390092 -0.48795608 -0.75649327 0.43545023 0.0010641364
-0.044197168 0.015493303 0.0082626883 -0.45573846 -0.74687362 0.48423359 0.00084072241
0.047580954 0.015329782 0.0088462513 0.39091259 -0.65452248 0.647138 0.0018296331
0.049374532 0.015945818 0.0081985416 0.41363591 -0.68606007 0.59852058 0.0024517598
0.05214949 0.017082836 0.0072458615 0.49388152 -0.71256429 0.49833041 0.002201532
0.054288685 0.017835448 0.0061807069 0.50198048 -0.70513606 0.50079811 0.002333153
-0.052049499 0.020219572 0.007227527 -0.54027975 -0.71658438 0.44114009 0.0012779636
-0.049801867 0.018924011 0.0078049246 -0.52324295 -0.7261079 0.44607636 0.0012109765
-0.047808822 0.018158283 0.0087911263 -0.48825732 -0.71589035 0.49910495 0.00086234044
0.053205408 0.018653668 0.0083396286 0.4898051 -0.66998547 0.5578624 0.0024420316
0.055257428 0.019705553 0.0077242004 0.50571299 -0.64784151 0.56969792 0.0020807874
0.057432033 0.020605901 0.0066630384 0.55908579 -0.65467197 0.50875103 0.0017776351
-0.057226896 0.02379984 0.0063131331 -0.62093014 -0.69051194 0.37099722 0.0062131491
-0.055288594 0.022832224 0.0073680817 -0.58038044 -0.6852107 0.44005093 0.0015962817
-0.053186823 0.021634236 0.0081466949 -0.54967892 -0.69881821 0.45771864 0.0017058384
0.056392599 0.021474814 0.0087010339 0.49004033 -0.56253642 0.66589284 0.0016570194
0.058342706 0.022460328 0.0078630187 0.54602045 -0.59134871 0.59343767 0.0019564952
0.060646858 0.023495939 0.0065384922 0.60901386 -0.58884412 0.53138006 0.0014169321
-0.060189243 0.026792461 0.0063242503 -0.66551536 -0.60487258 0.43728524 0.0030573818
-0.058354858 0.025686523 0.007426484 -0.63548124 -0.63195306 0.44362032 0.0013105829
-0.056438599 0.024553671 0.0084004141 -0.58852303 -0.63198662 0.50421572 0.0012745272
0.059510447 0.024445822 0.0087570576 0.54497427 -0.52526057 0.65353227 0.0015871255
0.061375909 0.025441971 0.0076986845 0.6204657 -0.53143954 0.57670987 0.0023623621
0.063208692 0.026132414 0.0062907375 0.64027673 -0.51935154 0.56596798 0.0015733616
-0.063111454 0.029913345 0.0060269171 -0.72459108 -0.56051892 0.40098172 0.0072598932
-0.06116559 0.028740393 0.0073425486 -0.6904999 -0.55162597 0.4678874 0.0017189747
-0.059453111 0.02763875 0.0083957352 -0.63692111 -0.57453531 0.51404345 0.0017342279
-0.00036970922 0.029943716 0.0089493329 0.09131594 0.76486331 0.63768762 0.0014843385
0.0018965194 0.029846165 0.0088679064 0.034792408 0.75414652 0.65578383 0.0018492037
0.0043885643 0.029824078 0.0087785507 0.012914709 0.77530372 0.63145661 0.0012369512
0.0072999634 0.02986018 0.0088091251 -0.014854454 0.78947365 0.61360472 0.0014485193
0.010566651 0.029919332 0.0089183608 -0.071538866 0.77988446 0.62182188 0.0015930897
0.012080551 0.029954782 0.0089102443 -0.09884885 0.77695543 0.62174696 0.00059894571
0.062354706 0.027460193 0.0084863938 0.60119635 -0.44595084 0.66309184 0.001864258
0.06385009 0.028783513 0.0078304699 0.62430137 -0.423217 0.65660888 0.0019313829
0.066109195 0.029864592 0.0060443133 0.74718726 -0.45482677 0.48460686 0.0019291643
-0.063760228 0.031935923 0.0070360755 -0.71375012 -0.48447359 0.50581229 0.0021460494
-0.062341373 0.031030728 0.0081175901 -0.70392078 -0.47913218 0.52433568 0.0028887289
-0.013104608 0.032611497 0.0083798803 0.23239246 0.82756084 0.51101553 0.0020778356
-0.010394784 0.032262214 0.0078113116 0.19624335 0.85450095 0.4809539 0.0012031191
-0.007414503 0.031724699 0.0076531298 0.15573418 0.85751027 0.49032953 0.0023115957
-0.0044587567 0.031277157 0.0076208711 0.12529127 0.8559013 0.50173211 0.0021190355
-0.0014447812 0.030948659 0.0075518833 0.08890003 0.86068839 0.50131059 0.0024637128
0.0015600879 0.030687613 0.0075978488 0.04914115 0.85469925 0.51679242 0.0023416502
0.0047193086 0.030552847 0.0077446974 0.0069749849 0.83630121 0.54822588 0.0018535072
0.0078356192 0.030585075 0.007735047 -0.042859413 0.83362156 0.55067062 0.002172753
0.010508769 0.030753803 0.0077659548 -0.064914547 0.84158802 0.53620499 0.0024457308
0.013572877 0.031125478 0.0076794554 -0.12272464 0.83013314 0.54389119 0.0024481793
0.016666465 0.031626362 0.0077665402 -0.17941655 0.82961637 0.52872151 0.0024213069
0.019270176 0.032205552 0.0078482553 -0.21617214 0.82079417 0.52874058 0.0018155095
0.022147501 0.032624125 0.008350919 -0.22932369 0.79091406 0.56733197 0.002360042
0.024419978 0.03290318 0.0088810632 -0.24872325 0.73238158 0.63384056 0.0016054717
0.064748958 0.031149188 0.0084684119 0.63316554 -0.37219226 0.67865628 0.0023150719
0.066728473 0.031968713 0.006703265 0.70532453 -0.37810084 0.59963077 0.0019390569
-0.066313103 0.035461623 0.0064871553 -0.75192106 -0.4112041 0.51529205 0.0023927086
-0.064800575 0.034392137 0.0076939217 -0.72952962 -0.41101208 0.54667687 0.0027079638
-0.062944382 0.033114687 0.0088469395 -0.67225736 -0.41151029 0.61540991 0.0010804099
-0.022129029 0.035557751 0.0082945228 0.31739166 0.82105404 0.47448161 0.0014798813
-0.019194648 0.034683757 0.0079259733 0.28552189 0.81833905 0.49879694 0.001257623
-0.016306421 0.033773705 0.00788029 0.25315407 0.82677823 0.50234532 0.0012147601
-0.0136564 0.033459738 0.007028182 0.23537637 0.84450573 0.48104882 0.0014145965
-0.011253216 0.033190921 0.0062666503 0.19398268 0.87798178 0.43762851 0.0010708527
0.020148847 0.033251472 0.006499277 -0.22290082 0.84757012 0.48160151 0.0013349494
0.02266591 0.033530936 0.0072698477 -0.2353754 0.82913685 0.50708038 0.0017495916
0.025512084 0.034186184 0.0075461231 -0.25167277 0.82357752 0.50831175 0.0025424936
0.028352972 0.034953602 0.0078353724 -0.28097492 0.79911077 0.53148389 0.0017803663
0.031066343 0.035516024 0.0084057236 -0.30713183 0.76869637 0.56104898 0.0028918036
0.033340171 0.035996519 0.0088866698 -0.32421842 0.70416063 0.63169628 0.0017416489
0.06565161 0.033439729 0.0088178087 0.67004502 -0.31880188 0.67037678 0.0020982227
0.066789024 0.03404526 0.007868032 0.68413287 -0.28510547 0.67132491 0.0017974657
-0.066908993 0.037688356 0.0071637277 -0.74669075 -0.34896883 0.56628048 0.0030991286
-0.065537639 0.037072513 0.0084954938 -0.69079041 -0.29331261 0.66089058 0.0018717999
-0.030346954 0.038808204 0.0087247174 0.37822032 0.80552536 0.45615596 0.0015605707
-0.028203607 0.038229387 0.0079579251 0.36159596 0.81024247 0.46125418 0.0016590878
-0.025277613 0.037064552 0.0077699372 0.33725342 0.82134813 0.46005151 0.0013831711
-0.022523141 0.036391776 0.0068830638 0.32119185 0.83272105 0.45101154 0.0010379557
0.029605482 0.036354214 0.006204654 -0.32437551 0.83617043 0.4422664 0.0022811736
0.031871263 0.036550235 0.007298151 -0.31717715 0.79942644 0.51021165 0.0022241399
0.034359016 0.0374103 0.007687103 -0.35305801 0.77164525 0.52906877 0.0025894656
0.037099399 0.03837692 0.0082042534 -0.3859725 0.74080861 0.54975253 0.0028751087
0.06784609 0.037159458 0.0079780817 0.74218434 -0.20925567 0.63669026 0.001831372
0.069257304 0.03837119 0.0066791316 0.75221682 -0.22254436 0.62019658 0.0025156012
-0.069164902 0.041542429 0.0062440955 -0.75517291 -0.28407332 0.59077603 0.0042736516
-0.067643605 0.040463701 0.0075869276 -0.73352683 -0.23096043 0.63921487 0.0027184167
-0.065889157 0.039222442 0.0089325598 -0.69399858 -0.23581013 0.68026429 0.0031494482
-0.036355231 0.041755032 0.0085977288 0.39703178 0.77944803 0.48458904 0.0014960319
-0.034164876 0.041010864 0.0080396673 0.40781313 0.79390067 0.45101017 0.001237127
-0.031642932 0.039901644 0.007785684 0.3731997 0.79767406 0.47374886 0.0015201522
-0.029614039 0.039265994 0.0071687233 0.38565004 0.80351549 0.45347202 0.0011742072
0.035984203 0.039142776 0.0061291689 -0.46264401 0.79134035 0.39967617 0.002965475
0.037916977 0.039651558 0.0069941157 -0.41906813 0.76121408 0.49490911 0.0020704265
0.04053811 0.040794604 0.0075665279 -0.4291113 0.7459054 0.50940031 0.002125731
0.042791653 0.041593473 0.0083291102 -0.43040791 0.69509923 0.57583517 0.0032694426
0.067974299 0.040286977 0.0086111277 0.6518026 -0.089115746 0.75313473 0.002510343
0.069409966 0.040667117 0.0070997523 0.73557395 -0.1212863 0.66649884 0.00317105
-0.069507778 0.043705393 0.0065712538 -0.73602533 -0.19044191 0.64961421 0.0033783773
-0.068027459 0.043435913 0.0080364794 -0.66241926 -0.1164729 0.74002349 0.0026298091
-0.042578161 0.044677895 0.008742556 0.36094561 0.71839315 0.59466767 0.00061659131
-0.040335581 0.04400916 0.008123789 0.37678674 0.76230246 0.5262382 0.0014149294
-0.037521262 0.042791355 0.0078556417 0.38258579 0.79192239 0.47590664 0.0016363232
-0.035060883 0.042097837 0.0068675228 0.40591547 0.80162615 0.43889424 0.00089510548
0.04179569 0.0423503 0.0063778013 -0.45284063 0.73736238 0.5012306 0.0012624068
0.043791641 0.042846471 0.0074463724 -0.43777138 0.72224319 0.53546327 0.0021831044
0.046295904 0.044115745 0.0077683916 -0.42154974 0.71058869 0.56334662 0.0027393061
0.048461288 0.044761039 0.0084866388 -0.40381819 0.6754626 0.61699361 0.0021074684
0.068053842 0.043489546 0.0088481959 0.62041461 -0.012874389 0.7841683 0.0033050557
0.069205537 0.04338536 0.007721642 0.69645005 -0.044389311 0.71623105 0.0026135016
-0.069859914 0.04660584 0.0068137278 -0.70281619 -0.10268752 0.7039209 0.0062166378
-0.068013959 0.046496931 0.0083146179 -0.57551455 -0.017288288 0.81760877 0.0032564849
-0.04858939 0.047640357 0.0088089248 0.32002068 0.70641959 0.63131452 0.0013683058
-0.046287715 0.047114607 0.0079869078 0.36093113 0.74342912 0.56306469 0.0016137896
-0.043653417 0.046017598 0.0076758098 0.38083425 0.75632435 0.53191984 0.0013984215
-0.041374173 0.045369718 0.0069073774 0.39601862 0.76531166 0.50741231 0.00088203984
0.047264002 0.045491479 0.0067444579 -0.4526225 0.72128868 0.52428573 0.0023054522
0.049572632 0.046347465 0.0074229958 -0.4103252 0.7154116 0.56552589 0.0017400451
0.052227646 0.047184486 0.0082130535 -0.36050183 0.65761042 0.66150355 0.0020816796
0.054363847 0.047751836 0.0087496731 -0.32253459 0.63766974 0.69953465 0.0021499842
0.068165511 0.046850491 0.0085334359 0.50645506 0.13830619 0.85110205 0.0028446584
0.069561049 0.046340961 0.0072804959 0.61016428 0.10117509 0.7857883 0.0028341473
-0.070146672 0.049518179 0.0068258843 -0.5994848 -0.020412534 0.80012572 0.0087509714
-0.067759037 0.049529213 0.0082946094 -0.45977411 0.12846926 0.87869412 0.0081641302
-0.065564588 0.050660033 0.0088829678 -0.21259238 0.31738678 0.92415911 0.0072207032
-0.057820994 0.050905034 0.0089323828 0.12679631 0.68780988 0.71473086 0.0032937229
-0.054834388 0.050716616 0.0083026793 0.20079637 0.67825979 0.7068553 0.0013437103
-0.052961431 0.049964003 0.0083204154 0.23777504 0.68577147 0.68788111 0.0011418284
-0.049730014 0.049226046 0.0074310401 0.34252879 0.75988901 0.55248785 0.0015874347
-0.047237903 0.048446905 0.0068351454 0.38453057 0.76381361 0.5183869 0.0010966536
0.050778791 0.048082888 0.0062657441 -0.40611756 0.70932573 0.57612979 0.00096102501
0.052781068 0.048705339 0.0068867235 -0.41821161 0.69004965 0.59070343 0.002223243
0.055437047 0.049435109 0.0077152262 -0.33768508 0.66857314 0.66255462 0.0023561521
0.058200758 0.050229125 0.0082553197 -0.27368155 0.62258238 0.73313671 0.0035433997
0.060824424 0.050685637 0.0087300725 -0.14805612 0.54074031 0.82805753 0.0046656393
0.064523749 0.050763305 0.0089022545 0.043042772 0.42794055 0.90278143 0.0086406264
0.067336634 0.049954571 0.0084040388 0.29303545 0.29173154 0.9105069 0.0042820941
0.069594696 0.049375121 0.0069482527 0.56141293 0.15228081 0.81340396 0.0036009748
-0.070317782 0.052432198 0.0066780965 -0.47279018 0.080477849 0.87749225 0.0094351685
-0.067666315 0.052366357 0.0077149025 -0.29877451 0.24340075 0.9227621 0.010322687
-0.064643994 0.052363981 0.0082078092 -0.12503926 0.41032317 0.90332723 0.0076320982
-0.061670087 0.052387476 0.0081431065 -0.017409466 0.53186041 0.84665304 0.0032135837
-0.058698703 0.051907755 0.0081323022 0.12619987 0.67471379 0.72721034 0.0021786324
-0.055600293 0.051762056 0.00743915 0.2211768 0.7226069 0.65491998 0.0018828142
-0.053149637 0.051457226 0.0065569137 0.32982472 0.75722682 0.56375813 0.0016329605
0.056345243 0.051183835 0.0063616028 -0.39853451 0.69658333 0.5966087 0.0021368777
0.058800239 0.051981431 0.0069062933 -0.35146216 0.66562176 0.65834796 0.0025260318
0.061518915 0.052513033 0.0075590434 -0.23992763 0.58703387 0.77319205 0.0036213764
0.064326726 0.052587193 0.0080465516 -0.046213049 0.47337002 0.87965059 0.005129172
0.067066103 0.052707613 0.0076573482 0.087496974 0.42015392 0.90322477 0.0055288896
0.069553517 0.052574601 0.0064778286 0.43068594 0.23068751 0.87252104 0.0054218373
-0.070200719 0.054977294 0.0063625458 -0.29045686 0.25765175 0.92154783 0.0097271679
-0.067726776 0.055110633 0.0067029847 -0.14265354 0.35396472 0.92431539 0.0074622124
-0.064982057 0.054660778 0.0067987898 -0.010463477 0.48518795 0.87434727 0.0049448498
-0.061983138 0.054373849 0.0064205099 0.19266492 0.67179996 0.71523774 0.0046492484
-0.059924543 0.054074511 0.0061272779 0.27383173 0.76798099 0.57898307 0.0061174962
0.062137883 0.054329969 0.0063180393 -0.33180442 0.61945301 0.7114659 0.0055556023
0.064519279 0.055041838 0.0066399733 -0.19723256 0.53819257 0.81941938 0.0099465633
0.066979229 0.055514585 0.0065811537 -0.057405405 0.43865353 0.89682084 0.010768048
0.069236696 0.054977953 0.006129771 0.13779426 0.36419711 0.92107177 0.0077375839
0.067884862 0.05724911 0.0060286289 0.028127862 0.33299616 0.94250858 0.020025717
-0.018456513 0.0058776941 0.0091417683 -0.21667397 -0.79262328 0.56991291 0.0006509255
-0.016163088 0.005651521 0.0095312344 -0.16989323 -0.79239845 0.5858677 0.00069232861
-0.013428443 0.0053757336 0.0098685063 -0.13713245 -0.77885032 0.61203516 0.0010289423
-0.010498554 0.0051603741 0.010160209 -0.10277506 -0.77012724 0.62955642 0.0010763545
-0.0075264699 0.0049515739 0.010279474 -0.065017805 -0.75963283 0.64709407 0.0011515797
-0.0044450094 0.0048363465 0.010375836 -0.032493051 -0.74892843 0.66185373 0.0012815067
-0.001429651 0.004819518 0.010399086 -0.0080440249 -0.75612026 0.65438324 0.00093894772
0.0015940003 0.0047980775 0.010369615 0.010527701 -0.73954922 0.67302024 0.00094841677
0.0044249804 0.0048722383 0.010364891 0.044811487 -0.73661029 0.67483121 0.0012150645
0.0074586081 0.0049028699 0.01012732 0.064313933 -0.74106467 0.66834641 0.001133431
0.010415677 0.0050566909 0.010069068 0.082408555 -0.74718767 0.65948421 0.0014366304
0.013461689 0.0053425878 0.0099390559 0.11935108 -0.74664843 0.65442437 0.0015775135
0.016275344 0.0055010496 0.0095571429 0.13738391 -0.74958038 0.64749897 0.0011078999
0.01878803 0.0058251792 0.0093318885 0.14963563 -0.73941082 0.65641522 0.0007628196
-0.027609296 0.0087424191 0.0093504908 -0.2772702 -0.78759223 0.55029052 0.00064142229
-0.025298998 0.0083439611 0.0098724337 -0.24766275 -0.78486085 0.56802875 0.0007838055
-0.022404885 0.0079215681 0.010429784 -0.21197711 -0.76862252 0.60356033 0.0010813926
-0.019570673 0.007234476 0.0105767 -0.19433181 -0.77514172 0.60115767 0.00069752632
-0.016598223 0.0068666399 0.011019402 -0.15459664 -0.75863898 0.6329034 0.001013285
-0.013546308 0.0066206474 0.011388303 -0.11996022 -0.70394331 0.70005238 0.0014354015
-0.010695554 0.0064001461 0.011599873 -0.083161145 -0.70984107 0.69943535 0.001288857
-0.0076298756 0.0062487354 0.011722392 -0.05156903 -0.71856141 0.69354892 0.0011091485
-0.0046344521 0.0061234515 0.011779447 -0.019982615 -0.70835888 0.70556957 0.0015125402
-0.0014882151 0.0061319415 0.011858401 0.00057215698 -0.71212572 0.70205176 0.0010319273
0.001535231 0.0061887214 0.011882397 0.013886113 -0.70108426 0.71294326 0.0012450108
0.0046259123 0.0062655886 0.011836683 0.040112644 -0.69821811 0.71476048 0.0011726063
0.007541962 0.0063384171 0.011666898 0.059071161 -0.69643438 0.71518517 0.0015391462
0.010558826 0.0064988551 0.011532456 0.079053394 -0.70175803 0.70801568 0.001345208
0.013673923 0.0067363097 0.011326319 0.10673399 -0.65940696 0.7441709 0.0021827703
0.016678687 0.0069727898 0.011077975 0.13175553 -0.65166914 0.74697244 0.0020858995
0.019544827 0.0073013627 0.010764936 0.1572493 -0.6865254 0.70989829 0.0012704196
0.022390081 0.0077039092 0.010454641 0.16658853 -0.68658191 0.70771009 0.00096998637
0.025395706 0.0079867439 0.009952045 0.18766484 -0.69882506 0.69023579 0.00029572286
0.028282132 0.0084279254 0.0096420459 0.19058351 -0.6870321 0.70118815 0.00043498978
0.031065809 0.0087287938 0.0092322091 0.20870741 -0.69073206 0.69233698 0.0010054709
-0.03621247 0.011861178 0.0091439541 -0.36354733 -0.76423693 0.53270561 0.00069892488
-0.034171768 0.011453544 0.0098396586 -0.33216113 -0.76691449 0.54910034 0.00077418546
-0.031465676 0.010894756 0.010498242 -0.27233946 -0.76391309 0.58503681 0.0010340726
-0.028613036 0.010028883 0.010683074 -0.26161653 -0.77471799 0.5756464 0.00078842015
-0.025752334 0.0095414622 0.011329256 -0.22572193 -0.74613088 0.62636912 0.0012016144
-0.023291407 0.0092462357 0.011805333 -0.2029095 -0.71341944 0.67071635 0.0018472346
0.023044139 0.0092357434 0.011837499 0.16114892 -0.63936818 0.75182402 0.0010406082
0.025682943 0.0096242018 0.011477945 0.18156733 -0.65892529 0.72996616 0.00084828271
0.02867 0.010018213 0.010981681 0.19318548 -0.64523 0.73916012 0.00071829592
0.031557068 0.010461196 0.010583177 0.20456913 -0.63210088 0.74739552 0.00055284216
0.034476336 0.010806255 0.010122236 0.2156526 -0.63779449 0.73939991 0.0011894559
0.037244961 0.011231202 0.0096944841 0.25817645 -0.65601927 0.70921338 0.002036511
0.039531056 0.011729311 0.0092621576 0.29559648 -0.69400239 0.65649325 0.0023308296
-0.042216193 0.014899759 0.009189425 -0.44112876 -0.7296778 0.52247083 0.00097012677
-0.040201057 0.014339183 0.0099526523 -0.39655787 -0.73346347 0.55206263 0.00085047021
-0.037464228 0.013491218 0.01056544 -0.34322977 -0.75199389 0.56275976 0.0007163345
-0.034782264 0.012690588 0.011156962 -0.3188988 -0.73629612 0.5968011 0.0012212145
-0.032513209 0.012240521 0.01179485 -0.28020236 -0.71877807 0.6362741 0.0017774649
0.032193966 0.012220261 0.011846541 0.19611166 -0.59682024 0.77803975 0.00043636563
0.034663975 0.012667063 0.011539326 0.20809105 -0.59945387 0.77288634 0.00042252848
0.037623368 0.013342468 0.011226552 0.22030655 -0.57174027 0.79030246 0.0006416316
0.040334038 0.01375135 0.010710051 0.25785312 -0.59388375 0.76211143 0.0015924569
0.043184578 0.014125165 0.0099697597 0.31662855 -0.63434941 0.70522839 0.002077647
0.045520693 0.01472407 0.0093785953 0.36320338 -0.64897817 0.66851366 0.002344131
-0.04579236 0.017494703 0.0096567441 -0.46582621 -0.6992116 0.54231822 0.00076223357
-0.04344302 0.016645016 0.010455755 -0.42469385 -0.70969629 0.5621087 0.00080902525
-0.040929083 0.015696706 0.011219279 -0.38126692 -0.70285052 0.60053021 0.0010706052
-0.038822081 0.01519544 0.011883085 -0.35381371 -0.68147296 0.64063287 0.0017636676
0.04101152 0.015351105 0.01172182 0.23754202 -0.5562737 0.79632491 0.00084539567
0.043647833 0.016182741 0.011388293 0.27670804 -0.54200464 0.79351342 0.0013374697
0.046471559 0.01659636 0.010542837 0.3361772 -0.59367251 0.731121 0.0020420011
0.048936825 0.017137945 0.0097776987 0.38923645 -0.61726636 0.68372303 0.002824279
0.051193524 0.017933555 0.0091020623 0.40891665 -0.62649554 0.66354388 0.0022864039
-0.051316287 0.020858897 0.0090812212 -0.50773746 -0.6788215 0.53047526 0.00081544009
-0.049136575 0.020130655 0.010061594 -0.49220142 -0.66490763 0.56181461 0.00095796079
-0.046780437 0.019052694 0.010824624 -0.45691121 -0.67852771 0.57518017 0.00097240065
-0.044468995 0.018242724 0.011666269 -0.43205976 -0.66745746 0.60648578 0.0011628655
0.047167532 0.018497381 0.011687768 0.3062166 -0.51763546 0.79892731 0.0015509941
0.049572464 0.019243816 0.011091889 0.36239412 -0.5252257 0.7699405 0.0013142023
0.0522906 0.019811492 0.010034037 0.4095408 -0.54647458 0.73050791 0.0018280792
0.054631107 0.020658756 0.0093323346 0.45255569 -0.56568104 0.68934625 0.0012333464
-0.054424088 0.023633704 0.0093772179 -0.54978842 -0.62278485 0.55666119 0.00098344742
-0.052329492 0.022755692 0.010326491 -0.5035063 -0.63697827 0.58372945 0.0018231669
-0.049996231 0.021733152 0.011197322 -0.47223365 -0.63765031 0.60860282 0.0012396355
0.050573338 0.021173844 0.011891169 0.35639456 -0.49256799 0.79395199 0.0016211091
0.052738734 0.022131031 0.01148817 0.39149192 -0.46823385 0.79214334 0.0012175452
0.055340521 0.022715472 0.010340942 0.44913575 -0.49896801 0.74115324 0.0014947871
0.057672307 0.023503629 0.0094017377 0.48938155 -0.501975 0.71311063 0.0014187957
-0.057416588 0.026547275 0.0094879745 -0.58910578 -0.5626325 0.57999921 0.0010248873
-0.055405062 0.025569526 0.010465946 -0.53819835 -0.56815159 0.62253213 0.0018436253
-0.05331808 0.024627058 0.011449475 -0.51775229 -0.58287692 0.62624842 0.0010513484
0.0017804003 0.02696545 0.011950571 0.045919273 0.68504906 0.72704828 0.0012400317
0.0045704404 0.026891595 0.011931907 0.013068126 0.68577564 0.7276957 0.0012216954
0.0078220339 0.026959598 0.01187667 -0.01850318 0.66895306 0.7430743 0.0021157358
0.055885319 0.025148993 0.011526885 0.42330879 -0.42353353 0.80089265 0.0011308817
0.058123671 0.025644396 0.010504923 0.47470281 -0.43537211 0.76492375 0.0014282982
0.060212079 0.026555397 0.0096420748 0.51525927 -0.44031 0.73527884 0.0016766209
-0.060248315 0.02961248 0.0092984224 -0.62857246 -0.5024153 0.59369648 0.0015878183
-0.058363888 0.028653154 0.010396687 -0.591856 -0.47068408 0.6543417 0.0013818586
-0.056367297 0.027710302 0.011523404 -0.56069869 -0.49552655 0.66337806 0.0015227181
-0.012416366 0.029663445 0.011818364 0.18850078 0.67344439 0.71480072 0.0019111041
-0.010239393 0.029611291 0.011318517 0.16840671 0.65628362 0.73548013 0.0010082743
-0.0072493693 0.029222488 0.011013606 0.13565604 0.68422943 0.71653855 0.0010971542
-0.0046347384 0.028782746 0.011008048 0.11255947 0.68512857 0.71967298 0.0012014684
-0.0016068841 0.028551759 0.010794559 0.098000959 0.6939624 0.7133106 0.0015814874
0.0015490036 0.028329484 0.010723776 0.05059322 0.70809746 0.70429981 0.0017843619
0.0044316258 0.028125545 0.010824404 0.014229821 0.67986685 0.73319751 0.00163527
0.0077244216 0.028184438 0.010784177 -0.023651814 0.6902526 0.72318178 0.0018363607
0.010522022 0.028283978 0.010874113 -0.073599838 0.68616557 0.72371262 0.0017705334
0.013410583 0.028518036 0.010926194 -0.1055281 0.68856424 0.71745598 0.0026482791
0.016293736 0.028919946 0.01109378 -0.13427688 0.68301886 0.71795201 0.0017407819
0.019474117 0.029211408 0.011444462 -0.156479 0.65759051 0.73694575 0.0019728316
0.022254612 0.029632071 0.011686714 -0.18489829 0.65702891 0.73083901 0.0015859505
0.025092397 0.029985791 0.011980241 -0.19035465 0.61091679 0.76846981 0.00074711669
0.056763593 0.027030008 0.011971707 0.46672487 -0.37798896 0.79955757 0.002434057
0.058872979 0.028263072 0.011451189 0.45326903 -0.35291567 0.8185339 0.00099443772
0.061157972 0.028333625 0.009982463 0.51054996 -0.3861261 0.76827431 0.0016336086
0.063505739 0.029749887 0.009002815 0.635885 -0.41051945 0.65354729 0.0022405786
-0.061057623 0.031778317 0.010055421 -0.63489884 -0.42812422 0.64312756 0.0016667879
-0.059211805 0.031101065 0.011335199 -0.5791623 -0.38019803 0.72112435 0.0016774483
-0.021693556 0.032847162 0.011639521 0.27200031 0.70433784 0.6556859 0.0017961069
-0.019310959 0.032290515 0.011322175 0.24957204 0.72567099 0.64118284 0.0016421308
-0.016632399 0.031924695 0.010681486 0.23926209 0.7513839 0.61496001 0.0010427098
-0.013598013 0.031139893 0.010533452 0.20703711 0.76249921 0.61296862 0.0019607758
-0.010509013 0.030784771 0.010028232 0.1813875 0.77210999 0.60905236 0.001594951
-0.007493143 0.030377135 0.009725281 0.14817178 0.76927364 0.62150079 0.0016243771
-0.0048241592 0.030251889 0.0093122236 0.11824558 0.78307092 0.61058825 0.0019945654
-0.0022267892 0.030048728 0.0091036987 0.10548384 0.78092086 0.61565882 0.002322397
0.014292803 0.030122373 0.0092184823 -0.1112207 0.7536096 0.64784449 0.0010188066
0.016759589 0.030296408 0.009607668 -0.15660408 0.73669684 0.65783966 0.0010999861
0.019681495 0.030776003 0.0099122534 -0.17980029 0.71635604 0.67417043 0.0014545831
0.022632314 0.031117979 0.010422928 -0.20136233 0.6995123 0.68566447 0.0019094916
0.025489394 0.031601865 0.010805577 -0.21755557 0.67949796 0.70067984 0.0019147856
0.028506333 0.032085638 0.011267531 -0.22428064 0.63856393 0.73616189 0.0020046758
0.031069597 0.032568119 0.011684007 -0.23132794 0.65210015 0.72197843 0.0022512812
0.059819993 0.030850729 0.011874445 0.44912782 -0.26848319 0.85217422 0.0022589909
0.061515741 0.031469624 0.011140364 0.48294258 -0.28782833 0.82699537 0.0018209864
0.063648328 0.031680625 0.0097624483 0.56519508 -0.33526036 0.75376058 0.0015911143
-0.063535489 0.035058163 0.0095344717 -0.65635216 -0.36127341 0.66233182 0.0018416871
-0.061742615 0.034373518 0.010860369 -0.59612161 -0.30187708 0.74398208 0.0015519651
-0.059909921 0.033159096 0.01185338 -0.58823776 -0.33083344 0.73791969 0.0024932739
-0.028096402 0.03556994 0.011521188 0.30431414 0.70236534 0.64348722 0.0015535676
-0.025342962 0.034966528 0.010873884 0.29889703 0.74432719 0.59719139 0.0011982463
-0.022407342 0.034032401 0.010577542 0.27867204 0.75215387 0.59716535 0.0019064844
-0.019892337 0.033771906 0.0097583681 0.27088395 0.74579799 0.60861099 0.0014768499
-0.017455114 0.03320827 0.0093757883 0.25270069 0.77415442 0.58036822 0.0011825318
0.02652498 0.03315207 0.0094894003 -0.23843005 0.72696823 0.64394748 0.0015242302
0.028835464 0.033632748 0.0098730819 -0.24836692 0.71270043 0.65602738 0.0015598841
0.031641893 0.034092918 0.010427147 -0.26549819 0.70031834 0.66261971 0.0025059213
0.034364503 0.0347992 0.010818224 -0.28959855 0.64809966 0.70434326 0.0028876464
0.037059236 0.035402514 0.011438353 -0.2959182 0.63064039 0.71744347 0.002438124
0.039262567 0.035752445 0.011939937 -0.26000139 0.52107882 0.81294286 0.0041513126
0.06213633 0.034432177 0.011668967 0.46710268 -0.17895983 0.86590326 0.0026089123
0.06464801 0.035000954 0.01019626 0.51739174 -0.17370568 0.83793324 0.0018783726
0.066074327 0.035476901 0.0092475303 0.6476596 -0.27870154 0.70912796 0.0027760365
-0.064164184 0.037645657 0.010064569 -0.64353412 -0.25282457 0.72245657 0.0028902786
-0.062262658 0.037289668 0.011491519 -0.56105667 -0.19277057 0.80501866 0.0019259952
-0.034194332 0.03849081 0.01139154 0.31756663 0.69177026 0.64854103 0.0013319175
-0.031496156 0.037717447 0.010818298 0.33150372 0.73042393 0.59714842 0.0016577406
-0.028706992 0.036917534 0.010257654 0.32406339 0.74893737 0.5779928 0.0018459723
-0.026097452 0.036316812 0.0095478585 0.3199304 0.7608583 0.56456995 0.0010089573
0.035129596 0.03640493 0.0095741004 -0.31997967 0.69607514 0.64272261 0.0018539876
0.037739031 0.03707964 0.010139445 -0.33734369 0.67540187 0.6557678 0.0026228451
0.040328391 0.037721761 0.010869565 -0.33633643 0.60246849 0.72381586 0.0022135775
0.043082397 0.03838288 0.011570228 -0.30182794 0.55134475 0.77776527 0.0020458405
0.045240436 0.038857702 0.011912209 -0.2814669 0.5470528 0.78835887 0.0015403501
0.062644273 0.037349999 0.011892772 0.42162982 -0.059024505 0.90484494 0.003765241
0.064114206 0.037417792 0.011084721 0.50166851 -0.10912912 0.85814893 0.0018797981
0.066531137 0.037812203 0.0094653014 0.59063971 -0.15069613 0.79273915 0.0032018269
-0.066250771 0.041118514 0.0092267999 -0.66175467 -0.18249926 0.72716898 0.0025770681
-0.064567655 0.040469762 0.010420307 -0.58531421 -0.13690983 0.79916388 0.0032914539
-0.062612943 0.040472049 0.011740766 -0.51698124 -0.056373656 0.85413843 0.0027893812
-0.042379994 0.041879356 0.01184414 0.30906454 0.67113209 0.67384034 0.0021206317
-0.040629193 0.041348789 0.011596464 0.28948882 0.65394926 0.69896102 0.001199675
-0.037608318 0.040404391 0.01102756 0.31120068 0.68908918 0.65445417 0.00081120129
-0.034822971 0.039870054 0.010137649 0.35477191 0.73048532 0.58354783 0.0015613724
-0.032533403 0.039343905 0.0093923202 0.37554079 0.75129497 0.54270154 0.001598924
0.041112665 0.039546061 0.0095441695 -0.38380912 0.66223621 0.64353228 0.0020249954
0.043660603 0.04030164 0.010217534 -0.36795956 0.62788796 0.68582976 0.0023311558
0.046271957 0.040769547 0.011052231 -0.30356428 0.56981397 0.7636497 0.0020537651
0.048959054 0.041409921 0.011613596 -0.24550417 0.50379628 0.82820106 0.00211719
0.05123511 0.041778419 0.011882772 -0.18099338 0.48248535 0.85700023 0.0021341532
0.062881485 0.040597066 0.011910628 0.36475265 0.048810758 0.92982423 0.003524472
0.06472902 0.040406447 0.010990422 0.42115662 0.020474758 0.90675682 0.0034831027
0.06651482 0.040283393 0.0098451842 0.54259956 -0.047422789 0.83865178 0.0023413496
-0.066484638 0.043523114 0.0093702516 -0.61508727 -0.056096967 0.78646094 0.0037298028
-0.06453836 0.043453336 0.010673332 -0.49339887 0.031088641 0.86924738 0.0032162827
-0.062355351 0.043709993 0.011772214 -0.40974 0.087783687 0.9079687 0.0034818891
-0.049027368 0.044737961 0.011824949 0.21103005 0.61943382 0.75615346 0.0018172869
-0.046184 0.044148706 0.011359172 0.25933644 0.62398392 0.737149 0.001456596
-0.043420911 0.043218914 0.011000827 0.2894623 0.65786254 0.69529015 0.00076712901
-0.040742245 0.042788252 0.0099637117 0.35121799 0.71911132 0.59960383 0.00072073977
-0.038610078 0.042336468 0.0092605306 0.36039767 0.7383846 0.57000142 0.00076127163
0.044728924 0.042009894 0.0090172105 -0.39196977 0.6555813 0.64542454 0.0027679908
0.046978913 0.04275471 0.009708575 -0.36579064 0.63947254 0.67621905 0.0022316859
0.049564652 0.043423463 0.010319959 -0.33158848 0.59842414 0.72934055 0.0022218772
0.052333355 0.043713681 0.011105966 -0.22954504 0.53255916 0.81467164 0.00154948
0.055332534 0.044275515 0.011522224 -0.16032489 0.4582752 0.87423092 0.0025153414
0.058454968 0.044523045 0.011787452 -0.042745419 0.38385263 0.92240441 0.0036889277
0.061726663 0.04393946 0.011745278 0.14477885 0.25803006 0.95522743 0.0044604121
0.063939407 0.04370819 0.011174293 0.32684058 0.14434516 0.93399131 0.0058605978
