# .PCD v0.7 - Point Cloud Data file format
VERSION 0.7
FIELDS x y z normal_x normal_y normal_z curvature
SIZE 4 4 4 4 4 4 4
TYPE F F F F F F F
COUNT 1 1 1 1 1 1 1
WIDTH 572
HEIGHT 1
VIEWPOINT 0 0 0 1 0 0 0
POINTS 572
DATA ascii
0.010499078 0.028480953 0.010701046 -0.08594694 0.72129673 0.68727297 0.0023069454
0.013425712 0.028731629 0.01080012 -0.12150131 0.69674027 0.70695859 0.0025140319
0.016385017 0.028945304 0.011120912 -0.14566813 0.65595788 0.74060786 0.0018714275
0.019342689 0.029323408 0.011446983 -0.17219925 0.64957762 0.74053794 0.0020624697
0.021762686 0.029634036 0.011780051 -0.18341687 0.65911007 0.72933686 0.0026336045
0.05890958 0.028165339 0.011471537 0.46057302 -0.35726562 0.81254768 0.0012625131
0.061217844 0.028709328 0.010233046 0.53874284 -0.38140827 0.7511884 0.0017389372
0.063492 0.029829383 0.009046033 0.62934482 -0.40467483 0.6634481 0.001872577
-0.06112517 0.03179336 0.010152954 -0.63371044 -0.40335628 0.66008705 0.0015335021
-0.05928449 0.031130875 0.011417597 -0.59766942 -0.37543073 0.70840883 0.0015819989
-0.021580746 0.032727174 0.011784655 0.26033366 0.66960436 0.69559783 0.001130498
-0.019265616 0.032305162 0.011339326 0.2485299 0.74484843 0.61922032 0.0014722398
-0.016409365 0.031851884 0.010751508 0.23509321 0.75955915 0.60646605 0.00092976791
-0.013571542 0.031232029 0.010472124 0.20163693 0.77009547 0.60522348 0.0017279877
-0.0105538 0.03083612 0.010048867 0.18109109 0.75785202 0.62679052 0.0014115911
-0.0076838303 0.030451166 0.0097468123 0.14884174 0.76865411 0.62210697 0.0014615682
-0.0048818779 0.030199155 0.009470813 0.11443138 0.77330011 0.62362832 0.0012854032
-0.001694817 0.030050823 0.0090911882 0.095194846 0.78426456 0.61307997 0.0018983016
0.011557535 0.030032163 0.00900607 -0.081840478 0.79776776 0.59738499 0.0036475842
0.01393089 0.030241944 0.0092193512 -0.11630434 0.77003086 0.62731636 0.0022661013
0.016702194 0.030478865 0.0095521109 -0.15935381 0.74401581 0.64888126 0.0016109595
0.019644229 0.030838886 0.0099828886 -0.19568603 0.74080461 0.64258498 0.0015413082
0.022613272 0.031192482 0.01046858 -0.2061533 0.71641713 0.66651881 0.0024087245
0.025476364 0.031680144 0.010886143 -0.22685562 0.68197858 0.69529969 0.0029773775
0.028310006 0.032170188 0.011310928 -0.22517593 0.67197853 0.70550734 0.0021062209
0.030845905 0.03257978 0.011765674 -0.22982503 0.6565817 0.71838772 0.002302157
0.059918575 0.030779311 0.011912901 0.44755864 -0.25439566 0.8573063 0.0019718953
0.061541826 0.03141569 0.011191819 0.50202 -0.28659147 0.81599092 0.00095268479
0.063704684 0.031793863 0.00983926 0.57652462 -0.32665101 0.74894488 0.0020322518
-0.063627459 0.035009362 0.009571027 -0.66222382 -0.3605555 0.6568557 0.0016183431
-0.061789643 0.034386449 0.010946157 -0.60128528 -0.31950933 0.7323727 0.0017301901
-0.059957102 0.033375226 0.011928389 -0.59587795 -0.32937744 0.73242062 0.0023779878
-0.027983813 0.03558987 0.011490959 0.30584127 0.71486115 0.62883598 0.0015151752
-0.025314664 0.03498647 0.010878903 0.30499846 0.74482244 0.59347743 0.0012761499
-0.022642275 0.034204375 0.010517956 0.27925664 0.74966896 0.60001004 0.0017484486
-0.019846544 0.033658281 0.0099417428 0.26720923 0.76193249 0.58996451 0.0011641828
-0.017361781 0.033243794 0.009338242 0.24776281 0.77369982 0.58309704 0.00098859554
0.025887152 0.033228058 0.0093270503 -0.23674981 0.73759741 0.63237613 0.0013400931
0.028690875 0.033681955 0.0098805232 -0.25069115 0.7299189 0.63590288 0.0014681126
0.031576242 0.034208298 0.010416992 -0.26275453 0.7084921 0.65498012 0.002800694
0.034355413 0.034767926 0.010961804 -0.28393501 0.65292662 0.7021879 0.0020065806
0.036928136 0.035361018 0.01151155 -0.30141285 0.64115822 0.70573819 0.0026417591
0.062330138 0.034363944 0.011616577 0.4823094 -0.19591674 0.85381168 0.0015029376
0.064308234 0.034541015 0.010354417 0.55733526 -0.22998124 0.79780072 0.0014254221
0.066231638 0.035707291 0.0092045665 0.63824677 -0.25383714 0.72677904 0.0038335328
-0.064215928 0.037692506 0.01015674 -0.64299828 -0.25441253 0.72237629 0.0023162782
-0.062378809 0.03731842 0.011544514 -0.60141295 -0.19646034 0.77440673 0.0021340577
-0.034170922 0.038538124 0.011370428 0.31966701 0.69403893 0.64507592 0.0014474265
-0.031447962 0.037702985 0.010855353 0.32650197 0.72204536 0.60995662 0.0017901572
-0.028712327 0.037023257 0.010171852 0.32949692 0.74618065 0.5784862 0.0010446832
-0.026145509 0.036423847 0.0094632627 0.32012236 0.75408041 0.57348436 0.0011411184
0.034904297 0.036391705 0.0095208501 -0.31849128 0.7037341 0.63507611 0.0019180052
0.037700493 0.037086342 0.010238398 -0.35376242 0.67069173 0.65193921 0.002329679
0.040323585 0.037758529 0.010962915 -0.34350637 0.60286719 0.72010726 0.0024552352
0.043046985 0.038419269 0.01165669 -0.30580896 0.60002452 0.7392236 0.0022933073
0.062844999 0.037238594 0.011848646 0.48340681 -0.098581336 0.86982739 0.0032417632
0.064405307 0.03754263 0.010968049 0.51479536 -0.11092006 0.85010737 0.0014899224
0.06645415 0.03740276 0.0094568925 0.6062417 -0.15699607 0.77963024 0.0024463218
-0.066359229 0.041093599 0.0092372233 -0.6638127 -0.18327507 0.72509521 0.0023409571
-0.06455227 0.040545698 0.010580696 -0.58224714 -0.11665315 0.80459946 0.0032434147
-0.06273029 0.04044475 0.011841889 -0.53770292 -0.059091918 0.84106106 0.0024450223
-0.042535175 0.041932389 0.011864165 0.29837832 0.64537799 0.7031768 0.0010860127
-0.040266778 0.041360099 0.011454202 0.31227934 0.67386222 0.66962034 0.0010616016
-0.037421048 0.040620804 0.010758027 0.33610609 0.71575123 0.61215419 0.0011583677
-0.034793805 0.039821278 0.010216159 0.34805372 0.7213065 0.59881175 0.0011030486
-0.0323059 0.039279815 0.0093654674 0.35372236 0.743487 0.56754524 0.001022657
0.040960316 0.039546121 0.009597105 -0.38682586 0.67502624 0.62825578 0.002060608
0.043591376 0.040278655 0.010328131 -0.35442644 0.62767321 0.69311476 0.0023160658
0.046328466 0.040823519 0.011159877 -0.30588278 0.57044274 0.76225376 0.0020199243
0.049164582 0.04156594 0.011673664 -0.25529647 0.54497105 0.79864281 0.0022694319
0.051043794 0.041933082 0.011950239 -0.1808944 0.52230155 0.83335364 0.0031357999
0.062796637 0.040448703 0.01195291 0.3995786 0.052225184 0.91521007 0.0031162831
0.0643472 0.04050855 0.011283753 0.43609351 0.012685545 0.89981198 0.0034375011
0.066711657 0.040717468 0.009773585 0.5720824 -0.048605949 0.81875467 0.0034703498
-0.066513263 0.043566942 0.0094806785 -0.61208481 -0.058806665 0.78860253 0.0037671493
-0.064470753 0.043547992 0.010847962 -0.48442802 0.041763298 0.87383366 0.0048821191
-0.062594622 0.043834895 0.011822271 -0.42043069 0.091369882 0.90271235 0.0041061346
-0.048657626 0.04471384 0.011813719 0.23280001 0.62597293 0.74428624 0.0016260567
-0.046271112 0.044296846 0.011287297 0.27880052 0.6689806 0.68901032 0.001630644
-0.043490157 0.043543544 0.010742977 0.31605428 0.68455875 0.65687823 0.00092272554
-0.040766269 0.042862516 0.010055881 0.34421539 0.7208488 0.60157531 0.0010193925
-0.038432311 0.042250264 0.0093950732 0.36094278 0.72084075 0.59169996 0.0010256395
0.044857141 0.042032938 0.0093412772 -0.39924583 0.63203323 0.66418135 0.0031687049
0.046770167 0.042713225 0.0097637558 -0.3635782 0.64943331 0.66786766 0.0021220229
0.049552474 0.043523151 0.010346428 -0.3349714 0.59499258 0.73060107 0.0020838727
0.05232808 0.043744911 0.011197798 -0.23244414 0.5293709 0.81592655 0.0013933051
0.055297624 0.0443937 0.011568889 -0.16564296 0.45962378 0.87252986 0.0026266996
0.05803287 0.04470107 0.011793843 -0.047778796 0.39886653 0.91576344 0.0043972628
0.061934266 0.044040281 0.011788183 0.18701315 0.21149105 0.95932144 0.0072081028
0.064285465 0.043508124 0.011152151 0.37508431 0.12993005 0.91783983 0.0052621365
0.066727526 0.043408453 0.0098630264 0.5213927 0.05384881 0.85161608 0.0029610945
-0.066551089 0.046490271 0.0094656758 -0.53064084 0.073399805 0.84441268 0.004946664
-0.06449651 0.04658325 0.010509965 -0.38455054 0.19396977 0.90249467 0.0074699689
-0.061685055 0.046737622 0.0114467 -0.27167648 0.26948452 0.92388856 0.0045474092
-0.058591288 0.047219336 0.011671866 -0.017715903 0.46895406 0.88304484 0.0031020679
-0.055407953 0.047235768 0.011502129 0.10366692 0.55461836 0.82562196 0.0023706348
-0.052447394 0.046889108 0.011156621 0.19038637 0.59878415 0.77795291 0.0015603191
-0.049563099 0.046450347 0.010567131 0.26093909 0.65692484 0.7073617 0.0013774056
-0.046653528 0.045847189 0.0099031627 0.32387823 0.69110084 0.64612877 0.0014129063
-0.044289913 0.045254003 0.0092994235 0.35510853 0.70867383 0.60965502 0.0012447014
0.050639953 0.045377698 0.0092684096 -0.37136194 0.64051288 0.67218566 0.002631058
0.052788626 0.04591316 0.0097760623 -0.3148486 0.60005349 0.73539531 0.0025456559
0.05554691 0.046612162 0.010239136 -0.24995382 0.55216998 0.79538125 0.002765124
0.058481395 0.046464238 0.010967962 -0.077209033 0.4443996 0.89249527 0.0037948939
0.061449002 0.046505231 0.011065663 0.072181538 0.35758993 0.93108493 0.0052959863
0.064470045 0.046493024 0.010519191 0.29184517 0.25179404 0.92272758 0.0073656053
0.066860728 0.046507258 0.0094936369 0.45494062 0.17170314 0.87381178 0.0046467669
-0.066466264 0.048800286 0.0091967834 -0.3560501 0.24392956 0.90206796 0.0087740161
-0.064466409 0.049499977 0.0096851131 -0.24522014 0.32247508 0.91426301 0.0056722783
-0.061463486 0.049488496 0.010262079 -0.13270944 0.46063128 0.87761438 0.0052741342
-0.058492508 0.049458053 0.010293814 0.087571912 0.58550221 0.80592698 0.0019567197
-0.055554584 0.049185675 0.010056456 0.16283309 0.62972778 0.75955802 0.0029592002
-0.052742284 0.048675999 0.0096710948 0.25273642 0.6756323 0.69256431 0.0018779626
-0.050800189 0.048273675 0.0093646506 0.30393225 0.66905379 0.67822725 0.0031367601
0.056267742 0.048314914 0.0092549575 -0.28448525 0.61580688 0.73474479 0.0030009858
0.05867748 0.048810299 0.0096050948 -0.18886372 0.55275142 0.81166273 0.004281627
0.061564371 0.049358994 0.0097264498 -0.041792523 0.46455076 0.88455981 0.0055758599
0.064442374 0.049399596 0.0095945494 0.15997885 0.33520439 0.92846364 0.0085042799
0.066480972 0.048755039 0.0092381611 0.37762135 0.27580869 0.88392973 0.0060205651
-0.063382126 0.051166922 0.0090586478 -0.13847703 0.5048064 0.85205317 0.0094725415
-0.061467033 0.051155195 0.0092292568 -0.015460776 0.58881193 0.80812216 0.004414862
-0.059377212 0.051206108 0.0091025801 0.11572692 0.6544565 0.74719071 0.0027406989
0.064144626 0.051029906 0.0090690274 0.08242289 0.42291147 0.90241474 0.011550765
-0.02123837 0.0089459363 0.012196855 -0.18250288 -0.6944117 0.69604963 0.0012239033
-0.019269951 0.008712017 0.01244728 -0.16325808 -0.69696802 0.69827092 0.0011276311
-0.016372601 0.0083398074 0.012672666 -0.13302834 -0.67841625 0.72253364 0.0010965111
-0.013427491 0.0080432342 0.012852662 -0.098745629 -0.66949296 0.73622578 0.0010299858
-0.010500412 0.0078399731 0.012993105 -0.065584622 -0.65282834 0.75466144 0.001029309
-0.0074134055 0.0077140387 0.013088698 -0.034482867 -0.63619822 0.77075469 0.001151335
-0.0044728876 0.0076822913 0.013153727 -0.007700406 -0.60256279 0.79803437 0.0017591607
-0.0015033173 0.0075041992 0.013029744 0.0060014087 -0.5952782 0.80349725 0.0017940863
0.0014587856 0.0077026854 0.013127874 0.027868265 -0.57708275 0.81621009 0.0020183036
0.0044251783 0.007683137 0.012998783 0.040737227 -0.57217699 0.81911772 0.0020340346
0.007469092 0.0077686929 0.012881893 0.059254404 -0.5785175 0.81351483 0.0015581405
0.010373115 0.0079390267 0.012789965 0.072188929 -0.57958567 0.81170762 0.0016530399
0.013376474 0.0082055898 0.012681596 0.091067038 -0.58951318 0.80260891 0.0017671617
0.016376777 0.0083777271 0.012430344 0.11283998 -0.60916632 0.7849735 0.0019832244
0.018852023 0.0086476356 0.01226001 0.13676555 -0.63705468 0.75858849 0.0018791085
0.021073287 0.0089415321 0.012045745 0.16327392 -0.66030192 0.73303688 0.0016844486
-0.030628793 0.011891595 0.012228283 -0.25713721 -0.70211899 0.66401011 0.0010003923
-0.028180091 0.011367846 0.012570377 -0.23091033 -0.69795716 0.67789096 0.00097345392
-0.025377097 0.010960888 0.013015316 -0.20351093 -0.68642503 0.69814312 0.0012453705
-0.022458667 0.010623951 0.013446401 -0.17377049 -0.64676303 0.74263138 0.0015277943
-0.019518821 0.01048179 0.01392516 -0.12712358 -0.60634261 0.78497654 0.0013962028
-0.016566433 0.010250526 0.014220013 -0.11099917 -0.58405662 0.8040877 0.0013037156
-0.013538223 0.010014479 0.014388566 -0.073768914 -0.55200666 0.83057016 0.0015422715
-0.010530516 0.0097973542 0.014451428 -0.045212928 -0.54713964 0.83581936 0.001504063
-0.0076402188 0.0097477613 0.014518929 -0.018390037 -0.50663877 0.86196226 0.0018472766
-0.0045250966 0.0098076789 0.01457839 0.0035410423 -0.48846987 0.87257361 0.0019702411
-0.001463449 0.0098296339 0.014549147 0.018535154 -0.47395757 0.88035262 0.0019226242
0.0015619608 0.0099244742 0.014508438 0.031230198 -0.46182814 0.88641948 0.0019471045
0.0045833942 0.010033833 0.014432438 0.046124246 -0.45401707 0.88979834 0.0016986524
0.0075074318 0.010309452 0.014397965 0.055595759 -0.45230258 0.89013004 0.0014227884
0.010536081 0.010470961 0.014274527 0.066729508 -0.45241475 0.88930762 0.0011402023
0.013535421 0.010527353 0.014055763 0.081896737 -0.45245171 0.88802046 0.0011523982
0.016450027 0.010487081 0.013744324 0.099395208 -0.46454009 0.87995625 0.0016634263
0.019467264 0.01047662 0.01335606 0.1223064 -0.49883363 0.85802466 0.0026380457
0.022464836 0.010643337 0.013006278 0.1388129 -0.53299958 0.83465111 0.0022459712
0.025305292 0.011027589 0.01274513 0.16042511 -0.56416684 0.80992568 0.0029220383
0.028157989 0.011446159 0.012418712 0.18352397 -0.5903846 0.78598028 0.0018132003
0.030363521 0.011796881 0.012111145 0.19625917 -0.60737896 0.76978779 0.00073058257
-0.036947619 0.014583677 0.012361933 -0.32673585 -0.68106222 0.65528464 0.0011258973
-0.034323648 0.014058587 0.012985483 -0.28801209 -0.6720432 0.68220747 0.001259086
-0.031493925 0.01361796 0.013596869 -0.2387248 -0.63416111 0.73542523 0.00098297873
-0.028601227 0.013137228 0.014064369 -0.20187512 -0.61879545 0.75916976 0.0011644793
-0.025615767 0.012748941 0.014506557 -0.17347929 -0.59158224 0.78735977 0.0015103408
-0.022711063 0.01232523 0.014769792 -0.14397942 -0.58889204 0.79528368 0.0019260343
-0.020705923 0.012183195 0.014921799 -0.10588227 -0.58878046 0.80132794 0.0011955893
0.01131051 0.012224675 0.014941243 0.05825083 -0.28983101 0.95530355 0.0019419505
0.013847024 0.012375728 0.014859394 0.071512684 -0.30970734 0.94813889 0.0019921504
0.016660511 0.012688391 0.014744264 0.08685758 -0.33720654 0.93741536 0.0020194058
0.019700473 0.013107486 0.014612761 0.10678943 -0.36338207 0.92549962 0.0017891736
0.022594936 0.013485976 0.014443838 0.1147653 -0.38822576 0.91439033 0.0016017986
0.025564626 0.013518206 0.014086626 0.12779683 -0.41210687 0.90212858 0.00148435
0.028521726 0.013604269 0.013665129 0.1458167 -0.43185082 0.89007998 0.0015615079
0.031431001 0.013554066 0.013065618 0.18365537 -0.50965983 0.84054595 0.0023575916
0.034327805 0.014102035 0.012724951 0.18699944 -0.53854555 0.82158387 0.001225202
0.037006237 0.014496516 0.012245958 0.21130675 -0.55129808 0.8071059 0.00042067494
-0.042577025 0.017756576 0.012509551 -0.39860106 -0.64673483 0.65027016 0.0010212399
-0.040260375 0.016960597 0.013008364 -0.36450508 -0.6280902 0.6874873 0.0012668188
-0.037594274 0.016432606 0.013776347 -0.29263297 -0.59568459 0.74801451 0.00073277851
-0.034739327 0.01580142 0.014377576 -0.25700122 -0.61186123 0.74804825 0.001311578
-0.032328665 0.015385485 0.014840384 -0.21298522 -0.57840627 0.78745383 0.0018024616
0.023676561 0.015405197 0.014962278 0.080432214 -0.2149196 0.97331411 0.0020152784
0.025839649 0.015533778 0.014844879 0.10069568 -0.27002889 0.9575724 0.0021942107
0.028584043 0.016043074 0.014707613 0.12635794 -0.32234478 0.93815112 0.0023227036
0.031491783 0.016418567 0.014483464 0.13217066 -0.37805921 0.91629809 0.0020224235
0.034458812 0.016504209 0.014074582 0.16234496 -0.41441289 0.89549208 0.0018670546
0.037488904 0.016499272 0.013413649 0.1968258 -0.46990731 0.86049217 0.0011293503
0.040342033 0.016716743 0.012777447 0.22025995 -0.49313563 0.84160733 0.00069170672
0.04325074 0.017361216 0.012357521 0.2575722 -0.51058853 0.8203389 0.00095413346
0.045352384 0.017838459 0.012111923 0.30285963 -0.53930831 0.78576249 0.0014725439
-0.045959275 0.020204393 0.012705521 -0.44125664 -0.59710437 0.66989481 0.0010272228
-0.043455034 0.019565778 0.013573513 -0.37079296 -0.56597394 0.73633283 0.00072659226
-0.040814836 0.018844409 0.014325378 -0.32788345 -0.57566732 0.74906576 0.0013128747
-0.038762581 0.018379077 0.014884383 -0.2973623 -0.57631773 0.76120532 0.0011584429
0.032606073 0.018370625 0.014952809 0.072357625 -0.20229134 0.97664863 0.002536891
0.034850683 0.01859545 0.014841273 0.12536365 -0.29208797 0.94813955 0.0025875114
0.037605312 0.019133171 0.014638829 0.16286856 -0.34651619 0.92379671 0.0024953936
0.040463958 0.019444527 0.014200461 0.19258098 -0.37993905 0.90474248 0.0017556705
0.04346326 0.01948607 0.013434569 0.23804291 -0.43177763 0.87000209 0.00074060372
0.046312571 0.019783989 0.012751247 0.26969266 -0.44926068 0.85172218 0.00099026773
0.048688918 0.020534934 0.012384298 0.32648793 -0.47279343 0.81845707 0.0015368188
-0.051275041 0.023648543 0.012213645 -0.47789139 -0.57736754 0.66201699 0.0012602346
-0.049256314 0.022903442 0.012912675 -0.44298297 -0.56760788 0.69396496 0.0014599353
-0.04671162 0.022302354 0.013928674 -0.38279459 -0.50906563 0.77092183 0.00076799444
-0.044210788 0.02147316 0.014654635 -0.35661018 -0.52656966 0.77172118 0.00095541961
-0.0064900154 0.023935964 0.014950217 0.11735262 0.49741307 0.85953981 0.0015464086
-0.0041174493 0.023716619 0.014852784 0.093984455 0.45831808 0.88380504 0.0025418797
-0.0014371973 0.023453185 0.014724587 0.074312553 0.42722186 0.90108776 0.0023284887
0.0016494974 0.023194306 0.014642842 0.049374662 0.437556 0.89783454 0.002165634
0.0044918056 0.023112645 0.014566547 0.020863757 0.43896002 0.89826429 0.0021424936
0.0074101337 0.022963867 0.014604486 -0.0059831408 0.43365899 0.90105712 0.0021237121
0.010492966 0.023095183 0.014595023 -0.030421916 0.41602084 0.90884602 0.0023726178
0.013459265 0.023260267 0.014647507 -0.054163344 0.3883864 0.9199034 0.0027076963
0.016398666 0.023465611 0.014763899 -0.072810225 0.34391826 0.93617243 0.0031868455
0.018877462 0.023716815 0.014871317 -0.081736341 0.31661981 0.94502443 0.0024262911
0.021211402 0.02372185 0.014993853 -0.067564815 0.21934672 0.97330475 0.0030422227
0.041123193 0.0214896 0.014855144 0.14778335 -0.25231186 0.9562943 0.0031881102
0.043685298 0.022250563 0.014592896 0.21038923 -0.32207179 0.92304176 0.0020756384
0.046510119 0.022461532 0.013934962 0.24235137 -0.34437275 0.90701336 0.00088174007
0.049480896 0.022598872 0.013078214 0.29109153 -0.39095333 0.87316734 0.00078463432
0.052063301 0.023184925 0.012445976 0.34965795 -0.43034735 0.83219022 0.0018415578
-0.054381728 0.026686257 0.012380329 -0.5168249 -0.51924896 0.68064117 0.0013839578
-0.052278619 0.025709713 0.013094808 -0.47233137 -0.50918293 0.71946913 0.0016027237
-0.04979834 0.025260935 0.014256922 -0.41006091 -0.4561094 0.78981912 0.0013484535
-0.047632616 0.024322232 0.014828544 -0.40472844 -0.46317765 0.78845513 0.0019158893
-0.015725652 0.026835078 0.014892876 0.18900098 0.51411563 0.83663839 0.0012967732
-0.013258017 0.026377318 0.014660745 0.16881426 0.5102272 0.84330887 0.0014567083
-0.010455172 0.025946742 0.014404763 0.1491632 0.51999694 0.84104311 0.0015166331
-0.0074548014 0.025631554 0.014108699 0.12493345 0.53542769 0.83528966 0.0011513863
-0.0044657658 0.025490636 0.013787612 0.10148929 0.54789656 0.83036697 0.0016412473
-0.0015055545 0.025505709 0.013462577 0.08210405 0.55729365 0.82624614 0.0022390615
0.0014670646 0.025473678 0.013251689 0.05353073 0.56149352 0.82574785 0.0020931552
0.0044552949 0.025493106 0.013119205 0.016312089 0.56869113 0.82238942 0.0024463034
0.007518101 0.025436228 0.013156123 -0.023126852 0.56602883 0.82406098 0.0027381664
0.010486274 0.025535086 0.013199202 -0.051535167 0.54756838 0.83517247 0.0027053996
0.013492383 0.025495997 0.013437542 -0.077409938 0.53650987 0.84033614 0.0027909838
0.016504791 0.025541889 0.013709997 -0.097934686 0.47613701 0.87390059 0.001448061
0.019511757 0.025515283 0.014112581 -0.11156348 0.4530409 0.88448155 0.0016615099
0.022418303 0.025611458 0.014450143 -0.11241291 0.4106985 0.90481496 0.0027545353
0.025282053 0.025965629 0.01465454 -0.12396663 0.36302495 0.92349619 0.0030843476
0.028165272 0.026352851 0.014845709 -0.10437673 0.28869757 0.95171386 0.0034264384
0.030898765 0.026747543 0.014931809 -0.079197273 0.20773908 0.97497296 0.0027744607
0.044660717 0.024229072 0.014933378 0.13079627 -0.17254904 0.97627825 0.0032744315
0.04679516 0.024928942 0.014736298 0.21875772 -0.24006639 0.94578707 0.0026310782
0.049484234 0.025496801 0.014202124 0.25919691 -0.28242129 0.92360985 0.0012344898
0.052485179 0.025520297 0.013246563 0.31057182 -0.33087495 0.89110428 0.00099514239
0.054936558 0.025893509 0.012479295 0.38323018 -0.37425414 0.84443384 0.0018945794
-0.057284251 0.029774338 0.012229886 -0.55432868 -0.43998134 0.70649576 0.0016222947
-0.055281106 0.028775854 0.013064402 -0.5114063 -0.43447077 0.74141669 0.0016160012
-0.052820772 0.028261391 0.014285264 -0.43092576 -0.37894469 0.81896514 0.0014155206
-0.05075407 0.027469084 0.014900841 -0.42926168 -0.41017666 0.80466735 0.00076429278
-0.024583716 0.029971534 0.014978248 0.21339571 0.51204336 0.83203 0.00087863102
-0.022195967 0.029556796 0.014703128 0.22038415 0.57285708 0.78947169 0.0010297432
-0.019373761 0.02897306 0.014349486 0.20813359 0.54628116 0.81133062 0.0013921326
-0.016483167 0.028594801 0.01386122 0.203438 0.57777047 0.79043931 0.0013537511
-0.013592622 0.028408999 0.013278398 0.17941804 0.61180645 0.77039081 0.0014543725
-0.010600276 0.028041564 0.012906636 0.16172867 0.63781011 0.75302196 0.0016108416
-0.0076600523 0.027745081 0.012572902 0.13517113 0.65426767 0.74408495 0.0014165364
-0.0048119691 0.027435526 0.012387701 0.10421085 0.66519886 0.73935813 0.0013525489
-0.0015619082 0.02718042 0.012193917 0.086897157 0.65663224 0.74918824 0.0025383157
0.00044584117 0.027257314 0.012058333 0.033240981 0.67952758 0.73289657 0.0012135785
0.0050186403 0.027034862 0.012032033 0.025677113 0.65142995 0.75827414 0.0032494112
0.011427862 0.027139554 0.012002201 -0.05614315 0.6715889 0.73879385 0.0012118949
0.013732995 0.027306324 0.012187027 -0.09576083 0.64143562 0.76117688 0.0022283264
0.016759258 0.027568137 0.012411688 -0.12065384 0.62406456 0.77200139 0.0021126859
0.019608634 0.027881486 0.012681031 -0.14093047 0.58838749 0.79620266 0.002191995
0.022556975 0.028318636 0.012937962 -0.1570694 0.55455059 0.81719208 0.0020889489
0.025519185 0.028363658 0.013481181 -0.157445 0.49866587 0.85237515 0.0031648139
0.028487949 0.028277272 0.01405178 -0.13701059 0.43243662 0.89119393 0.0021026982
0.031496439 0.028463939 0.014426723 -0.13491753 0.39458981 0.90889829 0.0022316498
0.034454878 0.028777018 0.01470076 -0.1291822 0.33261311 0.93417364 0.0030358674
0.037235741 0.029291125 0.014855023 -0.11114055 0.25659132 0.9601087 0.0028481453
0.039665647 0.029720113 0.014926577 -0.081532031 0.20018381 0.97636008 0.0017579631
0.047799423 0.027046697 0.01493114 0.14699157 -0.10684545 0.98335016 0.0027118414
0.049873024 0.028226167 0.014794079 0.19778238 -0.15364712 0.96812946 0.0041345735
0.052438524 0.028481426 0.014197826 0.26131919 -0.20830677 0.94250757 0.0020521728
0.055496335 0.028420001 0.013133532 0.34339759 -0.28041703 0.89635062 0.0014395454
0.057725739 0.028989583 0.012419761 0.41167498 -0.31298685 0.85589886 0.0017031482
-0.058043424 0.031836059 0.012722142 -0.5355382 -0.34001818 0.77303714 0.0022454804
-0.055600852 0.031505842 0.014096844 -0.46282855 -0.27902517 0.84138852 0.0016166681
-0.053628903 0.030517064 0.01482917 -0.41733816 -0.24347068 0.87552893 0.0037250628
-0.030322207 0.032753773 0.01483985 0.23474845 0.54703754 0.80351925 0.00077355868
-0.028270915 0.032281201 0.014547586 0.24512899 0.55376697 0.79577255 0.00087577588
-0.02537868 0.031665891 0.014074686 0.23592649 0.56946051 0.78743476 0.00095011713
-0.022558009 0.031405017 0.013375901 0.24859239 0.61613786 0.74737942 0.0017419191
-0.019642552 0.030949486 0.012843229 0.23215836 0.66885841 0.70620883 0.0011006958
-0.01695621 0.030495191 0.012431084 0.21366416 0.6822055 0.6992448 0.001021532
-0.014846316 0.030318633 0.012032002 0.21499325 0.68487966 0.69621682 0.0035209074
0.025889317 0.030189997 0.012341549 -0.18072499 0.62632143 0.75832713 0.0020142235
0.028706098 0.030662185 0.012661673 -0.18309854 0.58314335 0.79146618 0.0026801964
0.031576212 0.031182671 0.012996723 -0.1885336 0.53795588 0.82161939 0.002794449
0.03446101 0.031280912 0.01357206 -0.17725971 0.45195088 0.87425369 0.0026161249
0.037521664 0.031419095 0.014109313 -0.15718774 0.38593596 0.90903538 0.0025274099
0.040473457 0.031599462 0.014515479 -0.12666617 0.32210368 0.93819243 0.0025498457
0.043289643 0.031907324 0.014769261 -0.11575967 0.26150751 0.95823455 0.002533253
0.046065312 0.032335326 0.014908179 -0.044891737 0.17408992 0.983706 0.002696506
0.049947683 0.031816818 0.014912317 0.067683175 0.040680513 0.99687719 0.0034408921
0.052499264 0.03141259 0.014647105 0.15480086 -0.033783205 0.98736793 0.0035409618
0.055454362 0.031530648 0.013931151 0.28251639 -0.14307354 0.94853276 0.0025542695
0.05835909 0.031477898 0.012858406 0.37886271 -0.22394495 0.89794856 0.0012126397
0.060318481 0.032375101 0.012206741 0.46257964 -0.2565403 0.84865016 0.0020090765
-0.060507108 0.035194721 0.012289349 -0.56238103 -0.26829165 0.78214264 0.0024465008
-0.058487162 0.034544613 0.013375769 -0.48846617 -0.2294057 0.84188706 0.0028733935
-0.056100477 0.034491736 0.014624524 -0.41451466 -0.14740138 0.89802587 0.0030072154
-0.036828976 0.035665762 0.014811168 0.22615586 0.52495015 0.82053691 0.0012302726
-0.034335949 0.035163309 0.014417301 0.25111255 0.53927594 0.80381835 0.0013090557
-0.031473115 0.034561411 0.013881464 0.25248292 0.58090013 0.77382642 0.00095843105
-0.02869907 0.034205277 0.013150728 0.28554183 0.63802242 0.71511757 0.0016424913
-0.025917582 0.033588465 0.012663185 0.27655771 0.65456522 0.70360512 0.0018555751
-0.023720093 0.033209424 0.012176186 0.26443437 0.68115985 0.68271208 0.00086070306
0.034915272 0.033326734 0.012405366 -0.22693437 0.59643698 0.76991153 0.0027395564
0.037664864 0.034063075 0.012736176 -0.23677626 0.52487051 0.81758666 0.0035675743
0.040519223 0.034476552 0.013296218 -0.21817234 0.45591003 0.86287123 0.003019531
0.043507602 0.034466974 0.013955205 -0.16571714 0.35533985 0.91993016 0.0017273322
0.046459328 0.034430917 0.014400211 -0.084779575 0.27718362 0.95706928 0.0029513743
0.049496349 0.034508381 0.014617528 -0.013988294 0.19042476 0.98160213 0.0038579442
0.05247952 0.034447014 0.014597758 0.09238933 0.09473452 0.99120611 0.0039676684
0.055319682 0.034516323 0.014229137 0.21774051 -0.0040834448 0.9759981 0.0050116195
0.058442105 0.034498226 0.01337308 0.31964472 -0.090846337 0.94317245 0.0021082775
0.060977414 0.034729455 0.012398488 0.40462101 -0.14578304 0.90278965 0.0023222689
-0.060927045 0.037708893 0.012602645 -0.51202667 -0.13433352 0.84840041 0.0036150373
-0.058519602 0.037529279 0.01385663 -0.39172572 -0.03717852 0.91933054 0.0038665775
-0.056216698 0.03769182 0.014753493 -0.31427276 0.013697131 0.94923395 0.0045274324
-0.045405217 0.038717806 0.014956159 0.12516706 0.47668085 0.87011987 0.0025632232
-0.043244243 0.03849861 0.014715633 0.1863326 0.50565565 0.84237313 0.0015294133
-0.040318351 0.037966613 0.014287937 0.22659348 0.54276508 0.80874062 0.001266595
-0.037509967 0.037499841 0.013713802 0.25797164 0.57654011 0.77527547 0.0010105289
-0.034695338 0.037104845 0.01300222 0.28693017 0.62928069 0.72227198 0.0015852443
-0.031963471 0.036506038 0.012430049 0.30016202 0.66372257 0.68510956 0.0010790081
0.04091436 0.036397811 0.012298197 -0.2752167 0.55779594 0.78301942 0.0028208669
0.043658301 0.037146468 0.012700076 -0.23667642 0.48358354 0.84269285 0.003467802
0.046512853 0.037581511 0.01319243 -0.18322402 0.40925011 0.89383638 0.002888256
0.049463045 0.037534576 0.013742789 -0.10818839 0.33496696 0.93599808 0.0026566524
0.052432615 0.037468981 0.014027573 -0.03239134 0.27040952 0.9622004 0.0037364848
0.055345166 0.037560496 0.013966837 0.088389799 0.18295266 0.97914028 0.0055844006
0.058365241 0.037501395 0.013510481 0.2388664 0.05512023 0.96948677 0.0044875001
0.061277431 0.037589055 0.012579552 0.34729072 -0.027989734 0.93733966 0.0029781954
-0.06119014 0.04058636 0.012689582 -0.43604636 0.014688824 0.89980429 0.0043642679
-0.058536023 0.040537823 0.013782381 -0.30811486 0.12174685 0.94352692 0.0056338417
-0.055590019 0.040527876 0.014490806 -0.18555461 0.22615412 0.95625508 0.0057304706
-0.052613121 0.040889189 0.014638004 -0.017200552 0.34058678 0.94005573 0.0036781246
-0.049475402 0.040880855 0.014472752 0.10350405 0.44739553 0.88832659 0.0023382946
-0.046442833 0.040569399 0.014136046 0.16453902 0.51249355 0.84277946 0.0012543467
-0.043548923 0.04043299 0.01348387 0.24322064 0.57155502 0.78368908 0.0012908791
-0.04068939 0.039991308 0.01287322 0.27235574 0.61670256 0.73857993 0.0013605709
-0.038163386 0.039427426 0.012372687 0.30222559 0.63924295 0.70712668 0.0012222789
0.047022697 0.039539818 0.012299598 -0.25171888 0.52125126 0.81543529 0.0025439414
0.04965898 0.040193994 0.012604601 -0.18558036 0.45311531 0.87192106 0.0030110106
0.052483778 0.04059574 0.012929652 -0.12253767 0.36967766 0.92104447 0.0027596627
0.055480808 0.040556051 0.013225362 -0.0048054601 0.29156122 0.95654011 0.003367085
0.05841532 0.040600512 0.013108428 0.13004348 0.19565728 0.97201174 0.0050080041
0.061297361 0.040525887 0.01252811 0.26973501 0.090371229 0.95868456 0.0034641318
0.06302762 0.041118216 0.012019404 0.42384353 0.031890299 0.90517384 0.003451244
-0.061182614 0.043436233 0.012457664 -0.33810237 0.16412623 0.9266873 0.0040457919
-0.058479518 0.043519109 0.013180674 -0.18766347 0.26044255 0.94707555 0.0053677782
-0.055479947 0.043473501 0.013528581 -0.056960683 0.37548381 0.92507696 0.004313854
-0.052536111 0.043467063 0.013437499 0.082801521 0.47542027 0.87585366 0.002772117
-0.049641166 0.043387834 0.013028518 0.1728148 0.5320133 0.82891303 0.0027691107
-0.046729416 0.042856652 0.012666054 0.22895481 0.59600908 0.76964462 0.0021261626
-0.044387747 0.042321909 0.012311372 0.27586874 0.62960732 0.7262857 0.0015397175
0.053291366 0.042563204 0.012155031 -0.19020599 0.48621279 0.85288852 0.0026215974
0.055675715 0.042930085 0.012355044 -0.094529949 0.40947208 0.90741211 0.0032395693
0.058544826 0.043198198 0.012393657 0.036412936 0.31469578 0.9484939 0.0036223091
0.060992133 0.043056831 0.012216124 0.17929927 0.24433291 0.9529708 0.0070938044
-0.060614809 0.045522843 0.01214045 -0.25532645 0.31541231 0.91396034 0.0046824482
-0.05839783 0.045748603 0.012389817 -0.093850367 0.40974188 0.90736085 0.0039071017
-0.055565894 0.045724448 0.012448461 0.036880147 0.49342912 0.86900383 0.0031322043
-0.052832555 0.04543148 0.012314727 0.14538524 0.55252719 0.82071728 0.0025415011
-0.050960056 0.045297794 0.012042133 0.1791811 0.59380925 0.78440082 0.0012152661
-0.018615674 0.011725388 0.015084662 -0.11599702 -0.57244402 0.81169736 0.001057979
-0.016214347 0.011573779 0.015154409 -0.08715035 -0.54308641 0.83514184 0.0016090634
-0.013273798 0.011460677 0.015325657 -0.047077939 -0.50682503 0.86076242 0.0018642071
-0.010545518 0.011426017 0.015421949 -0.021360276 -0.47886929 0.87762636 0.0019827399
-0.0074967775 0.011256001 0.015380278 0.00022016745 -0.45474237 0.89062303 0.0020137543
-0.0044664992 0.01127481 0.015360583 0.016224992 -0.43472022 0.90041935 0.0020228231
-0.0015440769 0.011297955 0.015299827 0.029157251 -0.42337903 0.90548331 0.0022992019
0.0014742921 0.011397776 0.01522601 0.039616141 -0.40683389 0.91264272 0.0019682148
0.0044724192 0.011569406 0.015142026 0.045921464 -0.40422669 0.91350532 0.0019833499
0.0073908172 0.01180926 0.015088507 0.05077358 -0.36488235 0.92966819 0.0019316828
0.0098352265 0.011763889 0.015030366 0.064601608 -0.41128626 0.90921414 0.0015497176
-0.030179221 0.014920197 0.015085587 -0.20651042 -0.59944963 0.7733134 0.001618294
-0.028107412 0.014598121 0.015284218 -0.17206733 -0.55544674 0.81355494 0.0014814227
-0.025337154 0.014223806 0.01556756 -0.13604885 -0.52599549 0.83953524 0.0022484029
-0.022417426 0.013857492 0.015784571 -0.096084923 -0.48526308 0.86907274 0.0022746993
-0.019503944 0.013530741 0.015929757 -0.069872178 -0.4363406 0.89706457 0.0022935178
-0.016498225 0.013400193 0.016099924 -0.051453877 -0.3975966 0.91611648 0.0027906876
-0.013500288 0.013511078 0.01625488 -0.014742197 -0.35006875 0.93660802 0.0027434726
-0.010496886 0.013569816 0.01630033 0.010791979 -0.31556985 0.94884098 0.0028939729
-0.0074774711 0.013463086 0.01621622 0.024317453 -0.28531316 0.95812577 0.0028337662
-0.0044849701 0.013496924 0.016137382 0.032818187 -0.26027599 0.96497637 0.002611439
-0.0014213109 0.013459287 0.016006591 0.040143266 -0.24296114 0.96920502 0.0024954251
0.0014468859 0.013532092 0.015893685 0.04355688 -0.23168942 0.97181416 0.0022057521
0.0044753971 0.013521056 0.015738497 0.042717315 -0.22750689 0.97283906 0.0019855138
0.0075128977 0.013535947 0.015590015 0.043417141 -0.22718562 0.97288322 0.0016295384
0.010464344 0.013562742 0.015441758 0.048733719 -0.23553263 0.97064382 0.0014947263
0.013396925 0.013812209 0.015335691 0.050600249 -0.25781399 0.96486866 0.0017153099
0.016466632 0.014142342 0.015228946 0.063156165 -0.27896708 0.95822161 0.0018621067
0.019347107 0.014516793 0.015119256 0.072432898 -0.29042631 0.95415199 0.0014603417
0.021553595 0.014842255 0.015042866 0.08742059 -0.3149344 0.94507879 0.0013072197
-0.036586087 0.017728431 0.015194215 -0.27191067 -0.56518471 0.7788651 0.0019747289
-0.034399331 0.0172609 0.015513388 -0.21655081 -0.52649152 0.82213891 0.0025602384
-0.031453963 0.016654534 0.01585732 -0.18640745 -0.49632922 0.84788543 0.0018054742
-0.0284917 0.016617695 0.016385809 -0.12499672 -0.42149141 0.89817637 0.002683399
-0.025538215 0.016536891 0.016733058 -0.083313912 -0.38202712 0.92038792 0.0034613432
-0.022563944 0.016554831 0.016979448 -0.049522623 -0.33546618 0.9407497 0.003953693
-0.01947061 0.016470948 0.017074309 -0.027766781 -0.28892779 0.95694816 0.0048437454
-0.016472653 0.016495539 0.017097689 0.0062409691 -0.23873593 0.97106445 0.0047403779
-0.013544734 0.016427236 0.017032566 0.028125184 -0.18857166 0.98165655 0.0048478576
-0.010528567 0.016526809 0.016923234 0.045778096 -0.14523594 0.98833746 0.0047342246
-0.0074518672 0.016520111 0.016764132 0.054906085 -0.11353618 0.99201554 0.004887192
-0.0044594985 0.016490487 0.016595336 0.054876376 -0.089142449 0.994506 0.0047389935
-0.0015865387 0.016479328 0.016437164 0.052240677 -0.072892234 0.99597073 0.0046355971
0.0014422549 0.016540272 0.016289601 0.048440237 -0.034418616 0.9982329 0.0046033142
0.0045308489 0.016521038 0.016151406 0.042505872 -0.034509327 0.99850005 0.0041861818
0.0075352457 0.016470494 0.016035365 0.035422117 -0.06685432 0.99713379 0.0035590034
0.010479767 0.016476644 0.015926799 0.03262784 -0.078228831 0.99640137 0.0032065411
0.013498388 0.016462432 0.0158081 0.030512549 -0.096484244 0.99486667 0.0026916901
0.016524134 0.016519248 0.01568293 0.035081886 -0.11633874 0.99258983 0.0021656184
0.019508518 0.016517542 0.01552406 0.048680298 -0.14554688 0.98815304 0.0015659174
0.022403533 0.016581632 0.015363154 0.054531056 -0.17585796 0.98290408 0.001491672
0.025300629 0.016992988 0.015258177 0.061731763 -0.21007167 0.97573519 0.0019042388
0.028037542 0.017440144 0.015149278 0.076650545 -0.26211518 0.96198767 0.0021604206
0.030977303 0.017806713 0.015049266 0.093015932 -0.29251435 0.95172656 0.0017605193
-0.042195663 0.020708092 0.015099375 -0.34450233 -0.52322757 0.77945566 0.0017074124
-0.040229846 0.020186113 0.015488952 -0.28913146 -0.48000652 0.82824922 0.002641523
-0.03751497 0.019596472 0.016012684 -0.25620437 -0.46947902 0.84495485 0.0016406351
-0.034433644 0.019512117 0.016709065 -0.16217391 -0.39453137 0.90445822 0.0031317265
-0.03148843 0.019460823 0.017161397 -0.11464312 -0.32612678 0.93834871 0.0042573493
-0.028514689 0.019565562 0.017476207 -0.063695244 -0.26926047 0.96095884 0.0049898797
-0.025494009 0.019558035 0.017604783 -0.020444531 -0.20359673 0.97884136 0.0053360108
-0.022557421 0.019518657 0.017605068 0.01194209 -0.12082957 0.99260145 0.0043212087
-0.019562745 0.019489171 0.017510938 0.047534283 -0.0081891073 0.99883604 0.0042899954
-0.016453775 0.019513033 0.01733648 0.056657918 0.030146308 0.99793839 0.0027074318
-0.013522008 0.019427076 0.017121471 0.07727211 0.13671134 0.98759258 0.0055852309
-0.010573566 0.01950665 0.016869983 0.085936196 0.16706873 0.98219293 0.0043367683
-0.0074733482 0.019497341 0.016604392 0.078904122 0.19142027 0.97833151 0.0033649902
-0.004428267 0.019526696 0.016353989 0.071856298 0.20643082 0.97581911 0.0030672094
-0.0015186328 0.01944737 0.016163612 0.055824336 0.21281224 0.97549707 0.0028557458
0.0014621383 0.019472292 0.015990049 0.043785896 0.21048139 0.9766168 0.0026388622
0.0044844681 0.019464245 0.015867425 0.031463757 0.20255707 0.97876483 0.0026849348
0.0075583439 0.019529762 0.015775001 0.019852867 0.18323213 0.98286921 0.0026369041
0.010506329 0.019510454 0.015743673 0.011302941 0.16187325 0.98674685 0.0029251154
0.013492164 0.019518735 0.015734658 0.0062436638 0.13422096 0.99093175 0.0031642728
0.016505247 0.019469906 0.015742615 0.0070174993 0.096636012 0.99529505 0.0033004778
0.01945891 0.019635404 0.015720475 0.006986103 0.058615539 0.99825615 0.0035178761
0.022405783 0.019544492 0.0156778 0.011430526 -0.017408501 0.9997831 0.0026712932
0.025460236 0.019501269 0.015586729 0.02464623 -0.06805528 0.9973771 0.0020647254
0.028514236 0.019504761 0.015452407 0.052562151 -0.12186806 0.9911536 0.0014231697
0.031425521 0.019528551 0.015312918 0.053485099 -0.14419757 0.98810244 0.0022095873
0.03442337 0.020026369 0.015214981 0.062976785 -0.19838405 0.97809905 0.0023239602
0.036936689 0.020460069 0.015107778 0.10501794 -0.26317868 0.95901418 0.0025000267
-0.045616835 0.023577141 0.015313678 -0.3544361 -0.47194478 0.80724418 0.0027340802
-0.043355808 0.022716036 0.015733518 -0.30815801 -0.42575514 0.85074735 0.0029371344
-0.04047348 0.022498233 0.01654383 -0.22767304 -0.35167974 0.90801227 0.0034094455
-0.037496369 0.022476777 0.017206814 -0.16402958 -0.29321006 0.94187158 0.0043391478
-0.034504265 0.022465475 0.017619973 -0.096609607 -0.21711639 0.97135329 0.0049619777
-0.0315332 0.022289099 0.017807087 -0.036495291 -0.10802729 0.99347782 0.0058633275
-0.028456969 0.022466799 0.01785882 0.023900155 -0.033364337 0.99915749 0.0044596125
-0.02551336 0.022508612 0.017756294 0.05478831 0.056586921 0.99689323 0.0032861286
-0.022474498 0.022521166 0.017540725 0.081352569 0.16271423 0.98331374 0.0047979741
-0.019534362 0.022431785 0.017271265 0.10667973 0.22938131 0.96747279 0.0048348154
-0.016491104 0.022521624 0.0168925 0.11727049 0.26917812 0.95592409 0.0038372392
-0.013408204 0.022498002 0.016499134 0.11369593 0.29907256 0.94743276 0.0028797239
-0.010528423 0.022503829 0.016126001 0.10574304 0.32142696 0.94101179 0.0023763205
-0.0075331307 0.022492282 0.015760228 0.097832561 0.34331912 0.93410957 0.0019753801
-0.0045527127 0.022241069 0.015527308 0.085914165 0.36194378 0.92823249 0.0019905763
-0.0014965977 0.021894643 0.015406734 0.065243743 0.37936026 0.92294586 0.0022211508
0.0013867662 0.021693775 0.015311253 0.045429163 0.38865173 0.92026412 0.0023603886
0.0044407272 0.021530574 0.015267216 0.024246547 0.39207888 0.91961205 0.00254715
0.007551258 0.021547226 0.015226397 0.0045716488 0.38099757 0.92456478 0.0026260393
0.010570571 0.021661632 0.015211716 -0.011644716 0.36368456 0.93144935 0.0029459882
0.013626177 0.021755131 0.015248132 -0.025221936 0.32785708 0.94439065 0.0031118451
0.016543327 0.021944785 0.015300013 -0.034307562 0.28586122 0.95765674 0.0031959293
0.019560792 0.02230007 0.015343782 -0.036450919 0.22236183 0.97428256 0.0030343756
0.022519881 0.02244469 0.015441317 -0.033659518 0.16903381 0.98503536 0.0023209937
0.025487689 0.02250774 0.015523203 -0.018203588 0.1101927 0.99374354 0.0030460416
0.028508268 0.022529194 0.015546348 0.0022129947 0.061107274 0.99812877 0.0022313625
0.031463295 0.022425251 0.015539244 0.0150039 0.0049707019 0.99987513 0.0023021654
0.034558002 0.022508414 0.015494396 0.015979303 -0.054119628 0.99840665 0.0018913206
0.037591014 0.02246199 0.015378375 0.058047995 -0.11714348 0.99141705 0.0020665985
0.040409561 0.022782838 0.015233538 0.075902075 -0.16735186 0.98297113 0.0027119408
0.042802557 0.023503369 0.015108866 0.15051319 -0.24148698 0.95866048 0.0031929975
-0.048747379 0.026263403 0.015337444 -0.37768719 -0.40404549 0.83312649 0.0032168571
-0.046430707 0.025599681 0.015930735 -0.32131949 -0.36416447 0.87414986 0.0025387965
-0.043500394 0.025548479 0.016808027 -0.22656439 -0.27040681 0.93570757 0.0042868452
-0.040506538 0.025480701 0.017412299 -0.16022447 -0.217997 0.96270734 0.0064451066
-0.037457127 0.025483346 0.017767487 -0.087076373 -0.092096098 0.99193549 0.0058887028
-0.03454544 0.025632307 0.017871859 0.0042022644 0.034456007 0.9993974 0.0038989298
-0.031415384 0.025610218 0.01779861 0.04859085 0.10726694 0.99304211 0.0031892892
-0.028508857 0.025492311 0.01759042 0.10045435 0.18882151 0.97685987 0.0050695804
-0.025491709 0.025440564 0.017267322 0.11314165 0.27689633 0.95421559 0.0037017167
-0.022507139 0.025515072 0.016820768 0.13549303 0.33624065 0.93197846 0.0031020145
-0.019507758 0.025449986 0.016348431 0.15347104 0.38065305 0.91189361 0.0021994214
-0.016592624 0.025376102 0.015865598 0.16248155 0.42592728 0.89004815 0.0018350204
-0.013705659 0.024957137 0.015561878 0.1397002 0.45263994 0.88068211 0.0022689353
-0.0105603 0.024508482 0.015281486 0.13179864 0.47931898 0.86768806 0.0019248292
-0.0085865203 0.024177954 0.015191306 0.11795527 0.47371531 0.87274301 0.0034158479
0.02075978 0.024060924 0.015027229 -0.059565902 0.26669478 0.96193862 0.0023480323
0.023205504 0.024179026 0.015079456 -0.073933184 0.27086022 0.95977527 0.0016809449
0.02578417 0.02462074 0.015158114 -0.066874251 0.29528078 0.95306724 0.0035455425
0.028644023 0.025036737 0.01523647 -0.04641974 0.21268564 0.97601742 0.0028558814
0.031545237 0.025374139 0.015304461 -0.047867645 0.16653669 0.9848727 0.002109431
0.034465127 0.025421361 0.015398365 -0.033355694 0.11063439 0.99330127 0.0017338665
0.03753484 0.025519177 0.015469085 -0.0030683703 0.053298142 0.99857396 0.0018035844
0.040509969 0.025379933 0.015457991 0.026722176 -0.030082643 0.99919015 0.0021311722
0.043468203 0.025537206 0.0153137 0.063960962 -0.075928621 0.99505967 0.0027416283
0.045911148 0.026129147 0.015144221 0.14078479 -0.16279145 0.97656476 0.0040808874
0.048001308 0.026601631 0.015001773 0.20489618 -0.25370622 0.94533104 0.0028307729
-0.051630687 0.029172564 0.015268378 -0.38709131 -0.32553834 0.8626616 0.00349254
-0.049463149 0.028549036 0.015898816 -0.29813981 -0.25692993 0.91929305 0.0038262226
-0.046592247 0.028536715 0.016758246 -0.22826782 -0.1879252 0.95528948 0.0050663315
-0.043535739 0.02856344 0.017345065 -0.16767368 -0.13472258 0.97659373 0.0089615574
-0.040547367 0.028568 0.017629338 -0.049200349 0.046043269 0.9977271 0.0053174905
-0.037528086 0.028475722 0.01767722 0.015469691 0.14696838 0.98902023 0.0049981209
-0.034540299 0.028568521 0.017497005 0.086528145 0.24292043 0.96617931 0.0050132019
-0.031489152 0.028503122 0.017162986 0.12877549 0.30619892 0.94321752 0.0038669351
-0.028438156 0.02855142 0.016653797 0.15341057 0.37259817 0.91522443 0.0026978245
-0.025563037 0.028502742 0.016098125 0.17802216 0.42636874 0.8868584 0.0019962236
-0.022681825 0.028092267 0.015702747 0.17702924 0.46821249 0.86570072 0.0021810043
-0.019725511 0.027584786 0.015323865 0.1818625 0.4982135 0.84776735 0.0014128616
-0.017551733 0.027126884 0.015142542 0.18041353 0.5437063 0.81965506 0.0013781374
0.031995051 0.02716052 0.015074517 -0.091520116 0.34224969 0.93514132 0.0032015473
0.034753028 0.027424738 0.015102409 -0.072467931 0.2677899 0.96074808 0.0028385248
0.037557606 0.027923333 0.015190965 -0.048481479 0.18585478 0.98138046 0.0023156039
0.040514827 0.02833318 0.015275587 -0.02792793 0.11376914 0.99311459 0.0019215128
0.043453183 0.028479101 0.015329379 -0.010959431 0.067033738 0.99769056 0.0018398073
0.046459988 0.02845487 0.015246988 0.048473492 -0.031852715 0.99831647 0.002096365
0.048660964 0.028995605 0.015091741 0.12539934 -0.063796617 0.99005306 0.0048209131
-0.054273296 0.032615751 0.015098713 -0.42911845 -0.23718984 0.87154937 0.0032460603
-0.052372936 0.031610403 0.015616439 -0.32020804 -0.18636914 0.92883444 0.0033124152
-0.04951252 0.03152677 0.016464904 -0.23396409 -0.072856508 0.96951157 0.0040099337
-0.046567291 0.031510424 0.017006364 -0.1572376 0.0040735803 0.98755246 0.0063016936
-0.043494556 0.031497888 0.017260745 -0.041309889 0.13573867 0.98988312 0.0065257265
-0.040537287 0.031495553 0.017238291 0.050873358 0.25640365 0.96523005 0.0054357648
-0.037530988 0.031478696 0.01699085 0.10482942 0.32525173 0.93979901 0.0040429798
-0.034502029 0.031531055 0.016521303 0.14332743 0.38033393 0.91367579 0.0029215412
-0.031609476 0.031424787 0.015962133 0.20507553 0.45249638 0.86786574 0.0016941214
-0.028753577 0.030902691 0.015554659 0.19843391 0.49605697 0.84531146 0.0021808562
-0.026217753 0.030437456 0.015170881 0.2138716 0.54004568 0.81400841 0.0014409894
0.04140716 0.030160064 0.015031576 -0.086528704 0.25958106 0.96183705 0.0017944602
0.043692499 0.030536061 0.015104722 -0.048528679 0.19337837 0.97992337 0.0023299337
0.046579301 0.030997187 0.015132286 -0.0056808088 0.11041467 0.99386942 0.0020524673
0.048998624 0.031067088 0.015077929 0.054128233 0.055479869 0.99699157 0.0023980995
0.051146854 0.031545855 0.015007907 0.14734934 -0.0075875879 0.9890554 0.0034155741
-0.054663878 0.034702577 0.015230658 -0.32736924 -0.068114951 0.94243819 0.0042131529
-0.052551519 0.034416899 0.01584854 -0.25423613 -0.046869248 0.9660058 0.0031176086
-0.049535185 0.0344599 0.016425923 -0.13313471 0.12224364 0.98353016 0.0049375338
-0.046530992 0.03446785 0.016650978 -0.028493881 0.22877821 0.97306138 0.0048935357
-0.043552164 0.034433629 0.016596444 0.04699818 0.30559507 0.95100093 0.0035465306
-0.040519986 0.034418836 0.016284773 0.13888535 0.39480489 0.908207 0.0017592808
-0.037606422 0.034313168 0.015807686 0.20188083 0.46628162 0.86129302 0.0012500224
-0.034714714 0.033700895 0.01547446 0.2033072 0.50147945 0.84094268 0.0022333199
-0.032417312 0.033192884 0.015149064 0.23198341 0.54836661 0.80341637 0.0014516424
0.049211342 0.03319573 0.015003945 0.017345607 0.094256222 0.99539691 0.0021644328
-0.054769754 0.037243132 0.015202202 -0.23373449 0.1009047 0.96705037 0.0042320266
-0.052545812 0.037392255 0.015605266 -0.13436306 0.15854309 0.978167 0.0031507199
-0.049527492 0.037416629 0.015835056 -0.050464422 0.25013956 0.96689373 0.0035067126
-0.046568234 0.037442755 0.015738843 0.06581568 0.33374789 0.94036192 0.0033329043
-0.043641344 0.03703966 0.015559648 0.12282827 0.42714733 0.89580041 0.0027901737
-0.04080528 0.036547508 0.015320908 0.17951371 0.47266975 0.86276191 0.0020589612
-0.038920347 0.036123555 0.015130215 0.21856444 0.5410524 0.81209099 0.0014597595
-0.054380588 0.0391277 0.015043328 -0.19741791 0.17374875 0.96479928 0.0050581475
-0.052412465 0.039370779 0.015174034 -0.088567689 0.27144852 0.9583692 0.0041491757
-0.049726665 0.039377768 0.015190154 0.041042227 0.37153408 0.92751169 0.0027102381
-0.047449425 0.039236572 0.015074711 0.12039185 0.46298239 0.8781532 0.0024032027
-0.033541478 0.023938328 0.01801689 -0.057697855 -0.074077025 0.99558204 0.0022279485
-0.031226099 0.023291919 0.018017368 0.0057849912 0.0049255099 0.99997121 0.0024809048
-0.029145479 0.023029024 0.018007169 -0.0061864527 -0.067124963 0.99772543 0.0040907171
-0.034164805 0.025055129 0.018017692 -0.017850963 0.018759154 0.99966466 0.0022937448
-0.032020062 0.024463683 0.018028803 0.011943682 -0.0023743673 0.99992585 0.002493521
