# .PCD v0.7 - Point Cloud Data file format
VERSION 0.7
FIELDS x y z normal_x normal_y normal_z curvature
SIZE 4 4 4 4 4 4 4
TYPE F F F F F F F
COUNT 1 1 1 1 1 1 1
WIDTH 553
HEIGHT 1
VIEWPOINT 0 0 0 1 0 0 0
POINTS 553
DATA ascii
0.015395916 0.0026231389 -0.0066082724 0.11222032 -0.94420499 -0.30965084 0.0014414347
-0.019764669 0.0054262895 -0.0067307735 -0.2972748 -0.87371325 -0.38503614 0.0010673978
-0.016463047 0.0046344963 -0.0070762765 -0.2499132 -0.88064492 -0.40250215 0.0010865848
-0.013527287 0.0037052585 -0.0067047989 -0.20699288 -0.908526 -0.36295244 0.0017064193
-0.010518875 0.0033626726 -0.0071536512 -0.15453519 -0.87780219 -0.45341188 0.00096458878
-0.0058273138 0.003361654 -0.0082022138 -0.12044329 -0.87993854 -0.45956674 0.0010169643
0.014329406 0.0030846649 -0.007799902 0.11222207 -0.94420451 -0.30965149 0.0014413088
0.029835196 0.0055444017 -0.0062055113 0.28883696 -0.92198306 -0.25791559 0.00073251512
-0.027983267 0.0085012913 -0.0067132879 -0.32773095 -0.84097439 -0.43052822 0.00090683711
-0.025446273 0.0076103974 -0.006904155 -0.32097444 -0.84148341 -0.43460459 0.0011642879
-0.022593575 0.0067673796 -0.0072914292 -0.32558262 -0.84058803 -0.43290609 0.0010269212
-0.019834017 0.0063678077 -0.0082120029 -0.28871518 -0.84779626 -0.44484279 0.00072801363
0.031046435 0.0063521182 -0.0071369582 0.29846194 -0.92051297 -0.2521435 0.00085358345
0.034594059 0.0071030688 -0.0061147674 0.32126594 -0.9107002 -0.25964093 0.0010979226
0.037777003 0.0083087571 -0.0060027773 0.36936414 -0.90022218 -0.23058671 0.00052834617
-0.036506332 0.011969317 -0.006455732 -0.38240576 -0.81784552 -0.42999369 0.0016202102
-0.034490667 0.011275463 -0.0068602795 -0.36325061 -0.82517266 -0.43259576 0.0011011078
-0.031551436 0.0102126 -0.0071941493 -0.35198781 -0.82549769 -0.44120079 0.00092172401
-0.028852552 0.0094070844 -0.0076596485 -0.34656572 -0.82656878 -0.44348195 0.00085926824
-0.026645318 0.0092915352 -0.0088855876 -0.33143115 -0.82433188 -0.45894483 0.00073151715
0.040555347 0.0095690629 -0.0061289282 0.39516014 -0.89355868 -0.21307589 0.00080091303
-0.042198487 0.014872489 -0.0063112141 -0.47808692 -0.76591414 -0.42989361 0.0013501761
-0.040269531 0.014262237 -0.0071049016 -0.44534895 -0.7895841 -0.42216259 0.00090336479
-0.037694052 0.012920743 -0.007138011 -0.40230623 -0.80848396 -0.42953873 0.0011038631
-0.035562858 0.012255778 -0.0077555901 -0.36533371 -0.8212617 -0.43824705 0.0012572306
-0.045694862 0.017587192 -0.006930782 -0.52310473 -0.73833978 -0.42569464 0.0013607977
-0.043738671 0.016412605 -0.0071566375 -0.49245533 -0.75504565 -0.43289018 0.00086767244
-0.041503888 0.015624743 -0.0081954431 -0.44329864 -0.75265366 -0.48682529 0.00066308561
-0.049197655 0.020238958 -0.0070546614 -0.54319036 -0.72237426 -0.42792469 0.0011281769
-0.047093578 0.018982757 -0.0074692918 -0.52151763 -0.72345167 -0.45236826 0.0014264656
-0.054128557 0.023655828 -0.006570471 -0.55224609 -0.71331394 -0.43151772 0.0010307162
-0.052516244 0.022844486 -0.0071831597 -0.54599571 -0.72179717 -0.42532054 0.0015271623
-0.050637372 0.021479152 -0.0072799446 -0.53269464 -0.71766371 -0.44854805 0.0018892619
-0.05734425 0.026410218 -0.0067585707 -0.60224372 -0.66509914 -0.44152635 0.0013489551
-0.055460349 0.025117517 -0.0071947034 -0.57005447 -0.69342142 -0.44068655 0.001553075
-0.053527012 0.024378914 -0.0083474368 -0.51254225 -0.6644969 -0.5438239 0.00057639368
-0.06070115 0.029368397 -0.0062993709 -0.64670742 -0.61837369 -0.44652379 0.00093515374
-0.058678504 0.027807549 -0.0069610388 -0.64672947 -0.64523149 -0.40671521 0.0016548428
-0.05652348 0.027156878 -0.0086761601 -0.55724609 -0.61688781 -0.55581135 0.0004180976
-0.063569337 0.032642245 -0.0062786746 -0.67976123 -0.53329551 -0.50350821 0.0016830257
-0.062113833 0.031397741 -0.0068377904 -0.68840849 -0.60493428 -0.40018523 0.0020027251
-0.059790637 0.030484274 -0.0087542636 -0.61323893 -0.54564381 -0.57114875 0.00050794933
-0.013757102 0.032864179 -0.0085053779 0.23270392 0.88729 -0.39820272 0.0012712952
-0.0098467283 0.032237835 -0.0079971282 0.17055339 0.8989169 -0.40355912 0.00087268488
-0.0073951609 0.032345962 -0.0069125225 0.12660377 0.92926276 -0.3470479 0.0016315391
-0.0058687092 0.032484271 -0.0061286232 0.11213423 0.94024217 -0.32151303 0.00094287569
-0.0019067604 0.031452101 -0.0071317675 0.10823461 0.94579488 -0.30619833 0.0013096671
0.0016655819 0.031290859 -0.006952872 0.060141843 0.94417584 -0.32390577 0.0012839154
0.0041549802 0.031031931 -0.0073344214 0.01472021 0.92487323 -0.37999058 0.0024981503
0.0078589367 0.031493012 -0.0066052303 -0.035011873 0.95030665 -0.30934024 0.0024523102
0.010536218 0.031677656 -0.006637509 -0.099251457 0.92539513 -0.36577734 0.0022937355
0.013742521 0.031489637 -0.0077459468 -0.13684385 0.9019509 -0.40958318 0.0014370999
0.016397696 0.032242127 -0.0072581824 -0.19079934 0.8851245 -0.42444098 0.0013238015
0.019055054 0.032438099 -0.0081066256 -0.2195708 0.8735767 -0.43434128 0.0012338519
0.021146491 0.032911688 -0.0082718357 -0.21137403 0.87895632 -0.42750072 0.00094276998
-0.064533278 0.034532756 -0.0069470601 -0.73237348 -0.5356577 -0.42035678 0.0014477739
-0.062766872 0.033491433 -0.0081723481 -0.67316985 -0.49919495 -0.54557014 0.0010394189
-0.018772736 0.035620727 -0.0061699562 0.32832152 0.90574366 -0.26801765 0.0010397102
-0.016453603 0.034398541 -0.0071696774 0.31641015 0.89953667 -0.30119517 0.0016844737
-0.014461627 0.03344227 -0.0078853685 0.25227445 0.89095813 -0.37755963 0.00085499772
0.019606754 0.033353165 -0.0066559319 -0.22302708 0.88114244 -0.41694954 0.0010912514
0.022726299 0.03394486 -0.0071846377 -0.24243593 0.86683261 -0.43569034 0.0012398128
0.025630403 0.034684144 -0.0074671111 -0.28726414 0.85628366 -0.42925233 0.0015987401
0.028297294 0.035461977 -0.0076657636 -0.30632445 0.85764402 -0.41305211 0.0014951604
0.030583855 0.035937633 -0.0083107688 -0.3117066 0.84229666 -0.43974456 0.0014954071
-0.067250237 0.038055934 -0.0064268638 -0.7684468 -0.47905007 -0.42426476 0.0017989365
-0.065409362 0.037015349 -0.0079152929 -0.71836084 -0.42111582 -0.5537321 0.0025265377
-0.026511423 0.038312271 -0.0067295246 0.38128749 0.88964611 -0.25129592 0.00085484679
-0.022775954 0.036716286 -0.0068868846 0.3473292 0.90531307 -0.24448036 0.0010119082
0.029033251 0.036288843 -0.006511502 -0.30135405 0.86734736 -0.39609888 0.0012911027
0.031577282 0.036919355 -0.0070943628 -0.31956223 0.85601139 -0.40635508 0.0013268212
0.034358669 0.037961379 -0.0073145805 -0.39005792 0.82483536 -0.40926954 0.0018195841
0.036631007 0.038670275 -0.0080683343 -0.42174661 0.79395849 -0.43790388 0.0015495988
-0.06925258 0.041612022 -0.0062416107 -0.74958462 -0.36352035 -0.55315089 0.0025625732
-0.068018794 0.040055625 -0.0068207495 -0.78227603 -0.39141741 -0.48459935 0.0022546966
-0.033908539 0.041593291 -0.0071092164 0.43781352 0.86209768 -0.25516075 0.0011870119
-0.031860709 0.040794812 -0.006688701 0.41985211 0.87133586 -0.25396466 0.0012109176
-0.029470367 0.039695852 -0.0065995799 0.39947352 0.8753494 -0.27236792 0.0010099901
0.035634913 0.039121225 -0.0062102666 -0.44714433 0.80201209 -0.39602858 0.0023359405
0.038100824 0.040198222 -0.0068327263 -0.46221787 0.80839574 -0.36448738 0.0017402698
0.040259436 0.04099682 -0.007610321 -0.46927211 0.7580874 -0.45286548 0.0017675823
-0.07006111 0.044101834 -0.006298915 -0.8218435 -0.30139962 -0.48345786 0.0018116137
-0.068209194 0.042761311 -0.0079001011 -0.7356391 -0.29881594 -0.60790139 0.002102267
-0.037355699 0.043563135 -0.0066761998 0.45545298 0.85490501 -0.24839494 0.0014215243
0.041355774 0.04238186 -0.0063378871 -0.46626633 0.76651376 -0.44164738 0.0012741084
0.043509752 0.043096177 -0.0073832599 -0.47060478 0.76528019 -0.43917805 0.0014190334
0.046118714 0.0443151 -0.0079290904 -0.47401625 0.7496798 -0.46183202 0.0014870949
-0.070258528 0.046273209 -0.0066933762 -0.79572219 -0.24032922 -0.5559389 0.00066223118
0.046890486 0.045520332 -0.0068048462 -0.4610787 0.76101202 -0.4563629 0.0013277115
0.049387723 0.046763688 -0.007152467 -0.44472346 0.7431668 -0.49992415 0.0018299697
0.051641054 0.047629926 -0.0077785891 -0.45927092 0.73204327 -0.50317287 0.0012127953
0.050662424 0.048160538 -0.0063012359 -0.46552685 0.73827398 -0.48809469 0.001330975
0.052641459 0.049183 -0.006554151 -0.46463826 0.74409938 -0.48002848 0.00089786772
0.054868825 0.049906038 -0.0072751762 -0.4644857 0.76035202 -0.45400202 0.0014158163
0.056450233 0.051399942 -0.0064970809 -0.45468131 0.7621845 -0.4608033 0.0012417585
0.058497921 0.052599899 -0.0063604414 -0.50335103 0.76602066 -0.39981261 0.0023996793
0.060653675 0.053913873 -0.0062277601 -0.5312947 0.75089771 -0.3922736 0.0047737155
-0.01576883 0.0028612008 -0.0032797293 -0.24629055 -0.93681204 -0.24844351 0.0016788844
-0.013547175 0.0025702494 -0.0040426552 -0.19702564 -0.94118959 -0.27448687 0.0015319025
-0.010685185 0.0020851961 -0.0042741317 -0.1815082 -0.94930559 -0.25665852 0.0019618252
-0.007731759 0.0015783398 -0.0041882885 -0.15781611 -0.95939142 -0.23379961 0.0019887807
-0.0047312761 0.0012369016 -0.0041983956 -0.10362344 -0.96845037 -0.22664103 0.0017874308
-0.0013153091 0.00093182997 -0.0040305462 -0.050158128 -0.98481953 -0.16617657 0.0028591887
0.0019950138 0.00085283502 -0.0041709617 -0.013933714 -0.98612982 -0.16539027 0.0031592757
0.0047355336 0.00074063923 -0.0037687388 0.0063157734 -0.98765892 -0.15649286 0.0033349327
0.0080270832 0.00091391813 -0.0039867326 0.039861161 -0.9827947 -0.18034872 0.0011267716
0.010883359 0.0012101107 -0.0042537418 0.079517402 -0.94860959 -0.30629545 0.0013806635
0.013372373 0.0014446174 -0.0042692493 0.10546362 -0.94768971 -0.30126676 0.0016303548
0.016728761 0.0019726509 -0.0044701439 0.12459859 -0.94841558 -0.29151866 0.001460625
0.019394936 0.002302432 -0.0041226619 0.12681969 -0.97081703 -0.20354624 0.003690209
0.021593407 0.0028759046 -0.0047180941 0.19471128 -0.96181834 -0.19233578 0.00020423933
-0.02444014 0.0057736775 -0.0034660012 -0.35545784 -0.89512336 -0.26907969 0.0021672188
-0.022384759 0.0052999291 -0.0043161032 -0.31429046 -0.90373963 -0.29064783 0.0018526298
-0.019446934 0.0042684888 -0.004263022 -0.29328206 -0.90399814 -0.31108364 0.0017944814
-0.016770853 0.0035626753 -0.0045747841 -0.26202729 -0.91315961 -0.31221986 0.0018663765
-0.014335108 0.0032073264 -0.0053016478 -0.22322512 -0.92459404 -0.30870122 0.0022267597
0.023160435 0.0032285403 -0.0047354591 0.22979468 -0.96060431 -0.15631309 0.00098763511
0.025836613 0.003718267 -0.0041430118 0.25738308 -0.94948244 -0.17954692 0.0016831615
0.028485129 0.0045491853 -0.0044661793 0.26980448 -0.93154383 -0.24378601 0.00084191904
0.032093778 0.0054702624 -0.0037954657 0.31284654 -0.93793881 -0.14965911 0.00089148834
0.033324886 0.0057510883 -0.0033054438 0.30762777 -0.91936779 -0.24521035 0.0011812469
-0.030908281 0.0085664615 -0.0040138741 -0.35790399 -0.88846248 -0.2872963 0.0021344372
-0.028781667 0.0078196945 -0.0043181032 -0.34881184 -0.89269853 -0.28534141 0.0012273194
-0.025524111 0.00640686 -0.0040302835 -0.35904336 -0.89672077 -0.25880462 0.00097531715
-0.022950139 0.0060645998 -0.0057353629 -0.32353517 -0.87094116 -0.36984664 0.0015767599
0.034562871 0.0063886018 -0.0039205598 0.34246019 -0.92582345 -0.15991218 0.0012050495
0.037702043 0.0075967419 -0.0039148713 0.38167799 -0.91136867 -0.15404205 0.00061346084
0.039888922 0.0085209878 -0.0039428752 0.39517432 -0.8935523 -0.21307653 0.0007966893
-0.037230909 0.011362694 -0.004088046 -0.40604824 -0.86477762 -0.2954396 0.0017524835
-0.034461852 0.010182136 -0.0043264451 -0.38900638 -0.87120414 -0.29946193 0.0020423054
-0.032056384 0.0093265697 -0.0048575466 -0.36429107 -0.87748814 -0.31194007 0.0019676134
0.041379716 0.00931725 -0.0044113928 0.3951343 -0.89357179 -0.21306896 0.00080765702
0.04357066 0.010221141 -0.0037540989 0.43829668 -0.88686424 -0.14617783 0.00090037787
0.046408162 0.011579489 -0.003423145 0.46662599 -0.87610948 -0.12121212 0.00092035462
-0.043243635 0.014597643 -0.0040009036 -0.50796336 -0.81249017 -0.28606474 0.0014278867
-0.040571183 0.013177533 -0.0044043818 -0.45845845 -0.84237605 -0.28322861 0.0012938714
-0.038477726 0.012261719 -0.0049694395 -0.42448246 -0.85591638 -0.29533333 0.0018713454
0.04738472 0.012366058 -0.0041873613 0.48396963 -0.87083232 -0.086164944 0.00073698378
0.04985211 0.01362144 -0.003611967 0.51204485 -0.85403001 -0.091885537 0.0011678359
-0.048111096 0.017792651 -0.0034709591 -0.57206976 -0.78580612 -0.23504214 0.0015511689
-0.046420515 0.016822822 -0.0042283037 -0.55885309 -0.78750873 -0.25983304 0.0015383171
-0.044371769 0.015416212 -0.0041679032 -0.53066403 -0.79648244 -0.28984722 0.0014427658
0.052716319 0.015474679 -0.0036830532 0.52891415 -0.84546608 -0.073736042 0.0017313689
-0.051664472 0.020624258 -0.0039465749 -0.57551962 -0.77472788 -0.26186606 0.0011400696
-0.049620509 0.019266916 -0.0044381111 -0.58792692 -0.76569879 -0.26085889 0.0013159601
-0.04763123 0.018073317 -0.0052343369 -0.56435412 -0.75871891 -0.32534599 0.0031330273
-0.054959465 0.02325633 -0.0043850089 -0.59076411 -0.76652688 -0.25186187 0.0012997148
-0.05308643 0.021762654 -0.0041374988 -0.58272874 -0.77089691 -0.25718698 0.0011936927
-0.058311224 0.025847714 -0.0040124687 -0.64780188 -0.71748948 -0.25604993 0.0013450554
-0.056467157 0.024451306 -0.0044545536 -0.61598122 -0.7398296 -0.27059051 0.001621582
-0.061306354 0.028715726 -0.0039989091 -0.70058495 -0.66836333 -0.24994221 0.0012973078
-0.059616461 0.027396364 -0.0048847627 -0.66748816 -0.68677449 -0.28775072 0.0015546093
-0.064066954 0.031785481 -0.003941033 -0.73637849 -0.62472546 -0.25973985 0.0015002424
-0.062588878 0.030453483 -0.004701558 -0.72956848 -0.64087355 -0.23876955 0.001278522
-0.004322723 0.032577522 -0.0054063224 0.13433604 0.94687951 -0.29218677 0.0018810848
-0.0011628764 0.032806873 -0.0036121556 0.097697042 0.98825169 -0.11753278 0.0014264779
0.001814223 0.032588761 -0.0036394158 0.042778514 0.98927099 -0.13968863 0.0014684455
0.0039987937 0.03244026 -0.0039408179 0.016817741 0.98383451 -0.17828852 0.0017193375
0.0076149874 0.032469839 -0.0040109847 -0.033473667 0.96806335 -0.24846111 0.0018903732
0.010216277 0.032663535 -0.0039689303 -0.078748778 0.97633809 -0.20140144 0.0015451215
0.01333184 0.03261435 -0.0051586777 -0.14144208 0.94208044 -0.30410302 0.002829364
0.015581602 0.032951213 -0.0053070895 -0.18605679 0.93468034 -0.30291173 0.0032880451
-0.066649005 0.035113391 -0.0039931796 -0.7747277 -0.57364231 -0.26595378 0.0014734956
-0.065283112 0.033632323 -0.0045287055 -0.74990898 -0.59018552 -0.29886034 0.0017776923
-0.016637526 0.035696477 -0.0038309742 0.29218036 0.9436962 -0.15513894 0.001788018
-0.013725355 0.034789734 -0.0042095301 0.25215688 0.95252299 -0.17063652 0.0021108403
-0.010481995 0.034161471 -0.0036838499 0.20669296 0.95874298 -0.19516645 0.002241144
-0.0075161853 0.033602048 -0.0036506446 0.15175958 0.98106879 -0.12030422 0.0015887776
-0.0051572705 0.033362057 -0.0033528332 0.13599443 0.98225904 -0.12912247 0.0017928954
-0.0025581243 0.033031456 -0.0031486868 0.1050147 0.95739114 -0.26902437 0.0021407621
0.013762312 0.033202 -0.0034176847 -0.13725461 0.98116624 -0.13591896 0.0022558649
0.016597494 0.033579051 -0.0039588292 -0.18635875 0.9621132 -0.19901909 0.0020562932
0.019512258 0.034300748 -0.0040032151 -0.24132094 0.94740862 -0.21019299 0.0018509984
0.022554696 0.035074353 -0.004204947 -0.27462268 0.93946725 -0.20489909 0.0014853986
0.024965011 0.035770062 -0.0042919186 -0.30508122 0.9292897 -0.20819722 0.001826039
0.027214115 0.035925683 -0.0059157615 -0.30503494 0.86796963 -0.39189589 0.0011322099
-0.06920857 0.038582884 -0.0035547656 -0.82446361 -0.49358326 -0.27683103 0.0030140108
-0.068105005 0.037364308 -0.0042166109 -0.79678071 -0.52522898 -0.2987892 0.0022696492
-0.024748502 0.038577422 -0.0039216583 0.38212416 0.91757238 -0.10973674 0.0014600864
-0.022476513 0.037676096 -0.0039533358 0.35310027 0.92404556 -0.14649244 0.0012644379
-0.019646579 0.036644019 -0.0039487546 0.32341209 0.93238181 -0.1614584 0.0013635871
-0.017524229 0.036188699 -0.003054563 0.26434094 0.95349598 -0.14480792 0.0031373845
0.026400261 0.036392644 -0.0036293601 -0.29153305 0.94278938 -0.1617305 0.0018617314
0.028426724 0.036981583 -0.003987317 -0.30737299 0.93594337 -0.17184836 0.0015943223
0.031745434 0.038102202 -0.0042530708 -0.36452025 0.91365808 -0.17987221 0.0020418931
0.033671342 0.038734477 -0.0047794972 -0.41181606 0.88703835 -0.20873527 0.0024252152
-0.070004627 0.040468033 -0.0040253634 -0.84460467 -0.4473733 -0.29410899 0.0019849511
-0.068609715 0.039318714 -0.0055128401 -0.82240522 -0.43317071 -0.36879903 0.0036118678
-0.031179233 0.041446149 -0.0040429202 0.42722341 0.88651025 -0.17770715 0.0012408071
-0.028497901 0.04016836 -0.0041188188 0.40220827 0.89318895 -0.20110202 0.00062613457
-0.026335781 0.039330937 -0.0036877296 0.38262248 0.90268612 -0.19687001 0.00058274751
0.035024464 0.039629698 -0.0040010912 -0.43315089 0.87735111 -0.20648341 0.0021222266
0.037459366 0.041072041 -0.0037190593 -0.4916313 0.86274958 -0.11816003 0.0016764409
0.039465684 0.041813809 -0.0050597056 -0.50653851 0.82309866 -0.25676346 0.0016284225
-0.072053134 0.044562705 -0.0032187104 -0.86909324 -0.31189236 -0.38392732 0.0026319437
-0.071160093 0.04341181 -0.0042288476 -0.88120592 -0.33041927 -0.3380816 0.0032085113
-0.036954872 0.044412982 -0.003932301 0.46578848 0.86951733 -0.16425806 0.0015915864
-0.034192231 0.042942867 -0.0039682221 0.45156574 0.88046497 -0.14446394 0.00092682266
-0.032772344 0.042361021 -0.0036042212 0.44300786 0.87957978 -0.173446 0.0014008227
0.040799696 0.043038741 -0.0039246706 -0.51846659 0.83549124 -0.18206283 0.0015150758
0.042866588 0.044121053 -0.0045549683 -0.52768111 0.82085508 -0.21851698 0.0016254111
-0.072525717 0.046684984 -0.0036081623 -0.89004928 -0.30349287 -0.34015346 0.0036135663
-0.071638457 0.046066809 -0.0048113889 -0.88730133 -0.3074984 -0.34371659 0.0031128658
-0.042861246 0.047494158 -0.004262262 0.47945109 0.86947 -0.11894815 0.001502292
-0.039958104 0.045964085 -0.0041044299 0.48278451 0.859842 -0.16610517 0.00080733281
-0.038157187 0.04515063 -0.0036360091 0.46638012 0.86964887 -0.16186538 0.0044089989
0.044244312 0.045317322 -0.003734794 -0.52695078 0.82841617 -0.1898673 0.0012678219
0.046490978 0.046665329 -0.0039516808 -0.53234583 0.82334435 -0.19675359 0.0013669806
0.048666567 0.047694836 -0.0047839279 -0.51391804 0.80639434 -0.29260302 0.0023950026
-0.073368944 0.049386185 -0.0035492869 -0.88117081 -0.36033547 -0.30609858 0.0026848384
-0.071849644 0.048037611 -0.0051936018 -0.86000079 -0.27845487 -0.42762312 0.0024277056
-0.048543852 0.050832178 -0.0036535682 0.47775292 0.87100911 -0.11443464 0.0017389586
-0.046472769 0.049517676 -0.004208711 0.47903052 0.86390758 -0.15554249 0.00076527183
-0.043862872 0.048375033 -0.0033314782 0.48254272 0.86890364 -0.11026799 0.0017320863
0.04944998 0.048610818 -0.0038098225 -0.52467513 0.81343657 -0.25107169 0.0020497208
0.051968031 0.050197639 -0.0040282006 -0.53788149 0.80640876 -0.24574061 0.00298965
0.054264247 0.050809942 -0.005649351 -0.48150456 0.77882594 -0.40197459 0.0031481232
-0.0751765 0.053885266 -0.0033477957 -0.88484126 -0.12069431 -0.44998765 0.029630443
-0.074123755 0.052237727 -0.0039654402 -0.84984744 -0.31418794 -0.42313746 0.0015415271
-0.054231327 0.053757142 -0.0036056759 0.38912451 0.89950323 -0.19868591 0.0016460659
-0.052227624 0.052745745 -0.0037117549 0.43826535 0.88704163 -0.14519213 0.0012151677
-0.050182361 0.051525038 -0.0041589751 0.46108729 0.87617624 -0.14040577 0.0017578413
0.053385198 0.051293463 -0.003671576 -0.53544778 0.81095457 -0.23589905 0.0028774112
0.055440485 0.052527107 -0.0037110401 -0.52912408 0.81560856 -0.23411612 0.0028639615
0.057667956 0.053372812 -0.0046496931 -0.50108224 0.78192961 -0.37081355 0.0034556575
-0.075394981 0.05584053 -0.003153651 -0.95127326 0.15948777 -0.26389939 0.040143918
-0.074874513 0.054087438 -0.0038062327 -0.8977983 -0.23642465 -0.37156636 0.010139217
-0.058264911 0.055148214 -0.0037840009 0.40089396 0.91056424 -0.10078131 0.004536571
-0.055391029 0.054166395 -0.00362884 0.38799027 0.91672271 -0.09530481 0.0028951624
0.058966301 0.054741185 -0.0037593222 -0.54207867 0.7523945 -0.37423676 0.0037114131
0.061224256 0.055934578 -0.004393368 -0.60773385 0.68475235 -0.40221107 0.0046498436
-0.073118158 0.058656856 -0.0033764329 -0.52168399 0.83368176 -0.18116437 0.014199232
-0.071175225 0.059601683 -0.0034479632 -0.44499218 0.8953532 -0.018018281 0.0013655388
0.062197261 0.057407178 -0.0035695103 -0.71548194 0.66197747 -0.22331911 0.01159928
0.06381616 0.058856048 -0.0038601873 -0.79964077 0.55314797 -0.23367076 0.014621965
-0.069921874 0.060124882 -0.0033230907 -0.32894328 0.94386315 -0.03031032 0.0095160678
0.06500636 0.061530475 -0.0033539701 -0.87785006 0.45165166 -0.15934248 0.015206946
0.065796018 0.064393699 -0.0030325148 -0.91675669 0.31104311 -0.25061807 0.012513205
0.066249095 0.064086959 -0.0035288869 -0.90458918 0.32849318 -0.27168137 0.015276154
0.067272976 0.068428785 -0.0033487973 -0.94376248 0.1976071 -0.26507321 0.016843125
0.068135269 0.073691599 -0.0034331961 -0.97421163 0.19095682 -0.12019664 0.020821234
0.068689167 0.075696804 -0.0038464325 -0.94797963 0.30661276 0.085576572 0.039004318
0.071062028 0.07644628 -0.0037234565 0.12335134 0.9922871 0.012273833 0.035273936
0.073107257 0.075844862 -0.0036872181 0.23759153 0.96998215 0.051814973 0.022911971
-0.01629228 0.0026453915 -0.0010241014 -0.23348352 -0.96700227 -0.10194144 0.001581675
-0.013574383 0.002028252 -0.0013463496 -0.21248043 -0.97498882 -0.06518288 0.0013238416
-0.010638761 0.0014167692 -0.00110932 -0.17191008 -0.9849602 -0.017330678 0.0023141566
-0.0074985204 0.0009351371 -0.0012000243 -0.13889362 -0.99015355 -0.017449819 0.0029107011
-0.0047924872 0.00061966619 -0.001016959 -0.096590847 -0.99518889 -0.016408013 0.0019846288
-0.001261572 0.0003923258 -0.0014368608 -0.058021836 -0.99733895 -0.044141088 0.0026534901
0.0015849437 0.00027167573 -0.0010934549 -0.021890832 -0.99941087 -0.026433371 0.0027433492
0.0045391661 0.00025382798 -0.0010032261 0.025445435 -0.99967617 0.00028686019 0.0042563067
0.0074333637 0.00038185823 -0.0014176782 0.05535328 -0.99815118 0.025103189 0.0024885393
0.01101916 0.00059773179 -0.00089907116 0.097383007 -0.99439806 0.041097116 0.0029165877
0.013486978 0.00085909001 -0.0010462424 0.12614584 -0.98954654 0.069891885 0.0033905441
0.016388485 0.0012623215 -0.0012308188 0.15061498 -0.98793668 0.036002968 0.0025457738
0.019318998 0.0017395316 -0.0011632113 0.18261954 -0.98275477 0.029036477 0.0013970551
0.022273136 0.0023474684 -0.0013160537 0.19848885 -0.98010284 -0.00069460098 0.0010688402
0.024587287 0.00284677 -0.0010065368 0.22210129 -0.97502321 -0.00078814058 0.0013442639
-0.025049329 0.0056103091 -0.0011787149 -0.34866944 -0.922665 -0.1646779 0.0016474485
-0.022532975 0.0046923598 -0.0013871137 -0.32137895 -0.93058956 -0.17526723 0.00027155245
-0.019367326 0.0036268546 -0.0014953556 -0.27099463 -0.95807904 -0.092985883 0.0022217892
-0.017612988 0.0031114928 -0.0017835259 -0.26571274 -0.95745575 -0.1125844 0.0014745225
0.02629509 0.0033170569 -0.0013155752 0.26184881 -0.96510822 -0.0010791348 0.0014381227
0.028641561 0.0039780545 -0.0014108907 0.28964898 -0.95708418 -0.009659444 0.0011570984
0.031444237 0.0048076729 -0.0009660059 0.30314758 -0.9528988 -0.0092428857 0.0011575116
0.033899937 0.0056721107 -0.001383372 0.32864019 -0.94441932 -0.0082307439 0.0015463947
-0.033276644 0.0089178961 -0.00078499288 -0.3969115 -0.8872475 -0.23505984 0.0019350008
-0.031201884 0.0081517836 -0.0017058539 -0.37772787 -0.90034509 -0.21610267 0.00060896855
-0.028230796 0.0069190771 -0.0015349197 -0.35150853 -0.91083282 -0.21639174 0.00070583611
-0.026355391 0.0062244027 -0.0018877216 -0.35790989 -0.91172224 -0.20165087 0.00058303791
0.035439163 0.0062052561 -0.0010940949 0.36089706 -0.92967319 -0.073899284 0.0013877538
0.037424505 0.0070041656 -0.0011708975 0.38025975 -0.92487842 -0.0015523129 0.001053566
0.04038522 0.0082728742 -0.0012695952 0.41720945 -0.90880877 0.0016954956 0.0013290541
-0.039443851 0.011831488 -0.0012454365 -0.45870227 -0.85256368 -0.25045446 0.0023158463
-0.037480116 0.010885263 -0.0013965638 -0.43272474 -0.87690753 -0.20924285 0.0022910042
-0.034660134 0.0095986696 -0.0015090394 -0.38223168 -0.88993859 -0.24881363 0.00214838
-0.032832049 0.0090513481 -0.0029738143 -0.40802619 -0.87382126 -0.26448262 0.0032528844
0.041778632 0.0091167931 -0.0029456997 0.42546195 -0.89667428 -0.12230055 0.0030716318
0.043482095 0.0097106835 -0.0011393914 0.4515104 -0.89205724 0.019293077 0.0018383913
0.046499282 0.011282049 -0.0012343014 0.47888941 -0.87597489 -0.057731673 0.001189318
-0.043296855 0.014115482 -0.0017661086 -0.50966758 -0.82442069 -0.24610889 0.0017867527
-0.040744442 0.012661506 -0.0019448787 -0.45791903 -0.84742099 -0.26867798 0.0024844494
0.049199875 0.012788697 -0.00089671387 0.50763226 -0.86143953 0.015215872 0.0014509071
0.05208661 0.014589374 -0.0013256241 0.54542381 -0.8363173 0.055554777 0.0016317446
-0.048528355 0.017670801 -0.0014684716 -0.58213788 -0.77426404 -0.24825522 0.0021089984
-0.046470806 0.01620849 -0.001619719 -0.56289637 -0.79172337 -0.23732179 0.0014359344
-0.044772368 0.015086872 -0.0018907323 -0.5309602 -0.81024468 -0.24816281 0.0017431933
0.053345188 0.015456321 -0.0014264123 0.54776418 -0.83642524 0.018632533 0.0014130955
0.05548308 0.01694569 -0.0014351485 0.58773351 -0.80803221 0.040659551 0.0016354256
-0.051983226 0.020236937 -0.0013814393 -0.5893895 -0.77698803 -0.22115517 0.0014922242
-0.050019026 0.018815679 -0.0017281849 -0.59288496 -0.77289069 -0.22611356 0.0015710358
0.058506325 0.019232322 -0.001135004 0.62421483 -0.77379972 0.10765636 0.0018839698
0.06020556 0.020613149 -0.00085678668 0.66497678 -0.74176443 0.087129362 0.0021766732
-0.057082169 0.023960864 -0.00027511129 -0.62170738 -0.76735896 -0.15697184 0.00043580099
-0.055535167 0.022968113 -0.0015697964 -0.61774158 -0.76436967 -0.18475483 0.00072911126
-0.053406801 0.021331355 -0.0014915806 -0.59825236 -0.7741189 -0.20696363 0.0020110474
0.061255466 0.021626309 -0.00086413149 0.68786162 -0.72185957 0.075928867 0.001501611
0.06311781 0.023493817 -0.0011393398 0.74129844 -0.66579878 0.084785603 0.0023012937
-0.060201541 0.026801199 -0.00095148024 -0.69537389 -0.69842839 -0.16927175 0.00084427622
-0.058611784 0.025434811 -0.0013264394 -0.65659684 -0.73139066 -0.184251 0.00091858173
-0.056844085 0.024097055 -0.0023882263 -0.626607 -0.75806218 -0.18084642 0.00048914144
0.064158782 0.024683904 -0.0007142172 0.74670041 -0.65238404 0.12974435 0.0017305012
-0.063154943 0.029833356 -0.00087586651 -0.7454232 -0.65366244 -0.13065061 0.0007080108
-0.062048301 0.028719123 -0.0014618253 -0.74286348 -0.65984529 -0.11295134 0.00056483352
0.066759415 0.027993381 -0.00087955053 0.82586211 -0.55748338 0.084641382 0.0016412197
-0.064662144 0.031603429 -0.0010482792 -0.77494121 -0.62643421 -0.083942443 0.0013174845
-0.0011866221 0.032979559 -0.0029157579 0.10015579 0.99446762 -0.031670097 0.0017235673
0.0018444797 0.032912705 -0.0020390674 0.041674152 0.99516034 -0.08898966 0.0022353807
0.0046981685 0.032907452 -0.0016043234 0.0031974048 0.99798548 -0.063361712 0.0023528521
0.0070813168 0.032919038 -0.0016583563 -0.034379438 0.99783981 -0.055979449 0.0022733235
0.0098425476 0.03290756 -0.002812874 -0.07538949 0.99288952 -0.092123725 0.0016895782
0.068362236 0.030469511 -0.00063145353 0.86365235 -0.48646888 0.13210863 0.0020109769
0.06939353 0.032310292 -0.00035223996 0.86951119 -0.46742499 0.15957528 0.0030234903
-0.067033976 0.034570996 -0.0010145443 -0.80376107 -0.59383684 -0.036414068 0.0017237479
-0.065827563 0.033270359 -0.0019765561 -0.77231658 -0.6199795 -0.13839258 0.0014793677
-0.015528969 0.03582618 -0.0012978503 0.29178715 0.95619398 -0.023522014 0.0016455879
-0.013530473 0.03530141 -0.0012874826 0.2495015 0.96832383 -0.0099010756 0.00195738
-0.010583387 0.034624446 -0.0011164631 0.21934821 0.97532338 -0.025113564 0.0023898082
-0.0071840212 0.03395585 -0.0015093023 0.17346446 0.98479813 -0.0090976413 0.0033878894
-0.0046789944 0.033616222 -0.001248918 0.11966768 0.99270356 -0.01481124 0.0027242983
-0.0013586861 0.033220176 -0.0012458218 0.097453475 0.99405652 -0.048522718 0.0020696416
0.0016384112 0.033069097 -0.00064281933 0.028037049 0.99877822 -0.040694494 0.0027464791
0.0041110469 0.033024296 -0.00024728852 0.0039702426 0.99997026 -0.0066111162 0.0014030479
0.0083845798 0.033053238 -0.00091660209 -0.037360307 0.99910462 -0.01985299 0.0024757013
0.010644655 0.033182781 -0.0012771457 -0.07353428 0.99692667 -0.027017351 0.0026190064
0.013401133 0.033509128 -0.00098014274 -0.13054769 0.99143398 0.0039855773 0.0027114667
0.01637136 0.034029346 -0.0011727806 -0.20673674 0.97830069 0.013700419 0.0029912821
0.019657532 0.034848407 -0.0012419076 -0.25959033 0.9640761 0.056304391 0.0016515125
0.022738067 0.035706997 -0.00090743485 -0.28170806 0.95886022 0.035038769 0.0016536966
0.024020722 0.035897914 -0.0024767728 -0.28508618 0.95420331 -0.090675078 0.0028085972
0.070697919 0.035190154 -0.00025115232 0.92235267 -0.36512837 0.12628096 0.0024665988
-0.069537155 0.038098123 -0.0010733933 -0.85303998 -0.52174509 -0.010240231 0.0024931813
-0.068472825 0.036589283 -0.0013784604 -0.82017136 -0.56751502 -0.072426431 0.0018845113
-0.024302294 0.038868297 -0.0012620477 0.39711377 0.9171375 -0.034050625 0.0023767918
-0.022500396 0.038163748 -0.0012990074 0.35331434 0.93413049 -0.050688606 0.001608104
-0.019501949 0.037073586 -0.0013445094 0.32005239 0.94685519 -0.032121528 0.0012815419
-0.01701696 0.036291797 -0.0010382746 0.27918375 0.96018571 0.0099935886 0.0026523035
0.023757629 0.03603011 -0.00061743346 -0.27622429 0.95987409 -0.04839357 0.0025716545
0.02566272 0.036573913 -0.0010721849 -0.28725055 0.9572137 0.035058584 0.0017248198
0.028334465 0.037469942 -0.00079402054 -0.32176504 0.94659084 0.020811293 0.0014621222
0.031010175 0.03837087 -0.001364685 -0.35822499 0.93348962 0.01649346 0.0022725055
0.033020098 0.038986366 -0.0026337467 -0.35058844 0.92754698 -0.12940033 0.0028616821
0.071497813 0.037831385 -0.0008193056 0.94480538 -0.27504429 0.17802654 0.0032788294
-0.070995286 0.040610287 -0.00079052977 -0.89416516 -0.44762546 0.010008846 0.0030101044
-0.030540571 0.041654427 -0.001232582 0.44337776 0.89570618 -0.033565473 0.0018741622
-0.028580448 0.040729277 -0.0012804666 0.41562071 0.90854722 -0.04244291 0.0013197633
-0.025834747 0.039516047 -0.0012674812 0.38745326 0.92058289 -0.049064007 0.0017089091
0.032699093 0.039079186 -0.0010495484 -0.39470106 0.91852373 -0.022918243 0.0021902036
0.034730691 0.04001129 -0.0012426333 -0.44922435 0.89299423 -0.027546456 0.002272035
0.037143338 0.041357782 -0.0010717387 -0.50006616 0.86546421 -0.030091502 0.0019920501
-0.072455399 0.043988433 -0.00086881418 -0.93743497 -0.3472538 0.025110152 0.0034497778
-0.071814992 0.042419754 -0.0011548303 -0.91709524 -0.39833888 -0.016199093 0.0044190567
-0.03655399 0.044693772 -0.0015113993 0.48509905 0.8731432 -0.047958467 0.0015209048
-0.034552123 0.043652922 -0.0013034221 0.46060151 0.88602042 -0.053048342 0.0016614763
-0.032107588 0.042430449 -0.0011697103 0.42859939 0.90282518 -0.034775209 0.0019842584
0.038482841 0.042187534 -0.00085103372 -0.52321601 0.85150367 -0.034446027 0.00189186
0.040502056 0.043394372 -0.0013280846 -0.5332405 0.84508276 -0.038595065 0.0015992025
0.042405859 0.044647094 -0.0012206975 -0.54490584 0.8383764 -0.014231081 0.0013530731
-0.073319897 0.046555784 -0.0011149502 -0.93766767 -0.34685281 0.021738576 0.004613684
-0.042257525 0.047811758 -0.0014118596 0.49106416 0.86804193 -0.073206298 0.0020031244
-0.040604472 0.046934593 -0.0011859643 0.49218464 0.87038642 -0.013481395 0.0018323384
-0.037984788 0.045482546 -0.0011233549 0.47055539 0.882195 -0.01759523 0.0014523003
0.043928642 0.045648582 -0.0012076646 -0.53984255 0.84176064 -0.0029944957 0.0016554612
0.046305116 0.047194418 -0.001090419 -0.55331361 0.83286726 -0.013265484 0.0015308614
-0.075112551 0.050712962 -0.00063788972 -0.92445618 -0.38128784 0.00062100502 0.012565977
-0.074344635 0.049187336 -0.00078529655 -0.90780765 -0.39065847 0.15254939 0.0071095568
-0.046338096 0.050147608 -0.0013559504 0.48893219 0.87210459 -0.019466473 0.0020923219
-0.043654691 0.048651338 -0.0011646346 0.47964448 0.87742114 -0.0085686604 0.0021015073
0.047753695 0.048181038 -0.00095731142 -0.56219828 0.82699347 -0.0038606827 0.0014670986
0.049556717 0.049361609 -0.0011476212 -0.55382675 0.83256549 -0.010514686 0.0018651182
0.051417686 0.050667956 -0.00093093677 -0.55672091 0.83065206 0.008887846 0.002040131
-0.075827815 0.052377146 -0.00082386826 -0.94549662 -0.31092408 0.096760146 0.0097709969
-0.074755967 0.051278628 -0.0025938195 -0.91000152 -0.30686712 -0.27880079 0.0092915017
-0.05238983 0.053438708 -0.0012468611 0.45675728 0.8895911 -0.00066089618 0.0026143051
-0.049461275 0.05185565 -0.0014063758 0.46842682 0.88350177 0.00093091925 0.0025846979
-0.047876682 0.051126339 -0.00015010848 0.44981545 0.89284474 -0.022233516 0.0075194146
0.053004943 0.051721577 -0.0011375514 -0.55023301 0.83465642 0.024339572 0.0020187369
0.055318847 0.053246692 -0.0010497038 -0.56168944 0.82626677 0.042287871 0.0027895134
-0.076502554 0.054986935 -0.00058852229 -0.98159593 0.14476143 0.12455299 0.054916423
-0.060542602 0.056766279 -0.0014389069 0.46241599 0.88114309 0.098784104 0.0070162434
-0.058357615 0.055888366 -0.0010459266 0.40090415 0.91456902 0.05328628 0.0035667624
-0.055468943 0.054870665 -0.00078508258 0.36007652 0.92723423 0.10286631 0.0026802192
-0.053774584 0.054179434 -0.00064275 0.40801737 0.91291708 0.010210506 0.0031607703
0.056747373 0.054199081 -0.00091461727 -0.57547885 0.81775379 0.010137764 0.0041140784
0.05850919 0.055440895 -0.00092339225 -0.59175885 0.80281442 0.072872996 0.0046852645
0.060237229 0.056716491 -0.0012417658 -0.65398508 0.75647688 -0.0067970632 0.0099967699
-0.075808913 0.057362903 -0.00075613271 -0.85489959 0.51504725 0.062234137 0.056283355
-0.07349664 0.058604509 -0.0014062903 -0.50440621 0.86346596 0.00093899836 0.0068174242
-0.07134334 0.059679877 -0.0013236607 -0.37418616 0.92193645 0.10008962 0.0070697255
-0.064170539 0.059256651 -0.0007274836 0.50268841 0.85322887 0.13894185 0.0031279922
-0.06227972 0.05801459 -0.00067603728 0.50596273 0.83922219 0.1992685 0.0028978884
0.061675277 0.058334146 -0.00095688098 -0.77915561 0.61004311 0.14409654 0.01249428
0.063216671 0.059562922 -0.0024499844 -0.79910856 0.59488314 -0.086830296 0.017649507
-0.070002429 0.060336068 -0.001550501 -0.26784036 0.95851016 0.097569264 0.017629381
-0.067922123 0.060860943 -0.00076101755 -0.037812453 0.99861264 0.036646023 0.019349528
-0.065775529 0.060191356 -0.00079566299 0.31554365 0.94843596 0.030024897 0.025189225
0.062875368 0.060100276 -0.00058831065 -0.81148845 0.5527876 0.18950571 0.015010557
0.063739173 0.061731149 -0.00079458673 -0.88220537 0.42227492 0.20832089 0.01359944
0.064611688 0.0644252 -0.0008044666 -0.91441071 0.29120672 0.2811614 0.011130922
0.065311797 0.067364328 -0.0006495706 -0.90610093 0.23931372 0.34886983 0.01840068
0.066286318 0.06796632 -0.0024235547 -0.96834558 0.21687371 -0.12358218 0.012989034
0.075053945 0.068556882 -0.00022240565 0.66261142 -0.26633584 0.70000815 0.028342701
0.065861955 0.069683172 -0.00064929796 -0.88756263 0.20737749 0.4113723 0.027233373
0.066257089 0.07105688 -0.00084747496 -0.87828761 0.22463845 0.42207643 0.020538328
0.066730887 0.073705092 -0.00082323136 -0.89303207 0.19201909 0.40696737 0.014727537
0.076298892 0.074849203 -0.0009184205 -0.70283902 0.69790024 0.13766848 0.04631022
0.067342825 0.076299876 -0.00086613832 -0.82023859 0.35192648 0.45095059 0.03957868
0.070590146 0.076619089 -0.0017081465 0.057670601 0.99797899 -0.026686288 0.041016854
0.073574796 0.075701177 -0.0014787113 0.34780955 0.93610048 0.052386932 0.0067141154
0.075318195 0.07516522 -0.0015658438 0.41862062 0.90511858 0.074277893 0.027836764
-0.018585773 0.002882957 0.0025983721 -0.23698337 -0.97101307 0.031183872 0.0069210739
-0.016297074 0.0024275293 0.0017470408 -0.20480835 -0.97850674 0.024046097 0.0049287328
-0.013301039 0.001818449 0.001702041 -0.17393738 -0.98106736 0.085162915 0.0029891026
-0.010699218 0.0013744696 0.0012950336 -0.15277271 -0.98188752 0.11206008 0.0031959235
-0.0075684697 0.00092947035 0.0016368367 -0.11472993 -0.98113513 0.15559854 0.0045406395
-0.0047436231 0.00068203831 0.0019296985 -0.070447512 -0.97140175 0.22675081 0.0029038468
-0.0014872906 0.00040327368 0.0013906213 -0.042478207 -0.99401003 0.10069537 0.0032054111
0.001687612 0.00039146253 0.0018690262 -0.0055331481 -0.97923237 0.2026654 0.0038288112
0.0046764691 0.00044729226 0.0021796869 0.032484584 -0.96036798 0.27683574 0.0024592704
0.0073386841 0.00045533359 0.0017885679 0.061782818 -0.95996004 0.27323917 0.0031823628
0.010744414 0.00075196545 0.0021087567 0.088769659 -0.94998455 0.29941517 0.0029721344
0.013230357 0.00090804859 0.0016577729 0.10912369 -0.94864023 0.29694059 0.0026132721
0.016051821 0.0012980391 0.0017361423 0.13061902 -0.95527762 0.2652984 0.001987101
0.018845802 0.0017843704 0.0019381653 0.14195588 -0.94945312 0.27997726 0.0022732317
0.022547016 0.0024470438 0.0015667073 0.19845071 -0.96466458 0.17331916 0.0020303389
0.024568971 0.002901243 0.0015813753 0.21446291 -0.96216649 0.16805151 0.0023862252
-0.027624873 0.0056484258 0.0025498266 -0.31124967 -0.9499234 0.027736071 0.0085266531
-0.025570486 0.0050418489 0.0023102094 -0.31309432 -0.94408786 0.10329532 0.0060105794
-0.022523327 0.0040600444 0.0024342819 -0.29660854 -0.93815064 0.17859639 0.002621534
-0.019824658 0.0033389914 0.001844498 -0.27843395 -0.9599613 0.03080168 0.0035317435
-0.017774988 0.0030217874 0.00027508414 -0.22862557 -0.97154814 -0.061844148 0.0016535668
0.025856942 0.0032453178 0.0018113811 0.25937316 -0.94909155 0.17874753 0.0021891203
0.028354321 0.0039380607 0.0017495786 0.26957384 -0.94631779 0.17836066 0.0019705074
0.031608202 0.0049396846 0.001768605 0.30268282 -0.93021089 0.20758334 0.002486577
0.0338686 0.0056756767 0.0014811599 0.31507149 -0.94104505 0.12314245 0.0022603851
-0.036392193 0.0089719836 0.0027545814 -0.38105837 -0.89514488 0.23132282 0.0039111637
-0.034478225 0.0082094008 0.0026885513 -0.3640157 -0.91880149 0.15263149 0.0049099848
-0.031529203 0.0071277162 0.0024607303 -0.34873757 -0.91370934 0.20860805 0.0017666391
-0.029082131 0.0063864444 0.0019241476 -0.34126061 -0.93988663 0.012423467 0.0056269849
-0.026670843 0.0061706482 0.00037096982 -0.31095096 -0.94068438 -0.13572942 0.0039765006
0.035197135 0.0062767644 0.0022088469 0.33692986 -0.89828438 0.28207025 0.0018288289
0.037414756 0.0070479959 0.0016941695 0.3800815 -0.91690862 0.12172315 0.001703072
0.040421885 0.0083109634 0.0015505148 0.39954951 -0.9092685 0.11657994 0.0018839854
0.042069659 0.0089427475 0.00050890271 0.42759213 -0.90111393 0.071824104 0.0043607973
-0.042400427 0.011905353 0.0024967417 -0.47243103 -0.87867159 0.068884574 0.0086173238
-0.04050032 0.010987235 0.002472973 -0.4456999 -0.88638616 0.12518449 0.0063331896
-0.037693623 0.0097381007 0.0022572151 -0.42604747 -0.90282971 0.058155809 0.0044622459
-0.034699153 0.0094955191 0.00020444102 -0.38946223 -0.88738388 -0.2467164 0.0029986412
0.041797254 0.0091003729 0.0028751011 0.44420359 -0.87834948 0.176594 0.0048512416
0.043468982 0.0097603751 0.0017037321 0.43312117 -0.89319712 0.12085126 0.0016930824
0.046383291 0.011237952 0.0014625536 0.46146989 -0.87761348 0.12976953 0.0020348744
-0.046254713 0.014273039 0.0026978981 -0.5327602 -0.82489699 0.18897499 0.0041610962
-0.043612957 0.01287836 0.0022737579 -0.50971967 -0.85624516 0.083845221 0.0040031085
-0.040840484 0.012504796 0.00022884803 -0.45857856 -0.84200478 -0.28413677 0.0051225908
0.047849562 0.01215855 0.002399273 0.48112136 -0.86203092 0.15945236 0.0020726146
0.049604867 0.013097356 0.0016803113 0.50484502 -0.8515873 0.14117561 0.0015866651
0.051915277 0.014523655 0.0016582416 0.53087711 -0.83918136 0.11808509 0.0020434121
-0.051296193 0.017872993 0.0028096845 -0.59000075 -0.80065095 0.10419806 0.0063072033
-0.049273662 0.016511191 0.0024811241 -0.57606047 -0.81091386 0.10282526 0.0059578512
-0.04729636 0.015766853 0.001530466 -0.58829945 -0.80710483 -0.049855098 0.0041719098
0.053359658 0.015495931 0.0018043364 0.56778538 -0.81411397 0.12181244 0.0020823847
0.055523831 0.016982434 0.0015002115 0.58303118 -0.80064046 0.13802001 0.0022126695
-0.054794807 0.020643383 0.0026338743 -0.64521164 -0.7631309 0.036511946 0.0043812441
-0.052709229 0.019269451 0.0023647489 -0.6066913 -0.79100502 0.078973562 0.0035827961
-0.050149582 0.018732704 0.00019338129 -0.57924157 -0.75872499 -0.2980195 0.0039548622
0.058518369 0.019325385 0.0017021444 0.62554717 -0.75561398 0.19426328 0.0014422811
0.060283374 0.020826429 0.0017529005 0.64338219 -0.73337859 0.21957977 0.0025377122
-0.057953298 0.023385871 0.0025691781 -0.69743949 -0.71316165 -0.070559762 0.0058104033
-0.055685252 0.02265027 0.0008232625 -0.60571456 -0.76759464 -0.20954317 0.0037374492
-0.05355135 0.021288972 0.00048632582 -0.59632069 -0.75441962 -0.2743223 0.0048872251
0.061671749 0.022214202 0.0019775161 0.69226772 -0.68974566 0.21217075 0.0020502955
0.063179508 0.023714516 0.0018151661 0.72770125 -0.6615088 0.18126513 0.0033173754
-0.060540158 0.026486879 0.0016581237 -0.71933633 -0.68443853 -0.11873972 0.0013929388
-0.058972355 0.025291536 0.0011084753 -0.68503422 -0.71293408 -0.14984342 0.0017951933
0.064567 0.02531188 0.0017156132 0.75028551 -0.62290692 0.22149187 0.0018446179
-0.063264847 0.029716637 0.0012634876 -0.76467019 -0.64067918 -0.069351457 0.0007089249
-0.062157344 0.028555235 0.00096565147 -0.74810332 -0.65644312 -0.097076826 0.00057846267
0.065814033 0.027093183 0.002746975 0.78272486 -0.57256472 0.24394982 0.0043072295
0.067211553 0.028905844 0.001910179 0.81083637 -0.51589358 0.27640224 0.0020523393
-0.064790383 0.031614076 0.0010045222 -0.79073715 -0.6112178 -0.033876438 0.0011081493
-0.00069494359 0.032917131 0.0027578587 0.09005934 0.96196342 0.25790635 0.0026863446
0.0016403943 0.032896996 0.002036324 0.055579443 0.96987063 0.23719588 0.0027219469
0.0044949776 0.032893874 0.0015927862 0.015848404 0.97020495 0.24176678 0.0021279582
0.0074114315 0.032890625 0.0017337576 -0.048156261 0.97022033 0.23738879 0.0025350663
0.010258425 0.032934189 0.0025993199 -0.076605804 0.96361095 0.25609654 0.0027816012
0.068323672 0.030913565 0.0023676583 0.82466376 -0.456954 0.3333509 0.0016581444
0.069156848 0.032392427 0.0022133216 0.83713752 -0.43961182 0.32548758 0.002084234
-0.067165248 0.03467989 0.0013986347 -0.80965316 -0.58540982 0.041917469 0.0015456859
-0.065915145 0.033110753 0.0013140202 -0.80237579 -0.59678733 0.0061565558 0.0016510533
-0.01559823 0.03576972 0.0019006599 0.28841054 0.93285775 0.2158605 0.0012991809
-0.013733884 0.035241012 0.0020125289 0.24849473 0.94199318 0.22560889 0.0012797648
-0.010670101 0.034539774 0.0018766009 0.20582402 0.95215636 0.2259087 0.001920432
-0.0072713485 0.03392059 0.0016099085 0.17484835 0.96223801 0.20862915 0.002929609
-0.0043971031 0.033436619 0.0020649708 0.12725823 0.96594369 0.22529568 0.0029996745
-0.0020518275 0.033288699 0.00091039151 0.095249996 0.98209345 0.16254166 0.0017369416
0.00079644867 0.033077929 0.00092819252 0.039054595 0.99205512 0.11958881 0.0034657517
0.004654225 0.03301727 0.00017618272 0.014331685 0.99967384 0.021140832 0.0010117762
0.008245158 0.033036802 0.00074622588 -0.036568828 0.99759334 0.058908094 0.0027421284
0.0106517 0.033165634 0.0011624037 -0.081653833 0.99059945 0.10975159 0.0030560952
0.013566836 0.033439547 0.0016105704 -0.14147945 0.96582574 0.21717328 0.0022823946
0.016522661 0.033982158 0.0016071255 -0.20254293 0.96275258 0.17911938 0.0026042406
0.019497046 0.034715157 0.0016899749 -0.25526312 0.9538759 0.15799217 0.0023817609
0.022513689 0.035525948 0.0017287242 -0.27638388 0.9456439 0.17137522 0.0020696006
0.024281604 0.035924468 0.0025391702 -0.27953002 0.94393659 0.17563221 0.0025324714
0.070018701 0.034397338 0.0023393135 0.87206572 -0.36080146 0.33064136 0.0022742923
-0.069527298 0.038202405 0.0016185091 -0.85884923 -0.48149401 0.17476118 0.0031053799
-0.068607599 0.036777593 0.0017159828 -0.84145159 -0.52847314 0.11258481 0.0013635985
-0.024742037 0.038900118 0.0022352771 0.38924745 0.89324927 0.22492698 0.0014002912
-0.022485891 0.038085189 0.0019319329 0.34794134 0.91090411 0.22178942 0.0012298189
-0.019351376 0.036962304 0.0018141627 0.30943426 0.92586201 0.21686417 0.0013562116
-0.017167972 0.036270179 0.0014839107 0.28103325 0.94882369 0.14406201 0.0018299372
0.023871988 0.036053158 0.00050959422 -0.27978677 0.95581412 0.090215512 0.0030897227
0.025698263 0.036501694 0.0015672924 -0.28587636 0.94685674 0.14743492 0.001930305
0.028606568 0.037446264 0.0016882566 -0.31700996 0.93335569 0.16837995 0.0021735977
0.031526688 0.038489051 0.0016851467 -0.36133575 0.92267776 0.13454485 0.0025583773
0.03324179 0.038918614 0.0029748685 -0.40132296 0.90585399 0.13553056 0.0027175739
0.071178705 0.037429221 0.0020719622 0.91743338 -0.2664631 0.29548833 0.0025303611
-0.070795126 0.040582787 0.0018896691 -0.88297385 -0.40166938 0.2429381 0.0034124115
-0.03081462 0.041680381 0.0019313012 0.44679311 0.87998933 0.16122855 0.0014500536
-0.028449994 0.040602174 0.0017268464 0.41639775 0.89553386 0.15694609 0.0014815112
-0.025980327 0.03950097 0.001884648 0.37887096 0.89865762 0.22106853 0.0014713241
0.032886028 0.03911915 0.0011034359 -0.40152505 0.90704709 0.12666136 0.0030567697
0.034542199 0.039837759 0.0015707405 -0.439953 0.88645637 0.14365448 0.0027542734
0.037234958 0.041295402 0.0017132857 -0.50218618 0.85222894 0.14667925 0.0024214489
0.071815617 0.040145133 0.0020159192 0.93565166 -0.18176797 0.30251679 0.0023381887
0.07212846 0.041572079 0.0016886127 0.93560964 -0.14831738 0.32036945 0.0029999691
-0.072338827 0.044058811 0.001528822 -0.91023183 -0.32132855 0.26120129 0.0038674511
-0.071742013 0.042779576 0.0020922378 -0.89287984 -0.36552611 0.26297572 0.0032985243
-0.036663096 0.044671148 0.001714762 0.48972058 0.86452979 0.11296943 0.0018377648
-0.034190141 0.043381933 0.0018877977 0.43622327 0.86731744 0.23972839 0.0014333415
-0.03215586 0.042399127 0.0013455456 0.4239299 0.89855349 0.11351281 0.0018567286
0.038651906 0.042242028 0.0011267138 -0.52900755 0.83565634 0.14774789 0.0028129353
0.04048194 0.043302726 0.0016210675 -0.5264706 0.83797503 0.14361921 0.0027766672
0.042614963 0.044648975 0.0018799512 -0.54610133 0.82319307 0.15532738 0.0021078684
0.072313711 0.043543831 0.0018606668 0.91940767 -0.095585011 0.38151428 0.002024129
-0.073116712 0.046521161 0.001751826 -0.89510256 -0.29095155 0.33784404 0.0053481907
-0.042342301 0.047798455 0.0017532647 0.4983218 0.85622513 0.13621242 0.0021689299
-0.040403049 0.046751089 0.001807153 0.46556276 0.84746087 0.25507122 0.0018782364
-0.038265593 0.045504 0.0020406905 0.45369726 0.85812038 0.24039167 0.0016190193
0.044022605 0.045619134 0.0015131518 -0.52809542 0.83667821 0.14520647 0.0026215087
0.046264816 0.047037855 0.0017793219 -0.53744668 0.82459128 0.17663637 0.0028494336
0.048081066 0.047828037 0.0029719854 -0.51898891 0.79890621 0.30397269 0.0015360074
0.0724594 0.046302319 0.0020928325 0.913131 -0.047038361 0.40494338 0.0025966119
-0.075145878 0.05085082 0.00084248313 -0.85547078 -0.37146223 0.36081231 0.0080902195
-0.074143834 0.049475417 0.0018784852 -0.86190218 -0.33724409 0.37867019 0.0077516376
-0.048093393 0.05083707 0.0027272308 0.47170237 0.86771947 0.15671596 0.0037806237
-0.046771992 0.050256852 0.0019313252 0.48189488 0.84943944 0.21501155 0.0021669036
-0.043826457 0.048664 0.001574229 0.46974811 0.87237608 0.1352652 0.0024735767
0.047778443 0.048118204 0.0011934274 -0.53852248 0.82661998 0.16337976 0.0037862961
0.049549613 0.049234021 0.0016467826 -0.54178602 0.81711942 0.19693603 0.0029722385
0.051616736 0.050563186 0.0020693091 -0.54164505 0.81701255 0.19776551 0.0032685909
0.072471425 0.049872071 0.0021657769 0.87015307 0.027523264 0.49201229 0.0019321294
